# .PCD v0.7 - Point Cloud Data file format
VERSION 0.7
FIELDS x y z
SIZE 4 4 4
TYPE F F F
COUNT 1 1 1
WIDTH 1492
HEIGHT 1
VIEWPOINT 0 0 0 1 0 0 0
POINTS 1492
DATA ascii
0.18254553 0.33478707 1.8940001
0.11905143 0.38962287 1.8940001
-0.16414666 0.42930666 1.8940001
-0.15512761 0.42569908 1.8940001
-0.14340287 0.42479718 1.8940001
-0.13528571 0.42389524 1.8940001
-0.12716857 0.4229933 1.8940001
-0.11544381 0.42209142 1.8940001
-0.10822857 0.42209142 1.8940001
-0.090190478 0.42209142 1.8940001
-0.086582862 0.42209142 1.8940001
-0.061329525 0.42569906 1.8940001
-0.045095243 0.42569906 1.8940001
-0.03788 0.42750284 1.8940001
-0.19120382 0.43652192 1.8940001
-0.18398857 0.43652195 1.8940001
-0.17496952 0.43652192 1.8940001
-0.16775429 0.43291429 1.8940001
-0.033671111 0.43411684 1.8940001
-0.014430476 0.43652192 1.8940001
-0.0072152382 0.43652192 1.8940001
-0.19120382 0.44373715 1.8940001
-0.18398857 0.44373718 1.8940002
-0.17677332 0.44193333 1.8940001
-0.026155237 0.44103146 1.8940001
-0.012626667 0.44012955 1.8940001
-0.004509524 0.44283524 1.8940001
0.0025768708 0.44425255 1.8940002
-0.20202667 0.45816764 1.8940001
-0.19120382 0.45456001 1.8940001
-0.18443953 0.45410904 1.8940001
-0.17677332 0.45456001 1.8940001
-0.012626667 0.45456001 1.8940001
-0.0048101591 0.45335746 1.8940001
0.0030063493 0.45456001 1.8940001
0.010822858 0.45816764 1.8940001
-0.20202667 0.46177524 1.8940001
-0.19120382 0.4653829 1.8940001
-0.18501933 0.4653829 1.8940002
0.0048101591 0.46538287 1.8940001
0.011724763 0.46628475 1.8940001
-0.010822858 0.47620574 1.8940001
0.0057721906 0.47692725 1.8940001
0.013399729 0.47569039 1.8940002
-0.010822858 0.48702857 1.8940001
-0.0036076191 0.48702857 1.8940001
0.0036076191 0.48462352 1.8940001
0.010822858 0.48342097 1.8940001
-0.012987429 0.49496537 1.8940001
-0.0072152382 0.49243999 1.8940001
0.22304001 0.018133335 1.904
0.19765332 0.029013334 1.904
0.20490667 0.029013334 1.904
0.21336889 0.025386667 1.9040002
0.22122668 0.02176 1.904
0.19765332 0.032639999 1.904
0.20490667 0.036266666 1.9040002
0.20430224 0.04472889 1.904
0.20454399 0.054400004 1.9040002
0.19946666 0.067093335 1.904
0.20454399 0.064554662 1.9040002
0.19946666 0.077973336 1.904
0.20454402 0.076885335 1.9040002
0.18858667 0.08704 1.904
0.19584 0.08704 1.904
0.20490667 0.08522667 1.904
0.19946666 0.097920001 1.904
0.20454399 0.093568005 1.9040002
0.19674666 0.10789333 1.904
0.20309334 0.10336 1.904
0.18858667 0.11968 1.904
0.19511467 0.11460268 1.9040002
0.18858667 0.12693334 1.904
0.19221334 0.12512 1.904
0.19584 0.13418667 1.904
0.19584 0.14506668 1.904
0.18737778 0.15715556 1.904
0.19584 0.15232 1.904
0.18568534 0.16465068 1.9040002
0.18858667 0.17226666 1.904
0.19584 0.17045332 1.904
0.19342224 0.18616889 1.904
0.18713599 0.19656533 1.9040002
0.19402668 0.19584 1.9040002
0.17589334 0.20671999 1.904
0.18568534 0.20526934 1.9040002
0.19511467 0.20526934 1.9040002
0.17589334 0.21216002 1.904
0.18495998 0.21397334 1.9040002
0.19584 0.21034667 1.904
0.18677333 0.22304001 1.904
0.18858667 0.27381337 1.904
0.18314667 0.31733334 1.904
0.18737778 0.32398224 1.904
-0.092480004 0.41706666 1.904
-0.17045332 0.42794669 1.904
-0.16501334 0.42794669 1.904
-0.15522133 0.42286935 1.9040002
-0.14579201 0.42214403 1.9040002
-0.13600001 0.42069334 1.904
-0.12512 0.42069334 1.904
-0.11605334 0.42069334 1.904
-0.10517333 0.42250666 1.904
-0.094293334 0.42250669 1.904
-0.08522667 0.42250669 1.904
-0.077066667 0.42341334 1.904
-0.066488892 0.42311114 1.904
-0.045937777 0.42311114 1.904
-0.032639999 0.42794669 1.904
-0.029013334 0.42794669 1.904
-0.20490667 0.43701333 1.904
-0.19629332 0.43474668 1.9040002
-0.18496001 0.43338668 1.9040002
-0.17480533 0.43302399 1.9040002
-0.032639999 0.43157333 1.904
-0.025386667 0.43701336 1.9040002
-0.014506668 0.43610665 1.904
-0.0048355558 0.43640888 1.904
0.0018133334 0.43701333 1.904
-0.21216001 0.44970667 1.904
-0.20490667 0.44608003 1.9040002
-0.19765334 0.44608003 1.9040002
0.0072533335 0.44426668 1.904
0.011786667 0.44698668 1.904
-0.21034667 0.45696002 1.904
-0.20490667 0.45514667 1.904
-0.19765332 0.45514667 1.904
0.0072533335 0.45514667 1.904
0.014506668 0.45514667 1.9040002
-0.21276447 0.46360892 1.9040002
-0.20551112 0.46421337 1.904
-0.19765334 0.46421334 1.9040002
0.016320001 0.46421334 1.9040002
-0.20309334 0.47146666 1.904
-0.19765332 0.47146666 1.904
0.018133335 0.47509333 1.904
0.0036266667 0.4896 1.904
0.015715558 0.48718223 1.9040002
-0.01088 0.49322665 1.904
-0.0036266667 0.49504 1.904
0 0.49504 1.904
0.079786666 0.5041067 1.904
0.083413333 0.50592005 1.904
0.077973336 0.51861334 1.904
0.078577779 0.52344888 1.904
0.21885714 0.027357144 1.9150001
0.22250476 0.025533335 1.9150001
0.21338573 0.034652382 1.9150001
0.20791429 0.047419049 1.9150001
0.21156192 0.043771431 1.9150002
0.20791429 0.054714285 1.9150001
0.21302097 0.054714289 1.9150002
0.20791429 0.069304764 1.9150001
0.21338575 0.065657139 1.9150002
0.20791429 0.072952382 1.9150001
0.21338573 0.074776195 1.9150001
0.21338575 0.083895236 1.9150002
0.20791429 0.098485716 1.9150001
0.21302097 0.094108574 1.9150002
0.20700239 0.10669287 1.9150001
0.21156192 0.10395715 1.9150001
0.20499621 0.11526477 1.9150002
0.19697145 0.12401905 1.9150002
0.2020781 0.12328953 1.9150002
0.19697143 0.13131429 1.9150001
0.20244287 0.13587381 1.9150001
0.19697143 0.14590476 1.9150001
0.20322451 0.14642587 1.9150002
0.19514762 0.15684763 1.9150001
0.20426667 0.15502381 1.9150001
0.19514762 0.16414286 1.9150002
0.20061907 0.16414288 1.9150002
0.19478285 0.17581525 1.9150002
0.20061907 0.17508572 1.9150002
0.19575557 0.18481271 1.9150002
0.20305079 0.18724445 1.9150002
0.20335476 0.19423571 1.9150001
0.20353715 0.20499621 1.9150002
0.19478285 0.21593904 1.9150002
0.20061907 0.21520953 1.9150002
0.18238096 0.22432858 1.9150001
0.19514762 0.22250476 1.9150001
0.20061906 0.22250476 1.9150001
0.19332381 0.27721906 1.9150001
0.18967621 0.28451431 1.9150002
0.19332382 0.28451428 1.9150002
0.1896762 0.3064 1.9150001
0.18785238 0.31369525 1.9150002
0.1896762 0.32099047 1.9150001
0.19332381 0.32099047 1.9150001
-0.15684763 0.41947621 1.9150001
-0.14590478 0.41947621 1.9150002
-0.1349619 0.41856432 1.9150001
-0.12349796 0.4168708 1.9150002
-0.11526477 0.41582862 1.9150002
-0.10760476 0.41947621 1.9150001
-0.083895236 0.4176524 1.9150001
-0.074776188 0.41582859 1.9150001
-0.067480952 0.41947621 1.9150001
-0.1945397 0.42555556 1.9150002
-0.18602857 0.42494762 1.9150002
-0.17581525 0.42531243 1.9150002
-0.16414286 0.42494762 1.9150001
-0.13131429 0.42312384 1.9150001
-0.10213334 0.42312384 1.9150001
-0.098485716 0.42312384 1.9150001
-0.083895244 0.42312384 1.9150001
-0.074776188 0.42312384 1.9150001
-0.064441279 0.42433971 1.9150002
-0.053802382 0.42585951 1.9150001
-0.041339681 0.42433971 1.9150002
-0.034652382 0.42494762 1.9150001
-0.21429762 0.43680239 1.9150001
-0.20426667 0.43285081 1.9150002
-0.19514762 0.43041909 1.9150001
-0.18602857 0.43041909 1.9150002
-0.17690954 0.43041909 1.9150001
-0.02480381 0.43260765 1.9150002
-0.014590478 0.43224287 1.9150002
-0.0054714289 0.43224287 1.9150001
0.0036476194 0.43345878 1.9150002
0.012766667 0.43771428 1.9150001
-0.22372064 0.44379371 1.9150002
-0.21520956 0.44500956 1.9150001
0.0072952383 0.44136193 1.9150001
0.015632655 0.44448847 1.9150002
0.02279762 0.44592142 1.9150001
-0.22250476 0.45412859 1.9150001
-0.21593904 0.45595241 1.9150002
0.018238096 0.45230478 1.9150001
0.025077382 0.45640835 1.9150001
0.032828573 0.4596 1.9150001
0.024621429 0.46415955 1.9150001
0.047419049 0.46507144 1.9150001
0.051066671 0.46324766 1.9150001
-0.20791429 0.47054285 1.9150001
0.025533335 0.4741905 1.9150001
0.034652382 0.47419047 1.9150002
0.043771431 0.47419044 1.9150001
0.051978573 0.47327858 1.9150001
0.021885715 0.48513335 1.9150002
0.032828573 0.48148572 1.9150001
0.0072952383 0.4924286 1.9150001
0.021885715 0.4924286 1.9150001
0.083895244 0.49972382 1.9150001
0.0766 0.50701904 1.9150001
0.082071431 0.50337148 1.9150001
0.046507146 0.51522619 1.9150001
0.054714289 0.51477021 1.9150001
0.065049209 0.51553023 1.9150002
0.074776195 0.51431429 1.9150002
0.080247618 0.51249051 1.9150001
0.047419049 0.52343333 1.9150001
0.055626191 0.52343333 1.9150001
0.065657146 0.52525717 1.9150001
0.073864289 0.52616906 1.9150001
0.057450004 0.53711194 1.9150001
0.06513606 0.53515786 1.9150002
0.074776188 0.53255242 1.9150001
0.054714289 0.54531908 1.9150002
0.062009525 0.5434953 1.9150001
0.05745 0.55352622 1.9150001
0.083895236 0.5580858 1.9150002
0.062009525 0.56902862 1.9150001
0.083287306 0.56477302 1.9150002
0.067480952 0.58726668 1.9150001
0.22641668 0.026583333 1.9250001
0.23246668 0.0264 1.9250001
0.22366667 0.034833334 1.9250001
0.23393336 0.0352 1.9250001
0.21633336 0.044 1.9250001
0.22366667 0.044 1.9250001
0.23558334 0.045833334 1.9250001
0.21633334 0.055000003 1.9250001
0.22366667 0.055000003 1.9250001
0.23466669 0.055000003 1.9250001
0.22320834 0.06554167 1.9250001
0.23558334 0.063250005 1.9250001
0.22293334 0.075533345 1.9250001
0.24383333 0.07333333 1.9250001
0.22146669 0.083600007 1.9250001
0.21633334 0.099000007 1.9250001
0.22000001 0.095333338 1.9250001
0.21633334 0.1045 1.9250001
0.22000001 0.1045 1.9250001
0.21450001 0.11366667 1.9250001
0.20808333 0.12558334 1.9250001
0.20808333 0.13475001 1.9250001
0.20900001 0.14483333 1.9250001
0.21266666 0.14666666 1.9250001
0.20900001 0.15766667 1.9250001
0.21358332 0.15308335 1.9250001
0.22000001 0.15033334 1.9250001
0.20716667 0.16500001 1.9250001
0.20625001 0.17508334 1.9250001
0.20716667 0.18516667 1.9250001
0.20716667 0.19800001 1.9250001
0.20777778 0.20288889 1.9250001
0.20716667 0.2145 1.9250001
0.20716667 0.22183335 1.9250001
0.19433333 0.26766667 1.9250001
0.19616666 0.27408335 1.9250001
0.19800001 0.28600001 1.9250001
0.19677779 0.30677781 1.9250001
0.20166668 0.30433336 1.9250001
0.19433333 0.31349999 1.9250001
0.19677779 0.32511115 1.9250001
0.2035 0.32633334 1.9250001
0.19616666 0.33183333 1.9250001
0.2035 0.33183333 1.9250001
-0.18700001 0.41800001 1.9250001
-0.14300001 0.41800001 1.9250001
-0.13566667 0.41677779 1.9250001
-0.11183333 0.41800001 1.9250001
-0.20288891 0.42777777 1.9250001
-0.19433334 0.42288893 1.9250001
-0.18516667 0.42166668 1.9250001
-0.17508334 0.42258334 1.9250001
-0.16500001 0.4235 1.9250001
-0.15400001 0.42166668 1.9250001
-0.10266667 0.42166668 1.9250001
-0.099000007 0.42166668 1.9250001
-0.082500003 0.42166668 1.9250001
-0.075166672 0.42166668 1.9250001
-0.056833334 0.42533332 1.9250001
-0.027866667 0.42606664 1.9250001
-0.013933334 0.42753336 1.9250001
-0.0055 0.42716664 1.9250001
0.00275 0.42808333 1.9250001
-0.22366667 0.43633336 1.9250001
-0.21511112 0.43388891 1.9250001
-0.20716667 0.43266669 1.9250001
0.0073333336 0.43266669 1.9250001
0.013933334 0.43486673 1.9250001
0.022 0.43633336 1.9250001
-0.23100001 0.44550002 1.9250001
-0.2255 0.4436667 1.9250001
0.018333333 0.44000003 1.9250001
0.026714288 0.44314292 1.9250002
0.034833334 0.4436667 1.9250001
0.044 0.44366667 1.9250001
0.053166669 0.44366667 1.9250001
-0.23100001 0.45649999 1.9250001
-0.22733335 0.4546667 1.9250001
0.029333334 0.45283335 1.9250001
0.034833334 0.45466667 1.9250001
0.044 0.45466667 1.9250001
0.055000003 0.45466667 1.9250001
0.062333338 0.45283335 1.9250001
-0.22183335 0.46383333 1.9250001
0.0275 0.46933335 1.9250001
0.0352 0.4664 1.9250001
0.042952381 0.46514291 1.9250002
0.055458337 0.46566671 1.9250001
0.062333338 0.46383333 1.9250001
0.057444446 0.4754445 1.9250001
0.0275 0.48583335 1.9250001
0.035444446 0.48644447 1.9250001
0.043083332 0.48491669 1.9250001
0.055000003 0.48216665 1.9250001
0.014666667 0.4986667 1.9250001
0.026714288 0.49552387 1.9250002
0.034833334 0.49500006 1.9250001
0.040333334 0.49683335 1.9250001
0.084333338 0.4986667 1.9250001
0.034466665 0.50599998 1.9250001
0.044523813 0.50704765 1.9250002
0.054476194 0.50704765 1.9250002
0.06508334 0.50875002 1.9250001
0.075777784 0.50600004 1.9250001
0.080666669 0.50233334 1.9250001
0.028111113 0.51577777 1.9250001
0.034833334 0.51516664 1.9250001
0.042166665 0.51516664 1.9250001
0.055000003 0.51333332 1.9250001
0.067222223 0.51455557 1.9250001
0.027500002 0.52433342 1.9250001
0.034833334 0.52433336 1.9250001
0.0418 0.52506667 1.9250001
0.055000003 0.528 1.9250001
0.0275 0.53166664 1.9250001
0.035444446 0.53288889 1.9250001
0.044 0.53533334 1.9250001
0.053166669 0.5353334 1.9250001
0.075166672 0.53900003 1.9250001
0.044733334 0.54413337 1.9250001
0.051333334 0.54266673 1.9250001
0.067833334 0.54450005 1.9250001
0.075166672 0.54450005 1.9250001
0.080666669 0.54450005 1.9250001
0.066000007 0.55366671 1.9250001
0.075166672 0.55366671 1.9250001
0.082133338 0.55439997 1.9250001
0.066000007 0.56466669 1.9250001
0.075166672 0.56466675 1.9250001
0.080666669 0.56833333 1.9250001
0.058666669 0.57566667 1.9250001
0.06645833 0.57612503 1.9250001
0.075166672 0.57566667 1.9250001
0.082500003 0.57749999 1.9250001
0.058666669 0.58483332 1.9250001
0.066000007 0.58483332 1.9250001
0.07333333 0.58483332 1.9250001
0.058666669 0.59033334 1.9250001
0.066000007 0.59461111 1.9250001
0.07333333 0.59033334 1.9250001
0.23527013 0.042776383 1.9360001
0.23600763 0.055314288 1.9360002
0.24461208 0.057772703 1.9360002
0.23416382 0.066377148 1.9360001
0.24522668 0.064533338 1.9360001
0.22863239 0.071908571 1.9360001
0.23600765 0.073752381 1.936
0.24522668 0.073752381 1.9360001
0.22678858 0.084815241 1.9360001
0.23508573 0.082049526 1.9360001
0.24522668 0.081127621 1.9360001
0.22494477 0.094034292 1.9360001
0.22125715 0.11431621 1.9360002
0.21572575 0.12537907 1.9360001
0.21388192 0.13459811 1.9360001
0.22310096 0.13644192 1.9360001
0.21609449 0.14307962 1.9360001
0.22310099 0.14381714 1.9360001
0.21756953 0.15672381 1.9360001
0.22494477 0.15242161 1.9360002
0.21388192 0.16225524 1.9360001
0.21019429 0.17700572 1.9360001
0.21019429 0.18253715 1.9360001
0.19913144 0.26919618 1.9360001
0.20281905 0.26919618 1.9360001
0.19913144 0.27657145 1.9360001
0.20281905 0.27472764 1.9360001
0.20281905 0.28394669 1.9360002
0.20281905 0.29132193 1.9360001
0.19913144 0.31529146 1.9360001
0.19544382 0.32082286 1.9360001
0.20466286 0.32451048 1.9360001
0.21019429 0.32635432 1.9360001
-0.21388191 0.42776388 1.9360002
-0.20527747 0.42530543 1.9360002
-0.19544384 0.42161781 1.9360002
-0.18253715 0.42038858 1.9360001
-0.16778667 0.4240762 1.9360001
-0.14750476 0.42038858 1.9360001
-0.084815241 0.42038858 1.9360001
-0.022125715 0.42776385 1.9360001
-0.014750476 0.42530543 1.9360002
-0.0055314288 0.4240762 1.9360001
0.0036876192 0.42653465 1.9360002
-0.23416382 0.43698287 1.9360001
-0.22420727 0.43366405 1.9360001
-0.21388191 0.43145144 1.9360002
-0.022125715 0.43145144 1.9360001
0.015672382 0.43237334 1.9360001
0.02627429 0.43467814 1.936
0.035032384 0.4369829 1.9360001
0.044712387 0.43560004 1.936
0.055314295 0.43698293 1.9360001
-0.23600765 0.44546443 1.9360001
0.059001908 0.44620192 1.9360002
0.063611433 0.44712383 1.9360001
0.088502862 0.44988954 1.9360001
0.094034292 0.44528002 1.9360001
-0.23477843 0.45480639 1.9360002
0.066377148 0.45542097 1.9360001
0.086659051 0.45357716 1.9360001
0.092190482 0.45542097 1.9360001
0.065455243 0.46371812 1.9360001
0.070064761 0.46832764 1.9360001
0.064164579 0.47496533 1.9360001
0.059001908 0.48676574 1.9360001
0.062689528 0.48492193 1.9360001
0.044866037 0.49352634 1.9360001
0.018438095 0.50520384 1.9360001
0.025813337 0.50520384 1.9360002
0.03687619 0.50889146 1.9360001
0.044251431 0.50336003 1.9360001
0.057158098 0.50336003 1.9360001
0.065147944 0.50643307 1.9360002
0.073752381 0.50612575 1.9360001
0.081127621 0.50151622 1.9360001
0.025075812 0.51552916 1.9360001
0.029500954 0.53839236 1.9360001
0.033188574 0.53839236 1.9360001
0.029500954 0.54207999 1.9360001
0.035032384 0.54207999 1.9360001
0.22993144 0.085297145 1.9470001
0.23734859 0.085297145 1.9470001
0.24291146 0.085297145 1.9470001
0.22622287 0.10384002 1.9470003
0.22715002 0.11589286 1.9470001
0.2257593 0.12655501 1.9470003
0.2354943 0.12980001 1.9470001
0.24291146 0.12980001 1.9470001
0.21880573 0.13536286 1.9470001
0.22715002 0.13443571 1.9470001
0.2354943 0.13536286 1.9470001
0.24291146 0.13536286 1.9470001
0.22993144 0.14463429 1.9470003
0.23549429 0.14278001 1.9470001
0.24291146 0.14278001 1.9470001
0.22498667 0.15823241 1.9470003
0.21756956 0.16564953 1.9470003
0.2225143 0.16317715 1.9470001
0.21509716 0.17430286 1.9470003
0.21658058 0.18617029 1.9470001
0.20768 0.26701716 1.9470001
0.20768002 0.27443433 1.9470003
0.20768002 0.28556001 1.9470003
0.21138859 0.28926858 1.9470001
0.20768 0.29483145 1.9470001
0.21138859 0.29297718 1.9470001
0.20582573 0.31522864 1.9470003
0.21138859 0.31152004 1.9470001
0.20397145 0.32264572 1.9470003
0.21138859 0.32264572 1.9470001
-0.21509716 0.41906863 1.9470003
-0.20397145 0.41906863 1.9470003
-0.19470002 0.4190686 1.9470001
-0.18913715 0.4190686 1.9470001
-0.14092572 0.4190686 1.9470001
-0.13350858 0.4190686 1.9470001
-0.12794572 0.4190686 1.9470001
-0.2354943 0.42648575 1.9470001
-0.22548115 0.42500231 1.9470001
-0.21509716 0.42463145 1.9470003
-0.20397145 0.42277718 1.9470003
-0.17615716 0.42277718 1.9470001
-0.15205143 0.42277718 1.9470001
-0.014834287 0.42463148 1.9470001
-0.0074171433 0.42277718 1.9470001
0.0055628577 0.42648575 1.9470001
-0.24476573 0.43390289 1.9470003
-0.23549429 0.43204862 1.9470001
-0.22715002 0.43112147 1.9470001
0.011125715 0.43019432 1.9470001
0.03523143 0.43390286 1.9470001
0.040794287 0.43390286 1.9470001
0.055628575 0.43390286 1.9470003
0.064281911 0.43637526 1.9470003
-0.24328232 0.44428688 1.9470001
0.065827146 0.44410145 1.9470001
0.07046286 0.44873717 1.9470001
0.087522291 0.44577032 1.9470001
0.092714287 0.4450286 1.9470001
-0.24198431 0.4552272 1.9470001
0.072317146 0.45615435 1.9470003
0.08406096 0.45677242 1.9470003
0.072317146 0.46542573 1.9470001
0.085297152 0.46542579 1.9470003
0.074635006 0.47516072 1.9470003
0.084833577 0.47423357 1.9470003
0.066754289 0.48211432 1.9470001
0.074171439 0.48211432 1.9470003
0.055628575 0.4950943 1.9470003
0.063045718 0.4950943 1.9470001
0.0055628577 0.50621998 1.9470001
0.012980001 0.50807428 1.9470001
0.048211433 0.5006572 1.9470001
0.054701433 0.50158435 1.9470001
0.063045718 0.5025115 1.9470001
0.074171439 0.50436574 1.9470001
0.083442859 0.5006572 1.9470001
0.025960004 0.51301914 1.9470003
0.025960002 0.54392385 1.9470003
0.03523143 0.54886866 1.9470001
0.03523143 0.55443144 1.9470001
0.23309524 0.089508571 1.9580001
0.23123048 0.095102862 1.9580001
0.23123048 0.10442667 1.9580001
0.23496 0.11623683 1.9580001
0.2476404 0.11710705 1.9580001
0.2536076 0.11375048 1.9580001
0.2357059 0.12456609 1.9580001
0.24540265 0.12456609 1.9580001
0.23682477 0.14918095 1.9580001
0.2442838 0.14918095 1.9580001
0.23496 0.15415365 1.9580001
0.2442838 0.15291047 1.9580001
0.22625779 0.16658542 1.9580001
0.23123048 0.16409904 1.9580001
0.22377144 0.17528762 1.9579999
0.23123048 0.17342286 1.9580001
0.22451735 0.18423848 1.9580001
0.23309524 0.18461142 1.9580001
0.21258286 0.26666096 1.9580001
0.21407466 0.27673069 1.9580001
0.21258286 0.28530857 1.9580001
0.21538001 0.29556477 1.9580001
0.22004192 0.29463241 1.9580001
0.20885333 0.305821 1.9580001
0.21444762 0.305821 1.9580001
0.22227962 0.30731282 1.9580001
0.21506922 0.31576639 1.9580001
0.22377144 0.31514478 1.9580001
0.21537998 0.32353619 1.9580001
0.22153373 0.32372269 1.9580001
-0.22190668 0.41770667 1.9580001
-0.21444762 0.41584191 1.9580001
-0.20512383 0.41770667 1.9580001
-0.19766477 0.41770667 1.9580001
-0.2536076 0.42889526 1.9580001
-0.24614856 0.42516577 1.9579999
-0.23496 0.42330095 1.9580001
-0.2256362 0.42143622 1.9580001
-0.18647619 0.42143622 1.9580001
-0.1715581 0.42516571 1.9580001
-0.16782857 0.42516571 1.9580001
-0.022377143 0.42889526 1.9580001
-0.014918095 0.42516571 1.9580001
-0.0037295239 0.42516571 1.9580001
0.014918095 0.42889529 1.9580001
0.026106669 0.4270305 1.9580001
0.034808889 0.42765209 1.9580001
0.042889524 0.42889526 1.9580001
0.095102862 0.42889526 1.9580001
-0.26106665 0.43635431 1.9580001
-0.25547236 0.43448952 1.9580001
0.016782857 0.43262476 1.9580001
0.026106667 0.43262476 1.9580001
0.035430476 0.43262476 1.9580001
0.044754289 0.43262476 1.9580001
0.05594286 0.43262476 1.9580001
0.065266669 0.43448955 1.9580001
0.074590474 0.43635434 1.9580001
0.08764381 0.43635431 1.9580001
0.095102854 0.43448955 1.9580001
-0.26355302 0.44257018 1.9580001
-0.25547239 0.44381332 1.9580001
-0.24987811 0.44567811 1.9580001
0.074590474 0.44381335 1.9579999
0.084535882 0.44257018 1.9580001
0.095102862 0.44008383 1.9580001
-0.26255846 0.45574784 1.9580001
-0.25547239 0.45500192 1.9580001
-0.24894573 0.45593432 1.9580001
0.077387616 0.45406955 1.9580001
0.082049526 0.4512724 1.9580001
-0.26293141 0.46992001 1.9580001
-0.25509945 0.46619049 1.9580001
-0.24863493 0.46370417 1.9580001
0.078319997 0.46619052 1.9580001
0.06713143 0.48856765 1.9580001
0.074590474 0.48856768 1.9580001
0.06713143 0.49229711 1.9580001
0.078319997 0.49602669 1.9580001
0.082049534 0.49602669 1.9580001
0.06713143 0.5072152 1.9580001
0.072725713 0.5072152 1.9580001
0.0037295239 0.51467431 1.9580001
0.015850477 0.5156067 1.9580001
0.022377143 0.51467431 1.9580001
0.018647619 0.52213329 1.9580001
0.024241906 0.54824001 1.9580001
0.025640476 0.55616522 1.9580001
0.23628001 0.095637143 1.9690001
0.24096809 0.09282428 1.9690001
0.23628001 0.10501334 1.9690002
0.24284334 0.10688857 1.9690001
0.25315714 0.10876381 1.9690001
0.23628001 0.11251429 1.9690001
0.24453107 0.11401448 1.9690001
0.25503239 0.12001524 1.9690001
0.23628001 0.15752001 1.9690001
0.24378097 0.15752003 1.9690002
0.23628001 0.16502097 1.9690002
0.24378097 0.16127048 1.9690002
0.23628001 0.17252192 1.9690001
0.23252952 0.18002287 1.9690001
0.2212781 0.25878286 1.9690001
0.21752763 0.26440859 1.9690001
0.2212781 0.26253334 1.9690001
0.21752763 0.27190953 1.9690001
0.22252826 0.27628511 1.9690002
0.21752763 0.28691143 1.9690001
0.22127812 0.28503621 1.9690002
0.22315335 0.29441237 1.9690001
0.22565368 0.3037886 1.9690001
-0.25128192 0.41630286 1.9690001
-0.23440477 0.41630286 1.9690001
-0.22502857 0.41630286 1.9690002
-0.21002668 0.41630286 1.9690001
-0.20440096 0.41630286 1.9690001
0.095637143 0.41630286 1.9690001
-0.25565749 0.42380387 1.9690001
-0.24378097 0.42005336 1.9690002
-0.23440477 0.42005336 1.9690001
-0.22877906 0.42005336 1.9690001
-0.19314954 0.42005336 1.9690001
-0.1818981 0.42380384 1.9690001
-0.16314572 0.42755431 1.9690001
-0.15752001 0.42755431 1.9690001
-0.015001905 0.42567909 1.9690001
0.0037504765 0.42755431 1.9690002
0.015001906 0.42755431 1.9690002
0.025003176 0.42255366 1.9690002
0.033754285 0.42567909 1.9690001
0.041255239 0.42755431 1.9690001
0.056257147 0.42755431 1.9690001
0.060007621 0.42755431 1.9690001
0.078760006 0.42755431 1.9690001
0.084385723 0.42755431 1.9690001
0.094833478 0.42433965 1.9690001
-0.27378476 0.43880573 1.9690001
-0.26378351 0.43505526 1.9690002
-0.25878286 0.43130478 1.9690001
-0.026253335 0.43130478 1.9690001
0.048756193 0.43130478 1.9690001
0.054381907 0.43130478 1.9690001
0.064695716 0.43224242 1.9690001
0.075009525 0.43318003 1.9690001
0.084010676 0.43430519 1.9690001
0.090011433 0.43318003 1.9690001
-0.27453491 0.44480649 1.9690001
-0.2715345 0.45380765 1.9690001
-0.26628384 0.4519324 1.9690001
-0.27097192 0.46412146 1.9690001
-0.26440859 0.46693432 1.9690001
-0.25878286 0.46880955 1.9690001
0.067508571 0.49881336 1.9690001
0.073134288 0.49693811 1.9690001
0.067508571 0.50443906 1.9690001
0.073134288 0.50443906 1.9690001
-0.0037504763 0.51756573 1.9690001
0.0037504763 0.51756573 1.9690001
-0.0037504763 0.52131623 1.9690001
0.0048220409 0.52453095 1.9690001
0.013126668 0.52506673 1.9690001
0.0045005716 0.53406787 1.9690001
0.012501588 0.53381789 1.9690002
0.018752381 0.55882096 1.9690001
0.018752381 0.56257141 1.9690001
0.24514288 0.096171439 1.9800001
0.25457144 0.098057151 1.9800001
0.24388574 0.10434287 1.9800003
0.25457144 0.10371429 1.9800001
0.24514286 0.1678286 1.9800003
0.23760001 0.17725715 1.9800001
0.24325715 0.17537144 1.9800001
0.23760001 0.18102859 1.9800001
0.2426286 0.18228573 1.9800003
0.22628573 0.24325716 1.9800001
0.23005715 0.24325716 1.9800001
0.22534287 0.26494285 1.9800001
0.23005715 0.26777145 1.9800001
0.2250286 0.27280003 1.9800003
0.23005715 0.27720001 1.9800001
0.22628573 0.28474289 1.9800001
0.22628573 0.29228574 1.9800001
0.23005715 0.29605716 1.9800001
0.23288573 0.30454287 1.9800001
-0.25645718 0.4186286 1.9800001
-0.24514288 0.41862863 1.9800003
-0.21874288 0.41485718 1.9800001
0.090514295 0.4186286 1.9800001
-0.26274288 0.42617148 1.9800003
-0.18857144 0.42240003 1.9800001
-0.17537144 0.42617145 1.9800001
-0.15274286 0.42617145 1.9800001
-0.14708573 0.42617145 1.9800001
-0.077314287 0.42617145 1.9800001
-0.024514288 0.42994288 1.9800001
-0.0075428574 0.42617145 1.9800001
0.01697143 0.42617145 1.9800001
0.022628574 0.42240003 1.9800001
0.03394286 0.42428574 1.9800001
0.045257147 0.42805716 1.9800001
0.052800003 0.42994288 1.9800001
0.066000007 0.42994288 1.9800001
0.075428575 0.42868575 1.9800003
0.085485719 0.42491433 1.9800003
0.090514295 0.42428574 1.9800001
-0.28285718 0.43748575 1.9800001
-0.27625716 0.4365429 1.9800001
-0.26777145 0.43560004 1.9800001
-0.28285718 0.44314289 1.9800001
-0.2753143 0.44125718 1.9800001
-0.2753143 0.45634288 1.9800001
0 0.528 1.9800001
-0.0037714287 0.53365719 1.9800001
0 0.53177148 1.9800001
-0.0037714287 0.55440003 1.9800001
0.2536751 0.09377306 1.9920003
0.25042287 0.10434286 1.9920001
0.23651049 0.24409907 1.9920001
0.24473144 0.2428343 1.9920001
0.22613943 0.254976 1.9920002
0.23240001 0.25326857 1.9920001
0.2327162 0.26307052 1.9920001
0.23145144 0.27318859 1.9920001
0.23145144 0.2864686 1.9920001
0.23600459 0.29671317 1.9920002
0.2428343 0.2997486 1.9920001
0.23904002 0.30544001 1.9920001
0.24473144 0.30544001 1.9920001
0.25042287 0.30544001 1.9920001
0.23904002 0.31302857 1.9920001
0.24409907 0.31239623 1.9920001
0.25042287 0.31113145 1.9920001
-0.25421715 0.41737145 1.9920001
-0.23524573 0.41737145 1.9920001
-0.22576001 0.41737145 1.9920001
-0.21627429 0.41737145 1.9920001
0.034148574 0.41737145 1.9920001
0.087268576 0.41737145 1.9920001
0.09296 0.41737145 1.9920001
-0.28267431 0.4287543 1.9920001
-0.27508572 0.42685714 1.9920001
-0.26686478 0.42369527 1.9920003
-0.18402286 0.42496002 1.9920001
-0.17453715 0.4262248 1.9920001
-0.16505143 0.4287543 1.9920001
-0.15651429 0.4259086 1.9920001
-0.14228573 0.42496002 1.9920001
-0.083474286 0.4287543 1.9920001
0.0056914287 0.4287543 1.9920001
0.014228571 0.4259086 1.9920001
0.035097145 0.42211428 1.9920001
0.049325716 0.4287543 1.9920001
0.053120002 0.4287543 1.9920001
0.064502865 0.4287543 1.9920001
0.076834291 0.4259086 1.9920001
0.084739052 0.42243052 1.9920001
-0.29216 0.4363429 1.9920001
-0.28457144 0.43444574 1.9920001
-0.27508572 0.43444574 1.9920001
-0.26939431 0.43254858 1.9920001
-0.09296 0.43254858 1.9920001
-0.29405713 0.4420343 1.9920001
-0.28836578 0.44393146 1.9920001
-0.0037942859 0.54258287 1.9920001
0 0.54258287 1.9920001
-0.011382857 0.55776 1.9920001
-0.0066400003 0.55301714 1.9920001
0.001897143 0.55396575 1.9920003
-0.011382857 0.56155431 1.9920001
0.0037942859 0.56155431 1.9920001
0.24417524 0.24799049 2.003
0.23654477 0.25752857 2.003
0.24369833 0.25514403 2.003
0.23654477 0.26706669 2.003
0.24341218 0.2655406 2.003
0.23654477 0.27469715 2.003
0.24369833 0.27422023 2.003
0.23654477 0.28614289 2.003
0.24036001 0.28232762 2.003
0.23654477 0.29377332 2.003
0.24608287 0.29758859 2.003
0.25180572 0.29758859 2.003
0.24799049 0.30140379 2.003
0.25180572 0.30140379 2.003
-0.27278954 0.41967618 2.003
-0.26515907 0.41967618 2.003
-0.24608287 0.41967618 2.003
-0.21365333 0.41967618 2.003
-0.20983809 0.41967618 2.003
-0.17550094 0.41967618 2.003
0.036880638 0.41713271 2.003
0.049598094 0.41586095 2.003
0.076304764 0.41967618 2.003
0.082027614 0.41967618 2.003
-0.29377332 0.42730665 2.003
-0.28537983 0.42578059 2.003
-0.27660477 0.42349145 2.003
-0.20220762 0.42349145 2.003
-0.19457714 0.42349145 2.003
-0.18503904 0.42349145 2.003
-0.17454714 0.42444524 2.003
-0.16481827 0.42501757 2.003
-0.15451714 0.42349145 2.003
-0.14879429 0.42730665 2.003
0.0038152381 0.42730665 2.003
0.045782857 0.42635286 2.003
0.057228573 0.42730665 2.003
0.065812856 0.42635286 2.003
0.074397147 0.42539907 2.003
-0.29568094 0.43493715 2.003
-0.28995809 0.43302953 2.003
-0.10682666 0.43493712 2.003
-0.034337144 0.43875238 2.003
-0.015260953 0.43112192 2.003
-0.0038152381 0.43112192 2.003
0 0.43112192 2.003
0.057228573 0.43112192 2.003
-0.30140379 0.44447523 2.003
-0.011445714 0.54748666 2.003
-0.0063587306 0.54812258 2.003
0 0.54939431 2.003
-0.011445714 0.55511713 2.003
-0.0038152381 0.55702472 2.003
-0.0057228571 0.56465524 2.003
0.24947619 0.26290953 2.0150001
0.25331432 0.26482856 2.0150001
0.24180001 0.28785717 2.0150001
0.25523335 0.28785717 2.0150001
0.2456381 0.2936143 2.0150003
0.25459367 0.29297465 2.0150001
-0.27250478 0.4183524 2.0150001
-0.26482856 0.4183524 2.0150001
-0.25523335 0.4183524 2.0150001
-0.23796192 0.4183524 2.0150001
0.044138096 0.4183524 2.0150001
0.055652384 0.4183524 2.0150001
0.061409526 0.4183524 2.0150001
0.074842863 0.4183524 2.0150001
0.085397623 0.41739285 2.0150001
0.093393646 0.41707301 2.0150001
-0.29553336 0.42730796 2.0150001
-0.28018096 0.42219049 2.0150001
-0.19190477 0.42219049 2.0150001
-0.18422857 0.42219049 2.0150001
-0.17271429 0.42219049 2.0150001
-0.16503811 0.42219052 2.0150001
-0.14968573 0.42602858 2.0150001
-0.0057571428 0.42986667 2.0150001
0 0.42602858 2.0150001
0.047016665 0.42410952 2.0150001
0.055652387 0.42602858 2.0150001
0.064479999 0.42372575 2.0150001
0.072923817 0.42219049 2.0150001
-0.3044889 0.4362635 2.0150001
-0.29937145 0.43370476 2.0150001
-0.11130476 0.43754286 2.0150001
-0.099790484 0.43754286 2.0150001
-0.088276193 0.43370476 2.0150001
-0.30512857 0.44138095 2.0150001
0.11706191 0.79832387 2.0150001
0.086357147 0.80983812 2.0150001
0.096500687 0.80709666 2.0150003
0.10554763 0.80600011 2.0150003
0.11514286 0.80600011 2.0150001
0.1247381 0.80983812 2.0150001
0.086357147 0.81559527 2.0150001
0.095952392 0.81559533 2.0150003
0.10554762 0.81559527 2.0150001
0.11514287 0.81559533 2.0150003
0.1247381 0.81559527 2.0150001
0.066526994 0.82774925 2.0150001
0.074203186 0.8264699 2.0150001
0.084438108 0.82710958 2.0150003
0.098255247 0.82442296 2.0150001
0.10554762 0.82519054 2.0150003
0.11514286 0.82519054 2.0150001
0.1247381 0.82519054 2.0150003
0.065247625 0.83286673 2.0150001
0.082519054 0.83286673 2.0150001
0.099790484 0.83478576 2.0150001
0.10554762 0.83478576 2.0150001
0.11514287 0.83478582 2.0150003
0.12281905 0.83286673 2.0150001
0.099790484 0.84054291 2.0150001
0.10554762 0.84054291 2.0150001
0.24710098 0.28764099 2.0270002
0.25427133 0.28460738 2.0270004
-0.26254478 0.41698289 2.0270002
-0.25868383 0.41698289 2.0270002
0.069497153 0.41698289 2.0270002
0.075288579 0.41698289 2.0270002
0.083010487 0.41505241 2.0270002
-0.31273717 0.42856577 2.0270002
-0.30501527 0.4285658 2.0270002
-0.29536289 0.42470479 2.0270002
-0.28571051 0.42341781 2.0270002
-0.27798861 0.42084384 2.0270002
-0.26640573 0.42084384 2.0270002
-0.2509619 0.42084384 2.0270002
-0.2451705 0.42084384 2.0270002
-0.23358764 0.42084384 2.0270002
-0.22586572 0.42084384 2.0270002
-0.20463049 0.42470479 2.0270002
-0.1949781 0.42277431 2.0270002
-0.18532573 0.42180908 2.0270002
-0.17567335 0.42084384 2.0270002
-0.15636858 0.42470479 2.0270002
-0.14671621 0.42856577 2.0270002
0.042470481 0.42470479 2.0270002
0.054053336 0.42470479 2.0270002
0.067566678 0.42084384 2.0270002
-0.31273717 0.43435717 2.0270002
-0.30758923 0.43371367 2.0270002
-0.1138981 0.43628767 2.0270002
-0.10424572 0.4362877 2.0270002
-0.09523683 0.43500066 2.0270002
-0.034748577 0.43628767 2.0270002
-0.31273717 0.44400954 2.0270002
-0.30887622 0.44787049 2.0270002
-0.10424572 0.44014859 2.0270002
-0.06370572 0.44400957 2.0270002
-0.054053336 0.4440096 2.0270002
-0.044400956 0.44400957 2.0270002
-0.035713814 0.44111383 2.0270002
-0.31273717 0.45173147 2.0270002
-0.30887622 0.45173147 2.0270002
0.069497153 0.78763431 2.0270002
0.073358104 0.78763431 2.0270002
0.086871438 0.78763431 2.0270002
0.092662863 0.78763431 2.0270002
0.086227946 0.79406929 2.0270002
0.092662863 0.79149532 2.0270002
0.1061762 0.79921722 2.0270002
0.085713156 0.80539477 2.0270002
0.094593339 0.80693913 2.0270002
0.10424572 0.80307811 2.0270002
0.11196762 0.80307811 2.0270002
-0.32045907 0.81852198 2.0270002
0.076253816 0.81562626 2.0270002
0.083396584 0.81311667 2.0270002
0.069497153 0.8243134 2.0270002
0.075288579 0.8243134 2.0270002
0.083975725 0.82527864 2.0270002
0.092662863 0.82624388 2.0270002
0.064670958 0.83300054 2.0270002
0.075932071 0.83653975 2.0270002
0.088801913 0.83782673 2.0270002
0.09420725 0.83473796 2.0270002
0.06821017 0.84297466 2.0270002
0.074645087 0.84297466 2.0270002
0.083010487 0.84361815 2.0270002
0.096523814 0.84361815 2.0270002
-0.30293715 0.41945145 2.039
-0.27575046 0.41945145 2.039
-0.26798287 0.41945145 2.039
-0.25438952 0.41945145 2.039
-0.24468002 0.41945145 2.039
0.089327618 0.41556764 2.039
-0.3320657 0.42721906 2.039
-0.32429808 0.42721906 2.039
-0.31458855 0.42527717 2.039
-0.30487907 0.42527714 2.039
-0.29516953 0.42333525 2.039
-0.28740191 0.42333525 2.039
-0.22137713 0.42333525 2.039
-0.21555144 0.42333525 2.039
-0.20195809 0.42333525 2.039
-0.19807428 0.42333525 2.039
-0.17088762 0.42333525 2.039
-0.16700381 0.42333525 2.039
-0.15146858 0.42721906 2.039
-0.3320657 0.43498665 2.039
-0.32429811 0.43498668 2.039
-0.31847239 0.43498668 2.039
-0.11392508 0.4336921 2.039
-0.10486286 0.43304476 2.039
-0.095153332 0.43304479 2.039
-0.085443817 0.43498668 2.039
-0.075734288 0.43692857 2.039
-0.065539286 0.43547213 2.0389998
-0.054373328 0.43498665 2.0389998
-0.045052189 0.43576345 2.039
-0.034954287 0.43757588 2.039
-0.025244761 0.43887046 2.039
-0.015535238 0.43628129 2.039
-0.0058257142 0.43110287 2.039
-0.33323085 0.44508457 2.039
-0.32365081 0.44404888 2.039
-0.31847239 0.44469619 2.039
-0.066024765 0.44275427 2.039
-0.054373335 0.44275427 2.039
-0.044663809 0.44275427 2.039
-0.3320657 0.45052192 2.039
-0.31847239 0.45052192 2.039
-0.076381586 0.63435555 2.039
-0.075734288 0.64471233 2.039
-0.066024765 0.64859617 2.039
-0.073792383 0.65248001 2.039
-0.066024765 0.65442193 2.039
-0.056962542 0.65377462 2.039
-0.066024765 0.66024768 2.039
-0.058257144 0.66024762 2.039
-0.19419049 0.76899433 2.039
-0.054858807 0.78404403 2.0389998
-0.044663809 0.78258765 2.039
0.06796667 0.79423904 2.039
0.075734288 0.79618096 2.039
0.081560001 0.79423904 2.039
-0.2058419 0.80783242 2.039
0.068613969 0.80135936 2.039
0.075734288 0.80394858 2.039
0.084796511 0.80265397 2.039
0.095153332 0.8058905 2.039
0.10097905 0.80394858 2.039
-0.32235619 0.8175419 2.039
-0.31847239 0.8175419 2.039
-0.24468 0.8117162 2.039
0.069908567 0.81948382 2.039
0.074763335 0.81462908 2.039
-0.32429808 0.82530951 2.039
-0.31847239 0.8233676 2.039
-0.23691238 0.82725143 2.039
-0.22137713 0.82725143 2.039
-0.21555144 0.82725143 2.039
-0.20972572 0.82725143 2.039
0.06796667 0.82530951 2.039
-0.32235619 0.83890289 2.039
-0.23497048 0.83113527 2.039
-0.22914477 0.83113527 2.039
0.058257144 0.83696097 2.039
0.064082861 0.83113527 2.039
0.058257144 0.84278667 2.039
0.089327618 0.84667051 2.039
0.093211427 0.84667051 2.039
0.089327618 0.85055429 2.039
0.093211427 0.85055429 2.039
-0.32295114 0.41540894 2.0510004
-0.31448668 0.41606003 2.0510001
-0.30550134 0.41645071 2.0510004
-0.29690668 0.41801336 2.0510001
-0.28128001 0.41801336 2.0510001
-0.27476892 0.41671115 2.0510001
-0.26643467 0.41645071 2.0510004
-0.25588667 0.41801336 2.0510001
-0.24416669 0.41801336 2.0510001
-0.23440002 0.41801339 2.0510001
-0.22463334 0.41801336 2.0510001
-0.3333689 0.42452449 2.0510001
-0.32503471 0.42348272 2.0510004
-0.31448668 0.42192 2.0510001
-0.30472001 0.42192 2.0510001
-0.29495335 0.42192 2.0510001
-0.28714001 0.42192 2.0510001
-0.2344 0.42192 2.0510001
-0.22463334 0.42192 2.0510001
-0.21389002 0.42289665 2.0510001
-0.20575111 0.42322224 2.0510001
-0.19533335 0.42192 2.0510001
-0.18556666 0.42192 2.0510001
-0.16212668 0.42582667 2.0510001
-0.15626667 0.42582667 2.0510001
-0.14845334 0.42973337 2.0510001
-0.12110668 0.42973337 2.0510001
-0.11524667 0.42973337 2.0510001
-0.10645667 0.42875671 2.0510001
-0.097666666 0.42973337 2.0510001
-0.062506668 0.42973337 2.0510001
-0.054205004 0.42631498 2.0510004
-0.045577779 0.42843115 2.0510001
-0.036462225 0.42843115 2.0510001
-0.013673333 0.42778003 2.0510001
-0.0065111117 0.42843115 2.0510001
-0.34378669 0.43754667 2.0510001
-0.33988002 0.43754667 2.0510001
-0.14259334 0.43364 2.0510001
-0.1341289 0.43494225 2.0510001
-0.12501335 0.43559337 2.0510004
-0.1172 0.43364 2.0510001
-0.093760006 0.43364 2.0510001
-0.085946672 0.43364 2.0510001
-0.07422667 0.43494225 2.0510001
-0.042973336 0.43364 2.0510001
-0.036136668 0.43559337 2.0510001
-0.024742223 0.43624446 2.0510001
-0.016603334 0.43461668 2.0510001
-0.34378669 0.4434067 2.0510001
-0.33988002 0.4434067 2.0510001
-0.32816002 0.4492667 2.0510001
-0.07422667 0.44536 2.0510001
-0.32620668 0.45317337 2.0510001
-0.054693338 0.61725342 2.0510001
-0.036136668 0.61432338 2.0510001
-0.027346667 0.6133467 2.0510001
-0.072273336 0.62897336 2.0510001
-0.064460002 0.62702 2.0510001
-0.055995561 0.62441558 2.0510004
-0.042973336 0.6250667 2.0510001
-0.036136668 0.62213671 2.0510001
-0.027346667 0.62116003 2.0510001
-0.073250003 0.63385665 2.0510001
-0.064460002 0.63483334 2.0510001
-0.056646667 0.63483334 2.0510001
-0.072273344 0.64460009 2.0510004
-0.064460009 0.64460003 2.0510004
-0.055809531 0.64460003 2.0510004
-0.053716667 0.65339005 2.0510001
-0.046880003 0.65632004 2.0510001
-0.073250003 0.66511005 2.0510001
-0.064460002 0.66804004 2.0510001
-0.053577147 0.66469145 2.0510004
-0.044926669 0.66413337 2.0510004
-0.07129667 0.67487669 2.0510001
-0.064460009 0.67585337 2.0510004
-0.054693338 0.67585331 2.0510004
-0.046880003 0.67585337 2.0510001
-0.070320003 0.68366671 2.0510001
-0.064460002 0.68562007 2.0510001
-0.054693338 0.68562007 2.0510004
-0.062506668 0.69929338 2.0510001
-0.054693338 0.69929338 2.0510001
-0.05274 0.73835999 2.0510001
-0.046880003 0.73835999 2.0510001
-0.052088894 0.7435689 2.0510001
-0.044926669 0.74422002 2.0510001
-0.037113335 0.74422002 2.0510001
-0.052349336 0.75398678 2.0510004
-0.044926669 0.75008005 2.0510001
-0.033206671 0.75398672 2.0510004
-0.064850673 0.76648808 2.0510004
-0.054693338 0.76570672 2.0510004
-0.033857778 0.76310229 2.0510001
-0.21096 0.77742672 2.0510001
-0.2051 0.77742672 2.0510001
-0.19533335 0.77742672 2.0510001
-0.18556666 0.77742672 2.0510001
-0.062506668 0.77547336 2.0510001
-0.054693338 0.77547336 2.0510004
-0.042973336 0.77547336 2.0510001
-0.037113335 0.77742672 2.0510001
-0.22268 0.78914672 2.0510001
-0.21291333 0.78133333 2.0510001
-0.2051 0.78133333 2.0510001
-0.19533335 0.78133333 2.0510001
-0.18752001 0.78133333 2.0510001
-0.11589777 0.78784454 2.0510001
-0.10548 0.78914672 2.0510001
-0.09571334 0.78524005 2.0510004
-0.089853339 0.78524005 2.0510001
-0.062506668 0.78524005 2.0510001
-0.054693338 0.78133333 2.0510001
-0.044926669 0.78133333 2.0510001
-0.037113339 0.78524005 2.0510004
0.064460002 0.78914672 2.0510001
0.070320003 0.78914672 2.0510001
-0.24416669 0.79696006 2.0510001
-0.23440002 0.79696006 2.0510001
-0.095713332 0.79500669 2.0510001
-0.089853339 0.79500675 2.0510001
-0.062506668 0.79305339 2.0510001
0.058600001 0.79696006 2.0510001
0.063808888 0.79435563 2.0510001
0.070320003 0.79305339 2.0510001
-0.25295669 0.80770338 2.0510001
-0.24416667 0.80477333 2.0510004
-0.2349581 0.80588955 2.0510004
-0.22502401 0.80555469 2.0510004
-0.21486667 0.80526167 2.0510004
-0.20444891 0.80737782 2.0510001
-0.093760006 0.80281997 2.0510001
-0.089853339 0.80477333 2.0510001
0.0039066668 0.80868006 2.0510001
0.058600001 0.80672669 2.0510001
0.064069338 0.80477333 2.0510004
0.096364439 0.80347109 2.0510001
0.10287556 0.80347109 2.0510001
-0.26174667 0.81454003 2.0510001
-0.25393334 0.81454009 2.0510004
-0.24351558 0.81388897 2.0510001
-0.2344 0.81454009 2.0510004
-0.22463334 0.81454003 2.0510001
-0.21564801 0.81493074 2.0510004
-0.2051 0.81649339 2.0510001
-0.19924001 0.81454003 2.0510001
0.005208889 0.81388897 2.0510001
0.015626667 0.81414938 2.0510004
0.058600001 0.81258672 2.0510001
0.064460002 0.81454009 2.0510001
0.070320003 0.81454003 2.0510001
-0.3151378 0.82691115 2.0510001
-0.30472001 0.82821333 2.0510001
-0.29495335 0.82821333 2.0510001
-0.28440535 0.82665062 2.0510004
-0.27542001 0.82625997 2.0510001
-0.26487201 0.82508802 2.0510004
-0.25393334 0.82430673 2.0510004
-0.2441667 0.82430667 2.0510004
-0.2344 0.82430667 2.0510004
-0.22463334 0.82430667 2.0510004
-0.21486668 0.82430661 2.0510004
-0.2051 0.82430673 2.0510004
-0.19533333 0.82486475 2.0510004
-0.185176 0.82508802 2.0510004
-0.17814402 0.82352537 2.0510004
0.0039066668 0.82040006 2.0510001
0.056646667 0.82821333 2.0510001
0.064460009 0.82430673 2.0510004
0.070320003 0.82040006 2.0510001
-0.33304334 0.83700335 2.0510001
-0.32425335 0.83651501 2.0510004
-0.31448668 0.83602667 2.0510004
-0.30423167 0.83602673 2.0510004
-0.29495335 0.83602679 2.0510004
-0.28518668 0.83602673 2.0510004
-0.27542001 0.83602667 2.0510004
-0.26695558 0.83342236 2.0510001
-0.253445 0.83553839 2.0510004
-0.24455737 0.83524531 2.0510004
-0.23244667 0.83212006 2.0510001
-0.22658668 0.83212006 2.0510001
0.058600001 0.83602673 2.0510001
0.062506668 0.83212006 2.0510001
-0.33402002 0.84579337 2.0510001
-0.32425338 0.84618396 2.0510004
-0.31448668 0.84579337 2.0510001
-0.30472001 0.84579343 2.0510004
-0.29495335 0.84579337 2.0510001
-0.28518671 0.84579337 2.0510004
-0.27542001 0.84384 2.0510001
-0.33402002 0.85556 2.0510004
-0.32425338 0.85556006 2.0510004
-0.31448668 0.85165334 2.0510001
-0.33402002 0.8653267 2.0510001
-0.32425335 0.8653267 2.0510001
-0.33206668 0.87118667 2.0510001
-0.32425335 0.87118667 2.0510001
-0.27113718 0.40867051 2.0630002
-0.31436193 0.41260004 2.0630002
-0.30388319 0.41390988 2.0630002
-0.29471433 0.4165296 2.0630002
-0.28554541 0.41521972 2.0630002
-0.2750667 0.41390988 2.0630002
-0.26458797 0.41390988 2.0630002
-0.25738382 0.41652957 2.0630002
-0.2436305 0.41652957 2.0630002
-0.23577146 0.4165296 2.0630002
-0.2239829 0.4165296 2.0630002
-0.29274958 0.42045909 2.0630002
-0.28685525 0.42045909 2.0630002
-0.25148955 0.42045909 2.0630002
-0.22005336 0.42045909 2.0630002
-0.21415907 0.42045909 2.0630002
-0.20630002 0.42045909 2.0630002
-0.18272287 0.42242384 2.0630002
-0.17682858 0.42438859 2.0630002
-0.15325144 0.42831814 2.0630002
-0.14735717 0.42831814 2.0630002
-0.13556859 0.42831814 2.0630002
-0.12378001 0.42831814 2.0630002
-0.11592097 0.42831814 2.0630002
-0.10413238 0.42831814 2.0630002
-0.09627334 0.42831814 2.0630002
-0.064182237 0.42700833 2.0630002
-0.058942862 0.42438859 2.0630002
-0.043224767 0.42831814 2.0630002
-0.035365716 0.42831814 2.0630002
-0.025541907 0.42831814 2.0630002
-0.019647621 0.42831814 2.0630002
-0.14342764 0.43224767 2.0630002
-0.13556859 0.43224767 2.0630002
-0.12770954 0.43224767 2.0630002
-0.094308577 0.43224767 2.0630002
-0.074660957 0.43617719 2.0630002
-0.066801913 0.43224767 2.0630002
-0.031436194 0.43421245 2.0630002
-0.026196828 0.43355751 2.0630002
-0.019647621 0.43224767 2.0630002
-0.14146286 0.44010672 2.0630002
-0.13753335 0.44010672 2.0630002
-0.34186861 0.45582482 2.0630002
-0.062872387 0.60318196 2.0630002
-0.056136057 0.60514677 2.0630002
-0.044796579 0.60436082 2.0630002
-0.035856906 0.60563791 2.063
-0.056978099 0.61497051 2.0630002
-0.04518953 0.61497051 2.0630002
-0.035365716 0.61300576 2.0630002
-0.072303243 0.62558025 2.0630002
-0.06483715 0.62282956 2.0630002
-0.051083814 0.6247943 2.0630002
-0.045582484 0.62400842 2.0630002
-0.033400953 0.62479436 2.0630002
-0.026196828 0.62610424 2.0630002
-0.052393656 0.63396329 2.0630002
-0.04518953 0.63461816 2.0630002
-0.036348097 0.63363576 2.0630002
-0.025541907 0.63265342 2.0630002
-0.051083814 0.64247721 2.0630002
-0.045582484 0.64444202 2.0630002
-0.039295241 0.64444196 2.0630002
-0.051083814 0.65230101 2.0630002
-0.04518953 0.65426576 2.0630002
-0.043224767 0.66016006 2.0630002
-0.036675557 0.66539943 2.0630002
-0.043224767 0.67784297 2.0630002
-0.035365716 0.67587811 2.063
-0.023577144 0.67391342 2.0630002
-0.019647621 0.67194867 2.0630002
-0.044534609 0.6863569 2.0630002
-0.036151621 0.68530899 2.0630002
-0.05501334 0.69749057 2.0630002
-0.04518953 0.69159627 2.0630002
-0.035365716 0.69159627 2.0630002
-0.066801913 0.70338482 2.0630002
-0.053048577 0.70731431 2.0630002
-0.047154289 0.70338482 2.0630002
-0.054227438 0.71753109 2.0630002
-0.047154289 0.71910292 2.0630002
-0.055013336 0.72499722 2.0630002
-0.04518953 0.72499722 2.0630002
-0.06483715 0.73482102 2.0630002
-0.054522146 0.73482108 2.063
-0.04518953 0.73482102 2.0630002
-0.035365716 0.73089153 2.0630002
-0.06483715 0.74464482 2.0630002
-0.058942862 0.74464482 2.0630002
-0.043224767 0.74268007 2.0630002
-0.03457981 0.74425191 2.0630002
-0.025541907 0.74660957 2.0630002
-0.070731431 0.75839812 2.0630002
-0.06483715 0.75643337 2.0630002
-0.056978099 0.75545096 2.0630002
-0.04518953 0.75839812 2.0630002
-0.037330478 0.75348622 2.0630002
-0.025541907 0.75250387 2.0630002
-0.070731431 0.76232767 2.0630002
-0.064182237 0.76363754 2.0630002
-0.058942862 0.76232767 2.0630002
-0.04518953 0.76429248 2.0630002
-0.039295241 0.76429248 2.0630002
-0.1552162 0.77608097 2.0630002
-0.045582484 0.77333039 2.0630002
-0.035365716 0.77460754 2.063
-0.025541907 0.77804577 2.0630002
-0.017027937 0.77673596 2.0630002
-0.21415907 0.78983438 2.0630002
-0.20433526 0.78983438 2.0630002
-0.19516638 0.78852457 2.0630002
-0.18665239 0.78786957 2.0630002
-0.17682858 0.78394008 2.0630002
-0.16700478 0.78590482 2.0630002
-0.1552162 0.78590482 2.0630002
-0.14342764 0.78590482 2.0630002
-0.13556859 0.78786957 2.0630002
-0.12378001 0.78983438 2.0630002
-0.11133653 0.78852457 2.0630002
-0.10413239 0.78786957 2.0630002
-0.047154289 0.78197533 2.0630002
-0.031436197 0.78590482 2.0630002
-0.025541907 0.78197533 2.0630002
-0.016373018 0.78590488 2.0630002
0.0058942866 0.78983438 2.0630002
0.062872387 0.78983438 2.0630002
-0.23577145 0.79769337 2.0630002
-0.22201812 0.79572862 2.0630002
-0.21219429 0.79572862 2.0630002
-0.20826478 0.79376388 2.0630002
-0.1925467 0.79376388 2.0630002
-0.18730733 0.79638356 2.0630002
-0.17486382 0.79572862 2.0630002
-0.16307525 0.79769337 2.0630002
-0.15718096 0.79769337 2.0630002
-0.13360383 0.79376388 2.0630002
-0.12378001 0.79376388 2.0630002
-0.11395621 0.79769343 2.0630002
-0.10478731 0.79638356 2.0630002
-0.031436194 0.79376388 2.0630002
-0.015718095 0.79572862 2.0630002
-0.0058942866 0.79376388 2.0630002
0.0039295247 0.79572862 2.0630002
0.017682858 0.79769337 2.0630002
0.039295241 0.79769337 2.0630002
0.04518953 0.79769337 2.0630002
0.055013336 0.79572868 2.0630002
-0.2632781 0.80948192 2.0630002
-0.25541908 0.80751717 2.0630002
-0.23380668 0.80555242 2.0630002
-0.22398289 0.80260527 2.0630002
-0.21481399 0.80293274 2.0630002
-0.20433527 0.80555242 2.0630002
-0.19451144 0.80555242 2.0630002
-0.18468766 0.80555242 2.0630002
-0.17486382 0.80555242 2.0630002
-0.16616273 0.80611384 2.0630002
-0.15718096 0.80555242 2.0630002
-0.1139562 0.80555242 2.063
-0.10413238 0.80555248 2.0630002
-0.098238103 0.80751717 2.0630002
-0.016700478 0.80457002 2.0630002
0.0039295242 0.80555242 2.063
0.015718097 0.80555242 2.063
0.025541907 0.80751717 2.0630002
0.03585691 0.80604362 2.063
0.04518953 0.80555242 2.0630002
0.053890619 0.80555242 2.0630002
-0.27113718 0.81734103 2.0630002
-0.26589781 0.81472135 2.0630002
-0.20040573 0.81341153 2.0630002
-0.19516638 0.81603122 2.0630002
-0.18370526 0.81635869 2.0630002
-0.17486382 0.81537628 2.0630002
-0.16602239 0.81635863 2.0630002
-0.15718096 0.81734103 2.0630002
-0.10413238 0.81341153 2.0630002
-0.09627334 0.81537628 2.0630002
-0.023577144 0.81734103 2.0630002
-0.015718097 0.8153764 2.0630002
-0.0058942866 0.81537628 2.0630002
0.0026196828 0.81472135 2.0630002
0.015718097 0.81341159 2.0630002
0.025541907 0.81537628 2.0630002
0.035365716 0.81537628 2.0630002
0.04518953 0.81537628 2.0630002
0.053048577 0.81537628 2.0630002
-0.31239718 0.82912958 2.0630002
