# .PCD v0.7 - Point Cloud Data file format
VERSION 0.7
FIELDS x y z
SIZE 4 4 4
TYPE F F F
COUNT 1 1 1
WIDTH 1495
HEIGHT 1
VIEWPOINT 0 0 0 1 0 0 0
POINTS 1495
DATA ascii
-0.074120007 0.44295526 1.853
-0.063531429 0.44295526 1.853
-0.05470762 0.44119048 1.853
-0.045883812 0.44472003 1.853
-0.033530477 0.44472003 1.853
-0.024706667 0.44383764 1.853
-0.014118096 0.44295526 1.853
-0.0058825403 0.44354352 1.853
0.003529524 0.44472003 1.853
0.014118096 0.44354352 1.853
0.025589049 0.44383764 1.853
0.035295241 0.44472003 1.853
0.045883816 0.4433082 1.853
0.055295877 0.44354352 1.853
0.063531429 0.44260231 1.853
0.072943494 0.44236702 1.853
0.087061584 0.44589657 1.853
0.091767624 0.44824955 1.853
0.10823873 0.44707307 1.853
0.11412128 0.44707307 1.853
0.12353335 0.4464848 1.853
0.1329454 0.44707307 1.853
0.14294572 0.44824955 1.853
-0.24236065 0.45648503 1.853
-0.23506628 0.45460269 1.853
-0.22706604 0.45295557 1.853
0.097650163 0.45295557 1.853
0.10588571 0.45530856 1.853
0.11470953 0.45530856 1.853
0.12265095 0.45266145 1.853
0.13412191 0.45266142 1.853
0.14471048 0.45177907 1.853
0.15529905 0.4570733 1.853
0.16235809 0.45707333 1.853
-0.24353716 0.46589714 1.853
-0.23506628 0.46660304 1.853
-0.22941904 0.46589714 1.853
0.11294477 0.46589714 1.853
0.15353429 0.46413237 1.853
-0.24589017 0.47413272 1.853
-0.23647809 0.47295618 1.853
0.13412192 0.4764857 1.853
-0.24706668 0.48001525 1.853
-0.23530158 0.48472127 1.853
0.10765047 0.48530951 1.853
0.11435658 0.48425063 1.853
0.12265096 0.48442715 1.853
0.13765143 0.48530954 1.853
0.084708571 0.49413335 1.853
0.093532383 0.49413335 1.853
0.10941524 0.49060383 1.853
0.035295241 0.50119245 1.853
0.045883812 0.50119239 1.853
-0.10290857 0.42937714 1.863
-0.095811442 0.42937717 1.8630002
-0.20581713 0.43647429 1.863
-0.19517145 0.43647429 1.8630002
-0.18452571 0.43647429 1.8630002
-0.15436286 0.43647429 1.863
-0.14549142 0.43647429 1.8630002
-0.1348457 0.43647429 1.8630002
-0.1242 0.43647429 1.863
-0.11266714 0.43558714 1.863
-0.10527428 0.43410859 1.8630002
-0.095811442 0.43292576 1.8630002
-0.084278576 0.43381289 1.863
-0.074519999 0.43470001 1.8630002
-0.063874289 0.43470001 1.8630002
-0.055002857 0.43470001 1.863
-0.014194285 0.43647429 1.8630002
-0.0053228568 0.43647429 1.863
0.0053228568 0.43647429 1.863
0.010645715 0.43647429 1.863
0.065648571 0.43647429 1.863
0.070971429 0.43647429 1.863
-0.24396428 0.44623286 1.863
-0.23420572 0.44298002 1.8630002
-0.22356002 0.44179711 1.8630002
-0.21468857 0.44179714 1.863
-0.20581715 0.44179714 1.8630002
-0.19517145 0.44002289 1.8630002
-0.18452571 0.44002289 1.8630002
-0.17388001 0.44002289 1.8630002
-0.16500857 0.44002286 1.863
-0.15791142 0.44002286 1.863
-0.14371714 0.44002286 1.863
-0.13307142 0.44002286 1.863
-0.12420001 0.44002289 1.8630002
-0.11355428 0.44002289 1.8630002
-0.072745711 0.44002286 1.863
-0.063874289 0.44002289 1.8630002
-0.055002857 0.44002286 1.863
-0.046131428 0.44499084 1.8630002
-0.036372855 0.44445854 1.863
-0.023952857 0.44179714 1.863
-0.014194285 0.44002286 1.863
-0.0047314288 0.44120571 1.8630002
0.0035485716 0.44179714 1.8630002
0.014904 0.44144231 1.8630002
0.024130289 0.44144231 1.8630002
0.035485715 0.44357142 1.8630002
0.047314286 0.44120571 1.8630002
0.054411434 0.44120571 1.8630002
0.063874282 0.44002286 1.863
0.076885715 0.44120571 1.8630002
0.084456004 0.44215199 1.8630002
0.095811427 0.44712004 1.8630002
0.10468285 0.44712001 1.863
0.11710285 0.44712001 1.863
0.12242572 0.44357142 1.863
0.13661999 0.44712001 1.863
0.14549142 0.44712004 1.8630002
-0.25313145 0.45658287 1.8630002
-0.24603429 0.45303428 1.8630002
0.097585723 0.45066857 1.863
0.10290857 0.45066857 1.863
0.1348457 0.45066857 1.863
0.14904 0.45066857 1.863
0.15525001 0.45332998 1.863
0.16589572 0.45421714 1.863
0.17175086 0.45350742 1.8630002
-0.25283572 0.46397573 1.863
-0.25194857 0.47373429 1.863
0.13366285 0.48733717 1.8630002
-0.21405715 0.4281143 1.8730001
-0.2033543 0.4281143 1.8730001
-0.10524476 0.4281143 1.8730001
-0.098109528 0.4281143 1.8730001
-0.089190483 0.4281143 1.8730001
-0.073136196 0.4281143 1.8730001
-0.06421715 0.4281143 1.8730001
-0.055298097 0.4281143 1.8730001
-0.24259812 0.43881717 1.8730001
-0.23546289 0.43739015 1.8730001
-0.22431406 0.4356955 1.8730001
-0.21450309 0.43480361 1.8730001
-0.20549488 0.43453604 1.8730001
-0.19621906 0.43346572 1.8730001
-0.18551621 0.43524954 1.8730001
-0.17481336 0.43703339 1.8730001
-0.16411048 0.43703336 1.8730001
-0.15459684 0.43406034 1.8730001
-0.14555886 0.43382248 1.8730001
-0.13646144 0.43435764 1.8730001
-0.12486667 0.43614146 1.8730001
-0.11487734 0.43310896 1.8730001
-0.10702857 0.43168193 1.8730001
-0.085622869 0.43168196 1.8730001
-0.074920006 0.43168196 1.8730001
-0.06421715 0.43168196 1.8730001
-0.055298097 0.43168193 1.8730001
-0.047092576 0.43739009 1.8730001
-0.035676196 0.4388172 1.8730001
-0.024081428 0.43792528 1.8730001
-0.013378572 0.43435764 1.8730001
-0.0059460322 0.43406034 1.8730001
0.0026757144 0.43614143 1.8730001
0.014984001 0.43667659 1.8730001
0.024973333 0.43703339 1.8730001
0.035676192 0.4388172 1.8730001
0.047270954 0.43792525 1.8730001
0.055892702 0.43762797 1.8730001
0.063325241 0.43614146 1.8730001
0.075811908 0.43703336 1.8730001
0.086336389 0.43739015 1.8730001
0.096325725 0.4388172 1.8730001
0.10524476 0.43881717 1.8730001
0.11416382 0.4388172 1.8730001
0.12486669 0.43703339 1.8730001
0.134856 0.43739009 1.8730001
0.14448857 0.43881717 1.8730001
-0.26043621 0.4477362 1.8730001
-0.25508481 0.4477362 1.8730001
-0.24687926 0.44381186 1.8730001
-0.2390305 0.44238478 1.8730001
-0.046379052 0.44238481 1.8730001
-0.035676192 0.44238481 1.8730001
-0.028540954 0.44238478 1.8730001
0.035676192 0.44238481 1.8730001
0.042811431 0.44238478 1.8730001
0.089190483 0.44238478 1.8730001
0.096325718 0.44416863 1.8730001
0.10524476 0.44416857 1.8730001
0.11416382 0.44416857 1.8730001
0.12575859 0.4432767 1.8730001
0.13556953 0.44416857 1.8730001
0.14627239 0.44416857 1.8730001
0.15483467 0.44666597 1.8730001
0.16470508 0.44714162 1.8730001
0.17481335 0.44595242 1.8730003
-0.26043621 0.45487148 1.8730001
-0.25567943 0.45427689 1.8730001
0.15697524 0.45308766 1.8730001
0.16232666 0.45308766 1.8730001
0.17838097 0.45308766 1.8730001
-0.26043624 0.46379054 1.8730001
-0.2568686 0.46735814 1.8730001
-0.2568686 0.47270957 1.8730001
-0.21520001 0.42681336 1.8830001
-0.20444 0.42681336 1.8830001
-0.19547334 0.42681336 1.8830001
-0.064560004 0.42681336 1.8830001
-0.055593338 0.42681336 1.8830001
-0.25226223 0.43637782 1.8830001
-0.24461067 0.43542138 1.8830003
-0.23492669 0.43398669 1.8830001
-0.22685668 0.43129671 1.8830001
-0.21520001 0.43040004 1.8830001
-0.20444001 0.43040004 1.8830001
-0.19368002 0.43159562 1.8830001
-0.18471333 0.43398669 1.8830001
-0.17574668 0.43398672 1.8830001
-0.16498668 0.43398672 1.8830001
-0.15422668 0.43398669 1.8830001
-0.14526001 0.43040004 1.8830001
-0.13629335 0.43279117 1.8830001
-0.12463667 0.43309003 1.8830001
-0.11477335 0.43040007 1.8830001
-0.093253337 0.43040004 1.8830001
-0.084286667 0.43040004 1.8830001
-0.07890667 0.43040004 1.8830001
-0.050213337 0.43219337 1.8830001
-0.044235557 0.43518227 1.8830001
-0.036584001 0.43613869 1.8830003
-0.025106668 0.43578002 1.8830001
-0.015064001 0.4318347 1.8830003
-0.0047822227 0.43159562 1.8830001
0.0035866671 0.4321934 1.8830003
0.014346667 0.43398672 1.8830001
0.025106668 0.43398672 1.8830001
0.03586667 0.43578005 1.8830003
0.045192003 0.43470404 1.8830003
0.053800005 0.43296197 1.8830004
0.064560004 0.43398672 1.8830001
0.075320005 0.43518227 1.8830001
0.08608 0.43338895 1.8830003
0.095046669 0.43398672 1.8830003
0.10401335 0.43398675 1.8830003
0.11528572 0.43501151 1.8830004
0.12553334 0.4321934 1.8830003
0.13680573 0.43296197 1.8830004
0.14526001 0.43578002 1.8830001
0.15422669 0.43757337 1.8830001
0.16857335 0.43757334 1.8830001
0.17574668 0.43757337 1.8830001
0.18292001 0.43757334 1.8830001
-0.26541337 0.44546404 1.8830003
-0.25465333 0.44295338 1.8830001
-0.24748001 0.44116005 1.8830001
0.15512334 0.44205672 1.8830001
0.1643889 0.44355115 1.8830003
0.17574668 0.44116005 1.8830001
0.18292001 0.44116005 1.8830001
-0.26631001 0.45461002 1.8830001
-0.2435143 0.42930666 1.8940001
-0.23449524 0.42930666 1.8940001
-0.22547619 0.42930666 1.8940001
-0.19120382 0.42930666 1.8940001
-0.1875962 0.42930666 1.8940001
-0.16234286 0.42930666 1.8940001
-0.15512761 0.42930669 1.8940001
-0.14430478 0.42930669 1.8940001
-0.13528571 0.42930666 1.8940001
-0.12626667 0.42930666 1.8940001
-0.11544381 0.42930669 1.8940001
-0.090190478 0.42930666 1.8940001
-0.086582862 0.42930666 1.8940001
-0.075759999 0.42930669 1.8940001
-0.064937145 0.42930666 1.8940001
-0.0072152382 0.42930666 1.8940001
0.05411429 0.42930669 1.8940001
0.086582862 0.42930666 1.8940001
0.094519623 0.4278636 1.8940001
0.10462096 0.42930669 1.8940001
0.11544381 0.42930669 1.8940001
0.12626667 0.42930669 1.8940001
0.13528571 0.42930666 1.8940001
0.14430477 0.42930669 1.8940001
-0.26335621 0.43652192 1.8940001
-0.25614095 0.4347181 1.8940001
-0.2453181 0.43291432 1.8940001
-0.23810287 0.43291429 1.8940001
-0.19120382 0.43291429 1.8940001
-0.18398857 0.43291432 1.8940001
-0.17496952 0.43291429 1.8940001
-0.16595048 0.43291432 1.8940001
-0.15512763 0.43291432 1.8940001
-0.13528571 0.43291429 1.8940001
-0.12807047 0.43291429 1.8940001
-0.045095243 0.43291429 1.8940001
-0.036076192 0.43411684 1.8940001
-0.026155239 0.43381619 1.8940001
0.014430477 0.43291432 1.8940001
0.025253333 0.43291432 1.8940001
0.036076188 0.43291432 1.8940001
0.043291431 0.43291429 1.8940001
0.064937145 0.43291432 1.8940001
0.075759999 0.43411684 1.8940001
0.082975239 0.43291429 1.8940001
0.11364 0.43291429 1.8940001
0.14610857 0.43291429 1.8940001
0.15422572 0.43562001 1.8940001
0.16685238 0.43562001 1.8940001
0.17496952 0.43652192 1.8940001
0.18218476 0.43652192 1.8940001
-0.27057144 0.44373715 1.8940001
-0.26576132 0.44373715 1.8940001
-0.25974858 0.44193333 1.8940001
0.16414666 0.44012955 1.8940001
-0.25386667 0.42794669 1.904
-0.2448 0.42794669 1.904
-0.23573333 0.42794669 1.904
-0.22485334 0.42794669 1.904
-0.21397334 0.42794669 1.904
-0.20490667 0.42794669 1.904
-0.19765332 0.42794669 1.904
-0.15594667 0.42794669 1.904
-0.13056 0.42794669 1.904
-0.12512 0.42794669 1.904
-0.11968 0.42794669 1.904
-0.065280005 0.42794669 1.904
-0.054400004 0.42794669 1.904
0.08704 0.42794669 1.904
0.090666667 0.42794669 1.904
0.10608 0.42704001 1.904
0.11605334 0.42794669 1.904
0.12512 0.42794669 1.904
0.13418667 0.42794669 1.904
0.14506668 0.42794669 1.904
-0.27200001 0.43882668 1.904
-0.26383999 0.43520001 1.904
-0.25386667 0.43157333 1.904
-0.23573333 0.43157333 1.904
-0.18314667 0.43157333 1.904
-0.17408 0.43157333 1.904
-0.16682667 0.43157333 1.904
-0.12693334 0.43157333 1.904
-0.10517333 0.43157333 1.904
-0.096106663 0.43157333 1.904
-0.083413333 0.43157333 1.904
-0.050773334 0.43157333 1.904
-0.045333333 0.43157333 1.904
-0.036266666 0.43278223 1.904
-0.023573333 0.43157333 1.904
-0.014506668 0.43157333 1.904
-0.0036266667 0.43157333 1.904
0.0036266667 0.43157333 1.904
0.014506668 0.43157333 1.904
0.038079999 0.43157333 1.904
0.045333333 0.43157333 1.904
0.065280005 0.43157333 1.904
0.076159999 0.43278223 1.904
0.083413333 0.43157333 1.904
0.156672 0.43302402 1.9040002
0.16501334 0.43520001 1.904
0.17408 0.43399113 1.904
0.18314667 0.43520001 1.904
-0.27200001 0.44245335 1.904
-0.26837331 0.44245335 1.904
-0.25533336 0.42677146 1.9150002
-0.24439049 0.42585954 1.9150001
-0.23587939 0.42555556 1.9150002
-0.22615239 0.42677146 1.9150002
-0.21520953 0.42677146 1.9150002
-0.20426667 0.42677146 1.9150002
-0.19697143 0.42677143 1.9150001
-0.16049524 0.42677143 1.9150001
-0.15502381 0.42677143 1.9150001
-0.14590478 0.42677146 1.9150002
0.094838105 0.42677146 1.9150002
0.10395715 0.42677143 1.9150001
0.11490001 0.42677143 1.9150001
0.12401905 0.42677146 1.9150002
0.1349619 0.42677146 1.9150002
0.14590478 0.42677146 1.9150002
0.1532 0.42677143 1.9150001
0.17873335 0.42677143 1.9150001
0.18420476 0.42677143 1.9150001
-0.26627621 0.43406671 1.9150002
-0.19332381 0.43041909 1.9150001
-0.18602858 0.43041909 1.9150002
-0.17508572 0.43041909 1.9150002
-0.16596667 0.43041909 1.9150001
-0.14590478 0.43041909 1.9150002
-0.13678572 0.43041909 1.9150001
-0.11490001 0.43041909 1.9150001
-0.10578096 0.43041909 1.9150002
-0.094838105 0.43041909 1.9150002
-0.083895236 0.43041909 1.9150002
-0.074776188 0.43041909 1.9150001
-0.043771427 0.43041909 1.9150002
-0.034044445 0.43163496 1.9150002
-0.029180953 0.43224287 1.9150001
-0.0054714289 0.43041909 1.9150001
0.0036476194 0.43041909 1.9150002
0.014590478 0.43041909 1.9150002
0.025533333 0.43406671 1.9150002
0.032828573 0.43406668 1.9150001
0.043771431 0.43041909 1.9150001
0.054714289 0.43041909 1.9150002
0.065657154 0.43163496 1.9150002
0.074776188 0.43224287 1.9150001
0.082071431 0.43041909 1.9150001
0.15502381 0.43041909 1.9150001
0.16487239 0.43187809 1.9150002
0.17581525 0.43187815 1.9150002
0.18420476 0.43224287 1.9150001
-0.25300002 0.42533332 1.9250001
-0.242 0.42533332 1.9250001
-0.23283334 0.42533332 1.9250001
-0.2255 0.42533332 1.9250001
-0.21633334 0.42533332 1.9250001
-0.20716667 0.42533332 1.9250001
-0.1936 0.42679998 1.9250001
-0.16316667 0.42716667 1.9250001
-0.15400001 0.42533335 1.9250001
-0.14666666 0.42533332 1.9250001
-0.13566668 0.42900002 1.9250001
-0.12833333 0.42900002 1.9250001
0.055000003 0.42900002 1.9250001
0.066000007 0.42900002 1.9250001
0.075166672 0.42900002 1.9250001
0.08433333 0.42900002 1.9250001
0.12833333 0.42533332 1.9250001
0.13750002 0.42533332 1.9250001
0.15766667 0.42900002 1.9250001
0.16500001 0.4271667 1.9250001
0.17526667 0.42679998 1.9250001
0.18333334 0.42533332 1.9250001
-0.27133337 0.43450004 1.9250001
-0.26766667 0.43266669 1.9250001
-0.023833334 0.43266669 1.9250001
-0.014666667 0.43266672 1.9250001
0.025666669 0.43266672 1.9250001
0.034833334 0.43266669 1.9250001
0.044 0.43266669 1.9250001
0.066 0.43266669 1.9250001
0.077000007 0.43266669 1.9250001
-0.26182097 0.42776385 1.9360001
-0.25352383 0.42592004 1.9360001
-0.24522668 0.4240762 1.9360001
-0.23600763 0.4240762 1.9360002
-0.22402287 0.4249981 1.9360001
-0.21388191 0.42530543 1.9360002
-0.20466286 0.42592001 1.9360001
-0.19544384 0.4240762 1.9360002
-0.18438098 0.42776388 1.9360002
-0.17700572 0.42776385 1.9360001
-0.16594288 0.42653462 1.9360002
-0.15672381 0.4240762 1.9360001
-0.14381716 0.42653462 1.9360002
-0.13644192 0.42776385 1.9360001
0.097721912 0.42776385 1.9360001
0.10509715 0.42776385 1.9360001
0.11431621 0.42776388 1.9360002
0.12353525 0.42776385 1.9360001
0.13398351 0.42530543 1.9360002
0.14455467 0.42555127 1.9360001
0.15488002 0.42776388 1.9360002
-0.2673524 0.43145144 1.9360001
-0.18438098 0.43145144 1.9360002
-0.17516191 0.43145144 1.9360001
-0.16963048 0.43145144 1.9360001
-0.12353525 0.43145144 1.9360001
-0.11800382 0.43145144 1.9360001
-0.084815249 0.43145144 1.9360002
-0.073752381 0.43145144 1.9360001
-0.062689528 0.43145144 1.9360001
-0.051626671 0.43145144 1.9360001
-0.044251431 0.43145144 1.9360001
-0.035032384 0.43145144 1.9360001
-0.029500954 0.43145144 1.9360001
-0.014750477 0.43145144 1.9360002
-0.0055314288 0.43145144 1.9360001
0.0036876192 0.43145144 1.9360002
0.014750476 0.43145144 1.9360002
0.022125715 0.43145144 1.9360001
0.035032384 0.43145144 1.9360001
0.044251435 0.43145144 1.9360002
-0.24476574 0.41906863 1.9470003
-0.2354943 0.4190686 1.9470001
-0.22622287 0.41906863 1.9470003
-0.21880573 0.4190686 1.9470001
-0.25681859 0.42370433 1.9470001
-0.24476574 0.42277718 1.9470003
-0.2354943 0.42277718 1.9470001
-0.22622287 0.42277718 1.9470003
-0.21509716 0.42370433 1.9470001
-0.20397145 0.42370433 1.9470001
-0.18542859 0.42648575 1.9470003
-0.17430286 0.42648575 1.9470003
-0.16688572 0.42648575 1.9470001
-0.15205143 0.42648575 1.9470001
-0.14216191 0.42524958 1.9470003
-0.13536286 0.42648575 1.9470001
0.096422866 0.42648575 1.9470001
0.10198572 0.42648575 1.9470001
0.11682001 0.42648575 1.9470001
0.12609145 0.42648575 1.9470003
0.13536286 0.42277718 1.9470001
0.14463429 0.42277718 1.9470003
0.15483287 0.42555863 1.9470001
0.16317715 0.42648575 1.9470001
0.17430288 0.42648575 1.9470001
-0.27258003 0.43204859 1.9470001
-0.26701716 0.43019432 1.9470001
-0.17430288 0.43019432 1.9470001
-0.13350858 0.43019432 1.9470001
-0.12609145 0.43019432 1.9470003
-0.11496572 0.43266672 1.9470003
-0.10291287 0.43297571 1.9470001
-0.09456858 0.43204859 1.9470001
-0.085297152 0.43019432 1.9470003
-0.074171439 0.43143052 1.9470003
-0.064900003 0.43204859 1.9470001
-0.055628579 0.43266672 1.9470003
-0.046357147 0.43204859 1.9470001
-0.024105716 0.43390286 1.9470001
0.027814288 0.43390286 1.9470001
0.085297152 0.43019432 1.9470003
0.092714287 0.43019432 1.9470001
-0.26106665 0.41770667 1.9580001
-0.25547236 0.41584194 1.9580001
-0.24708097 0.41677433 1.9580001
-0.23589239 0.41677433 1.9580001
-0.22377144 0.41770667 1.9580001
-0.21444762 0.41770667 1.9580001
-0.2647962 0.42640895 1.9580001
-0.25547236 0.42143622 1.9580001
-0.21444762 0.42143622 1.9580001
-0.20512383 0.42143625 1.9580001
-0.19486761 0.42423332 1.9580001
-0.18461142 0.42516571 1.9580001
-0.17528763 0.42516574 1.9580001
-0.16409905 0.42516574 1.9580001
-0.15477523 0.42516571 1.9580001
-0.14545143 0.42392254 1.9580001
-0.13333048 0.42609811 1.9580001
-0.12556063 0.42765209 1.9580001
-0.11934476 0.42889526 1.9580001
-0.10256191 0.42889526 1.9580001
-0.095102862 0.42889526 1.9580001
-0.085779056 0.42889529 1.9580001
-0.074590474 0.42889529 1.9580001
-0.065266669 0.42889526 1.9580001
-0.059672382 0.42889526 1.9580001
0.06713143 0.42889526 1.9580001
0.074590474 0.42889529 1.9580001
0.085779056 0.42889529 1.9580001
0.093238093 0.42889526 1.9580001
0.10629143 0.4270305 1.9580001
0.11468286 0.42609811 1.9580001
0.12493904 0.42516571 1.9580001
0.13426286 0.42267939 1.9580001
0.14545143 0.42143625 1.9580001
0.15539682 0.42267939 1.9580001
0.16409905 0.42454416 1.9580001
0.17528762 0.42665753 1.9580001
0.18274666 0.4270305 1.9580001
-0.11375048 0.43262476 1.9580001
-0.10629143 0.43262476 1.9580001
-0.074590474 0.43262476 1.9580001
-0.06713143 0.43262476 1.9580001
-0.057807621 0.43262476 1.9580001
-0.042889524 0.43262476 1.9580001
-0.037295237 0.43262476 1.9580001
-0.029836191 0.43262476 1.9580001
-0.013053333 0.43262476 1.9580001
-0.0055942857 0.43262476 1.9580001
0.022377143 0.43262476 1.9580001
0.035430476 0.43262476 1.9580001
0.044754289 0.43262476 1.9580001
0.05594286 0.43262476 1.9580001
0.065266669 0.43262476 1.9580001
0.074590474 0.43262476 1.9580001
-0.26253334 0.41442764 1.9690001
-0.25503239 0.41255242 1.9690002
-0.24565621 0.41630286 1.9690001
-0.23440477 0.41630286 1.9690001
-0.2250286 0.41630286 1.9690002
-0.21752763 0.41630286 1.9690001
0.13876763 0.41630286 1.9690001
0.14439334 0.41630286 1.9690001
0.15001905 0.41630286 1.9690001
-0.27128446 0.42505401 1.9690002
-0.26628384 0.42380387 1.9690002
-0.21002668 0.42005336 1.9690001
-0.20440096 0.42005336 1.9690001
-0.19502477 0.42255366 1.9690002
-0.18377334 0.42380387 1.9690002
-0.15001905 0.42380384 1.9690001
-0.14626858 0.42380384 1.9690001
-0.13689238 0.42380384 1.9690001
-0.12189049 0.42755431 1.9690001
-0.11438952 0.42755431 1.9690001
-0.1031381 0.42755431 1.9690001
-0.093761906 0.42755431 1.9690002
-0.084385723 0.42755431 1.9690001
-0.075009525 0.42755431 1.9690002
-0.063758098 0.42755431 1.9690001
0.078760006 0.42755431 1.9690001
0.084385723 0.42755431 1.9690001
0.094699524 0.42661673 1.9690001
0.10501333 0.42530403 1.9690001
0.11438952 0.42380384 1.9690001
0.12470333 0.4228662 1.9690001
0.13407952 0.42099097 1.9690001
0.14439334 0.42005336 1.9690001
0.15376954 0.42005336 1.9690002
0.16595858 0.42099097 1.9690001
0.17439716 0.42380384 1.9690001
0.18002287 0.42380384 1.9690001
-0.27378479 0.43130478 1.9690001
-0.11438952 0.43130478 1.9690001
-0.10876381 0.43130478 1.9690001
-0.054381907 0.43130478 1.9690001
-0.033754285 0.43505526 1.9690001
-0.024378097 0.43505526 1.9690001
-0.015001905 0.43318003 1.9690001
-0.0075009526 0.43130478 1.9690001
0.0037504765 0.43318003 1.9690001
0.014064286 0.43411765 1.9690001
0.025003176 0.43255496 1.9690002
0.032816667 0.43224242 1.9690001
0.045005716 0.43130478 1.9690002
0.054381907 0.43130478 1.9690001
0.061882861 0.43130478 1.9690001
-0.26777145 0.4186286 1.9800001
-0.24514288 0.41485721 1.9800003
-0.23382859 0.41485721 1.9800003
-0.22440001 0.41485718 1.9800001
-0.21308573 0.4186286 1.9800001
-0.20742859 0.4186286 1.9800001
0.12445717 0.41862863 1.9800003
0.13577142 0.41674289 1.9800001
0.14708573 0.41485718 1.9800001
0.15651429 0.41674289 1.9800001
0.16500002 0.41768575 1.9800001
0.17348573 0.4186286 1.9800001
-0.27405715 0.42491433 1.9800003
-0.19422859 0.42240003 1.9800001
-0.18857144 0.42240003 1.9800001
-0.17537144 0.42617145 1.9800001
-0.16594288 0.42617148 1.9800003
-0.15651429 0.42617145 1.9800001
-0.1433143 0.42240003 1.9800001
-0.132 0.42617145 1.9800001
-0.12822859 0.42617145 1.9800001
-0.10937144 0.42994288 1.9800001
-0.064114287 0.42994288 1.9800001
0.015085716 0.42994288 1.9800001
0.024514288 0.42994288 1.9800001
0.03394286 0.42994291 1.9800003
0.045257147 0.42994291 1.9800003
0.054685719 0.42994288 1.9800001
0.064114295 0.42994291 1.9800003
0.073542863 0.42994288 1.9800001
0.094285727 0.42491433 1.9800003
0.10560001 0.42240006 1.9800003
0.11502858 0.42240003 1.9800001
0.12257144 0.42240003 1.9800001
0.17537144 0.42240003 1.9800001
0.18102859 0.42240003 1.9800001
-0.28285718 0.43748575 1.9800001
-0.27908573 0.43748575 1.9800001
-0.049028575 0.4337143 1.9800001
-0.015085715 0.4337143 1.9800001
-0.0037714287 0.4337143 1.9800001
0.01697143 0.4337143 1.9800001
-0.28285718 0.44125718 1.9800001
0.14520001 0.78634292 1.9800001
0.15368572 0.7872858 1.9800001
0.14520001 0.79200006 1.9800001
0.15274286 0.79200006 1.9800001
-0.22006857 0.41737145 1.9920001
-0.21627429 0.41737145 1.9920001
0.12900572 0.41737145 1.9920001
0.1328 0.41737145 1.9920001
0.14418288 0.41737145 1.9920001
0.15177144 0.41737145 1.9920001
0.16694857 0.41737145 1.9920001
0.17453715 0.41737145 1.9920001
0.18212572 0.41737145 1.9920001
-0.27318859 0.42116573 1.9920001
-0.20489144 0.42116573 1.9920001
-0.18402286 0.42496002 1.9920001
-0.17453715 0.42496002 1.9920001
-0.16505143 0.42496002 1.9920001
-0.15556572 0.42496002 1.9920001
-0.14797714 0.42496002 1.9920001
-0.12331429 0.4287543 1.9920001
-0.11382858 0.4287543 1.9920001
-0.10624 0.4287543 1.9920001
-0.094857141 0.4287543 1.9920001
-0.077782862 0.4287543 1.9920001
0.024662858 0.4287543 1.9920001
0.032251433 0.4287543 1.9920001
0.047428571 0.4287543 1.9920001
0.053120002 0.4287543 1.9920001
0.064502865 0.4287543 1.9920001
0.077782862 0.4287543 1.9920001
0.085371435 0.4287543 1.9920001
0.094857149 0.42369527 1.9920001
0.10434286 0.42116573 1.9920001
0.11382857 0.42116576 1.9920001
0.17833145 0.42116573 1.9920001
0.18212572 0.42116573 1.9920001
-0.28204191 0.43507814 1.9920001
-0.055017143 0.43254858 1.9920001
-0.043634288 0.4363429 1.9920001
-0.022765715 0.4363429 1.9920001
-0.01897143 0.4363429 1.9920001
-0.0075885719 0.43254858 1.9920001
0.0037942859 0.43254858 1.9920001
0.015177144 0.43254858 1.9920001
0.12900572 0.78921145 1.9920001
0.13469714 0.78731436 1.9920001
0.14038858 0.78921145 1.9920001
0.13469714 0.79490292 1.9920001
0.14038858 0.79490292 1.9920001
0.14228573 0.80059427 1.9920001
-0.27278954 0.41967618 2.003
-0.24417526 0.41586098 2.003
-0.23463714 0.41586095 2.003
-0.22891429 0.41586095 2.003
-0.21365333 0.41967618 2.003
-0.20983809 0.41967618 2.003
-0.17550094 0.41967618 2.003
0.10682666 0.41967618 2.003
0.1152202 0.41815004 2.003
0.12513982 0.41738707 2.003
0.13544096 0.41586095 2.003
0.14497906 0.41586098 2.003
0.15451714 0.41586095 2.003
0.16481827 0.41433486 2.003
0.176264 0.41433486 2.003
0.18313143 0.41586095 2.003
-0.20220762 0.42349145 2.003
-0.19457714 0.42349145 2.003
-0.18694668 0.42349145 2.003
-0.17550096 0.42349145 2.003
-0.16405523 0.42349145 2.003
-0.15451714 0.42349145 2.003
-0.14497906 0.42539907 2.003
-0.13734858 0.42730665 2.003
0.076304764 0.42730665 2.003
0.084698282 0.42578059 2.003
0.09347333 0.42349145 2.003
-0.28614286 0.43398333 2.003
-0.10301143 0.43112192 2.003
-0.095380954 0.43112192 2.003
-0.085842855 0.43112192 2.003
-0.072489522 0.43112192 2.003
-0.041967619 0.43493712 2.003
-0.034337144 0.43875238 2.003
-0.024799047 0.43684477 2.003
-0.015260953 0.43493712 2.003
-0.0038152381 0.43493712 2.003
0.0038152381 0.43493712 2.003
0.015260953 0.43112192 2.003
0.038152382 0.43112192 2.003
0.041967619 0.43112192 2.003
0.057228573 0.43112192 2.003
0.072489522 0.43112192 2.003
-0.28995809 0.44447523 2.003
0.12717462 0.79611301 2.003
0.1297181 0.80501527 2.003
0.13544096 0.80692279 2.003
0.14593287 0.80787665 2.003
0.082027614 0.82790667 2.003
-0.26099047 0.4183524 2.0150001
-0.25523335 0.41643333 2.0150001
-0.23604287 0.4145143 2.0150001
-0.22452858 0.4183524 2.0150001
0.10554762 0.4183524 2.0150001
0.11322381 0.41643333 2.0150001
0.13433333 0.4145143 2.0150001
0.14584765 0.4145143 2.0150001
0.15544286 0.4145143 2.0150001
0.16503811 0.4119556 2.0150001
0.17399368 0.4119556 2.0150001
-0.2827397 0.42730796 2.0150001
-0.20533811 0.42219049 2.0150001
-0.19574289 0.42219052 2.0150001
-0.18422858 0.42346987 2.0150001
-0.17271429 0.42219049 2.0150001
-0.16695715 0.42219049 2.0150001
-0.13433333 0.42986667 2.0150001
-0.12281905 0.42986667 2.0150001
-0.11514287 0.42986667 2.0150001
-0.10746667 0.42986667 2.0150001
-0.099790484 0.42986667 2.0150001
0.015352381 0.42986667 2.0150001
0.024947619 0.42986667 2.0150001
0.034542859 0.42986667 2.0150001
0.046057146 0.42986667 2.0150001
0.055652384 0.42986667 2.0150001
0.066207141 0.42890716 2.0150001
0.074203186 0.42730793 2.0150001
0.080600001 0.42602858 2.0150001
0.095952392 0.42219052 2.0150001
0.10362858 0.42219049 2.0150001
-0.29361433 0.43562379 2.0150001
-0.065247625 0.43370479 2.0150001
-0.057571433 0.43370476 2.0150001
-0.047976192 0.43754286 2.0150001
-0.034542859 0.43754286 2.0150001
-0.026866667 0.43754286 2.0150001
-0.0038380953 0.43370476 2.0150001
0.0038380953 0.43370476 2.0150001
-0.29553336 0.44330001 2.0150001
0.088276193 0.78680956 2.0150001
0.094033331 0.78680956 2.0150001
0.088276193 0.79064769 2.0150001
0.12665714 0.80983812 2.0150001
0.15544286 0.80983812 2.0150001
0.1612 0.80983812 2.0150001
0.084438108 0.81623495 2.0150001
0.092114285 0.81367624 2.0150001
0.11706191 0.81559527 2.0150001
0.1247381 0.81559527 2.0150001
0.13433334 0.8175143 2.0150001
0.14584763 0.8175143 2.0150001
0.15544286 0.81559527 2.0150001
0.1612 0.81559527 2.0150001
0.069085717 0.82519054 2.0150001
0.075482547 0.8264699 2.0150001
0.083670489 0.82365531 2.0150001
0.11898096 0.82902861 2.0150001
0.12512191 0.82519054 2.0150001
0.13433333 0.82519054 2.0150001
0.14354478 0.82442296 2.0150001
0.076761909 0.83286673 2.0150001
0.11898096 0.83670479 2.0150001
0.1247381 0.83478576 2.0150001
0.13356571 0.83440202 2.0150001
0.14200953 0.83286673 2.0150001
-0.33391434 0.84438103 2.0150001
0.1247381 0.84438097 2.0150003
0.13385357 0.84390122 2.0150001
-0.2509619 0.41698289 2.0270002
-0.2451705 0.41698289 2.0270002
-0.23165716 0.41698289 2.0270002
0.10810667 0.41698289 2.0270002
0.11582857 0.41698289 2.0270002
0.12548096 0.41698289 2.0270002
0.13513336 0.41698289 2.0270002
0.14671621 0.41312194 2.0270002
0.15443811 0.41312194 2.0270002
0.16216002 0.41312194 2.0270002
-0.27026668 0.42084384 2.0270002
-0.26640573 0.42084384 2.0270002
-0.2200743 0.42084384 2.0270002
-0.21428287 0.42084384 2.0270002
-0.1949781 0.42084384 2.0270002
-0.18532573 0.42180908 2.0270002
-0.17567335 0.42084384 2.0270002
-0.16216002 0.42470479 2.0270002
-0.15636858 0.42470479 2.0270002
-0.14671621 0.42856577 2.0270002
0.015443811 0.4285658 2.0270002
0.025096193 0.42856577 2.0270002
0.032818101 0.42856577 2.0270002
0.046331432 0.42856577 2.0270002
0.054053336 0.42856577 2.0270002
0.065636195 0.42856577 2.0270002
0.077219054 0.42470479 2.0270002
0.086871438 0.42470479 2.0270002
0.094593339 0.42084384 2.0270002
0.10038476 0.42084384 2.0270002
-0.13127239 0.43242669 2.0270002
-0.12741144 0.43242669 2.0270002
-0.10424572 0.43242669 2.0270002
-0.094593339 0.43242669 2.0270002
-0.084940962 0.43242669 2.0270002
-0.075288579 0.43242669 2.0270002
-0.052122861 0.43628767 2.0270002
-0.044400956 0.43628767 2.0270002
-0.034748577 0.4362877 2.0270002
-0.025096193 0.43628767 2.0270002
-0.015443811 0.4362877 2.0270002
-0.0077219056 0.43628767 2.0270002
0.003860953 0.43371367 2.0270002
-0.023165716 0.6486401 2.0270002
-0.019304764 0.6486401 2.0270002
-0.025096193 0.65250099 2.0270002
-0.11196762 0.76446861 2.0270002
-0.10810667 0.76446861 2.0270002
0.0859062 0.79632151 2.0270002
0.094593339 0.79728675 2.0270002
0.086871438 0.80500865 2.0270002
0.094593339 0.80500865 2.0270002
0.10038476 0.80500865 2.0270002
-0.30115432 0.81466103 2.0270002
-0.29600638 0.81208706 2.0270002
0.069497153 0.81852198 2.0270002
0.075932071 0.81594801 2.0270002
0.085584454 0.81466103 2.0270004
0.094979435 0.81388885 2.0270002
0.10270134 0.81620544 2.0270002
-0.19304763 0.82624388 2.0270002
-0.18532573 0.82624388 2.0270002
-0.17567335 0.82624388 2.0270002
0.069497153 0.8243134 2.0270002
0.075288579 0.8243134 2.0270002
0.088801913 0.8243134 2.0270002
0.094593339 0.8243134 2.0270002
0.10328048 0.82334816 2.0270002
0.11486334 0.82527864 2.0270002
0.15250763 0.82624388 2.0270002
0.065636203 0.83451736 2.0270004
0.073358104 0.83589625 2.0270002
0.084940962 0.83396578 2.0270002
0.094593339 0.8320353 2.0270002
0.10424571 0.83396578 2.0270002
0.11647207 0.83396578 2.0270004
0.12355049 0.83010483 2.0270002
0.15250763 0.83010483 2.0270002
0.11775906 0.84554863 2.0270002
0.13899431 0.84168768 2.0270002
0.14285526 0.84361815 2.0270002
0.11968953 0.85327053 2.0270002
-0.27186665 0.40779999 2.039
-0.26798287 0.40779999 2.039
0.15794158 0.40521082 2.039
0.16312 0.40779999 2.039
-0.27464083 0.4161225 2.039
-0.26465389 0.41556767 2.039
-0.25438952 0.41556764 2.039
-0.24468002 0.41556764 2.039
-0.23497048 0.41556764 2.039
-0.22526096 0.41945145 2.039
-0.21555144 0.41945145 2.039
0.095153332 0.41945145 2.039
0.10292096 0.41945145 2.039
0.11651429 0.41556764 2.039
0.12428191 0.41556764 2.039
0.13593334 0.41556764 2.039
0.14370096 0.41556764 2.039
0.15923619 0.4116838 2.039
0.16506191 0.4116838 2.039
-0.27769238 0.42333525 2.039
-0.2058419 0.42333525 2.039
-0.17088762 0.42333525 2.039
0.06796667 0.42721906 2.039
0.073792383 0.42721906 2.039
0.085443817 0.42462987 2.039
-0.29516953 0.43498668 2.039
-0.14370096 0.43110287 2.039
-0.13787523 0.43110287 2.039
-0.12428191 0.43110287 2.039
-0.11457238 0.43110287 2.039
-0.10486286 0.43110287 2.039
-0.066024765 0.43498668 2.039
-0.05631524 0.43498668 2.039
-0.044663809 0.43498668 2.039
-0.034954287 0.43498668 2.039
-0.025244761 0.43498668 2.039
-0.015535238 0.43498668 2.039
-0.0058257142 0.43498668 2.039
0.0058257142 0.43304479 2.039
0.038838092 0.43110287 2.039
0.042721905 0.43110287 2.039
0.054373331 0.43110287 2.039
0.062140953 0.43110287 2.039
-0.054373335 0.59422284 2.039
-0.056962542 0.60716891 2.039
-0.017477142 0.65636379 2.039
-0.025892064 0.6615423 2.039
-0.017477142 0.66024762 2.039
-0.11651429 0.76899433 2.039
-0.20506513 0.77520841 2.039
-0.19807428 0.77482003 2.039
-0.11263048 0.77287811 2.039
-0.10874667 0.77287811 2.039
-0.21458048 0.78550053 2.039
-0.2058419 0.78685981 2.039
-0.19613239 0.78841329 2.039
-0.21555144 0.79229712 2.039
-0.20681286 0.79326808 2.039
-0.19613239 0.79423904 2.039
0.038838092 0.79423904 2.039
0.042721905 0.79229712 2.039
0.076381586 0.79488635 2.039
0.081560001 0.79423904 2.039
-0.20972572 0.80006474 2.039
-0.19613239 0.80006474 2.039
0.069908567 0.80589044 2.039
0.07573428 0.80394858 2.039
0.081560001 0.80394858 2.039
-0.31070474 0.8175419 2.039
-0.30552638 0.81689465 2.039
-0.29258034 0.81818926 2.039
-0.28546 0.8175419 2.039
-0.27186665 0.81948382 2.039
-0.26409906 0.81754196 2.039
-0.25503683 0.81818926 2.039
-0.24856381 0.81948382 2.039
-0.18448095 0.81948382 2.039
-0.17671335 0.81560004 2.039
0.068937615 0.81657094 2.039
0.075345904 0.81560004 2.039
0.081560001 0.81560004 2.039
-0.30293715 0.82530951 2.039
-0.29905334 0.82530951 2.039
-0.27186665 0.82530951 2.039
-0.26409906 0.82530951 2.039
-0.25438952 0.82530951 2.039
-0.24565096 0.82628047 2.039
-0.23691238 0.82725143 2.039
-0.19419049 0.82725143 2.039
-0.18448095 0.82530951 2.039
-0.1755482 0.82492113 2.039
-0.16700381 0.8233676 2.039
0.066024765 0.82725143 2.039
-0.30449069 0.83579588 2.039
-0.29749981 0.83579588 2.039
-0.27186665 0.83501911 2.039
-0.26409906 0.83501911 2.0389998
-0.25438952 0.83501911 2.039
-0.24468002 0.83446431 2.039
-0.23561779 0.83631372 2.039
0.058257144 0.83501911 2.039
0.063435562 0.8337245 2.039
0.10551016 0.83437181 2.039
0.11263048 0.83501905 2.039
-0.30293715 0.84472859 2.039
-0.29711145 0.84278667 2.039
0.089327618 0.84278667 2.039
0.095153332 0.84278667 2.039
0.10583381 0.84375763 2.039
0.11263048 0.84472859 2.039
-0.33400762 0.85637999 2.039
-0.32235619 0.85832191 2.039
-0.30293715 0.85055429 2.039
0.11651429 0.85443813 2.039
-0.26174667 0.40629336 2.0510001
0.15236001 0.40629336 2.0510001
-0.26435113 0.41150224 2.0510001
-0.2547147 0.41254401 2.0510004
-0.24416669 0.41410667 2.0510001
-0.23283735 0.41410667 2.0510004
-0.22502401 0.41488799 2.0510004
-0.21584335 0.41703671 2.0510001
-0.2051 0.41801336 2.0510001
0.095713332 0.41801336 2.0510001
0.10548 0.41801339 2.0510001
0.11329334 0.41801336 2.0510001
0.14650001 0.41410667 2.0510001
0.15431334 0.41215333 2.0510001
-0.21096 0.42192 2.0510001
-0.2051 0.42192 2.0510001
-0.19533335 0.42192 2.0510001
-0.18556666 0.42192 2.0510001
-0.16408001 0.42582667 2.0510001
-0.15431334 0.42778003 2.0510001
-0.14454667 0.42973337 2.0510001
-0.12696667 0.42973337 2.0510001
0.0078133335 0.42973337 2.0510001
0.015626669 0.42973337 2.0510001
0.025393333 0.42973337 2.0510001
0.035160001 0.42973337 2.0510001
0.045577779 0.42843112 2.0510001
0.054693334 0.42973337 2.0510001
0.062506668 0.42973337 2.0510001
0.076180004 0.42582667 2.0510001
0.085946672 0.42322224 2.0510001
-0.13282667 0.43364 2.0510001
-0.10548 0.43364 2.0510001
-0.097666666 0.43364 2.0510001
-0.062506668 0.43364 2.0510001
-0.054693338 0.43494225 2.0510001
-0.035160001 0.43364 2.0510001
-0.025393333 0.43364 2.0510001
-0.015626669 0.43364 2.0510001
-0.0058599999 0.43364 2.0510001
0.0019533334 0.43364 2.0510001
-0.064460002 0.58990669 2.0510001
-0.055995554 0.58860445 2.0510001
-0.064460002 0.59576672 2.0510001
-0.054693338 0.59537601 2.0510004
-0.044926669 0.59772003 2.0510001
-0.070320003 0.60748672 2.0510001
-0.064460009 0.60553336 2.0510004
-0.054135244 0.6044172 2.0510004
-0.046880003 0.60162669 2.0510001
-0.070320003 0.61530006 2.0510001
-0.064460002 0.61530006 2.0510001
-0.053912003 0.61569071 2.0510004
-0.027346667 0.65632004 2.0510001
-0.023440002 0.66804004 2.0510001
-0.017580001 0.66804004 2.0510001
-0.023440002 0.6719467 2.0510001
-0.017580001 0.6719467 2.0510001
-0.066413336 0.68366671 2.0510001
-0.054693334 0.68757337 2.0510001
-0.07422667 0.69929338 2.0510001
-0.062506668 0.69929338 2.0510001
-0.054693334 0.69734001 2.0510001
-0.062506668 0.70515335 2.0510001
-0.056646667 0.70515335 2.0510001
-0.076180004 0.71687335 2.0510001
-0.062506668 0.71296668 2.0510001
-0.056256004 0.71413869 2.0510004
-0.076180004 0.72273338 2.0510001
-0.055995554 0.72403562 2.0510001
-0.017580001 0.72664005 2.0510001
-0.054693334 0.73640668 2.0510001
-0.017580001 0.73054671 2.0510001
-0.05339111 0.7435689 2.0510001
-0.054693334 0.75008005 2.0510001
-0.19533333 0.77742672 2.0510001
-0.12110668 0.77547336 2.0510001
-0.1172 0.77742672 2.0510001
-0.10352667 0.77547336 2.0510001
-0.097666666 0.77742672 2.0510001
-0.21096 0.78524005 2.0510001
-0.20575111 0.7865423 2.0510001
-0.19689602 0.78602141 2.0510004
-0.14064001 0.78914672 2.0510001
-0.13478 0.78914672 2.0510001
-0.12403667 0.78817004 2.0510001
-0.11524668 0.78524005 2.0510004
-0.10548001 0.78524005 2.0510004
-0.09571334 0.78524011 2.0510004
-0.085946672 0.78914678 2.0510001
-0.078133337 0.78914672 2.0510001
-0.019533334 0.78914672 2.0510001
0.046880003 0.78914672 2.0510001
-0.26565334 0.79696006 2.0510001
-0.23049335 0.79696006 2.0510001
-0.22463334 0.79500669 2.0510001
-0.18556666 0.79696006 2.0510001
-0.17658135 0.7953974 2.0510004
-0.13282667 0.79696006 2.0510001
-0.12501335 0.79500675 2.0510004
-0.11524667 0.79500669 2.0510001
-0.10645667 0.79403007 2.0510001
-0.095713332 0.79305339 2.0510001
-0.085165344 0.7946161 2.0510004
-0.076180004 0.79500675 2.0510001
-0.019533334 0.79500675 2.0510001
-0.0039066668 0.79305339 2.0510001
0.025393333 0.79696006 2.0510001
0.035160001 0.79500675 2.0510001
0.045577779 0.79435563 2.0510001
0.053716667 0.79598343 2.0510001
0.072273336 0.79696006 2.0510001
-0.26565334 0.80555469 2.0510004
-0.25393337 0.80868006 2.0510001
-0.24416669 0.80868006 2.0510001
-0.23309779 0.80607557 2.0510004
-0.22463334 0.80477333 2.0510004
-0.21598287 0.80533147 2.0510004
-0.20510003 0.80477333 2.0510004
-0.19377069 0.80633605 2.0510004
-0.18556666 0.80477333 2.0510004
-0.17580001 0.80477333 2.0510004
-0.13380334 0.80477333 2.0510001
-0.12631556 0.80542445 2.0510004
-0.084644452 0.80412221 2.0510004
-0.078133337 0.80086666 2.0510001
-0.018556667 0.80575001 2.0510001
0.019533334 0.80477333 2.0510001
0.025393335 0.80477333 2.0510004
0.034671668 0.80526167 2.0510004
0.044926669 0.80477333 2.0510004
0.054693338 0.80477333 2.0510004
0.064850673 0.80555469 2.0510004
0.070320003 0.80281997 2.0510001
-0.29300001 0.81649339 2.0510001
-0.28421003 0.81551671 2.0510001
-0.27476892 0.81519121 2.0510001
-0.26565334 0.81454009 2.0510004
-0.25393337 0.81454009 2.0510004
-0.24416669 0.81454003 2.0510001
-0.2344 0.81454009 2.0510004
-0.22463334 0.81454003 2.0510001
-0.21486668 0.81454009 2.0510004
-0.2051 0.81454003 2.0510001
-0.19533335 0.81454009 2.0510004
-0.18556666 0.81454009 2.0510001
-0.17580001 0.81414938 2.0510004
-0.16798668 0.81454003 2.0510001
-0.13478 0.81454003 2.0510001
-0.12501335 0.81454009 2.0510004
-0.1172 0.81454003 2.0510001
-0.019533334 0.81258672 2.0510001
0.019533334 0.81454003 2.0510001
0.025393333 0.81454009 2.0510001
0.035160005 0.81454009 2.0510004
0.044926669 0.81454003 2.0510001
0.054693338 0.81454009 2.0510004
0.064460002 0.81454003 2.0510001
-0.32230002 0.82626003 2.0510001
-0.3151378 0.82691115 2.0510001
-0.30862668 0.82821333 2.0510001
-0.29495335 0.82821333 2.0510001
-0.28362402 0.82586926 2.0510004
-0.27639666 0.82333004 2.0510001
-0.25198001 0.82040006 2.0510001
-0.24416667 0.82430673 2.0510004
-0.2344 0.82430679 2.0510004
-0.22463334 0.82430667 2.0510004
-0.21486668 0.82430661 2.0510004
-0.2051 0.82430667 2.0510004
-0.19533333 0.82430673 2.0510004
-0.18556666 0.82040006 2.0510001
-0.17501868 0.82196277 2.0510004
-0.14454667 0.82430667 2.0510001
-0.13478 0.82235336 2.0510001
-0.12110668 0.82040006 2.0510001
-0.1172 0.82040006 2.0510001
0.017580003 0.82430673 2.0510004
0.025393335 0.82430673 2.0510004
0.035160001 0.82430673 2.0510004
0.044926669 0.82430673 2.0510004
0.054693338 0.82430679 2.0510004
0.064069338 0.82430667 2.0510004
-0.32313716 0.83602673 2.0510004
-0.31448668 0.83602679 2.0510004
-0.30862668 0.83407342 2.0510001
-0.29456267 0.83524531 2.0510004
-0.28518668 0.83602667 2.0510004
-0.27737337 0.83602667 2.0510001
-0.24612002 0.8399334 2.0510001
-0.23328382 0.83658487 2.0510004
-0.22463334 0.83602667 2.0510004
-0.21486668 0.83212012 2.0510001
-0.2051 0.83212006 2.0510001
0.046880003 0.83212006 2.0510001
0.054693334 0.83309674 2.0510001
0.062506668 0.83212006 2.0510001
-0.33402002 0.84774667 2.0510001
-0.32347202 0.84618407 2.0510004
-0.31448668 0.84579337 2.0510001
-0.30862668 0.84774667 2.0510001
-0.29300001 0.84579337 2.0510001
-0.28518671 0.84579343 2.0510004
-0.27542001 0.84579337 2.0510001
-0.26565334 0.84774673 2.0510001
-0.25393337 0.84774673 2.0510001
-0.24612002 0.84384 2.0510001
-0.33362934 0.85477871 2.0510004
-0.32425335 0.85556 2.0510004
-0.31487736 0.85477871 2.0510004
-0.30472001 0.8536067 2.0510001
-0.29560447 0.85295558 2.0510001
0.087900005 0.85165334 2.0510001
0.095713332 0.85165334 2.0510001
0.10469867 0.85399741 2.0510004
0.11329334 0.85556006 2.0510001
-0.3333689 0.86597776 2.0510001
-0.32425338 0.86571735 2.0510004
-0.31644002 0.8633734 2.0510001
-0.33402002 0.87118667 2.0510001
-0.32425338 0.87118667 2.0510001
0.1552162 0.39688194 2.0630002
-0.25384724 0.40631279 2.0630002
-0.23380668 0.40867051 2.0630002
-0.22791241 0.40867051 2.0630002
0.14932191 0.40867051 2.0630002
0.1552162 0.40277621 2.0630002
-0.25148955 0.41260004 2.0630002
-0.24756001 0.41260004 2.0630002
-0.23773621 0.41260004 2.0630002
-0.22201812 0.41260004 2.0630002
-0.21415907 0.41456479 2.0630002
-0.20630002 0.41652957 2.0630002
0.1296743 0.41652957 2.0630002
0.13556859 0.41652957 2.0630002
0.1453924 0.41390988 2.0630002
-0.20040573 0.42045909 2.0630002
-0.19451144 0.42045909 2.0630002
-0.18468764 0.4217689 2.0630002
-0.17486382 0.42438859 2.0630002
-0.15325144 0.42831814 2.0630002
-0.1453924 0.42831814 2.0630002
-0.13753335 0.42831814 2.0630002
0.037330478 0.42831814 2.0630002
0.043224767 0.42831814 2.0630002
0.05501334 0.42831814 2.0630002
0.06483715 0.42831814 2.0630002
0.075970799 0.42438862 2.0630002
0.08382985 0.4217689 2.0630002
0.090379059 0.42045909 2.0630002
-0.13556859 0.43224767 2.0630002
-0.12181525 0.43224767 2.0630002
-0.11395621 0.4322477 2.0630002
-0.10413238 0.43224767 2.0630002
-0.094308585 0.43486735 2.0630002
-0.084484771 0.43617719 2.0630002
-0.074660957 0.43617719 2.0630002
-0.066801913 0.43617719 2.0630002
-0.053048577 0.43421245 2.0630002
-0.04518953 0.43617719 2.0630002
-0.035365716 0.43617719 2.0630002
-0.023577144 0.43224767 2.0630002
-0.015718097 0.4322477 2.0630002
-0.0058942866 0.43224767 2.0630002
0.0019647621 0.43224767 2.0630002
-0.062872387 0.58746386 2.0630002
-0.055995721 0.58746386 2.0630002
-0.044207148 0.58648151 2.0630002
-0.03592708 0.58662188 2.0630002
-0.025541907 0.58942866 2.0630002
-0.051083814 0.59335816 2.0630002
-0.04518953 0.59532291 2.0630002
-0.035365716 0.59532297 2.0630002
-0.025541907 0.59532291 2.0630002
-0.044534609 0.60776639 2.0630002
-0.035365716 0.60514671 2.063
-0.025541907 0.60514677 2.0630002
-0.045844451 0.61431563 2.0630002
-0.070731431 0.62675905 2.0630002
-0.06483715 0.62675905 2.0630002
-0.056978103 0.62675905 2.0630002
-0.047154289 0.62086481 2.0630002
-0.033400953 0.62872386 2.0630002
-0.05501334 0.63461816 2.0630002
-0.035365716 0.63265342 2.0630002
-0.062872387 0.64837146 2.0630002
-0.055995718 0.64542437 2.0630002
-0.035365716 0.64640671 2.0630002
-0.025541907 0.64640671 2.0630002
-0.019647621 0.64640671 2.0630002
-0.056323182 0.65361089 2.0630002
-0.043224767 0.65426576 2.0630002
-0.03457981 0.65387285 2.0630002
-0.025541907 0.65426576 2.0630002
-0.019647621 0.65426576 2.0630002
-0.062872387 0.66212481 2.0630002
-0.055013336 0.66408962 2.063
-0.044796579 0.66408956 2.0630002
-0.035365716 0.66408962 2.063
-0.065230101 0.67587823 2.0630002
-0.055668257 0.67522329 2.0630002
-0.04518953 0.67194867 2.0630002
-0.03457981 0.67352051 2.0630002
-0.026196828 0.67849791 2.0630002
-0.019647621 0.67980772 2.0630002
-0.064182237 0.68504709 2.0630002
-0.056978103 0.68570197 2.0630002
-0.070731431 0.69945532 2.0630002
-0.06483715 0.69552583 2.0630002
-0.055668257 0.69552583 2.0630002
-0.073678575 0.70633191 2.0630002
-0.066801913 0.70534956 2.0630002
-0.051083814 0.70731431 2.0630002
-0.04518953 0.70534956 2.0630002
-0.039295241 0.70731431 2.0630002
-0.074099593 0.71405065 2.0630002
-0.066801921 0.71517342 2.0630002
-0.051083814 0.71517342 2.0630002
-0.04518953 0.71517342 2.0630002
-0.039295241 0.71713817 2.0630002
-0.070731431 0.72499722 2.0630002
-0.06483715 0.72499728 2.0630002
-0.058942862 0.72303247 2.0630002
-0.043224767 0.72499722 2.0630002
-0.039295241 0.72499722 2.0630002
-0.023577144 0.72696197 2.0630002
-0.017682858 0.72499728 2.0630002
-0.070731431 0.73089153 2.0630002
-0.062872387 0.73482102 2.0630002
-0.056585144 0.73560697 2.0630002
-0.044207148 0.73580343 2.0630002
-0.035365716 0.73482096 2.063
-0.025541907 0.73482102 2.0630002
-0.017682858 0.73875052 2.0630002
-0.062872387 0.74268007 2.0630002
-0.056323182 0.74398994 2.0630002
-0.04518953 0.74464488 2.0630002
-0.035365716 0.74464482 2.0630002
-0.025541907 0.74464482 2.0630002
-0.017682858 0.74464488 2.0630002
-0.054030959 0.75348622 2.0630002
-0.04518953 0.75446862 2.0630002
-0.035365716 0.75446868 2.063
-0.025541907 0.75250387 2.0630002
-0.019647621 0.75053912 2.0630002
-0.05501334 0.76429248 2.0630002
-0.043224767 0.76625723 2.0630002
-0.035365716 0.76429248 2.0630002
-0.025541907 0.76429248 2.0630002
-0.18206796 0.77673596 2.0630002
-0.12574477 0.77804577 2.0630002
-0.09627334 0.77804577 2.0630002
-0.035365716 0.77215147 2.0630002
-0.025541907 0.77411628 2.0630002
-0.018337779 0.77542609 2.0630002
-0.1925467 0.78197533 2.0630002
-0.18861715 0.78197533 2.0630002
-0.1263997 0.78655976 2.0630002
-0.092343822 0.78590488 2.0630002
-0.084484771 0.78983438 2.0630002
-0.023577144 0.78786957 2.0630002
-0.018337779 0.78852451 2.0630002
-0.0058942866 0.78983438 2.0630002
0.0058942866 0.78983438 2.0630002
0.011788572 0.78983438 2.0630002
-0.18075812 0.79376388 2.0630002
-0.17289907 0.79769337 2.0630002
-0.16504002 0.79769343 2.0630002
-0.15718096 0.79769337 2.0630002
-0.14617831 0.79612154 2.0630002
-0.13556859 0.79769337 2.0630002
-0.013753335 0.79572862 2.0630002
-0.006549207 0.79507369 2.0630002
0.0039295242 0.79572862 2.0630002
0.015718099 0.79572862 2.0630002
0.025541907 0.79572856 2.0630002
0.032746032 0.79507369 2.0630002
0.055799246 0.79533571 2.0630002
0.06483715 0.79769337 2.0630002
0.070731431 0.79769337 2.0630002
-0.2632781 0.80555242 2.0630002
-0.25803876 0.80817211 2.0630002
-0.24559525 0.80948192 2.0630002
-0.23708129 0.80555242 2.0630002
-0.1925467 0.80162293 2.0630002
-0.16504002 0.80555248 2.063
-0.1552162 0.80162293 2.0630002
-0.14382058 0.80398065 2.0630002
-0.13753335 0.80358768 2.0630002
-0.1231251 0.80817211 2.0630002
-0.11395621 0.80751717 2.0630002
-0.10373944 0.8047666 2.0630002
-0.093653664 0.80424255 2.0630002
-0.013753335 0.80555242 2.0630002
-0.0058942866 0.80555248 2.0630002
0.0039295242 0.80555242 2.063
0.014595374 0.80499113 2.0630002
0.064182237 0.80293274 2.0630002
-0.27604908 0.81439388 2.0630002
-0.16425411 0.81498337 2.0630002
-0.15718096 0.81537628 2.0630002
-0.14277272 0.81472135 2.0630002
-0.13753335 0.81341153 2.0630002
-0.1131703 0.81498337 2.0630002
-0.10413238 0.81537628 2.0630002
-0.090379059 0.81341153 2.0630002
-0.086449534 0.81341153 2.0630002
-0.013098414 0.81603122 2.0630002
-0.0058942866 0.81537628 2.0630002
0.0039295247 0.81537628 2.0630002
0.013753335 0.81537628 2.0630002
-0.16454883 0.82569128 2.063
-0.1552162 0.82912958 2.0630002
-0.14146286 0.82323533 2.0630002
-0.12653069 0.82755786 2.0630002
-0.11395621 0.82520008 2.0630002
-0.013753334 0.82520008 2.0630002
-0.0058942866 0.82520008 2.0630002
0.0039295242 0.82520008 2.063
0.012770954 0.82421768 2.0630002
-0.011788572 0.83502388 2.0630002
-0.0058942866 0.83305913 2.0630002
0.0039295247 0.83502388 2.0630002
0.011788572 0.83502388 2.0630002
0.025541907 0.83698863 2.0630002
0.035365716 0.83698863 2.0630002
-0.33008003 0.84484768 2.0630002
-0.29078481 0.85663629 2.0630002
-0.28685525 0.85663629 2.0630002
-0.2789962 0.85270673 2.0630002
-0.31239718 0.86449534 2.0630002
-0.30650288 0.86449534 2.0630002
-0.29471433 0.86056584 2.0630002
0.09627334 0.86056584 2.0630002
0.10609715 0.86449534 2.0630002
0.11199145 0.86449534 2.0630002
-0.31829146 0.87431914 2.0630002
-0.2609829 0.40729147 2.0760002
-0.25702861 0.40531433 2.0760002
-0.24912001 0.40531433 2.0760002
-0.23528002 0.40531433 2.0760002
-0.22638288 0.4063029 2.0760002
0.14630859 0.40729147 2.0760002
0.15026288 0.40531433 2.0760002
-0.24516574 0.41223437 2.0760002
-0.22341716 0.41124576 2.0760002
-0.21748573 0.41124576 2.0760002
-0.20562288 0.41651815 2.0760002
-0.19573715 0.41915435 2.0760002
-0.18782859 0.41915435 2.0760002
0.096880004 0.41915435 2.0760002
0.10478858 0.41915435 2.0760002
0.11072001 0.41915435 2.0760002
0.12456001 0.41915435 2.0760002
0.13642287 0.41520005 2.0760002
0.14367239 0.41256389 2.0760002
-0.18189716 0.42310861 2.0760002
-0.17398858 0.42442673 2.0760002
-0.16608001 0.4270629 2.0760002
