# .PCD v0.7 - Point Cloud Data file format
VERSION 0.7
FIELDS x y z
SIZE 4 4 4
TYPE F F F
COUNT 1 1 1
WIDTH 1477
HEIGHT 1
VIEWPOINT 0 0 0 1 0 0 0
POINTS 1477
DATA ascii
0.20411114 0.45588893 1.9250001
0.21266666 0.45833334 1.9250001
0.19485717 0.46671438 1.9250002
0.2035 0.46383333 1.9250001
-0.23416382 0.42776385 1.9360001
-0.22678858 0.42776385 1.9360001
-0.21388191 0.42776388 1.9360002
-0.20466286 0.42776385 1.9360001
-0.19544384 0.4240762 1.9360002
-0.18683939 0.42530543 1.9360002
-0.17516191 0.42592001 1.9360001
-0.16778667 0.42776385 1.9360001
-0.1511924 0.42776385 1.9360001
-0.14381716 0.42776388 1.9360002
-0.047939051 0.42776385 1.9360001
-0.033188574 0.42776385 1.9360001
-0.029500954 0.42776385 1.9360001
0.10325334 0.42776385 1.9360001
-0.25628954 0.43513906 1.9360001
-0.24522668 0.43145144 1.9360001
-0.22125715 0.43145144 1.9360001
-0.21388191 0.43145144 1.9360002
-0.12537906 0.43145144 1.9360002
-0.11800382 0.43145144 1.9360001
-0.081127621 0.43145144 1.9360001
-0.077440001 0.43145144 1.9360001
-0.064533338 0.43145144 1.9360001
-0.055314288 0.43145144 1.9360001
-0.014750477 0.43145144 1.9360001
0.018438095 0.43145144 1.9360001
0.026550859 0.43292648 1.9360001
0.034417782 0.43268067 1.9360002
0.042407621 0.43145144 1.9360001
0.066377148 0.43145144 1.9360001
0.077440001 0.43513906 1.9360001
0.086659051 0.43145144 1.9360001
0.12906668 0.43145144 1.9360001
0.13459811 0.43145144 1.9360001
0.14566097 0.43513906 1.9360001
0.15488 0.43698287 1.9360001
0.16594288 0.43882674 1.9360002
0.17516191 0.43698287 1.9360001
0.18438098 0.43698287 1.9360001
0.19360001 0.43882671 1.9360001
0.16594286 0.4425143 1.9360001
0.18438096 0.4425143 1.9360001
0.19636573 0.44528002 1.9360001
0.20404826 0.44866034 1.9360002
0.2120381 0.44988954 1.9360001
0.20650668 0.45357716 1.9360001
0.2120381 0.45542097 1.9360001
0.21019429 0.46464002 1.9360001
-0.22622287 0.4190686 1.9470001
-0.24105716 0.42648575 1.9470001
-0.2354943 0.42648575 1.9470001
-0.22622287 0.4255586 1.9470001
-0.21509716 0.42463148 1.9470003
-0.20471315 0.42426062 1.9470001
-0.19470002 0.42277718 1.9470001
-0.18542859 0.42463148 1.9470001
-0.17430286 0.42524958 1.9470003
-0.16503143 0.42648575 1.9470001
-0.15761431 0.42648575 1.9470001
-0.14092572 0.42648575 1.9470001
-0.25218287 0.43390286 1.9470001
-0.24476574 0.43019432 1.9470003
-0.2225143 0.43019432 1.9470001
-0.13536286 0.43019432 1.9470001
-0.11311144 0.43390286 1.9470001
-0.10384002 0.43390286 1.9470003
-0.09456858 0.43390286 1.9470001
-0.085297152 0.43266672 1.9470003
-0.072317146 0.43390286 1.9470001
-0.063045718 0.43019432 1.9470001
-0.055628575 0.43112147 1.9470001
-0.042648576 0.43019432 1.9470001
-0.022251431 0.43390286 1.9470001
-0.014834288 0.43143052 1.9470003
-0.0074171433 0.43019432 1.9470001
0.074171439 0.43390286 1.9470003
0.081588574 0.43390286 1.9470001
0.09456858 0.43019432 1.9470001
0.10384001 0.43019432 1.9470001
0.11496572 0.43019432 1.9470003
0.12609145 0.43019432 1.9470003
0.14463429 0.43390286 1.9470003
0.15576002 0.43513906 1.9470003
0.16503143 0.43761146 1.9470001
0.17430288 0.43390283 1.9470001
0.18542859 0.43204862 1.9470003
0.1947 0.43390292 1.9470003
0.20149907 0.43637526 1.9470003
0.20450123 0.44396901 1.9470003
0.21417002 0.44781002 1.9470001
0.21880573 0.45244575 1.9470001
-0.22190668 0.41770667 1.9580001
-0.21631238 0.41770667 1.9580001
-0.20698857 0.41770667 1.9580001
-0.24614856 0.4270305 1.9580001
-0.23496 0.42330095 1.9580001
-0.22252826 0.42267939 1.9580001
-0.21444762 0.42143622 1.9580001
-0.20512383 0.42143625 1.9580001
-0.19393525 0.42143625 1.9580001
-0.18461142 0.42516571 1.9580001
-0.17342286 0.42516571 1.9580001
-0.16409904 0.42516574 1.9580001
-0.15415365 0.42640895 1.9580001
-0.14545143 0.42765209 1.9580001
-0.13426286 0.42889529 1.9580001
-0.12307428 0.42889526 1.9580001
-0.082981907 0.42609811 1.9580001
-0.074590474 0.42591166 1.9580001
-0.065266669 0.42889526 1.9580001
-0.05594286 0.42889529 1.9580001
-0.04661905 0.42889526 1.9580001
-0.011188571 0.42889526 1.9580001
-0.0055942857 0.42889526 1.9580001
0.096967623 0.42889526 1.9580001
0.10442667 0.42889529 1.9580001
0.11561524 0.42889529 1.9580001
0.12493904 0.42889526 1.9580001
0.13426286 0.42889529 1.9580001
0.14545143 0.42889529 1.9580001
0.15477523 0.42889526 1.9580001
-0.26106665 0.43635431 1.9580001
-0.25547236 0.43448955 1.9580001
-0.13053332 0.43262476 1.9580001
-0.12493904 0.43262476 1.9580001
-0.11561524 0.43262476 1.9580001
-0.10442667 0.43262476 1.9580001
-0.095102862 0.43262476 1.9580001
-0.08764381 0.43262476 1.9580001
-0.074590474 0.43262476 1.9580001
-0.06713143 0.43262476 1.9580001
-0.026106667 0.43262476 1.9580001
-0.018647619 0.43262476 1.9580001
-0.0037295239 0.43262476 1.9580001
0.0037295239 0.43262476 1.9580001
0.029836191 0.43262476 1.9580001
0.035430476 0.43262476 1.9580001
0.044754289 0.43262476 1.9580001
0.05594286 0.43262476 1.9580001
0.065266669 0.43262476 1.9580001
0.074590474 0.43262476 1.9580001
0.085779056 0.43262476 1.9580001
0.13612762 0.43262476 1.9580001
0.14545143 0.43262476 1.9580001
0.15477523 0.43262476 1.9580001
0.16409905 0.43448955 1.9580001
0.17342286 0.43262476 1.9580001
0.20586972 0.4341166 1.9580001
0.21444762 0.43448955 1.9580001
0.22190668 0.43448952 1.9580001
0.20885333 0.44008383 1.9580001
0.21482058 0.44306746 1.9580001
0.22190668 0.44567811 1.9580001
-0.2250286 0.41630286 1.9690002
-0.21565239 0.41630286 1.9690001
-0.20627619 0.41630286 1.9690001
-0.25128192 0.42567909 1.9690001
-0.24378097 0.42255372 1.9690002
-0.23440477 0.42005336 1.9690001
-0.22877906 0.42005336 1.9690001
-0.21377715 0.42005336 1.9690001
-0.20252572 0.42005336 1.9690001
-0.19690001 0.42005336 1.9690001
-0.18377334 0.42380387 1.9690002
-0.17627239 0.42380384 1.9690001
-0.15001905 0.42755431 1.9690001
-0.14626858 0.42755431 1.9690001
-0.13876763 0.42755431 1.9690001
-0.091886669 0.42755431 1.9690001
-0.08626096 0.42755431 1.9690001
-0.075009525 0.42661673 1.9690001
-0.060007621 0.42755431 1.9690001
-0.056257147 0.42755431 1.9690001
0.097512387 0.42755431 1.9690001
0.10501334 0.42755431 1.9690002
0.11438952 0.42755431 1.9690001
0.12376573 0.42755431 1.9690002
0.13595477 0.42661673 1.9690001
0.14439334 0.42567906 1.9690001
0.15376954 0.42567909 1.9690001
0.16502097 0.42567909 1.9690001
0.17439716 0.42567906 1.9690001
0.18302324 0.42605415 1.9690001
0.1912743 0.42755431 1.9690001
0.21452725 0.42530403 1.9690001
0.2212781 0.42567909 1.9690001
-0.26253334 0.43505526 1.9690001
-0.25690764 0.43318003 1.9690001
-0.12376572 0.43130478 1.9690001
-0.11438952 0.43130478 1.9690001
-0.10501334 0.43130478 1.9690002
-0.093761906 0.43130478 1.9690002
-0.041255239 0.43130478 1.9690001
-0.022502858 0.43505526 1.9690001
0.0037504765 0.43130478 1.9690002
0.01425181 0.4335551 1.9690001
0.024378095 0.43318003 1.9690001
0.033754289 0.43130478 1.9690002
0.04500572 0.43130478 1.9690002
0.054381907 0.43130478 1.9690001
0.063758098 0.43130478 1.9690002
0.075009525 0.43130478 1.9690002
0.084385723 0.43130478 1.9690001
0.091886669 0.43130478 1.9690001
0.16502097 0.43130478 1.9690002
0.17439716 0.43130478 1.9690001
0.18377334 0.43130478 1.9690002
0.19502477 0.43130478 1.9690002
0.20440096 0.43130478 1.9690001
0.21377715 0.43130478 1.9690002
0.2212781 0.43130478 1.9690001
0.22315335 0.4425562 1.9690001
-0.24325716 0.4186286 1.9800001
-0.2357143 0.4186286 1.9800001
-0.2225143 0.41485718 1.9800001
-0.21497145 0.41674289 1.9800001
-0.20365715 0.4186286 1.9800001
-0.26022857 0.42805716 1.9800001
-0.25551432 0.4252286 1.9800001
-0.24702859 0.42240003 1.9800001
-0.19234286 0.42240003 1.9800001
-0.18857144 0.42240003 1.9800001
-0.17348573 0.42617145 1.9800001
-0.16594288 0.42617148 1.9800003
-0.15462857 0.42617148 1.9800003
-0.14520001 0.42617145 1.9800001
-0.13388571 0.42994288 1.9800001
-0.12445717 0.42994291 1.9800003
-0.11502858 0.42994288 1.9800001
-0.10560001 0.42994291 1.9800003
-0.098057151 0.42994288 1.9800001
-0.066000007 0.42994288 1.9800001
-0.052800003 0.42994288 1.9800001
0.033942863 0.42994291 1.9800003
0.045257147 0.42994291 1.9800003
0.052800003 0.42994288 1.9800001
0.066000007 0.42994288 1.9800001
0.075428575 0.42994291 1.9800003
0.084857151 0.42994288 1.9800001
0.092400007 0.42994288 1.9800001
0.10748573 0.42617145 1.9800001
0.11502858 0.42617145 1.9800001
0.12445717 0.42617148 1.9800003
0.13388571 0.42617145 1.9800001
0.14708573 0.42240003 1.9800001
0.15462857 0.42240006 1.9800003
0.16594288 0.42240006 1.9800003
0.17537144 0.42240003 1.9800001
0.18480001 0.42365718 1.9800003
0.19686858 0.42768002 1.9800001
0.20554286 0.42805716 1.9800001
0.21245717 0.42491433 1.9800003
-0.26211429 0.4337143 1.9800001
-0.03394286 0.43371433 1.9800003
-0.015085715 0.4337143 1.9800001
0.018857144 0.4337143 1.9800001
0.16594286 0.82971436 1.9800001
0.16594286 0.83537149 1.9800001
0.17348573 0.83537149 1.9800001
0.18668571 0.83725721 1.9800001
0.19234286 0.83725721 1.9800001
0.16594286 0.84102863 1.9800001
0.17348573 0.84102863 1.9800001
0.18668571 0.84102863 1.9800001
0.19234286 0.84102863 1.9800001
-0.24473144 0.41737145 1.9920001
-0.23524573 0.41737145 1.9920001
-0.22765715 0.41737145 1.9920001
-0.21437715 0.41737145 1.9920001
-0.20868573 0.41737145 1.9920001
0.16315429 0.41737145 1.9920001
0.17833145 0.41737145 1.9920001
0.18402286 0.41737145 1.9920001
-0.26370287 0.42685717 1.9920001
-0.25421715 0.42116576 1.9920001
-0.20109715 0.42116573 1.9920001
-0.19730286 0.42116573 1.9920001
-0.18402286 0.42496002 1.9920001
-0.17453717 0.42496002 1.9920001
-0.16505143 0.42496002 1.9920001
-0.15556572 0.42496002 1.9920001
-0.14038858 0.4287543 1.9920001
-0.091062859 0.4287543 1.9920001
-0.087268576 0.4287543 1.9920001
0.047428571 0.4287543 1.9920001
0.066400006 0.4287543 1.9920001
0.077782862 0.4287543 1.9920001
0.085371435 0.4287543 1.9920001
0.095805719 0.42780572 1.9920001
0.10371049 0.4262248 1.9920001
0.11382857 0.42496002 1.9920001
0.12141715 0.42496002 1.9920001
0.1365943 0.42496002 1.9920001
0.14418286 0.42369527 1.9920001
0.15556572 0.42116576 1.9920001
0.16505143 0.42116573 1.9920001
0.17453715 0.42116576 1.9920001
0.18686858 0.42211428 1.9920001
0.19477335 0.42369527 1.9920001
0.20584002 0.42401144 1.9920001
0.21248001 0.42116573 1.9920001
-0.2656 0.43254858 1.9920001
-0.041737143 0.43254858 1.9920001
-0.024662858 0.4363429 1.9920001
-0.01897143 0.4363429 1.9920001
0 0.43254858 1.9920001
0.015177144 0.43254861 1.9920001
0.024662858 0.43254858 1.9920001
0.056914289 0.43254858 1.9920001
0.060708575 0.43254858 1.9920001
0.1566498 0.83474296 1.9920003
0.16410287 0.83379436 1.9920001
0.17301944 0.83550179 1.9920002
0.18781716 0.83853716 1.9920001
0.19350858 0.83853716 1.9920001
0.15746287 0.84422863 1.9920001
0.16315429 0.84422863 1.9920001
0.17453715 0.84422863 1.9920001
0.18212572 0.84422863 1.9920001
0.17931619 0.40823048 2.003
0.18313143 0.40823048 2.003
-0.25562096 0.41967618 2.003
-0.23654477 0.41586095 2.003
-0.20602286 0.41967618 2.003
0.14497906 0.41967618 2.003
0.15451714 0.41967618 2.003
0.16500904 0.41776854 2.003
0.17550096 0.41649684 2.0030003
0.18503906 0.41395333 2.003
0.19403212 0.41695103 2.0030003
0.20411524 0.41776857 2.003
-0.27088189 0.42539907 2.003
-0.26579496 0.4247632 2.003
-0.19266953 0.42349145 2.003
-0.18694668 0.42349145 2.003
-0.17550096 0.42349145 2.003
-0.16405523 0.42349145 2.003
-0.15451714 0.42349145 2.003
-0.14688668 0.42730665 2.003
0.068674289 0.42730665 2.003
0.074397147 0.42730665 2.003
0.083935231 0.42730665 2.003
0.094617903 0.42501757 2.003
0.10491905 0.42349145 2.003
0.11445715 0.42349145 2.003
0.12666591 0.42501757 2.003
0.13480508 0.4247632 2.003
0.14307143 0.42349145 2.003
0.19839238 0.42349145 2.003
0.20411524 0.42349145 2.003
-0.27088189 0.43493718 2.003
-0.13544096 0.43112192 2.003
-0.12208762 0.43112192 2.003
-0.11254953 0.43112192 2.003
-0.095380954 0.43112192 2.003
-0.064859048 0.43112192 2.003
-0.045782857 0.43366539 2.003
-0.033574097 0.43341103 2.003
-0.024799047 0.43493712 2.003
-0.015260953 0.43493712 2.003
-0.0057228571 0.43493712 2.003
0.0057228571 0.43493712 2.003
0.026706666 0.43112192 2.003
0.034337148 0.43112192 2.003
0.041967619 0.43112192 2.003
0.055320952 0.43112192 2.003
0.06104381 0.43112192 2.003
0.072489522 0.43112192 2.003
-0.27088189 0.44256762 2.003
0.16596285 0.8088305 2.003
0.17168571 0.8088305 2.003
0.14116381 0.81646097 2.003
0.15451714 0.81264573 2.003
0.16481827 0.81417179 2.003
0.17168571 0.81264573 2.003
0.13544096 0.8202762 2.003
0.14450215 0.82456833 2.003
0.15451714 0.82599902 2.003
0.16341937 0.82536328 2.0030003
0.17550094 0.82790667 2.003
0.14606912 0.83499205 2.0030003
0.15388128 0.83299369 2.003
0.16405523 0.83172196 2.003
0.17626399 0.83477414 2.003
0.18503904 0.83744472 2.003
0.19266953 0.83744472 2.003
0.20983809 0.83935237 2.003
0.21365333 0.83935237 2.003
0.14688668 0.84507525 2.003
0.15260953 0.84507525 2.003
0.18313143 0.8431676 2.003
0.19839238 0.8469829 2.003
0.20983809 0.84507525 2.003
0.21556094 0.8431676 2.003
0.22128381 0.8431676 2.003
0.14879429 0.85079807 2.003
0.15260953 0.85079807 2.003
0.19839238 0.85079807 2.003
0.20983809 0.85079807 2.003
-0.25331429 0.4183524 2.0150001
-0.2456381 0.41835243 2.0150001
-0.23412383 0.41707301 2.0150001
-0.22452858 0.4183524 2.0150001
-0.21877143 0.4183524 2.0150001
0.11514287 0.41835243 2.0150001
0.1247381 0.4183524 2.0150001
0.13049524 0.4183524 2.0150001
0.14584763 0.41835243 2.0150001
0.15544286 0.4183524 2.0150001
0.16407858 0.41547382 2.0150001
0.17463335 0.41259527 2.0150001
-0.26866665 0.42219049 2.0150001
-0.20341906 0.42219049 2.0150001
-0.19574288 0.42219052 2.0150001
-0.18614763 0.42410952 2.0150001
-0.17463334 0.42219049 2.0150001
-0.1688762 0.42219049 2.0150001
-0.14584762 0.42794764 2.0150001
-0.076761909 0.42986667 2.0150001
0.046057146 0.42986667 2.0150001
0.055652384 0.42986667 2.0150001
0.065247618 0.42794764 2.0150001
0.074842863 0.42602858 2.0150001
0.084438108 0.42602858 2.0150001
0.10554762 0.42219049 2.0150001
0.11514287 0.42219052 2.0150001
0.1247381 0.42219049 2.0150001
0.13433334 0.42219052 2.0150001
-0.13049524 0.43370476 2.0150001
-0.12665714 0.43370476 2.0150001
-0.11898096 0.43370476 2.0150001
-0.10554762 0.43370476 2.0150001
-0.099790484 0.43370476 2.0150001
-0.053733334 0.43370476 2.0150001
-0.046057142 0.43370476 2.0150001
-0.038380954 0.43370476 2.0150001
-0.024947619 0.43370476 2.0150001
0.0038380953 0.43370476 2.0150001
0.015352381 0.43370479 2.0150001
0.023028571 0.43370476 2.0150001
0.11130476 0.80983812 2.0150001
0.15544286 0.80791909 2.0150001
0.16247937 0.80855882 2.0150001
0.11514287 0.81367624 2.0150001
0.13817143 0.8175143 2.0150001
0.14661525 0.81597912 2.0150001
0.15544286 0.81367624 2.0150001
0.1612 0.81367624 2.0150001
0.11898096 0.82135242 2.0150001
0.1247381 0.82519054 2.0150003
0.13378504 0.8251906 2.0150003
0.14840637 0.82263184 2.0150001
0.15544286 0.82327151 2.0150001
0.16503811 0.82519054 2.0150001
0.17463335 0.82519054 2.0150003
0.18346095 0.82749337 2.0150001
0.1247381 0.83478576 2.0150001
0.13433334 0.83478582 2.0150003
0.17271429 0.83286673 2.0150001
0.18422858 0.83478582 2.0150003
0.19190477 0.83478576 2.0150001
0.12537777 0.84182233 2.0150001
0.13433333 0.84438092 2.0150001
0.14200953 0.84438103 2.0150001
0.19958097 0.84438103 2.0150001
0.20533811 0.8482191 2.0150001
0.13625237 0.85205716 2.0150001
0.14200953 0.85205716 2.0150001
0.20533812 0.85397619 2.0150001
0.2168524 0.85397625 2.0150001
0.22452858 0.85397625 2.0150001
0.16795145 0.40153906 2.0270002
0.17374288 0.40540004 2.0270002
-0.25289237 0.41698289 2.0270002
-0.2451705 0.41698289 2.0270002
-0.23551811 0.41698289 2.0270002
-0.22200477 0.41698289 2.0270002
-0.21428287 0.41698289 2.0270002
0.12741144 0.41698289 2.0270002
0.14478573 0.41698289 2.0270002
0.15540335 0.41601765 2.0270002
0.16602097 0.41312194 2.0270002
-0.26640573 0.42470479 2.0270002
-0.25868383 0.42084384 2.0270002
-0.21428287 0.42084384 2.0270002
-0.20463049 0.42084384 2.0270002
-0.1949781 0.42084384 2.0270002
-0.18532573 0.42341781 2.0270002
-0.1640905 0.42470479 2.0270002
-0.15636858 0.42470479 2.0270002
-0.14671621 0.42856577 2.0270002
0.027026668 0.42856577 2.0270002
0.055983812 0.42856577 2.0270002
0.065636203 0.42663527 2.0270002
0.075288579 0.42470479 2.0270002
0.084940962 0.42470479 2.0270002
0.09523683 0.42341781 2.0270002
0.10328048 0.42180908 2.0270002
0.13706383 0.42084384 2.0270002
-0.13513336 0.43242669 2.0270002
-0.12355049 0.43242669 2.0270002
-0.1138981 0.43242669 2.0270002
-0.10424572 0.43242669 2.0270002
-0.094593339 0.43242669 2.0270002
-0.084940962 0.43242669 2.0270002
-0.073358104 0.43242669 2.0270002
-0.065636203 0.43242669 2.0270002
-0.052766353 0.43500066 2.0270002
-0.044400956 0.43242669 2.0270002
-0.034748577 0.43242669 2.0270002
-0.027026668 0.43242669 2.0270002
-0.015443811 0.4362877 2.0270002
-0.0077219056 0.43628767 2.0270002
0.0038609528 0.43628767 2.0270002
0.013513334 0.43242669 2.0270002
0.025096193 0.43242669 2.0270002
0.034748577 0.43242669 2.0270002
-0.14478573 0.76060766 2.0270002
-0.13899431 0.76060766 2.0270002
0.094593339 0.80693913 2.0270002
0.10424572 0.80693913 2.0270002
0.1138981 0.80693913 2.0270002
0.094593339 0.81466103 2.0270004
0.10424572 0.81466103 2.0270002
0.11582857 0.81273055 2.0270002
0.12548096 0.8165915 2.0270002
0.077219054 0.82624388 2.0270002
0.081080012 0.82624388 2.0270002
0.096523814 0.8243134 2.0270002
0.10424572 0.8243134 2.0270004
0.11505639 0.82392734 2.0270002
0.12548096 0.82238293 2.0270002
0.13127239 0.82238293 2.0270002
0.084940962 0.83010483 2.0270002
0.093949847 0.83139181 2.0270002
0.10424571 0.8320353 2.0270004
0.11638014 0.83286268 2.0270004
0.11693171 0.84554869 2.0270004
0.12355049 0.84940958 2.0270002
0.20591748 0.8481226 2.0270002
0.15923619 0.40391618 2.039
0.16441461 0.40650541 2.039
0.17671335 0.40779999 2.039
-0.27186665 0.41945145 2.039
-0.26215714 0.41945145 2.039
-0.2427381 0.41556764 2.039
-0.23432319 0.41686225 2.039
-0.2262319 0.4165386 2.039
-0.21555144 0.41556764 2.039
-0.2058419 0.41945145 2.039
-0.19807428 0.41945145 2.039
0.097095244 0.41945145 2.039
0.10486286 0.41945145 2.039
0.11457238 0.41945145 2.039
0.12428191 0.41815686 2.039
0.13593334 0.41750956 2.039
0.14564286 0.41556764 2.039
0.15341046 0.41556764 2.039
0.16506191 0.4116838 2.039
0.17477143 0.4116838 2.039
0.18253905 0.4116838 2.039
-0.27186665 0.42333525 2.039
-0.26604098 0.42333525 2.039
-0.18448095 0.42333525 2.039
-0.17477143 0.42333525 2.039
-0.15146858 0.42721906 2.039
-0.14758477 0.42721906 2.039
0.05631524 0.42721906 2.039
0.064082861 0.42721906 2.039
0.077676184 0.42333525 2.039
0.085443817 0.42333525 2.039
0.093211427 0.42333525 2.039
-0.14370096 0.43110287 2.039
-0.13787523 0.43110287 2.039
-0.12428191 0.43498668 2.039
-0.11263048 0.43110287 2.039
-0.10874667 0.43110287 2.039
-0.05631524 0.43498668 2.039
-0.033012379 0.43110287 2.039
-0.025244761 0.43304479 2.039
-0.015535238 0.43498668 2.039
-0.0051784129 0.43628129 2.039
0.004854762 0.43401572 2.039
0.016506189 0.43207383 2.039
0.023302857 0.43110287 2.039
0.034954287 0.43110287 2.039
0.044663809 0.43110287 2.039
0.050489523 0.43110287 2.039
-0.025244761 0.66801524 2.039
-0.019419046 0.66801524 2.039
-0.068613969 0.67837209 2.039
-0.058257144 0.6796667 2.039
-0.069908567 0.68355048 2.039
-0.14564286 0.76899433 2.039
-0.023302857 0.76899433 2.039
-0.21360953 0.78452957 2.039
-0.20972572 0.78452957 2.039
-0.073792383 0.78647143 2.039
-0.065248005 0.78685981 2.039
-0.073792383 0.79229712 2.039
-0.067319371 0.79359174 2.039
0.077676184 0.80783236 2.039
0.086414769 0.8068614 2.039
0.095800638 0.80653781 2.039
0.10486286 0.8068614 2.039
0.11457238 0.8058905 2.039
0.1203981 0.80394858 2.039
-0.29361603 0.81637681 2.039
-0.28740191 0.81948382 2.039
0.076705232 0.81559998 2.039
0.085443817 0.81559998 2.0389998
0.12428193 0.81365812 2.039
-0.30293715 0.82725143 2.039
-0.29516953 0.82530951 2.039
-0.28740191 0.82530951 2.039
-0.24856381 0.82725143 2.039
0.058257144 0.82725143 2.039
0.067319363 0.82595682 2.039
0.075734288 0.82530951 2.039
0.085443817 0.82530951 2.039
0.093211427 0.82725143 2.039
-0.29468405 0.83453363 2.0389998
-0.28740191 0.83501911 2.039
-0.23302858 0.83113527 2.039
-0.22914477 0.83113527 2.039
0.058257144 0.83113527 2.039
0.062140953 0.83113527 2.039
0.076381586 0.83501911 2.039
0.086220577 0.83579588 2.039
0.093211427 0.83113527 2.039
-0.30293715 0.84667051 2.039
-0.29594633 0.84434026 2.039
0.077676184 0.84472859 2.039
0.085443817 0.84472865 2.039
0.10874667 0.84472859 2.039
0.11392508 0.84408128 2.039
-0.30293715 0.85055429 2.039
0.15626667 0.39848003 2.0510001
0.16017334 0.39848003 2.0510001
0.15626667 0.40434003 2.0510001
0.16212668 0.40238667 2.0510001
-0.27346668 0.4141067 2.0510001
-0.26662999 0.41606003 2.0510001
-0.25393337 0.41801339 2.0510001
-0.24416669 0.41410667 2.0510001
-0.23440002 0.4141067 2.0510001
-0.22463334 0.41410667 2.0510001
-0.21389 0.41508335 2.0510001
-0.2051 0.41606 2.0510001
-0.19728667 0.41801336 2.0510001
0.097666666 0.41801336 2.0510001
0.10548 0.41801339 2.0510001
0.11524667 0.41801336 2.0510001
0.12306 0.41801336 2.0510001
0.15626667 0.41215336 2.0510001
0.16017334 0.41215336 2.0510001
0.17189334 0.41020003 2.0510001
-0.26956001 0.42192 2.0510001
-0.19338 0.42192 2.0510001
-0.18556666 0.42192 2.0510001
-0.16408001 0.42582667 2.0510001
-0.15431334 0.42582667 2.0510001
-0.14454667 0.42843115 2.0510001
-0.13478 0.42973337 2.0510001
0.017580001 0.42973337 2.0510001
0.025393333 0.42973337 2.0510001
0.036136668 0.42875671 2.0510001
0.044926669 0.42778003 2.0510001
0.053716667 0.42680335 2.0510001
0.064460002 0.42582667 2.0510001
0.072273336 0.42582667 2.0510001
0.087900005 0.42192 2.0510001
0.093760006 0.42192 2.0510001
-0.13282667 0.43364 2.0510001
-0.12501335 0.43364 2.0510001
-0.1172 0.43364 2.0510001
-0.10352667 0.43364 2.0510001
-0.095713332 0.43364 2.0510001
-0.089853339 0.43364 2.0510001
-0.064460002 0.43364 2.0510001
-0.054693334 0.43364 2.0510001
-0.044926669 0.43364 2.0510001
-0.039066669 0.43364 2.0510001
-0.023440002 0.43364 2.0510001
-0.015626667 0.43364 2.0510001
-0.0058599999 0.43364 2.0510001
0.0019533334 0.43364 2.0510001
-0.07422667 0.58990669 2.0510001
-0.042973336 0.59772003 2.0510001
-0.03437867 0.59615737 2.0510004
-0.027346667 0.59576666 2.0510001
-0.042973336 0.60944003 2.0510001
-0.033206671 0.60553336 2.0510004
-0.027346667 0.60553336 2.0510001
-0.033206668 0.6133467 2.0510001
-0.027346667 0.6133467 2.0510001
-0.070320003 0.66608667 2.0510001
-0.064460002 0.66608667 2.0510001
-0.058600001 0.66608667 2.0510001
-0.042973336 0.66804004 2.0510001
-0.023440002 0.66804004 2.0510001
-0.019533334 0.66804004 2.0510001
-0.072273336 0.67585337 2.0510001
-0.064460009 0.67585343 2.0510004
-0.054693338 0.67585331 2.0510004
-0.044926669 0.67585337 2.0510004
-0.035160005 0.67585343 2.0510004
-0.025393333 0.67780674 2.0510001
-0.019533334 0.67585337 2.0510001
-0.063808888 0.68627119 2.0510001
-0.053912003 0.68601078 2.0510004
-0.045577779 0.68496895 2.0510001
-0.036462225 0.68496895 2.0510001
-0.070320003 0.69343334 2.0510001
-0.064069338 0.69460535 2.0510004
-0.054693338 0.69538671 2.0510004
-0.046880003 0.69147998 2.0510001
-0.058600001 0.70320004 2.0510001
-0.16017334 0.76961339 2.0510001
-0.15431334 0.76961339 2.0510001
-0.033206668 0.76961339 2.0510001
-0.027346667 0.76961339 2.0510001
-0.21291333 0.77742672 2.0510001
-0.20444891 0.77612448 2.0510001
-0.19793779 0.77482224 2.0510001
-0.18556666 0.77547336 2.0510001
-0.16017334 0.77352005 2.0510001
-0.15431334 0.77547336 2.0510001
-0.14357001 0.77645004 2.0510001
-0.13673334 0.77352005 2.0510001
-0.035160005 0.77547336 2.0510004
-0.026044443 0.77612448 2.0510001
-0.22268 0.78719342 2.0510001
-0.21486668 0.78458893 2.0510004
-0.20575111 0.78393781 2.0510001
-0.19924001 0.78133333 2.0510001
-0.17319557 0.78784454 2.0510001
-0.15236001 0.78133333 2.0510001
-0.14454667 0.78133333 2.0510001
-0.093760006 0.78719342 2.0510001
-0.086728007 0.78758413 2.0510004
-0.073250003 0.78719342 2.0510001
-0.064460002 0.78524005 2.0510001
-0.056646667 0.78719342 2.0510001
-0.031253334 0.78328669 2.0510001
-0.02637 0.78426337 2.0510001
0.019533334 0.78914672 2.0510001
0.054205004 0.78475177 2.0510004
0.062506668 0.78524005 2.0510001
-0.25198001 0.79696006 2.0510001
-0.24416669 0.79696006 2.0510001
-0.23830667 0.79696006 2.0510001
-0.22268 0.79500675 2.0510001
-0.21584335 0.79598337 2.0510001
-0.20705333 0.79696006 2.0510001
-0.083993338 0.79305339 2.0510001
-0.078133337 0.79500675 2.0510001
-0.027346667 0.79500675 2.0510001
0.0065111108 0.79565781 2.0510001
0.015626669 0.79500675 2.0510004
0.025393333 0.79696006 2.0510001
0.035160001 0.79696006 2.0510001
0.045577779 0.79565787 2.0510001
0.05339111 0.79565787 2.0510001
0.089853339 0.79500675 2.0510001
0.095713332 0.79500669 2.0510001
0.10743333 0.79696006 2.0510001
0.11329334 0.79696006 2.0510001
-0.28323334 0.80672669 2.0510001
-0.27607113 0.80216885 2.0510001
-0.25523555 0.80607557 2.0510001
-0.24612002 0.80868006 2.0510001
-0.22268 0.80281997 2.0510001
-0.21486668 0.80477339 2.0510004
-0.20705335 0.80477333 2.0510001
-0.073110484 0.80477339 2.0510004
-0.027346667 0.80281997 2.0510001
0.0078133335 0.80086666 2.0510001
0.016603334 0.80184329 2.0510001
0.025393335 0.80477333 2.0510004
0.035160001 0.80477333 2.0510004
0.044926669 0.80477333 2.0510004
0.054205004 0.80526167 2.0510004
0.064460002 0.80868006 2.0510001
0.075342864 0.80533147 2.0510004
0.085458338 0.80428499 2.0510004
0.095322669 0.80399197 2.0510004
0.10603811 0.80477339 2.0510004
0.11524667 0.80281997 2.0510001
0.12501334 0.80672669 2.0510001
-0.29300001 0.81649339 2.0510001
-0.28518671 0.81454009 2.0510004
-0.25393334 0.81454003 2.0510001
-0.24416669 0.81454009 2.0510001
-0.21486668 0.81454009 2.0510004
-0.20575111 0.81388897 2.0510001
-0.15236001 0.81649339 2.0510001
-0.14259334 0.81649339 2.0510001
-0.12110668 0.81649339 2.0510001
0.025393335 0.81454003 2.0510001
0.035160005 0.81454009 2.0510004
0.044926669 0.81454003 2.0510001
0.054693338 0.81454009 2.0510004
0.064460002 0.81454003 2.0510001
0.072273336 0.81454003 2.0510001
0.12501334 0.81258672 2.0510001
-0.32034668 0.82821333 2.0510001
-0.31448668 0.82821333 2.0510001
-0.30406892 0.82430667 2.0510004
-0.28407049 0.82374865 2.0510004
-0.27639669 0.82528329 2.0510001
-0.26565334 0.82821339 2.0510001
-0.25337526 0.82430667 2.0510004
-0.24416667 0.82430667 2.0510004
-0.23570225 0.82430673 2.0510001
-0.22561002 0.82333004 2.0510001
-0.21486668 0.82235348 2.0510004
-0.20705333 0.82040006 2.0510001
-0.15236001 0.82235336 2.0510001
-0.14532802 0.82196277 2.0510004
-0.13478 0.82430667 2.0510001
-0.12501335 0.82300448 2.0510001
-0.11524667 0.82040006 2.0510001
-0.10938667 0.82040006 2.0510001
0.036276191 0.82374871 2.0510004
0.044926669 0.82430667 2.0510004
0.054693338 0.82430661 2.0510004
0.064460009 0.82430667 2.0510004
0.071622223 0.82300448 2.0510001
-0.32132334 0.83700341 2.0510001
-0.31448668 0.83602667 2.0510004
-0.30706403 0.83680803 2.0510004
-0.28323334 0.83602679 2.0510004
-0.27542001 0.83602679 2.0510004
-0.26565331 0.83602673 2.0510004
-0.25588667 0.83212006 2.0510001
-0.24416669 0.83407342 2.0510001
-0.23537666 0.83309674 2.0510001
-0.22463334 0.83212006 2.0510001
-0.21877334 0.83212006 2.0510001
0.039066669 0.83212006 2.0510001
0.042973336 0.83212006 2.0510001
0.054693334 0.83407342 2.0510001
0.066413336 0.83212006 2.0510001
-0.32230002 0.84579337 2.0510001
-0.31448668 0.84579331 2.0510001
-0.30550134 0.84540272 2.0510004
-0.28440535 0.84618396 2.0510004
-0.27542001 0.84384 2.0510001
-0.26956001 0.84384 2.0510001
-0.33206668 0.85946673 2.0510001
-0.32620668 0.85946673 2.0510001
-0.31448668 0.85165334 2.0510001
-0.30862668 0.85165334 2.0510001
0.10938667 0.85751343 2.0510001
0.11329334 0.85946673 2.0510001
-0.33402002 0.8653267 2.0510001
-0.32503471 0.86493605 2.0510004
-0.31383559 0.86467564 2.0510001
-0.33206668 0.87118667 2.0510001
-0.32620668 0.87118667 2.0510001
0.1552162 0.39688194 2.0630002
-0.2632781 0.40867051 2.0630002
-0.2593486 0.40867051 2.0630002
0.15325144 0.40474099 2.0630002
-0.27310193 0.41652957 2.0630002
-0.26524287 0.41456479 2.0630002
-0.25541908 0.41456482 2.0630002
-0.24559525 0.41260004 2.0630002
-0.23577146 0.41260004 2.0630002
-0.2239829 0.41260004 2.0630002
-0.21415907 0.41260004 2.0630002
-0.20433526 0.41390988 2.0630002
-0.19451144 0.41652957 2.0630002
0.1453924 0.4165296 2.0630002
0.15325144 0.41456479 2.0630002
-0.1925467 0.42045909 2.0630002
-0.18468764 0.4217689 2.0630002
-0.17486382 0.42438859 2.0630002
-0.14342764 0.42831814 2.0630002
-0.13556859 0.42831814 2.0630002
0.019647621 0.42831814 2.0630002
0.025541907 0.42831814 2.0630002
0.033400953 0.42831814 2.0630002
0.04518953 0.42438859 2.0630002
0.05501334 0.42438859 2.0630002
0.062872387 0.42438859 2.0630002
0.078590482 0.42438859 2.0630002
0.082520008 0.42438859 2.0630002
0.094308577 0.42045909 2.0630002
-0.12574479 0.4322477 2.0630002
-0.11395621 0.4322477 2.0630002
-0.10413238 0.43224767 2.0630002
-0.09627334 0.43224767 2.0630002
-0.084484771 0.43617719 2.0630002
-0.074660957 0.43617719 2.0630002
-0.05501334 0.4322477 2.0630002
-0.047154289 0.43224767 2.0630002
-0.035365716 0.43224767 2.0630002
-0.025541907 0.43224767 2.0630002
-0.015718097 0.4322477 2.0630002
-0.0058942866 0.43224767 2.0630002
0.0039295247 0.4322477 2.0630002
0.011788572 0.43224767 2.0630002
-0.051083814 0.58549911 2.0630002
-0.044534609 0.58680898 2.0630002
-0.054030959 0.59630525 2.0630002
-0.044534609 0.59597784 2.0630002
-0.036348097 0.59434056 2.0630002
-0.02750667 0.59335816 2.0630002
-0.06483715 0.60318196 2.0630002
-0.055013336 0.60514671 2.063
-0.045582484 0.60593265 2.0630002
-0.039295241 0.60711145 2.0630002
-0.054030959 0.61398816 2.0630002
-0.045844447 0.61562544 2.0630002
-0.039295241 0.61497051 2.0630002
-0.051083814 0.62479436 2.0630002
-0.045582481 0.62400842 2.0630002
-0.051083814 0.63658291 2.0630002
-0.045844447 0.6352731 2.0630002
-0.037330478 0.63461816 2.0630002
-0.05501334 0.64575183 2.0630002
-0.047154289 0.64051247 2.0630002
-0.062872387 0.65426576 2.0630002
-0.055799246 0.65465873 2.0630002
-0.047154289 0.65426576 2.0630002
-0.070731431 0.66212481 2.0630002
-0.06483715 0.66212481 2.0630002
-0.054522146 0.66359842 2.063
-0.04518953 0.66408956 2.0630002
-0.035927076 0.66408962 2.0630002
-0.025541907 0.66408962 2.0630002
-0.019647621 0.66408956 2.0630002
-0.053048577 0.67194867 2.0630002
-0.047154289 0.67194867 2.0630002
-0.035365716 0.67293102 2.0630002
-0.02750667 0.67194867 2.0630002
-0.033400953 0.68570197 2.0630002
-0.02750667 0.68766671 2.0630002
-0.044207148 0.69650817 2.0630002
-0.036937527 0.69473982 2.0630002
-0.02750667 0.69159627 2.0630002
-0.070731431 0.70338482 2.0630002
-0.06483715 0.70534956 2.0630002
-0.053048577 0.70731431 2.0630002
-0.045844451 0.70469469 2.0630002
-0.037330478 0.70338482 2.0630002
-0.055013336 0.71517336 2.063
-0.052393656 0.72434235 2.0630002
-0.052655626 0.73560691 2.0630002
-0.047154289 0.73678577 2.0630002
-0.052393656 0.74398994 2.0630002
-0.04518953 0.74268007 2.0630002
-0.025541907 0.74660957 2.0630002
-0.052066196 0.75446862 2.0630002
-0.044534609 0.75577849 2.0630002
-0.035365716 0.75839818 2.0630002
-0.025541907 0.75053912 2.0630002
-0.031436194 0.76232767 2.0630002
-0.1925467 0.77804577 2.0630002
-0.16504002 0.77608103 2.0630002
-0.053048577 0.77804577 2.0630002
-0.044534609 0.77673596 2.0630002
-0.036348097 0.77116913 2.0630002
-0.017682858 0.77804577 2.0630002
-0.20433526 0.78983438 2.0630002
-0.19549383 0.78492248 2.0630002
-0.18861715 0.78786957 2.0630002
-0.16346823 0.78511894 2.0630002
-0.15587112 0.78852457 2.0630002
-0.14735717 0.78983438 2.0630002
-0.13622352 0.78459501 2.0630002
-0.11002668 0.78983438 2.0630002
-0.10216763 0.78786957 2.0630002
-0.095290966 0.78688717 2.0630002
-0.084484771 0.78786957 2.0630002
-0.075643338 0.78688723 2.0630002
-0.06483715 0.78590482 2.0630002
-0.051083814 0.78590488 2.0630002
-0.04518953 0.78197533 2.0630002
-0.037330478 0.78786963 2.0630002
-0.023577144 0.78983438 2.0630002
-0.019647621 0.78197533 2.0630002
0.0058942866 0.78983438 2.0630002
0.015718097 0.78983438 2.0630002
0.025541907 0.78983438 2.0630002
0.036348097 0.78885198 2.0630002
0.04518953 0.78786957 2.0630002
-0.23577146 0.79507369 2.0630002
-0.22791241 0.79376388 2.0630002
-0.20237049 0.79376388 2.0630002
-0.19647621 0.79376388 2.0630002
-0.18468764 0.79612154 2.0630002
-0.16307525 0.79769337 2.0630002
-0.1552162 0.79572862 2.0630002
-0.1453924 0.79376388 2.0630002
-0.11002668 0.79376388 2.0630002
-0.10413238 0.79376388 2.0630002
-0.094308577 0.79638356 2.0630002
-0.051083814 0.79376388 2.0630002
-0.023577144 0.79376388 2.0630002
-0.015718097 0.79376388 2.0630002
0.0031436195 0.79533571 2.0630002
0.013753334 0.79376388 2.0630002
0.025541907 0.79572856 2.0630002
0.035365716 0.79572862 2.0630002
0.044534609 0.79507369 2.0630002
0.056323182 0.79638356 2.0630002
0.06483715 0.79572856 2.0630002
0.086449534 0.79769337 2.0630002
0.10413239 0.79572856 2.0630002
0.11002668 0.79769337 2.0630002
-0.27310193 0.80948192 2.0630002
-0.26484993 0.80633831 2.0630002
-0.25607401 0.80686229 2.0630002
-0.24559526 0.80751717 2.0630002
-0.23577146 0.80424261 2.0630002
-0.18468764 0.80162293 2.0630002
-0.16111049 0.80751717 2.0630002
-0.1552162 0.80948192 2.0630002
-0.1453924 0.80751717 2.0630002
-0.094308585 0.80555248 2.0630002
-0.083502389 0.80457002 2.0630002
-0.078590482 0.80555242 2.0630002
-0.023577144 0.80751717 2.0630002
-0.015718097 0.80751717 2.0630002
0.0026196828 0.80686229 2.0630002
0.013753334 0.80948192 2.0630002
0.035365716 0.80162293 2.0630002
0.058942862 0.80358768 2.0630002
0.06483715 0.80555248 2.0630002
0.071713813 0.80457002 2.0630002
0.084484771 0.80162293 2.0630002
0.10216763 0.80358768 2.0630002
-0.27585262 0.81498331 2.0630002
-0.26524287 0.81537628 2.0630002
-0.25410923 0.81603122 2.0630002
-0.2436305 0.81341153 2.0630002
-0.23970097 0.81537628 2.0630002
-0.22398287 0.81537628 2.0630002
-0.20171557 0.81472135 2.0630002
-0.19647621 0.81734103 2.0630002
-0.16425411 0.81498331 2.0630002
-0.1552162 0.81537628 2.0630002
-0.14617831 0.8157692 2.0630002
-0.13556859 0.81734103 2.0630002
-0.12574479 0.81734103 2.0630002
-0.11395621 0.81734103 2.0630002
-0.098238103 0.81537628 2.0630002
-0.082520008 0.81341153 2.0630002
-0.078590482 0.81537628 2.0630002
-0.017682858 0.81537628 2.0630002
0.0078590484 0.81341153 2.0630002
0.016504003 0.81498337 2.0630002
-0.3104324 0.82912958 2.0630002
-0.2744118 0.82520008 2.0630002
-0.26524287 0.82520008 2.0630002
-0.25640148 0.82520008 2.0630002
-0.23642635 0.82520008 2.0630002
-0.22594765 0.82127059 2.0630002
-0.20433526 0.82520008 2.0630002
-0.19647621 0.82323533 2.0630002
-0.16111049 0.82127059 2.0630002
-0.15718096 0.82127059 2.0630002
-0.14932191 0.82127059 2.0630002
-0.13556859 0.82323527 2.0630002
-0.12770954 0.82323533 2.0630002
-0.11395621 0.82127064 2.0630002
-0.10609715 0.82127059 2.0630002
-0.098238103 0.82323533 2.0630002
-0.23380668 0.83305913 2.0630002
-0.21219429 0.83305913 2.0630002
-0.20826478 0.83305913 2.0630002
0.047154289 0.83698863 2.0630002
0.051083814 0.83698863 2.0630002
0.047154289 0.84091818 2.0630002
0.051083814 0.84091818 2.0630002
-0.33400959 0.85663629 2.0630002
-0.32418573 0.85663629 2.0630002
-0.2750667 0.85270679 2.0630002
-0.33400959 0.86056584 2.0630002
-0.32353082 0.86187571 2.0630002
-0.31436193 0.86253059 2.0630002
-0.25307432 0.40729147 2.0760002
-0.25505146 0.41124576 2.0760002
-0.24516574 0.41124576 2.0760002
-0.23528002 0.41124576 2.0760002
-0.22539431 0.41124576 2.0760002
-0.21550858 0.41124576 2.0760002
-0.20463429 0.41223431 2.0760002
-0.1963962 0.41388196 2.0760002
-0.18848763 0.41783628 2.0760002
0.096880004 0.41915435 2.0760002
0.10478858 0.41915435 2.0760002
0.11269715 0.41915435 2.0760002
0.13444573 0.41915435 2.0760002
0.14499049 0.41388196 2.0760002
0.15026288 0.41322291 2.0760002
-0.18189716 0.42310861 2.0760002
-0.17398858 0.42442673 2.0760002
-0.16410288 0.4270629 2.0760002
-0.15817145 0.4270629 2.0760002
-0.011862858 0.4270629 2.0760002
0.035588574 0.42706293 2.0760002
0.047451433 0.42310861 2.0760002
0.055360012 0.42310864 2.0760002
0.065245718 0.42508575 2.0760002
0.073154293 0.4270629 2.0760002
0.085017145 0.42310861 2.0760002
0.090948582 0.42310861 2.0760002
-0.13049145 0.43101719 2.0760002
-0.12456001 0.43101719 2.0760002
-0.11467429 0.43101722 2.0760002
-0.10478858 0.43101719 2.0760002
-0.094902866 0.43233532 2.0760002
-0.085017145 0.43497145 2.0760002
-0.075131439 0.43892574 2.0760002
-0.065245718 0.43497145 2.0760002
-0.043497145 0.43497145 2.0760002
-0.033611432 0.43299431 2.0760002
-0.02570286 0.43101719 2.0760002
-0.015817145 0.43101722 2.0760002
-0.0059314296 0.43101719 2.0760002
0.0039542867 0.43101722 2.0760002
0.013840001 0.43101719 2.0760002
-0.071177147 0.58918864 2.0760002
-0.064586677 0.58787054 2.0760002
-0.056150865 0.58681607 2.0760002
-0.045474291 0.58523434 2.0760002
-0.03608286 0.58572859 2.0760002
-0.027680002 0.58721149 2.0760002
-0.071177147 0.59512007 2.0760002
-0.065245718 0.59512007 2.0760002
-0.056150865 0.5947246 2.0760002
-0.047451433 0.59512007 2.0760002
-0.035588574 0.59314293 2.0760002
-0.027680002 0.59314293 2.0760002
-0.0731543 0.6050058 2.0760002
-0.065245718 0.60105151 2.0760002
-0.073154293 0.61291432 2.0760002
-0.065245718 0.61489147 2.0760002
-0.064257152 0.6237886 2.0760002
-0.05733715 0.6247772 2.0760002
-0.035588574 0.62873149 2.0760002
-0.027680002 0.62873149 2.0760002
-0.06326858 0.63466287 2.0760002
-0.056150865 0.63505834 2.0760002
-0.043497145 0.63466287 2.0760002
-0.034600005 0.63367432 2.0760002
-0.026361909 0.63532197 2.0760002
-0.063268587 0.64454865 2.0760002
-0.056489803 0.64511359 2.0760002
-0.044815242 0.64718485 2.0760002
-0.035588577 0.6452077 2.0760002
-0.075131439 0.65443432 2.0760002
-0.065904766 0.65377533 2.0760002
-0.05140572 0.65443432 2.0760002
-0.044815242 0.65377533 2.0760002
-0.03637943 0.6548298 2.0760002
-0.071177147 0.66036582 2.0760002
-0.067222863 0.66036582 2.0760002
-0.043497145 0.66036582 2.0760002
-0.034797721 0.66352928 2.0760002
-0.032952383 0.70518106 2.0760002
-0.027680002 0.70386297 2.0760002
-0.072758868 0.71493495 2.0760002
-0.06564115 0.71651667 2.0760002
-0.045078862 0.71651667 2.0760002
-0.038554288 0.71473724 2.0760002
-0.06326858 0.72363436 2.0760002
-0.059314292 0.72758865 2.0760002
-0.045474291 0.72561151 2.0760002
-0.037565716 0.72561151 2.0760002
-0.065245718 0.73945147 2.0760002
-0.057732582 0.73470634 2.0760002
-0.045078862 0.73470634 2.0760002
-0.03608286 0.73549724 2.0760002
-0.065245718 0.74538291 2.0760002
-0.059314292 0.74538291 2.0760002
-0.043497145 0.74340576 2.0760002
-0.035588574 0.74538291 2.0760002
-0.026361909 0.74604195 2.0760002
-0.019771431 0.74736005 2.0760002
-0.071177147 0.75922292 2.0760002
-0.065245718 0.75526869 2.0760002
-0.057732578 0.7544778 2.0760002
-0.045474291 0.75329149 2.0760002
-0.035588577 0.75526857 2.0760002
-0.019771431 0.75131434 2.0760002
-0.071177147 0.76317722 2.0760002
-0.065245718 0.76317722 2.0760002
-0.055360004 0.76515436 2.0760002
-0.046133339 0.76581347 2.0760002
-0.037565716 0.76713151 2.0760002
-0.18189716 0.77899438 2.0760002
-0.17398858 0.77899444 2.0760002
-0.064586669 0.77635825 2.0760002
-0.054865718 0.77553439 2.0760002
-0.045869719 0.77424926 2.0760002
-0.037565716 0.7710858 2.0760002
-0.0039542862 0.7710858 2.0760002
-0.18189716 0.78492582 2.0760002
-0.17398858 0.78492582 2.0760002
-0.13246858 0.78690296 2.0760002
-0.12456001 0.78690296 2.0760002
-0.11269715 0.78690296 2.0760002
-0.071177147 0.78690296 2.0760002
-0.065245718 0.78492576 2.0760002
-0.057996195 0.78558487 2.0760002
-0.015817145 0.78690296 2.0760002
-0.0059314296 0.78294861 2.0760002
-0.19376002 0.79481149 2.0760002
-0.18426974 0.79402065 2.0760002
-0.17332953 0.79349345 2.0760002
-0.16344383 0.79744768 2.0760002
-0.15817145 0.79876578 2.0760002
-0.14235429 0.79481149 2.0760002
-0.13388084 0.79594123 2.0760002
-0.12456001 0.79481149 2.0760002
-0.11580408 0.79424661 2.0760002
-0.10676572 0.79283434 2.0760002
-0.083040006 0.7908572 2.0760002
-0.055360012 0.7908572 2.0760002
-0.045474291 0.7928344 2.0760002
-0.016382044 0.79481155 2.0760002
-0.0055360007 0.79560232 2.0760002
0.0029657148 0.7918458 2.0760002
0.011862858 0.7908572 2.0760002
-0.27284575 0.8066743 2.0760002
-0.26889145 0.8066743 2.0760002
-0.2293486 0.8066743 2.0760002
-0.21353145 0.80272007 2.0760002
-0.204832 0.80430174 2.0760002
-0.19573715 0.80469716 2.0760002
-0.18585144 0.8066743 2.0760002
-0.17398858 0.80469722 2.0760002
-0.16410288 0.8066743 2.0760002
-0.15342629 0.80509263 2.0760002
-0.14433144 0.80469716 2.0760002
-0.13444573 0.80469722 2.0760002
-0.12456001 0.80469716 2.0760002
-0.11467429 0.80469722 2.0760002
-0.10478859 0.80469716 2.0760002
-0.098857149 0.80272007 2.0760002
-0.023725716 0.80469716 2.0760002
-0.015817147 0.80469722 2.0760002
-0.0059314296 0.80469716 2.0760002
-0.27284575 0.81062865 2.0760002
-0.24121146 0.81062865 2.0760002
-0.23528002 0.81458294 2.0760002
-0.2293486 0.814583 2.0760002
-0.20364572 0.81260574 2.0760002
-0.19573717 0.81458294 2.0760002
-0.18585145 0.81458288 2.0760002
-0.17448287 0.81408858 2.0760002
-0.16608001 0.8126058 2.0760002
-0.1532286 0.8116172 2.0760002
-0.14235429 0.814583 2.0760002
-0.13444574 0.81458288 2.0760002
-0.12456001 0.81458294 2.0760002
-0.11467429 0.81458294 2.0760002
-0.10478859 0.81458294 2.0760002
-0.094112016 0.81379205 2.0760002
-0.08699429 0.814583 2.0760002
-0.015026286 0.81379217 2.0760002
-0.006326858 0.81379205 2.0760002
0.0019771431 0.81853724 2.0760002
-0.27284575 0.82446861 2.0760002
-0.23462097 0.82380962 2.0760002
-0.2293486 0.82249153 2.0760002
-0.20166858 0.82644576 2.0760002
-0.19376002 0.82446861 2.0760002
-0.18585145 0.82446873 2.0760002
-0.17398858 0.82446861 2.0760002
-0.16608001 0.82644576 2.0760002
-0.10412954 0.82380962 2.0760002
-0.092925727 0.82446861 2.0760002
-0.085017145 0.82249153 2.0760002
-0.013840001 0.82446861 2.0760002
-0.0079085724 0.82249153 2.0760002
0.0059314296 0.82446867 2.0760002
0.011862858 0.82446861 2.0760002
-0.32029718 0.83435434 2.0760002
-0.31634289 0.83435434 2.0760002
-0.22407621 0.83699054 2.0760002
-0.21748573 0.83830869 2.0760002
-0.20364574 0.83633149 2.0760002
-0.19573715 0.8343544 2.0760002
-0.18585145 0.83040017 2.0760002
-0.094902866 0.83040011 2.0760002
-0.015817145 0.83040011 2.0760002
0.0046133338 0.83369535 2.0760002
0.011862858 0.8343544 2.0760002
-0.32820573 0.84424007 2.0760002
-0.33413717 0.85412574 2.0760002
-0.33010286 0.20681143 2.0880001
-0.25453717 0.40725946 2.0880001
-0.24459429 0.40765718 2.0880001
-0.23465143 0.40765715 2.0880003
-0.22470857 0.40964574 2.0880001
-0.21476571 0.40964574 2.0880001
-0.20681143 0.40964574 2.0880001
0.14715429 0.40964574 2.0880001
0.15113144 0.40765715 2.0880001
-0.19289143 0.41362286 2.0880001
-0.18493715 0.41760001 2.0880001
0.09810286 0.41627431 2.0880001
0.10539428 0.41760001 2.0880001
0.11533716 0.41760001 2.0880001
0.12527999 0.41760001 2.0880001
0.13601829 0.41600916 2.0880001
0.14317714 0.41362286 2.0880001
-0.18294857 0.42157716 2.0880001
-0.17499429 0.42290288 2.0880001
-0.16505143 0.42555428 2.0880001
-0.15709715 0.42754287 2.0880001
-0.093462855 0.42953146 2.0880001
-0.031817142 0.42953146 2.0880001
-0.02784 0.42953146 2.0880001
-0.015908571 0.42953146 2.0880001
-0.0059657143 0.42953146 2.0880001
0.0039771432 0.42953146 2.0880001
0.015908573 0.42953146 2.0880001
0.025851429 0.42953146 2.0880001
0.03977143 0.42555428 2.0880001
0.043748572 0.42555428 2.0880001
0.067611434 0.42555428 2.0880001
0.075565718 0.42555428 2.0880001
0.08550857 0.42157716 2.0880001
0.091474287 0.42157716 2.0880001
0.11931429 0.42157716 2.0880001
0.12527999 0.42157716 2.0880001
-0.091474287 0.43350857 2.0880001
-0.08550857 0.43350857 2.0880001
-0.076361142 0.43589488 2.0880001
-0.065622859 0.43350857 2.0880001
-0.055679999 0.43350857 2.0880001
-0.045737144 0.43350857 2.0880001
-0.037782855 0.43350857 2.0880001
-0.073577151 0.62441146 2.0880003
-0.067611434 0.62838858 2.0880001
-0.035794284 0.62838858 2.0880001
-0.02784 0.62838858 2.0880001
-0.073577143 0.63435429 2.0880001
-0.067611434 0.63435429 2.0880001
-0.075565718 0.64429712 2.0880001
-0.067611441 0.64429712 2.0880001
-0.025851429 0.64628577 2.0880001
-0.019885715 0.6482743 2.0880001
-0.075565711 0.65324575 2.0880001
-0.067611434 0.65225142 2.0880001
-0.031817142 0.65424001 2.0880001
-0.025851429 0.65225142 2.0880001
-0.019885715 0.65225142 2.0880001
-0.075565718 0.66020572 2.0880001
-0.026514288 0.66285717 2.0880001
-0.017234286 0.66550863 2.0880001
-0.078548573 0.71489143 2.0880001
-0.033142857 0.71853721 2.0880001
-0.025851429 0.71588576 2.0880003
-0.017897144 0.71787429 2.0880001
-0.075565718 0.72582859 2.0880001
-0.067611434 0.72781712 2.0880001
-0.033142857 0.72516578 2.0880001
-0.025851429 0.72582859 2.0880001
-0.017897144 0.72781712 2.0880001
-0.072914287 0.73444575 2.0880001
-0.065622859 0.73577136 2.0880003
-0.031817142 0.73577142 2.0880001
-0.025851429 0.73577142 2.0880003
-0.018294856 0.73497599 2.0880001
-0.073577143 0.74571431 2.0880001
-0.025188571 0.7450515 2.0880001
-0.019885715 0.74571431 2.0880001
-0.075068571 0.75615424 2.0880001
-0.075565718 0.76559997 2.0880001
-0.073179431 0.77474743 2.0880001
-0.065622859 0.77355427 2.0880001
-0.059657145 0.77355433 2.0880001
-0.0059657143 0.77952003 2.0880001
0.0019885714 0.77952003 2.0880001
-0.12527999 0.78747427 2.0880001
-0.071588568 0.78349715 2.0880001
-0.067611434 0.78349715 2.0880001
-0.011931429 0.78548574 2.0880001
-0.0059657143 0.78349715 2.0880001
0.0039771432 0.78548574 2.0880003
0.013257144 0.78614855 2.0880001
-0.11931429 0.79145145 2.0880001
-0.011931429 0.79343998 2.0880001
-0.006628572 0.79277718 2.0880001
0.0039771432 0.79145145 2.0880001
0.014582857 0.79277718 2.0880001
-0.23465143 0.80736005 2.0880001
-0.21874286 0.80735999 2.0880001
-0.0039771427 0.82525718 2.0880001
0 0.82724571 2.0880001
-0.19090286 0.83917719 2.0880001
-0.18493715 0.83917719 2.0880001
-0.17499429 0.8371886 2.0880003
-0.16505143 0.8371886 2.0880001
-0.091474287 0.8371886 2.0880001
-0.08590629 0.83440459 2.0880001
-0.01193143 0.83520001 2.0880001
-0.0059657143 0.83520001 2.0880003
0.0026514286 0.8365258 2.0880001
0.01392 0.83917719 2.0880001
-0.33606857 0.84713143 2.0880001
-0.19289143 0.84315431 2.0880001
-0.18493715 0.84315431 2.0880001
-0.17578971 0.84474516 2.0880001
-0.011931429 0.84315431 2.0880001
0 0.84315431 2.0880001
0.015908571 0.84315431 2.0880001
-0.33606857 0.85110855 2.0880001
-0.33215812 0.20409714 2.1010001
-0.3281562 0.20609809 2.1010001
-0.25412095 0.40419239 2.1010001
-0.24411619 0.40419239 2.1010003
-0.23411143 0.40419239 2.1010001
-0.22353497 0.40533581 2.1010001
-0.21410191 0.40819427 2.1010001
-0.20809905 0.40819427 2.1010001
0.14606953 0.40819427 2.1010001
0.15340635 0.40152448 2.1010003
-0.20209619 0.41219619 2.1010001
-0.19609334 0.41219619 2.1010001
-0.18608856 0.4161981 2.1010001
0.088041902 0.4161981 2.1010001
0.094711743 0.41486415 2.1010003
0.10484991 0.41379696 2.1010001
0.1133873 0.41486415 2.1010003
0.12485943 0.41459733 2.1010001
0.13339683 0.41353017 2.1010003
0.14206761 0.41219619 2.1010001
-0.18008572 0.42020002 2.1010001
-0.17408285 0.42220098 2.1010001
-0.16507857 0.42320144 2.1010001
-0.15474032 0.42686987 2.1010003
-0.14807047 0.42820382 2.1010001
0.034016192 0.42820382 2.1010001
0.044020951 0.42420191 2.1010003
0.054025717 0.42420191 2.1010001
0.062029526 0.42420191 2.1010001
0.074035242 0.42420191 2.1010001
0.084040001 0.421534 2.1010003
0.09204381 0.42020002 2.1010001
-0.15207238 0.43220571 2.1010001
-0.14406857 0.43220574 2.1010003
-0.13406381 0.43220571 2.1010001
-0.12405905 0.43220574 2.1010003
-0.11405428 0.43220571 2.1010001
-0.10404953 0.43220574 2.1010003
-0.084040001 0.43220574 2.1010003
-0.073368251 0.43353969 2.1010003
-0.066031426 0.43220571 2.1010001
-0.056026667 0.43220571 2.1010001
-0.044020951 0.43220574 2.1010003
-0.036017142 0.43220571 2.1010001
-0.022010475 0.43220571 2.1010001
-0.076036192 0.64830858 2.1010001
-0.023211047 0.66191506 2.1010001
-0.016007619 0.66231525 2.1010001
-0.084040001 0.72834671 2.1010001
-0.082039043 0.73434955 2.1010001
-0.081638865 0.743554 2.1010001
-0.074702226 0.74168646 2.1010003
-0.080038093 0.75435907 2.1010001
-0.0040019047 0.76436383 2.1010001
0 0.76436383 2.1010001
-0.0040019047 0.77436864 2.1010001
0.0013339682 0.77503562 2.1010003
