# .PCD v0.7 - Point Cloud Data file format
VERSION 0.7
FIELDS x y z
SIZE 4 4 4
TYPE F F F
COUNT 1 1 1
WIDTH 1496
HEIGHT 1
VIEWPOINT 0 0 0 1 0 0 0
POINTS 1496
DATA ascii
-0.29350889 0.13629335 1.8830003
-0.28693336 0.13808668 1.8830001
-0.29171556 0.14466223 1.8830001
-0.29052001 0.15243334 1.8830001
-0.29052001 0.17754 1.8830001
-0.29052001 0.18471333 1.8830001
-0.28693336 0.18650667 1.8830001
-0.28603667 0.19457668 1.8830001
-0.28514004 0.20444 1.8830003
-0.29554135 0.21520002 1.8830003
-0.28514004 0.21520004 1.8830003
-0.29291111 0.22476447 1.8830003
-0.28514004 0.22596002 1.8830003
-0.29231334 0.24568668 1.8830001
-0.28478137 0.2446107 1.8830003
-0.27976 0.24389336 1.8830001
-0.29171556 0.25465333 1.8830001
-0.28603667 0.25375667 1.8830001
-0.27976 0.25106668 1.8830001
-0.29410666 0.26541334 1.8830001
-0.29590002 0.27617335 1.8830001
-0.29769337 0.28514004 1.8830001
-0.28334668 0.34790671 1.8830001
-0.28334668 0.35328668 1.8830001
-0.27976 0.35508001 1.8830001
-0.0053800005 0.41964003 1.8830001
-0.073526673 0.42681336 1.8830001
-0.064560011 0.42681336 1.8830001
-0.055593338 0.42681336 1.8830001
-0.04304 0.42681336 1.8830001
-0.037660003 0.42681336 1.8830001
-0.02152 0.42681336 1.8830001
-0.011955557 0.42561781 1.8830001
-0.0053800005 0.42502004 1.8830001
0.0035866671 0.42502004 1.8830003
0.011955557 0.42561781 1.8830001
-0.10311668 0.43578002 1.8830001
-0.095046669 0.43398669 1.8830001
-0.08697667 0.43129671 1.8830001
-0.07890667 0.43040004 1.8830001
-0.046626668 0.43040004 1.8830001
-0.032280002 0.43040004 1.8830001
-0.026003335 0.43129671 1.8830001
-0.017933335 0.43040004 1.8830001
0.0071733338 0.43040004 1.8830001
0.015542224 0.43279117 1.8830003
0.025106668 0.43578005 1.8830003
0.03586667 0.43578002 1.8830003
0.044833336 0.43578002 1.8830001
0.052006669 0.43757334 1.8830001
-0.11118668 0.44833335 1.8830001
-0.10760002 0.4447467 1.8830001
0.017933335 0.44295338 1.8830001
0.025106668 0.44295335 1.8830003
0.036315002 0.44429833 1.8830003
0.044833332 0.4447467 1.8830003
0.053800005 0.44474664 1.8830003
0.064560011 0.44654006 1.8830003
-0.17216 0.45909336 1.8830001
-0.11118668 0.45550668 1.8830001
-0.10670334 0.45640337 1.8830001
0.055234671 0.454072 1.8830003
0.065008342 0.45505837 1.8830003
0.071733341 0.45730004 1.8830001
-0.16857335 0.46626672 1.8830001
-0.11477336 0.46626675 1.8830003
-0.10298858 0.46575436 1.8830004
-0.096840009 0.46626672 1.8830001
0.057386674 0.46626672 1.8830001
0.065584771 0.46677911 1.8830004
-0.16678001 0.47523335 1.8830001
-0.11405601 0.47559199 1.8830003
-0.10401334 0.47523335 1.8830001
0.05738667 0.47523335 1.8830001
0.064560011 0.47344002 1.8830001
0.075320005 0.47702667 1.8830001
0.086080007 0.47523332 1.8830003
-0.16857335 0.48240671 1.8830001
-0.11405601 0.48204803 1.8830003
-0.10132334 0.48330337 1.8830001
-0.095943347 0.48330337 1.8830001
-0.16857335 0.49137333 1.8830001
-0.023313334 0.49496001 1.8830001
-0.015243335 0.49585667 1.8830001
-0.0053800005 0.49675336 1.8830001
-0.30304 0.0054114284 1.8940001
-0.29762858 0.0036076191 1.8940001
-0.30304 0.018038096 1.8940001
-0.29853049 0.015332382 1.8940001
-0.3052046 0.02453181 1.8940001
-0.31025523 0.036076192 1.8940001
-0.30574572 0.036978096 1.8940001
-0.30484381 0.045095243 1.8940001
-0.2994324 0.04689905 1.8940001
-0.30424255 0.051709205 1.8940001
-0.29822987 0.054114282 1.8940001
-0.30544508 0.067342222 1.8940001
-0.29582477 0.063734606 1.8940001
-0.30304 0.072152384 1.8940001
-0.2994324 0.072152384 1.8940001
-0.30304 0.11544381 1.8940001
-0.30304 0.12626667 1.8940001
-0.30424255 0.13468444 1.8940001
-0.2994324 0.13708952 1.8940001
-0.30304 0.14069715 1.8940001
-0.29853049 0.14520667 1.8940001
-0.29685554 0.15564299 1.8940002
-0.2953738 0.16549954 1.8940001
-0.29702732 0.17436826 1.8940001
-0.29582477 0.18398857 1.8940001
-0.29221714 0.19481143 1.8940001
-0.30304 0.20563428 1.8940001
-0.29582474 0.20563428 1.8940002
-0.29462224 0.2152546 1.8940001
-0.29582477 0.22367239 1.8940001
-0.28572345 0.23665981 1.8940001
-0.29402095 0.24171048 1.8940001
-0.28860953 0.24171048 1.8940001
-0.010822858 0.41848382 1.8940001
-0.0054114284 0.41668004 1.8940001
0.0018038095 0.41848382 1.8940001
-0.10462096 0.42930666 1.8940001
-0.091994286 0.42930666 1.8940001
-0.084779054 0.42930666 1.8940001
-0.0766619 0.42660093 1.8940001
-0.064937145 0.42569908 1.8940001
-0.053212382 0.42660093 1.8940001
-0.045696512 0.42690158 1.8940001
-0.035174284 0.42660093 1.8940001
-0.025253333 0.42810413 1.8940001
-0.016835555 0.42690158 1.8940001
0.0036076191 0.42209142 1.8940001
0.014430476 0.42479712 1.8940001
-0.11183619 0.43652192 1.8940001
-0.10552286 0.43381619 1.8940001
-0.095601909 0.43291429 1.8940001
0.025253337 0.43291432 1.8940001
0.036076188 0.43291432 1.8940001
0.045095243 0.43291429 1.8940001
0.054114282 0.4347181 1.8940001
0.063133337 0.43652192 1.8940001
-0.11424126 0.44433841 1.8940001
0.057721905 0.44012955 1.8940001
0.064937145 0.44193333 1.8940001
0.074316956 0.44373712 1.8940001
-0.11647457 0.45507538 1.8940002
0.076210953 0.45410907 1.8940001
0.084779054 0.45636383 1.8940001
0.091994286 0.45816764 1.8940001
-0.16414666 0.46718669 1.8940001
-0.15693143 0.46538284 1.8940001
-0.14286172 0.46538287 1.8940001
-0.13528571 0.46538287 1.8940001
-0.12506413 0.46778795 1.8940001
-0.11724762 0.46177524 1.8940001
-0.10822857 0.46899047 1.8940001
0.076361269 0.46538287 1.8940001
0.084779054 0.4653829 1.8940001
0.093076579 0.46466133 1.8940001
0.10534249 0.46321827 1.8940001
-0.16595048 0.47440192 1.8940001
-0.15693143 0.47440192 1.8940001
-0.14430477 0.47259811 1.8940001
-0.13528571 0.47259811 1.8940001
-0.12446287 0.47530383 1.8940001
-0.11905143 0.47620574 1.8940001
-0.10822857 0.47440192 1.8940001
0.075759999 0.47476268 1.8940001
0.084779054 0.47259811 1.8940001
0.091994286 0.47259811 1.8940001
-0.10702604 0.48582608 1.8940001
-0.16955811 0.4906362 1.8940001
-0.10642476 0.4906362 1.8940001
-0.19120382 0.50867432 1.8940001
-0.18398857 0.50867432 1.8940001
-0.17677332 0.50687051 1.8940001
-0.012626667 0.50145906 1.8940001
-0.19390953 0.51498759 1.8940001
-0.18639366 0.51348448 1.8940001
-0.20322922 0.53633273 1.8940001
-0.19661525 0.53753519 1.8940001
-0.20563428 0.54835808 1.8940001
-0.20383048 0.55196571 1.8940001
-0.31310225 0.0060444446 1.904
-0.30826667 0.00544 1.904
-0.31506667 0.014960001 1.9040002
-0.30681601 0.013781333 1.9040002
-0.31551999 0.025386669 1.9040002
-0.31552002 0.035748567 1.9040003
-0.31189334 0.045333333 1.904
-0.31189334 0.050773334 1.904
-0.30554667 0.057120003 1.904
-0.30464002 0.061653331 1.904
-0.30826667 0.11968 1.904
-0.31189334 0.12693334 1.904
-0.30826667 0.12512 1.904
-0.31189334 0.13418667 1.904
-0.30826667 0.13418667 1.904
-0.31189334 0.14325334 1.904
-0.30681598 0.14579199 1.9040002
-0.30645335 0.15594667 1.9040002
-0.30464 0.16501334 1.904
-0.30282664 0.17317332 1.904
-0.30101332 0.18496001 1.904
-0.30101332 0.19584 1.904
-0.29738671 0.19584 1.904
-0.30826667 0.20671999 1.904
-0.30645335 0.21216002 1.904
-0.29557332 0.23754667 1.904
-0.30464 0.28650665 1.904
-0.30464 0.29194668 1.904
-0.10336 0.42794669 1.904
-0.092480004 0.42794669 1.904
-0.08522667 0.42794669 1.904
-0.074346669 0.42432001 1.904
-0.065280005 0.42432004 1.904
-0.0272 0.42794669 1.904
-0.01088 0.42432001 1.904
0.018133335 0.42613333 1.904
0.045333333 0.42794669 1.904
0.054400004 0.42794669 1.904
-0.13237333 0.43882668 1.904
-0.12421333 0.43610668 1.904
-0.11650666 0.43474668 1.9040002
-0.10517333 0.43157333 1.904
-0.097920001 0.43157333 1.904
0.025386667 0.43157333 1.904
0.03626667 0.43157333 1.904
0.045333333 0.43157333 1.904
0.054400004 0.43157333 1.904
0.065280005 0.43459558 1.9040002
0.072533339 0.43882668 1.904
0.08704 0.43882668 1.904
-0.14325336 0.44608003 1.9040002
-0.13418667 0.44608 1.9040002
-0.12511998 0.44608003 1.9040002
-0.11847112 0.44487113 1.904
0.077973336 0.44608 1.904
0.085226677 0.44608003 1.9040002
0.091573328 0.44698668 1.904
-0.15413333 0.45514667 1.904
-0.14506668 0.45514664 1.9040002
-0.13418666 0.45514667 1.9040002
-0.12512 0.45514667 1.904
0.08522667 0.45333332 1.904
0.094293341 0.45514667 1.9040002
0.10336 0.45696002 1.904
-0.18496001 0.46421334 1.904
-0.17770667 0.46421334 1.904
-0.154496 0.46348801 1.9040002
-0.14579201 0.46203732 1.9040002
-0.13297778 0.46300444 1.9040002
-0.12548266 0.46348801 1.9040002
0.076159999 0.46784002 1.904
0.095200002 0.46602669 1.904
0.10154667 0.46421334 1.904
-0.16320001 0.47690666 1.904
-0.15473779 0.47509336 1.9040002
-0.14579201 0.47509333 1.9040002
-0.13509333 0.47690666 1.904
-0.12693334 0.47509333 1.904
0.076159999 0.47328001 1.904
0.097920001 0.47146666 1.904
0.10154667 0.47146666 1.904
-0.16561779 0.48597336 1.904
-0.15775999 0.48234668 1.904
-0.13418667 0.48234671 1.904
-0.12572445 0.48476446 1.904
-0.17226666 0.50773335 1.904
-0.18254223 0.5174045 1.904
-0.17362668 0.51543999 1.9040002
-0.16682667 0.51498669 1.904
-0.15232 0.51861334 1.904
-0.14869334 0.51861334 1.904
-0.19584 0.52586669 1.9040002
-0.18768001 0.52495998 1.904
-0.17408 0.52224004 1.904
-0.16682667 0.52223998 1.904
-0.15504 0.52314663 1.904
-0.14869334 0.52405334 1.904
-0.19584 0.53493333 1.9040002
-0.18858667 0.53493333 1.904
-0.20490667 0.54581338 1.904
-0.19584 0.54460448 1.9040002
-0.18677333 0.54037333 1.904
-0.20430224 0.55608892 1.904
-0.19855998 0.55397332 1.904
-0.20490667 0.56213331 1.904
-0.19946666 0.56213331 1.904
-0.33375716 0.029180953 1.9150001
-0.32646191 0.029180953 1.9150001
-0.33193335 0.032828573 1.9150001
-0.32646191 0.034652382 1.9150001
-0.32244954 0.043771427 1.9150002
-0.31734288 0.04559524 1.9150001
-0.3209905 0.054714289 1.9150002
-0.31588385 0.055443812 1.9150002
-0.32359594 0.066178232 1.9150002
-0.31551906 0.065657139 1.9150002
-0.32372618 0.073864281 1.9150001
-0.31369525 0.074776195 1.9150002
-0.31369525 0.17873335 1.9150002
-0.3064 0.17873335 1.9150001
-0.31430316 0.18481269 1.9150002
-0.3064 0.18420476 1.9150001
-0.31004763 0.20426668 1.9150001
-0.3064 0.20426668 1.9150001
-0.3064 0.2298 1.9150001
-0.30396828 0.23466352 1.9150002
-0.29910478 0.23344763 1.9150001
-0.30457622 0.24256667 1.9150001
-0.083895244 0.41582859 1.9150001
-0.074776195 0.41582859 1.9150002
-0.069304764 0.41947621 1.9150001
-0.12037143 0.42677143 1.9150001
-0.083895251 0.42494762 1.9150002
-0.074776188 0.42312384 1.9150001
-0.065657154 0.42312384 1.9150002
-0.054714289 0.42677146 1.9150002
-0.043771431 0.42494762 1.9150002
-0.034652382 0.42494762 1.9150001
-0.014590477 0.42677143 1.9150001
0.025533333 0.42677146 1.9150002
0.034652382 0.42677143 1.9150001
0.043771431 0.42677146 1.9150002
0.054714289 0.42677146 1.9150002
0.063833334 0.42677143 1.9150001
-0.15502381 0.43771428 1.9150001
-0.14590478 0.43771428 1.9150002
-0.13423239 0.43625528 1.9150002
-0.12493095 0.43315476 1.9150001
-0.11490001 0.43041909 1.9150001
-0.10942857 0.43041909 1.9150001
-0.098485716 0.43041909 1.9150001
0.025533333 0.43041909 1.9150002
0.034652382 0.43041909 1.9150001
0.040123809 0.43041909 1.9150001
0.066569045 0.43133098 1.9150001
0.074411429 0.43479618 1.9150002
0.08337415 0.43510893 1.9150002
0.094838098 0.43406671 1.9150001
0.10395715 0.43771428 1.9150001
-0.15502381 0.44500953 1.9150002
-0.14736383 0.4435505 1.9150002
-0.13860953 0.44136193 1.9150001
0.0766 0.44136193 1.9150001
0.082071431 0.44136193 1.9150001
0.095880277 0.44448847 1.9150002
0.10578096 0.4450095 1.9150001
-0.16049524 0.4596 1.9150001
-0.15502381 0.45230478 1.9150001
-0.14955239 0.45230478 1.9150001
0.098485716 0.45230478 1.9150001
0.10630205 0.45491028 1.9150002
-0.17326191 0.46507144 1.9150001
-0.16487239 0.46470672 1.9150002
0.10760476 0.46324766 1.9150001
-0.16414286 0.48878098 1.9150001
-0.1532 0.48513335 1.9150001
-0.14590478 0.48391747 1.9150002
-0.1349619 0.48878098 1.9150002
-0.16779049 0.49790001 1.9150001
-0.16505477 0.50610715 1.9150001
-0.16310069 0.51379323 1.9150002
-0.15593572 0.51522624 1.9150001
-0.18359683 0.52768898 1.9150002
-0.17508572 0.5289048 1.9150002
-0.16353492 0.5258652 1.9150002
-0.15684763 0.52525717 1.9150001
-0.14590476 0.5289048 1.9150001
-0.18420476 0.53620005 1.9150002
-0.17508574 0.53620005 1.9150001
-0.16414288 0.53619999 1.9150001
-0.15502381 0.53620005 1.9150002
-0.14955239 0.53620005 1.9150002
-0.18602858 0.54592705 1.9150002
-0.17417382 0.54440719 1.9150001
-0.16487239 0.5449543 1.9150002
-0.19423571 0.55535001 1.9150001
-0.18785238 0.55443811 1.9150002
-0.17873335 0.55079049 1.9150001
-0.20426667 0.56902862 1.9150002
-0.19551238 0.56465143 1.9150002
-0.18785238 0.56173331 1.9150001
-0.20335478 0.57358807 1.9150001
-0.33366668 0.036666665 1.9250001
-0.32908332 0.044 1.9250001
-0.32633334 0.055000003 1.9250001
-0.31166667 0.18700001 1.9250001
-0.32266667 0.19066668 1.9250001
-0.31533334 0.19479167 1.9250001
-0.30800003 0.19433334 1.9250001
-0.31441668 0.20441668 1.9250001
-0.30800003 0.20166668 1.9250001
0 0.41800001 1.9250001
-0.1045 0.42900002 1.9250001
-0.094600007 0.42753336 1.9250001
-0.055000003 0.42533335 1.9250001
-0.0275 0.42900002 1.9250001
-0.0165 0.42716667 1.9250001
0.0045833336 0.42258334 1.9250001
0.012833334 0.42533332 1.9250001
0.034833334 0.42533332 1.9250001
0.044 0.42533335 1.9250001
0.055000003 0.42533335 1.9250001
0.066 0.42716667 1.9250001
0.075166672 0.42900002 1.9250001
0.08433333 0.42900002 1.9250001
0.095333338 0.42900002 1.9250001
0.1045 0.42900002 1.9250001
0.11366668 0.42900002 1.9250001
0.121 0.42900002 1.9250001
-0.16133334 0.43633336 1.9250001
-0.15400001 0.43633336 1.9250001
-0.14483333 0.43633336 1.9250001
-0.13566667 0.43450004 1.9250001
-0.12833333 0.43266669 1.9250001
0.077000007 0.43266669 1.9250001
0.086166665 0.43266669 1.9250001
0.1045 0.43450004 1.9250001
0.11366668 0.43450004 1.9250001
0.12222223 0.43511114 1.9250001
-0.16225 0.44458336 1.9250001
0.11471429 0.44314292 1.9250002
0.12100001 0.4436667 1.9250001
-0.16225 0.45558333 1.9250001
0.11513334 0.45466667 1.9250001
-0.176 0.46566668 1.9250001
-0.16683334 0.46200001 1.9250001
0.11488889 0.46322224 1.9250001
-0.14666666 0.4876667 1.9250001
-0.16377778 0.49500006 1.9250001
-0.15766667 0.49133337 1.9250001
-0.14300001 0.49133337 1.9250001
-0.15216668 0.51700002 1.9250001
-0.14483333 0.51700002 1.9250001
-0.15033334 0.52066666 1.9250001
-0.14544444 0.52188891 1.9250001
-0.18333334 0.55366671 1.9250001
-0.17600001 0.55419052 1.9250002
-0.19066668 0.56833333 1.9250001
-0.18425001 0.56558335 1.9250001
-0.17554167 0.56420839 1.9250001
-0.16866668 0.56650001 1.9250001
-0.19677779 0.57566667 1.9250001
-0.18425001 0.57475001 1.9250001
-0.17233334 0.57749999 1.9250001
-0.16500001 0.57749999 1.9250001
-0.19800001 0.583 1.9250001
-0.17416668 0.58483332 1.9250001
-0.16573332 0.58446664 1.9250001
-0.176 0.59033334 1.9250001
-0.34294859 0.033188574 1.9360001
-0.33926097 0.035032384 1.9360001
-0.33649525 0.043329526 1.9360001
-0.33372957 0.055314295 1.9360001
-0.33372954 0.062689528 1.9360001
-0.32451048 0.19544382 1.9360001
-0.32082286 0.20466286 1.9360001
-0.32082286 0.21019429 1.9360001
-0.1143162 0.42776385 1.9360001
-0.10448255 0.42653465 1.9360002
-0.095878109 0.42346162 1.9360001
0.025813337 0.42776388 1.9360002
0.046095241 0.4240762 1.9360001
0.055314288 0.4240762 1.9360002
0.065147944 0.42530543 1.9360002
0.073752388 0.42776388 1.9360002
0.082971431 0.42776385 1.9360001
0.095878109 0.42776388 1.9360002
0.10509715 0.42776385 1.9360001
0.11062858 0.42776385 1.9360001
-0.16594286 0.43698287 1.9360001
-0.15580192 0.43421715 1.9360001
-0.14381716 0.43513906 1.9360002
-0.13644192 0.43513906 1.9360001
-0.12722287 0.43145144 1.9360001
-0.11431621 0.43145144 1.9360002
-0.022125715 0.43145144 1.9360001
0.12759164 0.43440151 1.9360001
0.1327543 0.43145144 1.9360001
-0.16815543 0.44546443 1.9360001
0.12685411 0.44546443 1.9360001
-0.16717207 0.45603558 1.9360002
0.11800382 0.45726478 1.9360001
0.12292065 0.45480639 1.9360002
-0.18438096 0.46648383 1.9360001
-0.17516191 0.46464002 1.9360001
-0.16963048 0.4609524 1.9360001
0.11800382 0.46832764 1.9360001
0.12169144 0.46279621 1.9360001
-0.16225524 0.4978286 1.9360001
-0.15488 0.49598479 1.9360001
-0.14381716 0.49659941 1.9360002
-0.13644192 0.4978286 1.9360001
-0.16373029 0.50594139 1.9360001
-0.15856764 0.50520384 1.9360002
-0.1733181 0.51257902 1.9360001
-0.15303621 0.5162667 1.9360001
-0.14750476 0.5162667 1.9360001
-0.19298542 0.57772708 1.9360002
-0.18253715 0.57619053 1.9360001
-0.17577653 0.57649785 1.9360002
-0.16778667 0.57526863 1.9360001
-0.19360001 0.58448768 1.9360001
-0.18438096 0.58485645 1.9360001
-0.17700572 0.58264387 1.9360001
-0.19452192 0.59186286 1.9360001
-0.18438098 0.59370673 1.936
-0.17454731 0.59616512 1.9360002
-0.16963048 0.59370667 1.9360001
-0.34675145 0.037085716 1.9470001
-0.35231429 0.044502862 1.9470001
-0.34536076 0.044966429 1.9470003
-0.34443364 0.055165 1.9470003
-0.34304288 0.063045718 1.9470001
-0.32635432 0.20397145 1.9470003
-0.3263543 0.21138859 1.9470001
-0.14092572 0.42648575 1.9470001
-0.13536286 0.42648575 1.9470001
-0.12609145 0.42648575 1.9470003
-0.11496573 0.42500234 1.9470001
-0.10476716 0.42370433 1.9470001
0.037085716 0.42648575 1.9470001
0.040794287 0.42648575 1.9470001
0.074171439 0.42648575 1.9470003
0.085297152 0.42648575 1.9470003
0.09456858 0.42463148 1.9470001
0.1030983 0.42500234 1.9470001
0.11496572 0.42648575 1.9470003
0.12238287 0.42648575 1.9470001
-0.17306668 0.43513912 1.9470003
-0.16503143 0.43204859 1.9470001
-0.15501831 0.43167773 1.9470001
-0.14463429 0.43204862 1.9470003
-0.13536286 0.43204859 1.9470001
-0.12609145 0.43019432 1.9470003
-0.11496572 0.43019432 1.9470001
0.018542858 0.43019432 1.9470001
0.089005724 0.43019432 1.9470001
0.11682001 0.43019432 1.9470001
0.12609145 0.43019432 1.9470003
0.13598096 0.43637526 1.9470003
-0.18172002 0.4450286 1.9470001
-0.17615716 0.4450286 1.9470003
0.13474478 0.44255623 1.9470003
-0.18172002 0.45986289 1.9470001
-0.17536245 0.45615438 1.9470003
0.12887287 0.45708147 1.9470001
-0.19470002 0.46542576 1.9470001
-0.18635572 0.46542573 1.9470001
-0.17615716 0.46357146 1.9470001
0.12732762 0.46480763 1.9470003
-0.19284573 0.4709886 1.9470001
-0.18542857 0.4709886 1.9470001
-0.15353487 0.5051074 1.9470001
-0.14516409 0.50542533 1.9470003
-0.134992 0.50510746 1.9470001
-0.12655501 0.50482929 1.9470003
-0.15501831 0.51400805 1.9470001
-0.14611773 0.51474977 1.9470001
-0.14339811 0.53527057 1.9470003
-0.14834286 0.54330575 1.9470001
-0.20211716 0.59522569 1.9470001
-0.19470002 0.59707999 1.9470001
-0.20026287 0.60078865 1.9470001
-0.1965543 0.60078865 1.9470001
-0.35430479 0.048483811 1.9580001
-0.35430479 0.052213334 1.9580001
-0.33379239 0.20885333 1.9580001
-0.33379239 0.21258286 1.9580001
-0.13612762 0.41770667 1.9580001
-0.089508571 0.41770667 1.9580001
0.10256191 0.41770667 1.9580001
-0.17528763 0.42889529 1.9580001
-0.16316667 0.42796287 1.9580001
-0.15477523 0.4270305 1.9580001
-0.14545143 0.42516574 1.9580002
-0.13426286 0.42330098 1.9580001
-0.12493904 0.42330095 1.9580001
-0.11685842 0.42267939 1.9580001
-0.10069714 0.42143622 1.9580001
-0.095102862 0.42143622 1.9580001
0.029836191 0.42889526 1.9580001
0.033565715 0.42889526 1.9580001
0.059672382 0.42516571 1.9580001
0.065266669 0.42516571 1.9580001
0.074590474 0.42516574 1.9580001
0.085779056 0.42516574 1.9580001
0.096967623 0.42143622 1.9580001
0.10535905 0.42236859 1.9580001
0.11486933 0.42367393 1.9580001
0.12556063 0.42640895 1.9580001
0.13426286 0.4270305 1.9580001
0.14358667 0.42889526 1.9580001
-0.20325905 0.43448955 1.9580001
-0.19318934 0.43486252 1.9580001
-0.18461142 0.43448952 1.9580001
-0.17777398 0.43386793 1.9580001
0.13612762 0.43262476 1.9580001
0.14545143 0.43448958 1.9580001
0.15291047 0.43635431 1.9580001
-0.20325905 0.44381338 1.9580001
-0.19393523 0.44381332 1.9579999
-0.18498437 0.44381338 1.9580001
0.13799238 0.44754288 1.9580001
0.14498524 0.44334716 1.9580001
0.15291047 0.44194859 1.9580001
0.1613019 0.44381335 1.9580001
-0.20325905 0.45500192 1.9580001
-0.19393523 0.45500195 1.9579999
-0.18498437 0.45574784 1.9580001
0.13575467 0.45425603 1.9580001
0.14358667 0.4512724 1.9580001
-0.20139429 0.46246096 1.9580001
-0.19393525 0.46246096 1.9580001
-0.18647619 0.46432573 1.9580001
0.13301969 0.46619052 1.9580001
0.11748 0.47737905 1.9580001
0.12493904 0.47551429 1.9580001
-0.1417219 0.5165391 1.9580001
-0.13500877 0.51616615 1.9580001
-0.1417219 0.52213329 1.9580001
-0.13550603 0.52337646 1.9580001
-0.14545143 0.54451048 1.9580001
-0.20512381 0.60231811 1.9580001
0.10688858 0.41630286 1.9690001
-0.18002287 0.42567909 1.9690001
-0.17439716 0.42755431 1.9690001
-0.16689619 0.42755431 1.9690001
-0.15189429 0.42380384 1.9690001
-0.14439334 0.42005336 1.9690001
-0.13126667 0.42005336 1.9690001
-0.12376573 0.42005336 1.9690002
-0.11251429 0.42380384 1.9690001
-0.10688858 0.42380384 1.9690001
0.046880953 0.42755431 1.9690001
0.054381907 0.42755431 1.9690001
0.067508571 0.42380384 1.9690001
0.078760006 0.42380384 1.9690001
0.084385723 0.42380384 1.9690001
0.093011811 0.42155358 1.9690001
0.10876381 0.42005336 1.9690001
0.11438952 0.42005336 1.9690001
0.12301563 0.42230368 1.9690001
0.13501714 0.42380387 1.9690002
0.14439334 0.42567909 1.9690001
0.15301943 0.42605415 1.9690001
0.16314572 0.42755431 1.9690001
-0.20627619 0.43130478 1.9690001
-0.19596238 0.43224242 1.9690001
-0.18564858 0.43130478 1.9690001
0.018752381 0.43130478 1.9690001
0.024378097 0.43130478 1.9690001
0.1550197 0.43380508 1.9690001
0.16455215 0.43552405 1.969
0.17252192 0.43505526 1.9690001
0.15752001 0.44443142 1.9690001
0.16752128 0.44380638 1.9690002
0.17252192 0.44443142 1.9690001
0.14439334 0.45755813 1.9690001
0.15376952 0.45380762 1.9690001
0.16502097 0.45318258 1.9690001
0.17252192 0.4519324 1.9690001
0.13876763 0.46505904 1.9690002
0.14439334 0.4650591 1.9690001
0.15323375 0.4650591 1.9690001
0.16377079 0.46255875 1.9690002
0.13501714 0.47443527 1.9690001
0.14439334 0.47443527 1.9690001
0.15752001 0.47256002 1.9690001
0.13126667 0.48006096 1.9690001
0.14626858 0.48006096 1.9690001
-0.12564096 0.51756573 1.9690001
-0.11438952 0.51756573 1.9690001
-0.1425181 0.52881718 1.9690001
-0.13314191 0.52600431 1.9690001
-0.1275162 0.52881718 1.9690001
-0.1425181 0.53256768 1.9690001
-0.13876763 0.53256768 1.9690001
-0.1425181 0.54569435 1.9690001
-0.13689238 0.54194385 1.9690001
-0.12564096 0.54006857 1.9690001
-0.14439334 0.55507052 1.9690001
0.19877525 0.834481 1.9690001
-0.20554286 0.4186286 1.9800001
-0.1433143 0.4186286 1.9800001
-0.13577144 0.41862863 1.9800003
-0.094285719 0.4186286 1.9800001
0.096171439 0.4186286 1.9800001
0.10182858 0.4186286 1.9800001
0.11502858 0.4186286 1.9800001
0.12257144 0.4186286 1.9800001
-0.20554286 0.42617148 1.9800003
-0.1961143 0.42617145 1.9800001
-0.18587758 0.42563275 1.9800003
-0.17537144 0.42428574 1.9800001
-0.16594286 0.42466289 1.9800001
-0.15557143 0.42334288 1.9800001
-0.11691429 0.42240003 1.9800001
-0.10182858 0.42240003 1.9800001
-0.096171439 0.42240003 1.9800001
0.041485716 0.42994288 1.9800001
0.062228575 0.42617145 1.9800001
0.075428575 0.42491433 1.9800003
0.084857151 0.42240003 1.9800001
0.12822859 0.42240003 1.9800001
0.13577144 0.42240006 1.9800003
0.14520001 0.42240003 1.9800001
0.15462857 0.42365718 1.9800003
0.16688572 0.42711431 1.9800001
0.17348573 0.42805716 1.9800001
-0.20365715 0.4337143 1.9800001
0.1697143 0.4337143 1.9800001
0.17537144 0.43560004 1.9800001
0.18480001 0.43748578 1.9800003
0.17631429 0.44408578 1.9800001
0.18291429 0.4450286 1.9800001
0.15651429 0.46765718 1.9800001
0.16217144 0.46765718 1.9800001
0.13954286 0.47897145 1.9800001
0.15274286 0.47708574 1.9800001
0.16217144 0.4714286 1.9800001
0.13577144 0.48274288 1.9800001
-0.12445715 0.52422857 1.9800001
-0.11440001 0.52548575 1.9800003
-0.13388571 0.53742862 1.9800001
-0.12391838 0.5366205 1.9800003
-0.11408572 0.53460008 1.9800001
-0.10937144 0.54685718 1.9800001
-0.1433143 0.55440003 1.9800001
-0.13702857 0.55502868 1.9800003
-0.10748573 0.55251431 1.9800001
-0.13577144 0.56194293 1.9800003
0.1961143 0.83348572 1.9800001
0.20365715 0.83537149 1.9800001
0.20365715 0.84102863 1.9800001
-0.18402286 0.41737145 1.9920001
-0.17453715 0.41737145 1.9920001
-0.16505143 0.41737145 1.9920001
-0.12141715 0.41737145 1.9920001
0.10434286 0.41737145 1.9920001
0.11477714 0.4164229 1.9920001
0.15556572 0.41737145 1.9920001
-0.20109715 0.42116573 1.9920001
-0.19540572 0.42116573 1.9920001
-0.18592 0.42116576 1.9920001
-0.17453717 0.42116576 1.9920001
-0.16568381 0.42243049 1.9920001
-0.12521145 0.42116576 1.9920001
-0.11382857 0.42306286 1.9920001
0.047428571 0.4287543 1.9920001
0.055017143 0.4287543 1.9920001
0.068297148 0.42496002 1.9920001
0.073988579 0.42496002 1.9920001
0.085371435 0.42116573 1.9920001
0.091062859 0.42116573 1.9920001
0.12900572 0.42116573 1.9920001
0.13469714 0.42116573 1.9920001
0.14418288 0.42116576 1.9920001
0.15556572 0.42243052 1.9920001
0.16505143 0.42306286 1.9920001
0.17548572 0.4259086 1.9920001
0.18402286 0.4287543 1.9920001
0.0056914287 0.43254858 1.9920001
0.015177144 0.43507814 1.9920001
0.024662858 0.43254858 1.9920001
0.034148574 0.43254861 1.9920001
0.17833145 0.43444574 1.9920001
0.18592 0.43444571 1.9920003
0.18686858 0.44488001 1.9920001
0.19350858 0.44393146 1.9920001
0.17833145 0.45721143 1.9920001
0.18402286 0.45341715 1.9920001
0.12710857 0.48946288 1.9920001
0.13469714 0.48946288 1.9920001
0.14165336 0.48693341 1.9920001
-0.12141715 0.52740574 1.9920001
-0.12394667 0.53246474 1.9920001
-0.11306971 0.5349943 1.9920002
-0.1328 0.54637718 1.9920001
-0.11256381 0.54384768 1.9920001
-0.091062859 0.54258287 1.9920001
-0.087268576 0.54258287 1.9920001
-0.13374856 0.5549143 1.9920001
-0.1264762 0.5552305 1.9920003
-0.11572572 0.55776 1.9920001
-0.083474286 0.55206859 1.9920001
-0.075885721 0.55206859 1.9920001
-0.12597029 0.56307203 1.9920002
-0.11572572 0.56155431 1.9920001
0.14608002 0.79300576 1.9920001
-0.32630858 0.80438858 1.9920001
0.15746287 0.8081829 1.9920001
0.16568381 0.80691814 1.9920001
0.17074287 0.80628574 1.9920001
0.15430097 0.81830108 1.9920001
0.15556574 0.82525718 1.9920003
0.16315429 0.82525718 1.9920001
0.18667887 0.82487774 1.9920002
0.19540572 0.82525712 1.9920001
0.20109715 0.82715428 1.9920001
0.15809524 0.8322134 1.9920001
0.16505143 0.83474296 1.9920003
0.17833146 0.8347429 1.9920001
0.18592 0.83474296 1.9920003
0.19477335 0.8347429 1.9920001
0.20413259 0.83398402 1.9920002
0.21437715 0.83853716 1.9920001
0.16505143 0.84422863 1.9920001
0.17453715 0.84422863 1.9920001
0.18592 0.84422863 1.9920003
0.19540572 0.84422863 1.9920001
0.20868573 0.84422863 1.9920001
0.21437715 0.84422863 1.9920001
-0.19457714 0.41967618 2.003
-0.12590286 0.41967618 2.003
-0.11827239 0.41967618 2.003
0.095380954 0.41967618 2.003
0.10491905 0.41586095 2.003
0.11254953 0.41586095 2.003
0.12494905 0.41872239 2.003
0.13353334 0.41967618 2.003
0.14497906 0.41967618 2.003
0.15451714 0.41776857 2.003
0.16405523 0.41872236 2.003
0.17550096 0.41967618 2.003
-0.10682666 0.42730665 2.003
0.064859048 0.42730665 2.003
0.076304764 0.42349145 2.003
0.080119997 0.42349145 2.003
0.16023999 0.42349145 2.003
0.17550096 0.42349145 2.003
0.18503906 0.42539907 2.003
0.19362333 0.42635286 2.003
-0.034337144 0.43875238 2.003
-0.011445714 0.43875238 2.003
0.0076304763 0.43112192 2.003
0.013353334 0.43493712 2.003
0.036244765 0.43112192 2.003
0.041967619 0.43112192 2.003
0.19566722 0.43439209 2.0030003
0.20602286 0.43779859 2.003
-0.030521905 0.44256762 2.003
0.19712064 0.44511113 2.003
0.2052598 0.4440937 2.003
0.21556094 0.44256762 2.003
0.22128381 0.44447523 2.003
0.19512218 0.45510343 2.0030003
0.20602287 0.45401335 2.003
0.21517943 0.45325026 2.003
0.18542059 0.46469602 2.003
0.19403212 0.464369 2.0030003
0.20347938 0.4629156 2.003
-0.12781048 0.53031808 2.003
-0.10491905 0.53604096 2.003
-0.072489522 0.53604096 2.003
-0.068674289 0.53604096 2.003
-0.12208762 0.54939431 2.003
-0.11636477 0.54939431 2.003
-0.10491905 0.54557908 2.0030003
-0.096652701 0.54685086 2.0030003
-0.083935231 0.54939431 2.003
-0.073443338 0.54557908 2.003
-0.064859055 0.54510212 2.003
-0.055702474 0.54634207 2.003
-0.047690473 0.54748666 2.003
-0.12335937 0.55448127 2.003
-0.11636477 0.55511713 2.003
-0.10428318 0.55448127 2.003
-0.095380954 0.55320948 2.003
-0.082663491 0.55448127 2.003
-0.072489522 0.55511713 2.003
-0.068674289 0.55320948 2.003
-0.055320952 0.55320948 2.003
-0.047690473 0.55320948 2.003
-0.072489522 0.56084001 2.003
-0.31284952 0.7973848 2.003
-0.30903429 0.79547715 2.003
0.13544096 0.7973848 2.003
0.14116381 0.7973848 2.003
-0.32238764 0.80501521 2.003
-0.31475717 0.80119997 2.003
0.1297181 0.80501527 2.003
0.13544098 0.80501521 2.0030003
0.14497904 0.80501521 2.003
0.15413563 0.80577832 2.003
0.16151175 0.80755872 2.003
-0.33192572 0.81646097 2.003
-0.32620287 0.81264573 2.003
0.12590286 0.81455344 2.0030003
0.13544096 0.81264573 2.003
0.1457421 0.81417179 2.003
0.15388128 0.81518924 2.003
0.16405523 0.81646097 2.003
0.17550096 0.81646097 2.003
-0.33192572 0.82409143 2.003
-0.32715666 0.82504523 2.003
0.076304764 0.82409143 2.003
0.080119997 0.82409143 2.003
0.11636477 0.82409143 2.003
0.12590286 0.82300144 2.0030003
0.14752255 0.82154799 2.003
0.15260953 0.8202762 2.003
0.16460028 0.82300144 2.0030003
0.17597786 0.82409143 2.003
0.18503904 0.82409143 2.003
0.11445715 0.83744478 2.0030003
0.16787048 0.8317219 2.003
0.17441089 0.83499211 2.0030003
0.18313143 0.8317219 2.003
0.19839238 0.83744478 2.003
0.20983809 0.83935237 2.003
0.21365333 0.83935237 2.003
0.16023999 0.84507525 2.003
0.1742292 0.84443939 2.003
0.17550094 0.85079807 2.003
0.099790484 0.4183524 2.0150001
0.10746667 0.4145143 2.0150001
0.11514287 0.4145143 2.0150001
0.12665714 0.4183524 2.0150001
0.13241428 0.4183524 2.0150001
0.14584765 0.41835243 2.0150001
0.15544286 0.41643333 2.0150001
0.16503809 0.41604954 2.0150001
0.17463335 0.41643333 2.0150001
0.18422858 0.41643333 2.0150003
0.19574289 0.41835243 2.0150001
0.20341906 0.4183524 2.0150001
-0.11322381 0.42410952 2.0150001
-0.10362858 0.42602858 2.0150001
-0.099790484 0.42602858 2.0150001
0.0076761907 0.42794764 2.0150001
0.014584762 0.42833143 2.0150001
0.023028571 0.42986667 2.0150001
0.036461905 0.42986667 2.0150001
0.046057146 0.42986667 2.0150001
0.055652384 0.42986667 2.0150001
0.065247625 0.42730796 2.0150001
0.072923817 0.42602858 2.0150001
0.086357147 0.42219049 2.0150001
0.13817143 0.42219049 2.0150001
0.18614763 0.42219049 2.0150001
0.19651049 0.42372575 2.0150001
0.20533812 0.42602858 2.0150003
0.21237461 0.42858732 2.0150001
0.22260952 0.42986667 2.0150001
0.0019190477 0.43370476 2.0150001
0.015352381 0.43370479 2.0150001
0.024947619 0.43370476 2.0150001
0.030704763 0.43370476 2.0150001
0.20469843 0.43498415 2.0150001
0.21301427 0.43562379 2.0150001
0.22260952 0.43562382 2.0150001
0.23220478 0.43370476 2.0150001
-0.034542859 0.44138095 2.0150001
-0.024307936 0.44393969 2.0150001
-0.017911112 0.44266033 2.0150001
0.21570097 0.44598672 2.0150001
0.22548811 0.44425952 2.0150001
0.23028573 0.44330001 2.0150001
-0.076761909 0.53733331 2.0150001
-0.082902864 0.54577726 2.0150001
-0.076761909 0.54309052 2.0150001
-0.063328572 0.54117149 2.0150001
-0.076761909 0.55268574 2.0150001
-0.063968256 0.55524451 2.0150001
-0.067166671 0.56324047 2.0150001
-0.055652384 0.56036192 2.0150001
-0.049895242 0.56228101 2.0150001
0.067166671 0.77913338 2.0150001
0.088276193 0.77913338 2.0150001
0.092114285 0.77913338 2.0150001
0.088276193 0.7829715 2.0150001
0.092114285 0.7829715 2.0150001
0.12665714 0.79832387 2.0150001
0.13433334 0.79832387 2.0150001
0.14200953 0.79832387 2.0150001
-0.3137643 0.8088786 2.0150001
0.099790484 0.80599999 2.0150001
0.10554763 0.80600011 2.0150003
0.11404628 0.80654836 2.0150003
0.12512191 0.80676764 2.0150001
0.13049524 0.80216193 2.0150001
-0.3262381 0.81367624 2.0150001
0.076761909 0.8175143 2.0150001
0.084438108 0.81559533 2.0150003
0.095952392 0.81559533 2.0150003
0.10554762 0.81559527 2.0150001
0.11514287 0.81559533 2.0150003
0.1247381 0.81367624 2.0150001
-0.33391431 0.82519054 2.0150001
0.066782862 0.82672578 2.0150001
0.074459054 0.82442296 2.0150001
0.084917866 0.82471079 2.0150001
0.095952384 0.82519054 2.0150001
0.10554763 0.82519054 2.0150003
0.11459456 0.824094 2.0150003
0.17271429 0.82902861 2.0150001
0.076761909 0.83286673 2.0150001
0.082519054 0.83286673 2.0150001
0.11591049 0.83516961 2.0150001
0.12281905 0.83478576 2.0150001
0.12281905 0.84054291 2.0150001
0.10424572 0.41698289 2.0270002
0.11582858 0.41312194 2.0270002
0.12548096 0.41698289 2.0270002
0.13127239 0.41698289 2.0270002
0.14671621 0.41698289 2.0270002
0.15366593 0.41466632 2.0270002
0.16602097 0.41312194 2.0270002
0.17567335 0.41312194 2.0270002
0.18532573 0.41312194 2.0270002
0.1949781 0.41505241 2.0270002
0.20463049 0.41505241 2.0270004
-0.11325461 0.42213082 2.0270002
-0.10810667 0.42470479 2.0270002
0.019304764 0.42856577 2.0270002
0.023165716 0.42856577 2.0270002
0.034748577 0.42856577 2.0270002
0.046331432 0.42856577 2.0270002
0.054053336 0.4285658 2.0270002
0.061775245 0.42856577 2.0270002
0.075288579 0.42470479 2.0270002
0.084940962 0.42213082 2.0270002
0.094593339 0.42084384 2.0270002
0.13899431 0.42084384 2.0270002
0.20849144 0.42084384 2.0270002
0.21363938 0.42470479 2.0270002
0.22200477 0.42856577 2.0270002
-0.034748577 0.43628767 2.0270002
0.0019304764 0.43242669 2.0270002
0.027026668 0.43242669 2.0270002
0.030887622 0.43242669 2.0270002
0.22264826 0.43500066 2.0270002
0.23358764 0.43242669 2.0270002
-0.052122861 0.44207907 2.0270002
-0.044400956 0.44207907 2.0270002
-0.036679052 0.44014859 2.0270002
-0.025096193 0.44207907 2.0270002
-0.015443812 0.44014859 2.0270002
-0.0057914294 0.44014859 2.0270002
0.22393525 0.44014859 2.0270002
0.23423114 0.44143558 2.0270002
-0.081080012 0.54439437 2.0270002
-0.06370572 0.56562954 2.0270002
-0.055983812 0.56756002 2.0270002
-0.077219054 0.64477909 2.0270002
0.065636195 0.78763431 2.0270002
0.084940962 0.7857039 2.0270002
0.1061762 0.78763431 2.0270002
0.11196762 0.78763431 2.0270002
0.088801913 0.79149532 2.0270002
0.096523814 0.79921722 2.0270002
0.10424572 0.79825199 2.0270002
0.12355049 0.79921722 2.0270002
0.094593339 0.80500865 2.0270002
0.10424572 0.80307811 2.0270002
0.11679381 0.80404341 2.0270002
0.12355049 0.80500865 2.0270002
-0.32432005 0.81852198 2.0270002
-0.31466764 0.81852198 2.0270002
-0.30887622 0.81466103 2.0270002
0.069497153 0.81852198 2.0270002
0.075288579 0.81852198 2.0270002
0.086871438 0.81080008 2.0270002
0.094593339 0.81273055 2.0270002
0.11968953 0.81080008 2.0270002
-0.24710098 0.82624388 2.0270002
0.067566678 0.8243134 2.0270002
0.073358104 0.82238293 2.0270002
0.066923186 0.83525276 2.0270002
0.073358104 0.83782673 2.0270002
0.088801913 0.83782673 2.0270002
0.094593339 0.83782673 2.0270002
0.088801913 0.84168768 2.0270002
0.094593339 0.84168768 2.0270002
-0.32045907 0.85713154 2.0270002
-0.31659812 0.85713154 2.0270002
-0.32045907 0.86099249 2.0270002
-0.31659812 0.86099249 2.0270002
-0.11263048 0.41945145 2.039
0.095153332 0.41945145 2.039
0.10486286 0.41750956 2.039
0.11263048 0.41556764 2.039
0.1203981 0.41556764 2.039
0.13787523 0.41945145 2.039
0.14499557 0.41686225 2.039
0.19030666 0.4116838 2.039
0.21555144 0.41750956 2.039
0.22137713 0.41945145 2.039
-0.10486286 0.42721909 2.039
0.0077676191 0.42721906 2.039
0.015535238 0.42721909 2.039
0.023302857 0.42721906 2.039
0.036896188 0.42721906 2.039
0.044663809 0.42721906 2.039
0.054373335 0.42721909 2.039
0.066024765 0.42721909 2.039
0.081560001 0.42333525 2.039
0.21749334 0.42527717 2.039
0.22448421 0.42566553 2.039
0.23497048 0.42721906 2.039
-0.093211427 0.43110287 2.039
-0.085443817 0.43304476 2.039
-0.075734288 0.43498668 2.039
-0.064730167 0.43757588 2.039
-0.053402379 0.4378995 2.039
-0.045311116 0.43757588 2.039
-0.035925236 0.43692857 2.039
-0.025244761 0.43887046 2.039
-0.015535238 0.43887049 2.039
-0.0077676191 0.43887046 2.039
0.0019419048 0.43110287 2.039
0.027186668 0.43110287 2.039
0.034954283 0.43110287 2.039
0.042721905 0.43110287 2.039
0.22914477 0.43304479 2.039
0.23497048 0.43110287 2.039
-0.073792383 0.44275427 2.039
-0.065248005 0.4443078 2.039
-0.058257144 0.44469619 2.039
-0.031070476 0.44275427 2.039
-0.027186668 0.44275427 2.039
-0.066024765 0.57091999 2.039
-0.077676184 0.65248001 2.039
-0.054373335 0.78258771 2.039
-0.044663809 0.78258765 2.039
-0.038838092 0.78258765 2.039
0.058257144 0.78647143 2.039
0.065053813 0.78550053 2.039
0.097095244 0.78841329 2.039
0.058257144 0.79618096 2.039
0.066024758 0.79462743 2.039
0.075734288 0.79423904 2.039
0.082854606 0.79488635 2.039
0.095153332 0.79423904 2.039
0.10389191 0.79521 2.039
0.11457238 0.79618096 2.039
0.057286192 0.80491954 2.039
0.066024758 0.80394852 2.0389998
0.075345896 0.80472529 2.039
0.08544381 0.80394852 2.0389998
0.09450604 0.80135936 2.039
0.10486286 0.80006474 2.039
0.11457238 0.80394858 2.039
0.1203981 0.80394858 2.039
-0.30682096 0.81948382 2.039
-0.25244763 0.81559998 2.039
-0.24856381 0.81365812 2.039
0.056703623 0.81637681 2.039
0.066024758 0.81559998 2.0389998
0.075734288 0.81560004 2.039
0.084888987 0.81560004 2.039
-0.32429808 0.82530951 2.039
-0.31070474 0.82530951 2.039
-0.30487907 0.82530951 2.039
-0.25244763 0.82530951 2.039
-0.24468 0.8256979 2.039
-0.23691238 0.82725143 2.039
0.058257144 0.82530951 2.039
0.064082861 0.82530951 2.039
-0.30682096 0.83113527 2.039
-0.25244763 0.83307719 2.039
-0.24468 0.83501917 2.039
-0.23497048 0.83113527 2.039
0.058257144 0.83307719 2.039
0.062140953 0.83307719 2.039
-0.30293715 0.84278667 2.039
-0.32235619 0.85832191 2.039
-0.32624 0.86414766 2.039
0.16798668 0.39652669 2.0510001
0.17189334 0.39457336 2.0510001
0.16798668 0.40434003 2.0510001
0.097666666 0.41801336 2.0510001
0.10352667 0.41801336 2.0510001
0.12696667 0.41801336 2.0510001
0.13478 0.41801336 2.0510001
0.14064001 0.41801336 2.0510001
0.15626667 0.41410667 2.0510001
0.16505668 0.41313002 2.0510001
0.17580001 0.4141067 2.0510001
0.18491554 0.41280445 2.0510001
0.19793779 0.41280445 2.0510001
0.20444891 0.41280445 2.0510001
0.21096 0.41410667 2.0510001
-0.10548 0.42387336 2.0510001
-0.095713332 0.42778003 2.0510001
-0.085388578 0.42694286 2.0510004
-0.076570675 0.426608 2.0510004
-0.064460002 0.42973337 2.0510001
-0.0039066668 0.42973337 2.0510001
0.0031253335 0.42738935 2.0510004
0.015626667 0.42582667 2.0510001
0.027346667 0.42973337 2.0510001
0.035160001 0.42712891 2.0510001
0.045577779 0.42452449 2.0510001
0.053912003 0.42426401 2.0510004
0.064460002 0.42582667 2.0510001
0.07422667 0.42582667 2.0510001
0.085946672 0.42192 2.0510001
0.22658668 0.42192 2.0510001
0.23179558 0.42452449 2.0510001
-0.071622223 0.43494225 2.0510001
-0.063808888 0.43494225 2.0510001
-0.055474669 0.43520269 2.0510004
-0.044275559 0.43494225 2.0510001
-0.035160001 0.43494225 2.0510001
-0.025393333 0.43754667 2.0510001
-0.014845334 0.43598399 2.0510004
-0.0058600004 0.43559337 2.0510001
-0.070320003 0.44145337 2.0510001
-0.0039066668 0.44145337 2.0510001
-0.05078667 0.58209336 2.0510001
-0.044926669 0.58404672 2.0510001
-0.039066669 0.58600003 2.0510001
-0.072273336 0.65436673 2.0510001
-0.064460002 0.65436673 2.0510001
-0.063483335 0.66510999 2.0510001
-0.058600001 0.66608667 2.0510001
-0.07422667 0.6719467 2.0510001
-0.063808888 0.67324895 2.0510001
-0.058600001 0.67585343 2.0510001
-0.016928889 0.67324895 2.0510001
-0.070320003 0.68757337 2.0510001
-0.064460002 0.68562007 2.0510001
-0.057297777 0.68627119 2.0510001
-0.071882673 0.69460529 2.0510004
-0.064069338 0.69460535 2.0510004
-0.055181671 0.69538671 2.0510004
-0.046880003 0.69929338 2.0510001
-0.053912003 0.70476264 2.0510004
-0.046880003 0.70320004 2.0510001
-0.053130668 0.71413869 2.0510004
-0.053912003 0.72507739 2.0510004
-0.045577779 0.72533786 2.0510001
-0.052740004 0.73445332 2.0510004
-0.045317337 0.73445332 2.0510004
-0.039066669 0.74617338 2.0510001
-0.034043815 0.7534287 2.0510004
-0.035648335 0.76521832 2.0510004
-0.027346667 0.76570672 2.0510001
-0.053716667 0.77645004 2.0510001
-0.044926669 0.77547336 2.0510001
-0.037113335 0.77547336 2.0510001
-0.21096 0.78914672 2.0510001
-0.20705333 0.78914672 2.0510001
-0.19142668 0.78914672 2.0510001
-0.18752001 0.78914672 2.0510001
-0.17775334 0.78914672 2.0510001
-0.054693334 0.78133333 2.0510001
-0.044926669 0.78133333 2.0510001
-0.034043815 0.78468204 2.0510004
-0.013673333 0.78914672 2.0510001
-0.0058599999 0.78914672 2.0510001
0.0039066668 0.78914678 2.0510001
0.056256004 0.78445876 2.0510004
0.062506668 0.78524005 2.0510001
0.10548 0.78914678 2.0510001
-0.21096 0.79500675 2.0510001
-0.19272891 0.79565787 2.0510001
-0.18621778 0.79435563 2.0510001
-0.17580001 0.79500675 2.0510001
-0.15626667 0.79696006 2.0510001
-0.14064001 0.79696006 2.0510001
-0.015626669 0.79500675 2.0510004
-0.0058599999 0.79500675 2.0510001
0.0039066668 0.79500675 2.0510004
0.01465 0.79598343 2.0510001
0.055995554 0.79565787 2.0510001
0.10548001 0.79305339 2.0510001
0.11329334 0.79305339 2.0510001
-0.25002667 0.80868006 2.0510001
-0.24416669 0.80868006 2.0510001
-0.23342335 0.80770338 2.0510001
-0.22502401 0.80555469 2.0510004
-0.21356446 0.80607557 2.0510004
-0.2051 0.80477333 2.0510004
-0.19533335 0.80477333 2.0510004
-0.18556666 0.80281997 2.0510001
-0.17645113 0.80412221 2.0510004
-0.15626667 0.80086666 2.0510001
-0.023440002 0.80281997 2.0510001
-0.016742859 0.80421525 2.0510004
-0.0078133335 0.80086666 2.0510001
0.0046879998 0.80242932 2.0510004
0.016184764 0.80365717 2.0510004
0.025393335 0.80477333 2.0510004
0.035160005 0.80533147 2.0510004
0.044926669 0.80477333 2.0510004
0.052740004 0.80477333 2.0510004
0.078133337 0.80477333 2.0510001
0.097666666 0.80086666 2.0510001
0.11524667 0.80477333 2.0510001
0.12306 0.80477333 2.0510001
-0.31253335 0.81649339 2.0510001
-0.26174667 0.81649339 2.0510001
-0.2547147 0.81414938 2.0510004
-0.24416669 0.81454003 2.0510001
-0.2344 0.81454009 2.0510004
-0.22463334 0.81454003 2.0510001
-0.21408534 0.81414938 2.0510004
-0.2051 0.81454009 2.0510001
-0.19793779 0.81388897 2.0510001
-0.17580001 0.81258672 2.0510001
-0.15626667 0.81649339 2.0510001
-0.14064001 0.81649339 2.0510001
-0.13478 0.81649339 2.0510001
-0.015626667 0.81454003 2.0510001
0.019533334 0.81454003 2.0510001
0.025393333 0.81454003 2.0510001
0.035160005 0.81454009 2.0510004
0.044926669 0.81454003 2.0510001
0.052088894 0.81519115 2.0510001
-0.31253335 0.82040006 2.0510001
-0.30374333 0.82430673 2.0510001
-0.29495335 0.82430667 2.0510004
-0.28596804 0.82665074 2.0510004
-0.27502936 0.82508802 2.0510004
-0.26565334 0.82430661 2.0510004
-0.255496 0.82430667 2.0510004
-0.24455737 0.82352537 2.0510004
-0.2344 0.82430667 2.0510004
-0.22463334 0.82040006 2.0510001
-0.21226224 0.82170224 2.0510001
-0.2051 0.82235336 2.0510001
-0.19533335 0.82300448 2.0510001
-0.18556666 0.82821333 2.0510001
-0.17775334 0.82430673 2.0510001
-0.16017334 0.82040006 2.0510001
-0.15626667 0.82040006 2.0510001
-0.14064001 0.82040006 2.0510001
-0.13478 0.82040006 2.0510001
-0.12631556 0.82170224 2.0510001
-0.0039066668 0.82821333 2.0510001
0.0039066668 0.82821339 2.0510001
0.017189335 0.82586938 2.0510004
0.025393333 0.82235336 2.0510001
0.034601908 0.82319051 2.0510004
0.044275559 0.82170224 2.0510001
0.05078667 0.82040006 2.0510001
-0.33206668 0.83798003 2.0510001
-0.32376501 0.83651501 2.0510004
-0.31487736 0.83680803 2.0510004
-0.3034178 0.83732891 2.0510004
-0.29495335 0.83602667 2.0510004
-0.28518668 0.83602667 2.0510004
-0.27542001 0.83602667 2.0510004
-0.26565334 0.83602667 2.0510004
-0.25784001 0.83602679 2.0510001
-0.23309778 0.83667779 2.0510004
-0.19924001 0.83212006 2.0510001
-0.32425338 0.84579343 2.0510004
-0.31448668 0.84579337 2.0510001
-0.30472001 0.84540266 2.0510004
-0.29495335 0.84579337 2.0510001
-0.28518671 0.84579337 2.0510004
-0.27607113 0.84514225 2.0510001
-0.26565334 0.84384 2.0510001
-0.25588667 0.84384 2.0510001
-0.33467114 0.85425776 2.0510004
-0.32536954 0.85500187 2.0510004
-0.31448668 0.85165334 2.0510001
-0.33206668 0.8633734 2.0510001
-0.32425335 0.8633734 2.0510001
-0.31644002 0.8653267 2.0510001
0.15718096 0.39688194 2.0630002
0.16307525 0.39688194 2.0630002
0.15619859 0.40572336 2.0630002
0.16307525 0.40474099 2.0630002
0.17486382 0.40474099 2.0630002
0.18468764 0.40670574 2.0630002
0.1925467 0.40867051 2.0630002
0.13360383 0.41652957 2.0630002
0.1453924 0.4165296 2.0630002
0.15456128 0.41390988 2.0630002
0.16307525 0.41260004 2.0630002
0.17486382 0.41260004 2.0630002
0.18468764 0.41260004 2.0630002
0.19451144 0.41260004 2.0630002
-0.072696194 0.42635337 2.0630002
-0.06483715 0.42831814 2.0630002
-0.013753334 0.42831814 2.0630002
-0.0052393656 0.42700833 2.0630002
0.0039295247 0.42438859 2.0630002
0.015718097 0.42438859 2.0630002
0.025541907 0.42831814 2.0630002
0.034383334 0.42537099 2.0630002
0.04518953 0.42242384 2.0630002
0.05501334 0.4217689 2.0630002
0.06483715 0.42438859 2.0630002
0.07662572 0.42438859 2.0630002
0.084484771 0.42045909 2.0630002
0.092343822 0.42045909 2.0630002
-0.070731431 0.43224767 2.0630002
-0.05501334 0.4322477 2.0630002
-0.034383334 0.43323004 2.0630002
-0.024886986 0.43486738 2.0630002
-0.016700476 0.43323004 2.0630002
-0.0078590484 0.43224767 2.0630002
-0.070731431 0.4518953 2.0630002
-0.053048577 0.58746386 2.0630002
-0.047154289 0.58942866 2.0630002
-0.04518953 0.59335816 2.0630002
-0.039295241 0.59335816 2.0630002
-0.074660957 0.60907626 2.0630002
-0.053048577 0.60711145 2.0630002
-0.04518953 0.60514671 2.0630002
-0.039295241 0.60318196 2.0630002
-0.070731431 0.61693525 2.0630002
-0.066801913 0.61497051 2.0630002
-0.053048577 0.61497051 2.0630002
-0.045844451 0.61431563 2.0630002
-0.031436194 0.61300576 2.0630002
-0.06483715 0.62479436 2.0630002
-0.051083814 0.62282956 2.0630002
-0.046171911 0.62381196 2.0630002
-0.066801913 0.63265342 2.0630002
-0.06483715 0.64837146 2.0630002
-0.072696194 0.65230101 2.0630002
-0.06483715 0.65230101 2.0630002
-0.056978099 0.65623051 2.0630002
-0.072696194 0.66605431 2.0630002
-0.066801913 0.66605431 2.0630002
-0.054522142 0.66359842 2.063
-0.023577144 0.66801906 2.0630002
-0.016209288 0.66458076 2.063
-0.072303243 0.67587817 2.0630002
-0.066801913 0.67980772 2.0630002
-0.053048577 0.67587823 2.0630002
-0.04518953 0.67194867 2.0630002
-0.031436194 0.67587817 2.0630002
-0.023577144 0.67587823 2.0630002
-0.018337779 0.67456836 2.0630002
-0.082520008 0.68570197 2.0630002
-0.074660957 0.68570203 2.0630002
-0.06483715 0.68373722 2.0630002
-0.053048577 0.68570197 2.0630002
-0.047154289 0.68766671 2.0630002
-0.051083814 0.69552577 2.0630002
-0.047154289 0.69552583 2.0630002
-0.074660957 0.70338482 2.0630002
-0.06483715 0.70534956 2.0630002
-0.043224767 0.70534956 2.0630002
-0.037330478 0.70534956 2.0630002
-0.058942866 0.71517342 2.0630002
-0.045582481 0.71595931 2.0630002
-0.037985399 0.71648324 2.0630002
-0.056323182 0.72434235 2.0630002
-0.044534609 0.72434235 2.0630002
-0.036348097 0.72597957 2.0630002
-0.02750667 0.72696197 2.0630002
-0.062872387 0.73285627 2.0630002
-0.058942862 0.73678577 2.0630002
-0.043224767 0.73875052 2.0630002
-0.035856906 0.73531216 2.063
-0.055995721 0.74562716 2.0630002
-0.04518953 0.74660957 2.0630002
-0.035365716 0.74464488 2.0630002
-0.051083814 0.75053912 2.0630002
-0.04518953 0.75446862 2.0630002
-0.035365716 0.75315881 2.0630002
-0.04518953 0.76429248 2.0630002
-0.039295241 0.76232767 2.0630002
-0.054030955 0.77509868 2.0630002
-0.04518953 0.77215159 2.0630002
-0.031436194 0.77608103 2.0630002
-0.22005336 0.78983438 2.0630002
-0.21415907 0.78786963 2.0630002
-0.20433526 0.78590482 2.063
-0.19451144 0.78786957 2.0630002
-0.18419644 0.78639603 2.063
-0.17682858 0.78983438 2.0630002
-0.12378001 0.78983438 2.0630002
-0.031436194 0.78197533 2.0630002
-0.013753334 0.78983438 2.0630002
-0.0058942866 0.78983438 2.0630002
0 0.78983438 2.0630002
0.047154289 0.78983438 2.0630002
0.051083814 0.78786957 2.0630002
-0.23184192 0.79769337 2.0630002
-0.22791241 0.79769337 2.0630002
-0.20354937 0.79612154 2.0630002
-0.19647621 0.79572862 2.0630002
-0.18272287 0.79572862 2.0630002
-0.17289907 0.79572862 2.0630002
-0.1676597 0.79638356 2.0630002
-0.15718096 0.79769337 2.0630002
-0.07662572 0.79572862 2.0630002
-0.025541907 0.79572862 2.0630002
-0.019647621 0.79376388 2.0630002
0.017682858 0.79769337 2.0630002
0.024886986 0.79638356 2.0630002
0.035365716 0.79769343 2.0630002
0.04518953 0.79572862 2.0630002
0.051083814 0.79572862 2.0630002
