# .PCD v0.7 - Point Cloud Data file format
VERSION 0.7
FIELDS x y z
SIZE 4 4 4
TYPE F F F
COUNT 1 1 1
WIDTH 1500
HEIGHT 1
VIEWPOINT 0 0 0 1 0 0 0
POINTS 1500
DATA ascii
0.033050798 0.32594925 1.7950001
0.042738095 0.32651907 1.7950001
0.054704767 0.32480955 1.7950001
0.063822232 0.3253794 1.7950001
0.073509529 0.32480955 1.7950001
-0.22223809 0.33164763 1.7950001
-0.2154 0.33506671 1.7950001
-0.20514286 0.33506671 1.7950001
-0.19716507 0.33620638 1.7950001
0.035558101 0.33369908 1.7950001
0.043080002 0.3364343 1.7950001
0.054704759 0.33506671 1.7950001
0.062682539 0.33278733 1.7950001
-0.21198097 0.34532383 1.7950001
-0.20377524 0.34532383 1.7950001
-0.19830476 0.34532383 1.7950001
-0.030771429 0.34532383 1.7950001
0.036754765 0.34617859 1.7950001
0.044447619 0.34532383 1.7950001
0.054704767 0.34532386 1.7950001
-0.20343333 0.35216191 1.7950001
0.035900004 0.35558099 1.7950001
0.044447619 0.35558096 1.7950001
0.053727895 0.35509256 1.7950002
0.034617856 0.36541072 1.7950001
0.043080002 0.36447048 1.7950001
0.052995242 0.36241904 1.7950001
0.07521905 0.36925718 1.7950001
0.083196834 0.36697778 1.7950001
-0.041028574 0.37780479 1.7950001
-0.034190476 0.37267622 1.7950001
-0.023933334 0.3752405 1.7950001
-0.015385714 0.37780479 1.7950001
0.054704767 0.37609527 1.7950001
0.068380952 0.37267622 1.7950001
0.071800001 0.37267622 1.7950001
-0.053850003 0.38549763 1.7950001
-0.046157144 0.38293335 1.7950001
-0.010257144 0.38293335 1.7950001
-0.0068380954 0.38293335 1.7950001
0.14474954 0.096642867 1.804
0.1511924 0.097931437 1.8040001
0.14382914 0.10750368 1.8040001
0.1511924 0.10308572 1.8040001
0.12713906 0.11683048 1.8040001
0.13229334 0.11683048 1.8040001
0.13458414 0.12313017 1.8040001
0.14432001 0.12713906 1.8040003
0.11683048 0.13744763 1.8040001
0.12713906 0.13401143 1.8040001
0.13444096 0.13401143 1.804
0.14432001 0.13401143 1.804
0.1511924 0.13572952 1.8040001
0.11683048 0.14432001 1.8040001
0.12370287 0.14432001 1.8040001
0.13401143 0.14260191 1.8040001
0.14202921 0.14202923 1.8040003
0.11511239 0.15462859 1.8040001
0.12164115 0.15394135 1.8040001
0.10789638 0.16631164 1.8040001
0.11511239 0.16493715 1.8040001
0.12026667 0.16493717 1.8040003
0.097931437 0.17868191 1.8040001
0.10652191 0.17524573 1.804
0.11511239 0.17524573 1.8040001
0.12164115 0.17593296 1.8040001
0.15634668 0.17696381 1.8040001
0.16150098 0.17524572 1.8040001
0.079032391 0.18899049 1.8040001
0.085904755 0.18555428 1.804
0.096213341 0.18555428 1.804
0.1065219 0.18555428 1.804
0.11511239 0.18555431 1.8040001
0.12198476 0.18383619 1.8040001
0.15462859 0.1821181 1.8040001
-0.2267886 0.19242668 1.8040001
0.078173339 0.19586287 1.8040001
0.085904755 0.19586287 1.804
0.096213341 0.19586287 1.804
0.10603102 0.19488113 1.8040001
0.1133943 0.19414479 1.8040001
0.068723813 0.20788953 1.8040001
0.076025724 0.20660093 1.804
0.085904762 0.20617141 1.804
0.096642867 0.20574188 1.804
0.10566286 0.20531239 1.8040001
-0.23366097 0.21905717 1.8040001
-0.2267886 0.21991621 1.8040001
0.067349337 0.21579278 1.8040001
0.075596198 0.21598914 1.8040001
0.085904762 0.21648002 1.804
0.094495252 0.21648002 1.8040001
-0.23297372 0.2247269 1.8040001
-0.22507051 0.22507049 1.8040001
-0.21991621 0.22507051 1.8040001
0.068723813 0.22507051 1.8040001
0.075596206 0.22541414 1.8040001
0.08590477 0.22507052 1.8040001
0.094495244 0.22507049 1.8040001
-0.23366097 0.23366097 1.804
-0.22507051 0.23366098 1.8040001
-0.21991621 0.23366097 1.8040001
0.067005716 0.23366098 1.8040001
0.075596198 0.23366097 1.804
0.08590477 0.233661 1.804
0.0936362 0.23452002 1.8040001
-0.23366095 0.24439907 1.804
-0.22541411 0.2432823 1.8040001
-0.21648002 0.24568763 1.8040001
-0.20960763 0.24740574 1.8040001
0.067349337 0.24465679 1.8040001
0.075596198 0.24396954 1.804
0.085904762 0.24354002 1.804
0.095354289 0.24139239 1.8040001
0.10308572 0.24053334 1.8040001
-0.23366098 0.25427812 1.8040001
-0.21476191 0.25427812 1.8040001
-0.20846224 0.25427812 1.8040003
0.067864761 0.2534191 1.8040001
0.075596198 0.25427812 1.804
0.082468584 0.25256002 1.8040001
-0.23108383 0.26372764 1.8040001
-0.2256432 0.2668775 1.8040003
-0.21549825 0.26507759 1.8040001
-0.20823315 0.26389945 1.8040001
0.068723813 0.26630479 1.8040001
0.075596198 0.26458666 1.804
-0.24053334 0.27661335 1.8040001
-0.23323144 0.27446571 1.804
-0.2233524 0.27145904 1.8040001
-0.20960763 0.27145904 1.8040001
0.067349337 0.27558252 1.8040001
0.075596198 0.27489522 1.804
0.085904762 0.27661335 1.8040001
-0.23194288 0.28520381 1.8040001
-0.2267886 0.28520381 1.8040001
0.067349337 0.28451657 1.8040001
0.075596198 0.28520384 1.804
0.083327629 0.28434476 1.8040001
-0.23537907 0.29637143 1.8040001
0.068723813 0.29551238 1.8040001
0.075596198 0.29551241 1.804
0.084186673 0.2920762 1.8040001
0.1099581 0.29894859 1.8040001
-0.23366097 0.30238479 1.8040001
0.036080003 0.30925718 1.8040001
0.066433012 0.30696639 1.8040001
0.075596198 0.305821 1.804
0.082468584 0.30238479 1.8040001
0.1099581 0.30238479 1.8040001
0.035507306 0.31727496 1.8040001
0.044670481 0.31819126 1.8040001
0.054979052 0.31612957 1.8040001
0.065717146 0.31655908 1.804
0.075596198 0.31612957 1.804
0.083327621 0.31698862 1.8040001
-0.2256432 0.32872894 1.8040003
0.036652703 0.32414734 1.8040003
0.046044957 0.32506368 1.8040001
0.06757842 0.32529277 1.8040003
0.076087087 0.32643813 1.8040001
0.085904762 0.32643813 1.804
0.093922548 0.32872894 1.8040003
-0.23022479 0.33331048 1.8040001
-0.22507051 0.33502859 1.8040001
0.046388574 0.33502859 1.8040001
0.06757842 0.33560127 1.8040003
0.075596198 0.33502859 1.8040001
0.085904777 0.33502859 1.8040001
0.095526099 0.33537221 1.8040001
0.10308572 0.33674666 1.8040001
-0.2233524 0.34018287 1.8040001
0.065287627 0.34361902 1.804
0.075166672 0.34318954 1.804
0.086334288 0.34318954 1.804
0.095231578 0.34312817 1.8040001
0.058415242 0.35736382 1.8040001
0.064858094 0.35435715 1.804
0.073878102 0.35392764 1.8040001
0.087622859 0.35564572 1.8040001
0.095354289 0.35478666 1.8040001
0.046388574 0.36767241 1.8040001
0.056353528 0.36561072 1.8040001
0.06528762 0.36423624 1.804
0.075166672 0.36466575 1.804
0.086592011 0.36286175 1.8040001
0.093922548 0.36423621 1.8040003
-0.034361906 0.37712193 1.8040001
-0.027489526 0.37798098 1.8040001
0.045815878 0.37397212 1.8040001
0.054291815 0.37248307 1.8040001
0.06643302 0.37225398 1.8040003
0.075596198 0.37110859 1.8040001
-0.043811433 0.38743052 1.8040001
-0.034361906 0.38141719 1.8040001
-0.025771432 0.38141719 1.8040001
-0.015462859 0.38313526 1.8040001
-0.05154286 0.39172575 1.8040001
-0.044670478 0.39172575 1.8040001
-0.041234292 0.4432686 1.8040001
-0.034361906 0.47591239 1.8040001
0.12784381 0.14857525 1.8140001
0.1347543 0.14857525 1.8140001
0.14627177 0.14627177 1.8140001
0.15505382 0.14555192 1.8140001
0.12698001 0.15634954 1.8140001
0.13302669 0.15548573 1.8140001
0.15894097 0.1520305 1.8140001
0.12611619 0.16585144 1.8140001
0.12698001 0.17535335 1.8140001
0.13389049 0.17880857 1.8140001
0.15318224 0.17736891 1.8140001
0.12784381 0.18485525 1.8140001
0.13590604 0.18543112 1.8140001
0.14857525 0.18658288 1.8140001
0.15375811 0.18658288 1.8140001
0.1174781 0.19522098 1.8140001
0.12438858 0.19349334 1.814
0.14857525 0.1900381 1.8140001
0.15375811 0.1900381 1.8140001
0.10711239 0.20213145 1.8140001
0.11445477 0.20342717 1.8140001
0.12438858 0.20213144 1.8140001
0.13129906 0.20213145 1.8140001
0.10308129 0.21422479 1.8140001
-0.23841144 0.22804573 1.8140001
0.10322525 0.22502241 1.8140001
0.096746676 0.23322859 1.8140001
0.10192954 0.2349562 1.8140001
-0.22286287 0.24877714 1.8140001
0.086380959 0.24877714 1.8140001
0.095594935 0.2476254 1.8140001
0.10279334 0.24532191 1.8140001
0.11056763 0.24186668 1.8140001
-0.23150097 0.25741524 1.8140001
-0.2245905 0.25568762 1.814
-0.21076953 0.25914285 1.8140001
0.086956829 0.25568765 1.8140001
0.095364586 0.2549966 1.8140001
0.10020191 0.25396001 1.8140001
-0.22389947 0.26398021 1.8140001
0.082925722 0.26605338 1.8140001
-0.23841144 0.27987429 1.8140001
0.086380966 0.27592546 1.8140002
0.095364586 0.2771101 1.8140001
0.10020191 0.27296382 1.8140001
-0.23841144 0.28505716 1.8140001
0.088684455 0.28563303 1.8140001
0.095019057 0.28505716 1.8140001
0.10020191 0.28505716 1.8140001
-0.23841144 0.29369527 1.8140001
0.087532699 0.29427117 1.8140001
0.095019057 0.29369527 1.8140001
0.10365716 0.29369527 1.814
0.11402287 0.2936953 1.814
0.12784381 0.29369527 1.8140001
0.086812861 0.304061 1.8140001
0.094443187 0.30521274 1.8140001
0.10423304 0.30348513 1.8140001
0.11540496 0.30336991 1.8140001
0.087368168 0.3139331 1.8140002
0.094155245 0.31529051 1.8140001
0.10711239 0.31097144 1.8140001
0.11229526 0.31097144 1.8140001
0.089836195 0.32133716 1.8140001
0.095364586 0.32410136 1.8140001
0.10106573 0.32565621 1.8140001
-0.23150097 0.33861336 1.8140001
-0.22804573 0.33861336 1.8140001
0.10365716 0.33458227 1.8140001
0.11171938 0.33746165 1.8140001
-0.23150097 0.34206858 1.8140001
-0.22804573 0.34206858 1.8140001
0.079470485 0.34897909 1.8140001
0.082925722 0.34897909 1.8140001
0.10408907 0.34595573 1.8140001
0.11229526 0.34379619 1.8140001
0.069104768 0.35243431 1.8140001
0.076508857 0.35588953 1.8140002
0.084998868 0.35450745 1.8140001
0.093291439 0.35416192 1.8140001
0.10158402 0.35588953 1.8140001
0.079470485 0.36280003 1.8140001
0.082925722 0.36280003 1.8140001
0.096746676 0.36452764 1.8140001
0.10135367 0.36395177 1.8140001
0.058739051 0.37662098 1.8140001
0.062194284 0.37489337 1.8140001
-0.034552384 0.38612288 1.8140001
-0.024186669 0.3869867 1.8140001
-0.017276192 0.3869867 1.8140001
-0.055974867 0.39597034 1.8140001
-0.044918098 0.39597034 1.8140001
-0.031097142 0.39044192 1.8140001
-0.012093334 0.39044192 1.8140001
-0.0051828576 0.39044192 1.8140001
-0.055283815 0.40080765 1.8140001
-0.043930892 0.40376931 1.8140002
-0.041462861 0.41808385 1.8140001
-0.041462861 0.42499432 1.8140001
-0.051828578 0.43881527 1.8140001
-0.043766357 0.43651181 1.8140001
-0.038007624 0.43881527 1.8140001
-0.027641907 0.43536001 1.8140001
-0.017276192 0.43708766 1.8140001
-0.044918101 0.444574 1.8140001
-0.034552384 0.44486195 1.8140001
-0.023034923 0.44687748 1.8140001
-0.014684763 0.44831717 1.8140001
-0.0069104768 0.44918099 1.8140001
-0.041462861 0.45263621 1.8140001
-0.020731431 0.45263621 1.8140001
-0.013820954 0.45436388 1.8140001
-0.0069104768 0.45263621 1.8140001
-0.031097142 0.47682288 1.8140001
-0.032824762 0.48200572 1.8140001
-0.041462861 0.49582666 1.8140001
0.13897143 0.15634286 1.8240001
0.14591999 0.15634288 1.8240002
0.15460572 0.15286858 1.8240001
0.13549715 0.16502859 1.8240002
0.14592001 0.1650286 1.8240002
0.13593143 0.17328002 1.8240002
0.1454237 0.17470698 1.8240004
0.15286858 0.1737143 1.8240001
0.13433906 0.18529525 1.8240001
0.14548573 0.18370287 1.8240002
0.15808001 0.18413715 1.8240001
0.16329144 0.18413715 1.8240001
0.13549715 0.19456001 1.8240002
0.14548573 0.1949943 1.8240002
0.15634286 0.19513905 1.8240002
0.16329144 0.19282287 1.8240001
0.1250743 0.20845716 1.8240001
0.13648981 0.20547919 1.8240004
0.14592002 0.20324574 1.8240002
0.10770286 0.21714287 1.8240001
0.11465143 0.21540573 1.8240002
0.12298971 0.21471086 1.8240002
0.10770286 0.22235429 1.8240001
0.11421714 0.22539429 1.8240002
0.12160001 0.22235429 1.8240001
0.10561829 0.23625143 1.8240002
0.11465143 0.23625143 1.8240002
0.10770286 0.24667431 1.8240001
0.11534629 0.2452846 1.8240002
0.12160001 0.24320002 1.8240001
0.10596572 0.25362286 1.8240002
0.11465142 0.25405714 1.8240002
0.086857148 0.26578286 1.8240001
0.093371436 0.26447999 1.8240002
0.10373225 0.26305309 1.8240004
0.11291429 0.26230857 1.8240001
0.086857148 0.27099428 1.8240001
0.093805723 0.27186286 1.8240001
0.10422858 0.27496493 1.8240004
0.11291429 0.27620572 1.8240001
0.10522123 0.28439513 1.8240004
0.11465142 0.28489143 1.8240002
0.1250743 0.2866286 1.8240001
-0.23972574 0.29184002 1.8240001
0.12464 0.29531428 1.8240002
0.13202286 0.29357716 1.8240001
0.096121907 0.30457908 1.8240001
0.10307049 0.30689526 1.8240001
0.11465143 0.30921146 1.8240001
0.1250743 0.30474454 1.8240004
0.097280003 0.31442288 1.8240001
0.10379429 0.3165943 1.8240002
0.11514775 0.31715268 1.8240004
0.12391619 0.31384385 1.8240001
0.10596572 0.32484573 1.8240001
0.11395657 0.32449833 1.8240002
0.10770286 0.33179432 1.8240001
0.11407238 0.33353147 1.8240002
0.12507428 0.33700573 1.8240001
0.11812571 0.34395432 1.8240001
0.12408164 0.34445065 1.8240004
0.10654476 0.35669336 1.8240001
0.11465143 0.35437718 1.8240002
0.1250743 0.35264003 1.8240002
0.13376001 0.35264003 1.8240001
0.10683429 0.36566859 1.8240001
0.1141551 0.36380738 1.8240004
-0.035177145 0.39650285 1.8240002
-0.025478095 0.39491051 1.8240002
-0.013897143 0.39433146 1.8240001
-0.0052114287 0.3960686 1.8240001
-0.053851433 0.40649146 1.8240001
-0.048640002 0.40822858 1.8240001
-0.034742858 0.40649146 1.8240002
-0.026057143 0.40649146 1.8240001
-0.043428574 0.41517717 1.8240001
-0.036480002 0.41517717 1.8240001
-0.023625143 0.41552457 1.8240002
-0.016213335 0.41575623 1.8240001
-0.044297144 0.42473143 1.8240001
-0.034742855 0.42386287 1.8240002
-0.024320001 0.42386287 1.8240002
-0.015981717 0.42316803 1.8240002
-0.046902858 0.43428573 1.8240001
-0.034742858 0.43428576 1.8240002
-0.023885716 0.43385142 1.8240002
-0.014476191 0.43428573 1.8240002
-0.033874284 0.44297144 1.8240001
-0.024320001 0.44371596 1.8240004
-0.013897143 0.44401374 1.8240002
-0.045165718 0.45339429 1.8240001
-0.035177145 0.45469716 1.8240002
-0.026404573 0.4544366 1.8240002
-0.020845715 0.4655543 1.8240001
-0.017371429 0.4655543 1.8240001
-0.031268571 0.47597718 1.8240001
-0.027794287 0.47597718 1.8240001
-0.033005714 0.48813719 1.8240001
-0.034742858 0.49334863 1.8240001
-0.013897143 0.50377142 1.8240001
0.15362285 0.15711428 1.8330001
0.15536857 0.16409716 1.8330001
0.16147858 0.16497 1.8330001
0.14664 0.17108001 1.8330001
0.15449572 0.17195286 1.8330001
0.16176954 0.17224382 1.8330001
0.16235143 0.19901143 1.8330001
0.14489429 0.20948572 1.8330001
0.15462041 0.20649306 1.8330002
0.16235143 0.20250286 1.8330001
0.12831001 0.21734142 1.8330001
0.13616571 0.21646857 1.8329999
0.14489429 0.21472287 1.8330001
0.15292457 0.21437374 1.8330001
0.12638973 0.22554632 1.8330001
0.13546742 0.22484803 1.8330001
0.11870857 0.2304343 1.8330001
0.12569144 0.23392572 1.8329999
0.13354713 0.23479858 1.8330001
0.12612785 0.24440002 1.8330001
0.13572928 0.24440001 1.8330001
0.14314857 0.24090858 1.8330001
0.11521715 0.25138286 1.8330001
0.12569143 0.25487429 1.8329999
0.13516816 0.25437552 1.8330002
0.14489429 0.25138286 1.8330001
0.15013143 0.25312859 1.8330001
0.10648857 0.26884001 1.8330001
0.11661372 0.26674518 1.8330001
0.12569143 0.26534858 1.8329999
0.13267428 0.26534858 1.8330001
0.10823429 0.27233142 1.8330001
0.11661372 0.27442628 1.8330001
0.12569143 0.27582288 1.8329999
0.13383809 0.2781505 1.8330001
0.12569143 0.28490055 1.8330001
0.13441999 0.28629714 1.8330001
0.15711428 0.28978857 1.8330001
0.16409716 0.28804287 1.8330001
0.17108001 0.28804284 1.8330001
0.13791142 0.29502571 1.8330001
0.14489429 0.29502571 1.8330001
0.15362285 0.29537484 1.8330001
0.16409716 0.29502571 1.8330001
0.17108001 0.29328001 1.8330001
0.13616571 0.3037543 1.8329999
0.1448943 0.3037543 1.8330001
0.15362287 0.30425307 1.8330002
0.16409715 0.3037543 1.8329999
0.12638973 0.31422859 1.8330001
0.13572928 0.31466502 1.8330001
0.1448943 0.31422859 1.8330001
0.15362285 0.31422859 1.8329999
0.16235143 0.31073716 1.8330001
0.11870857 0.32819429 1.8330001
0.12569143 0.32470289 1.8329999
0.13616571 0.32470283 1.8329999
0.14489429 0.32470286 1.8330001
0.15362287 0.32513928 1.8330001
0.16235143 0.32644856 1.8330001
0.11870857 0.33343142 1.8330001
0.12569143 0.33474073 1.8330001
0.13616571 0.33517718 1.8329999
0.14489429 0.33517715 1.8330001
0.15362285 0.33567598 1.8330002
0.16147858 0.3343043 1.8330001
0.12918286 0.34390575 1.8330001
0.13616571 0.34565142 1.8329999
0.14314857 0.34390575 1.8330001
0.16060571 0.34216002 1.8330001
0.12569144 0.35961717 1.8330001
0.13616571 0.35612577 1.8330001
0.14664 0.35612571 1.8330001
0.15013143 0.35787144 1.8330001
0.12569143 0.36485431 1.8330001
0.13546744 0.36520344 1.8330001
0.14314857 0.36660001 1.8330001
-0.020948572 0.39802286 1.8330001
-0.015711429 0.39802286 1.8330001
-0.059354287 0.40849715 1.8330001
-0.023442451 0.40550452 1.8330002
-0.013965715 0.40500572 1.8329999
-0.0069828574 0.40500575 1.8330001
-0.053535245 0.41548002 1.8330001
-0.04888 0.41722572 1.8330001
-0.034041427 0.41722572 1.8330001
-0.025603812 0.41315243 1.8330001
-0.01326743 0.41408348 1.8330001
-0.052371431 0.42944574 1.8330001
-0.04888 0.42944574 1.8330001
-0.011638097 0.42828196 1.8330001
-0.052371431 0.43642858 1.8330001
-0.04888 0.43293715 1.8330001
-0.010474286 0.43468288 1.8330001
-0.0069828574 0.43992001 1.8330001
-0.010474286 0.44690287 1.8330001
-0.0069828574 0.44341144 1.8330001
-0.010474286 0.45039427 1.8330001
-0.0046552382 0.45155811 1.8330001
-0.031422857 0.4626143 1.8330001
-0.024440002 0.46436003 1.8330002
-0.031422857 0.47308856 1.8330001
-0.023442449 0.47433552 1.8330002
-0.017457142 0.47483429 1.8330001
0.026185714 0.47832572 1.8330001
0.034914285 0.47483435 1.8329999
-0.02444 0.48530859 1.8329999
-0.017457142 0.48530859 1.8330001
0.023043429 0.48391199 1.8330001
0.031422857 0.48181716 1.8330001
-0.034914285 0.49628165 1.8330002
-0.024876431 0.49621931 1.8330001
-0.016293334 0.49811053 1.8330001
-0.034477856 0.50669354 1.8330001
-0.02444 0.50625712 1.8329999
-0.014464491 0.50675595 1.8330002
-0.005237143 0.50625712 1.8330001
0 0.50625712 1.8330001
-0.022694286 0.51324004 1.8330001
-0.017457142 0.51324004 1.8330001
-0.005237143 0.51673144 1.8330001
-0.005237143 0.52022284 1.8330001
0.15797144 0.15797144 1.8430001
0.1614819 0.15797144 1.8430001
0.16499239 0.20711809 1.8430002
0.15797144 0.21764953 1.8430001
0.1614819 0.21413904 1.8430002
0.14493254 0.225172 1.8430002
0.15446097 0.22467047 1.8430002
0.1635882 0.22607468 1.8430001
0.17201333 0.22818096 1.8430001
0.13690856 0.23344666 1.8430001
0.1421743 0.23520193 1.8430002
0.15546398 0.23570342 1.8430002
0.16499239 0.23520191 1.8430002
0.17201333 0.23520193 1.8430002
0.1450997 0.24631843 1.8430002
0.15402214 0.24573335 1.8430002
0.16557747 0.24631843 1.8430002
0.17376858 0.24573337 1.8430002
0.14392954 0.25802004 1.8430002
0.15546396 0.25676629 1.8430002
0.16499239 0.25626478 1.8430002
0.17201333 0.25626478 1.8430002
0.13690856 0.26504096 1.8430001
0.14392954 0.26504099 1.8430002
0.15446097 0.26504099 1.8430002
0.16499239 0.26504099 1.8430002
0.17201333 0.26504096 1.8430001
0.13603094 0.27381712 1.8430001
0.14392954 0.27381715 1.8430002
0.15446095 0.27381712 1.8430002
0.16543119 0.27425596 1.8430002
0.17201333 0.27381715 1.8430002
0.14392954 0.28434858 1.8430002
0.15446097 0.28434858 1.8430002
0.16499239 0.28259337 1.8430002
0.17201333 0.28259334 1.8430001
0.14392954 0.29136953 1.8430002
0.15329079 0.29253972 1.8430002
0.15446095 0.30365619 1.8430001
0.14041905 0.31243238 1.8430001
0.16429029 0.31804916 1.8430001
0.15446095 0.3229638 1.8430001
0.16587001 0.32384142 1.8430001
0.15446095 0.3352505 1.8430001
0.14744002 0.34578189 1.8430001
0.15446097 0.34578189 1.8430002
0.14568478 0.35104764 1.8430001
0.15270571 0.35104764 1.8430001
0.14392954 0.3633343 1.8430002
-0.0046806354 0.40604508 1.8430002
-0.059678096 0.41423619 1.8430001
-0.010531429 0.41774666 1.8430001
-0.0052657146 0.41423619 1.8430001
-0.010531429 0.42476761 1.8430001
-0.0070209526 0.42476761 1.8430001
-0.052657142 0.43880951 1.8430001
-0.0070209531 0.43529904 1.8430002
-0.0043880953 0.44670811 1.8430001
0 0.44583049 1.8430001
0.035104763 0.46689337 1.8430002
-0.028083811 0.47742477 1.8430001
0.025275428 0.47602057 1.8430001
0.035104763 0.47040385 1.8430002
0.015797144 0.48269051 1.8430001
0.021062858 0.48093525 1.8430001
-0.021062858 0.49497715 1.8430001
-0.017552381 0.49497715 1.8430001
-0.038615238 0.50550854 1.8430001
-0.0052657146 0.51428479 1.8430001
0 0.51252955 1.8430001
0.1676524 0.21530096 1.853
0.17294668 0.21883048 1.853
0.16765238 0.22412479 1.853
0.17294668 0.22412477 1.853
0.14824 0.23471333 1.853
0.15176952 0.23471333 1.853
0.14824 0.24000762 1.853
0.15882857 0.24706668 1.853
0.16471112 0.24589017 1.853
0.16235809 0.27177334 1.853
-0.24000762 0.3476581 1.853
0.14647524 0.35648191 1.853
0.15176952 0.35648191 1.853
0.14471048 0.36001146 1.853
-0.0070590479 0.42707241 1.853
-0.003529524 0.44119048 1.853
0.028236192 0.46942666 1.853
0.024706667 0.47413272 1.853
0.013235714 0.48266238 1.853
0.026471429 0.49236861 1.853
0.031765714 0.49236858 1.853
-0.012353334 0.51884001 1.853
0 0.51884001 1.853
-0.012353334 0.52236956 1.853
0 0.52236956 1.853
-0.056777142 0.42228001 1.863
-0.0035485714 0.43647429 1.863
-0.056777142 0.44712001 1.863
-0.055002861 0.46308857 1.863
-0.0059142858 0.47669142 1.8630002
0.01596857 0.47905713 1.863
0.021291429 0.47550857 1.863
-0.0035485714 0.48438001 1.863
0.0070971427 0.48792857 1.863
0.010645715 0.48260573 1.863
-0.060649529 0.42633051 1.8730001
-0.057081908 0.4281143 1.8730001
-0.0035676192 0.43524954 1.8730001
-0.10346096 0.44595242 1.8730001
-0.096325725 0.44697177 1.8730003
-0.089190483 0.4477362 1.8730001
-0.0035676192 0.44238478 1.8730001
-0.10346096 0.45487148 1.8730001
-0.096325718 0.45487148 1.8730001
-0.089190483 0.45487148 1.8730001
-0.055892702 0.45546609 1.8730001
-0.092758104 0.4602229 1.8730001
-0.055298097 0.4602229 1.8730001
0.016054288 0.47806099 1.8730001
0.028540954 0.47092575 1.8730001
0.032108575 0.47092575 1.8730001
-0.16054286 0.48162863 1.8730001
-0.15519144 0.48519623 1.8730001
-0.065406352 0.48638543 1.8730001
-0.0059460322 0.48519623 1.8730001
0.0028540955 0.48662329 1.8730001
0.010702858 0.48162863 1.8730001
-0.10401334 0.43667668 1.8830001
-0.095644459 0.43637782 1.8830001
-0.089666672 0.43757334 1.8830001
-0.060973335 0.43578002 1.8830001
-0.053800009 0.43578005 1.8830003
-0.11118668 0.44654003 1.8830001
-0.10461112 0.44355115 1.8830003
-0.094448894 0.4423556 1.8830001
-0.089666672 0.44295338 1.8830001
-0.05738667 0.44654003 1.8830001
-0.11118668 0.45371336 1.8830001
-0.10760002 0.45550668 1.8830001
-0.08608 0.45730004 1.8830001
-0.10401334 0.46524197 1.8830004
-0.095644459 0.46507117 1.8830001
-0.087104775 0.46575436 1.8830004
-0.071733341 0.46447337 1.8830001
-0.064560011 0.46566892 1.8830003
0.028693335 0.46985337 1.8830001
0.032280002 0.46985337 1.8830001
-0.064560004 0.47523338 1.8830003
0.016140001 0.47702667 1.8830001
0.023313336 0.47523335 1.8830001
-0.16140002 0.48061338 1.8830001
-0.15781334 0.48420003 1.8830001
-0.096840009 0.48778668 1.8830001
-0.066353336 0.48240671 1.8830001
0.0026900002 0.48330337 1.8830001
0.01076 0.48061338 1.8830001
-0.10642476 0.42930666 1.8940001
-0.066139683 0.42810413 1.8940001
-0.0036076191 0.42930666 1.8940001
-0.12265905 0.4347181 1.8940001
-0.11472229 0.43435737 1.8940001
-0.10462096 0.43435737 1.8940001
-0.093076579 0.43435737 1.8940001
-0.084779054 0.43652192 1.8940001
-0.073956192 0.43652192 1.8940001
-0.066740952 0.4347181 1.8940001
-0.0036076191 0.4347181 1.8940001
-0.14069715 0.44373715 1.8940001
-0.13588698 0.4449397 1.8940001
-0.12554514 0.44445869 1.8940001
-0.11589476 0.44328618 1.8940001
-0.084779054 0.44373715 1.8940001
-0.073956192 0.44193333 1.8940001
-0.065388098 0.44418812 1.8940001
-0.057721905 0.44373715 1.8940001
0 0.44373715 1.8940001
-0.16234286 0.45636383 1.8940001
-0.15512763 0.45456001 1.8940001
-0.14327402 0.45455998 1.8940002
-0.13528571 0.45456001 1.8940001
-0.12626667 0.45456001 1.8940001
-0.11724763 0.45456001 1.8940001
-0.084418289 0.4538385 1.8940001
-0.074316949 0.45600304 1.8940001
-0.064937145 0.45455995 1.8940002
0 0.4527562 1.8940001
-0.16234286 0.46357906 1.8940001
-0.15512761 0.46177524 1.8940001
-0.14069715 0.46177524 1.8940001
-0.11499286 0.46493191 1.8940001
-0.082975239 0.46538287 1.8940001
-0.076790743 0.4648675 1.8940002
-0.065839052 0.46267712 1.8940001
-0.18218476 0.47981334 1.8940001
-0.17496952 0.47981334 1.8940001
-0.16775429 0.47981334 1.8940001
-0.11499286 0.47665668 1.8940001
-0.10462095 0.47665668 1.8940001
-0.094249055 0.47665668 1.8940001
-0.084418289 0.47692725 1.8940001
-0.075759999 0.47620574 1.8940002
-0.063133337 0.47259811 1.8940001
0.018038096 0.47440192 1.8940001
0.023449525 0.47259811 1.8940001
-0.15512761 0.48522478 1.8940001
-0.11544381 0.48522478 1.8940001
-0.10462096 0.48522478 1.8940001
-0.093798101 0.48558554 1.8940001
-0.085380331 0.48582602 1.8940001
-0.075759999 0.48522481 1.8940001
0.0054114284 0.48342097 1.8940001
-0.11544381 0.4906362 1.8940001
-0.10341841 0.49304128 1.8940001
-0.09235505 0.49352232 1.8940001
-0.084779054 0.4906362 1.8940001
-0.075759999 0.4906362 1.8940001
-0.13056 0.42794669 1.904
-0.12512 0.42794669 1.904
-0.11605334 0.42794669 1.904
-0.10517333 0.42794669 1.904
-0.094293341 0.42794669 1.904
-0.08704 0.42794669 1.904
-0.074346669 0.42794669 1.904
-0.067697786 0.42552888 1.904
-0.18858667 0.43882668 1.904
-0.15491049 0.43571812 1.9040003
-0.14506668 0.43519998 1.9040002
-0.13418667 0.43519998 1.9040002
-0.12602666 0.43429333 1.904
-0.11696 0.43338668 1.904
-0.10154667 0.43157333 1.904
-0.094293341 0.43157333 1.904
-0.08522667 0.43338665 1.904
-0.076678097 0.43416384 1.9040003
0 0.43701333 1.904
-0.19402668 0.44970667 1.904
-0.18541333 0.44607997 1.9040002
-0.17408 0.44608003 1.9040003
-0.16465068 0.44608003 1.9040002
-0.15594667 0.44608 1.9040002
-0.14688 0.44607997 1.9040002
-0.13418666 0.44426668 1.904
-0.12693334 0.44608003 1.904
-0.077610664 0.44753066 1.9040002
0.00272 0.44608 1.904
-0.19402668 0.45514667 1.904
-0.18496001 0.45514673 1.9040002
-0.17408 0.45514667 1.9040002
-0.16561779 0.45454225 1.904
-0.15594667 0.45333332 1.904
-0.14869334 0.45333332 1.904
-0.12693334 0.45514667 1.904
-0.077973336 0.45514667 1.904
0.0036266667 0.45514667 1.904
0.02176 0.45696002 1.904
0.039893333 0.45696002 1.904
-0.19402668 0.46421337 1.9040002
-0.18496001 0.46421331 1.9040002
-0.17408 0.46421331 1.9040002
-0.16682667 0.46421337 1.904
-0.15594667 0.46473145 1.9040003
-0.14627555 0.46542224 1.9040002
-0.13418666 0.46602666 1.9040002
-0.12548266 0.4649387 1.9040002
0.025386667 0.46421331 1.9040002
0.03626667 0.46421331 1.9040002
0.04472889 0.46179557 1.904
-0.19511467 0.47654399 1.9040002
-0.18496001 0.47509331 1.9040002
-0.17408 0.47509331 1.9040002
-0.16501334 0.47509333 1.9040002
-0.156672 0.47436801 1.9040002
-0.14264891 0.47267556 1.904
-0.13418667 0.47509331 1.9040002
-0.12512001 0.47509333 1.9040002
-0.11968 0.47328001 1.904
0.013902224 0.47509333 1.9040002
0.025386667 0.47146666 1.904
0.037302859 0.47457528 1.9040003
0.045333333 0.47690669 1.904
-0.19402668 0.48234668 1.904
-0.18858667 0.48234668 1.904
-0.16320001 0.48234668 1.904
-0.15504 0.48506665 1.904
-0.14869334 0.4896 1.904
-0.13418666 0.48493719 1.9040003
-0.12512001 0.48597333 1.9040002
-0.094293334 0.48597333 1.904
-0.083413333 0.48597333 1.904
0.0036266667 0.48234668 1.904
0.01088 0.48234668 1.904
-0.12330666 0.49322665 1.904
-0.11605334 0.49540263 1.9040002
-0.1088 0.49685332 1.904
-0.094293334 0.49685332 1.904
-0.08522667 0.49685332 1.904
-0.076160006 0.49685332 1.904
-0.068906672 0.49685332 1.904
-0.11242667 0.50048 1.904
-0.10698666 0.50048 1.904
-0.08522667 0.50048 1.904
-0.076885335 0.50193065 1.9040002
-0.068906672 0.50048 1.904
-0.065657146 0.41947621 1.9150001
-0.15684763 0.42677143 1.9150001
-0.14408097 0.42677143 1.9150001
-0.13678572 0.42677143 1.9150001
-0.082983337 0.42585954 1.9150001
-0.074776188 0.42494762 1.9150001
-0.067480952 0.42312384 1.9150001
-0.21277779 0.43528256 1.9150002
-0.2042667 0.4358905 1.9150002
-0.19478285 0.43479618 1.9150002
-0.18602857 0.43406671 1.9150001
-0.17508572 0.43406671 1.9150001
-0.16368692 0.43452263 1.9150001
-0.15502381 0.43041909 1.9150001
-0.14590478 0.43041909 1.9150002
-0.13678572 0.43041909 1.9150001
-0.082071431 0.43041909 1.9150001
0.0021885715 0.43333718 1.9150002
0.054714289 0.43771428 1.9150002
0.062009525 0.43771428 1.9150001
-0.21338575 0.44500956 1.9150002
-0.20426668 0.44500956 1.9150001
-0.19514762 0.44500953 1.9150002
-0.18359683 0.44379371 1.9150002
-0.17508572 0.44428006 1.9150002
-0.16657463 0.44379371 1.9150002
0.0063833334 0.44409764 1.9150001
0.014590477 0.44500956 1.9150001
0.025077382 0.44546545 1.9150001
0.03428762 0.44573909 1.9150002
0.043771431 0.44500956 1.9150001
0.054714292 0.4450095 1.9150001
0.065201193 0.44546545 1.9150001
-0.21399367 0.45656034 1.9150002
-0.20426667 0.45595238 1.9150001
0.0072952388 0.45595241 1.9150002
0.014590477 0.45595244 1.9150001
0.025989287 0.45549643 1.9150001
0.034652382 0.45595241 1.9150002
0.04422738 0.45549643 1.9150001
0.054714292 0.45595244 1.9150001
0.065657146 0.45549646 1.9150001
0.072952382 0.45230478 1.9150001
-0.24074286 0.46689525 1.9150001
-0.23527144 0.46507144 1.9150001
-0.2298 0.46689525 1.9150001
-0.21520953 0.46470672 1.9150002
-0.20244287 0.46507147 1.9150001
0.004377143 0.46543622 1.9150002
0.014590479 0.4650715 1.9150002
0.025533335 0.46689525 1.9150001
0.047419049 0.46689525 1.9150001
0.053984769 0.46470672 1.9150002
0.063833334 0.46324766 1.9150001
0.085719049 0.46507147 1.9150001
-0.24074286 0.47054285 1.9150001
-0.22432858 0.47054285 1.9150001
-0.21429762 0.4714548 1.9150001
-0.2042667 0.47236669 1.9150002
-0.19514762 0.4741905 1.9150001
-0.15684763 0.47601432 1.9150001
-0.14833651 0.47662228 1.9150002
0.0036476192 0.4741905 1.9150001
0.013678572 0.47145474 1.9150001
0.04559524 0.47236666 1.9150001
0.05289048 0.47419053 1.9150002
0.062009525 0.47601432 1.9150001
0.072952382 0.4741905 1.9150001
0.083895244 0.47054285 1.9150001
-0.16049524 0.48513335 1.9150001
-0.15441588 0.48391747 1.9150002
-0.14590476 0.48513332 1.9150001
0.0036476192 0.48239765 1.9150001
0.04559524 0.48695716 1.9150001
0.054714289 0.48513338 1.9150001
0.065136053 0.48409116 1.9150002
-0.14225715 0.4924286 1.9150001
-0.13374603 0.49364448 1.9150002
-0.12584285 0.49790001 1.9150001
-0.075166672 0.41800001 1.9250001
-0.069666669 0.41433334 1.9250001
-0.1936 0.42753336 1.9250001
-0.18516669 0.42716664 1.9250001
-0.17673333 0.42753336 1.9250001
-0.16408333 0.42808333 1.9250001
-0.15326668 0.42680001 1.9250001
-0.14422223 0.42411113 1.9250001
-0.13566668 0.42655557 1.9250001
-0.12466668 0.42900002 1.9250001
-0.11366668 0.42900002 1.9250001
-0.1045 0.42900002 1.9250001
-0.095333338 0.42900002 1.9250001
-0.083111122 0.42288893 1.9250001
-0.075166672 0.42166668 1.9250001
-0.069666669 0.42166668 1.9250001
0.0018333334 0.42900002 1.9250001
0.045833334 0.42900002 1.9250001
0.055000003 0.42900002 1.9250001
-0.2035 0.43266669 1.9250001
-0.19800001 0.43266669 1.9250001
-0.16866668 0.43266669 1.9250001
0.0073333336 0.43450004 1.9250001
0.013933334 0.43486673 1.9250001
0.023833334 0.43633336 1.9250001
0.034833334 0.43633336 1.9250001
0.044 0.43450004 1.9250001
0.055000003 0.43450007 1.9250001
0.063555561 0.43511114 1.9250001
0.077000007 0.43633336 1.9250001
0.08433333 0.43633336 1.9250001
0.094111115 0.43511114 1.9250001
-0.22320834 0.44412503 1.9250001
-0.21633334 0.44000003 1.9250001
0.0073333336 0.44000003 1.9250001
0.014666667 0.44000003 1.9250001
0.026583333 0.44091669 1.9250001
0.035444446 0.44122225 1.9250001
0.044 0.44000003 1.9250001
0.068444446 0.44122225 1.9250001
0.075166672 0.4436667 1.9250001
0.084333338 0.44412503 1.9250001
0.095333338 0.4436667 1.9250001
0.1045 0.44550002 1.9250001
-0.23466668 0.45649999 1.9250001
-0.22146669 0.45393333 1.9250001
-0.21633334 0.45833334 1.9250001
0.075533345 0.45466667 1.9250001
0.084333338 0.45466667 1.9250001
0.095333338 0.45466667 1.9250001
-0.23100001 0.46383333 1.9250001
-0.22550002 0.46566671 1.9250001
-0.21633334 0.46933335 1.9250001
-0.20900001 0.46750003 1.9250001
0.058666669 0.46933335 1.9250001
0.066733338 0.46713337 1.9250001
0.075166672 0.46566674 1.9250001
0.082866661 0.46420002 1.9250001
0.095333338 0.46566668 1.9250001
0.10266667 0.46200001 1.9250001
-0.242 0.47666669 1.9250001
-0.23558334 0.47391671 1.9250001
0.058666669 0.47483337 1.9250001
0.066733338 0.47446671 1.9250001
0.075777784 0.47422227 1.9250001
0.08433333 0.47520003 1.9250001
0.091666669 0.47300002 1.9250001
0.058666669 0.48033333 1.9250001
0.067833334 0.48033333 1.9250001
0.075166672 0.48216665 1.9250001
0.083416663 0.48124999 1.9250001
-0.14666666 0.495 1.9250001
-0.14012952 0.41670096 1.9360001
-0.13459811 0.41670096 1.9360001
-0.081127621 0.41670096 1.9360001
-0.077440001 0.41670096 1.9360001
-0.20466286 0.42776385 1.9360001
-0.19544384 0.42530543 1.9360002
-0.18438098 0.4240762 1.9360002
-0.17454731 0.42530543 1.9360002
-0.16594286 0.42592004 1.9360001
-0.15488002 0.4240762 1.9360002
-0.14381714 0.42186365 1.9360001
-0.13422935 0.42333871 1.9360001
-0.12537907 0.42407623 1.936
-0.11523811 0.42684194 1.9360001
-0.10448255 0.42653462 1.9360002
-0.095878102 0.42628881 1.9360001
-0.085737146 0.42315429 1.9360001
-0.2249448 0.43698287 1.9360001
-0.21314441 0.43366405 1.9360001
-0.20466286 0.43145144 1.9360001
0.0073752385 0.43145144 1.9360001
0.015672382 0.43237334 1.9360001
0.02634014 0.43408546 1.9360001
0.035032384 0.43329525 1.9360001
0.040563811 0.43145144 1.9360001
0.065147944 0.43268067 1.9360002
0.072523177 0.43575367 1.9360001
0.084815241 0.43606097 1.9360001
0.097353153 0.43440151 1.9360001
0.10417525 0.43606099 1.9360001
-0.23379508 0.44693947 1.9360001
-0.22863239 0.4425143 1.9360001
0.084815241 0.4425143 1.9360001
0.10509715 0.4425143 1.9360001
0.11062859 0.44620192 1.9360002
-0.23600762 0.4550522 1.9360001
-0.22863239 0.45542097 1.9360001
0.10509715 0.45542097 1.9360001
0.11062858 0.45357716 1.9360001
-0.23232001 0.4609524 1.9360001
-0.22678858 0.4609524 1.9360001
0.10546591 0.46464005 1.9360001
0.11062858 0.46464002 1.9360001
0.095878102 0.47754669 1.9360001
0.10325334 0.47201526 1.9360001
-0.21138859 0.4190686 1.9470001
-0.20397143 0.41906863 1.9470003
-0.19408193 0.41783243 1.9470003
-0.18542859 0.41906863 1.9470003
-0.17430288 0.41906863 1.9470003
-0.14463429 0.41783243 1.9470003
-0.13536286 0.41536 1.9470001
-0.12757488 0.41684347 1.9470001
-0.085297145 0.4190686 1.9470001
-0.25960001 0.42648575 1.9470001
-0.22622287 0.42555863 1.9470001
-0.21417001 0.4255586 1.9470001
-0.20397143 0.42463145 1.9470003
-0.19470002 0.42277718 1.9470001
-0.18542859 0.42277718 1.9470003
-0.17337573 0.42370433 1.9470001
-0.16503143 0.42277718 1.9470001
-0.15576002 0.42277718 1.9470003
-0.11403857 0.42463148 1.9470001
-0.10476714 0.42370433 1.9470001
-0.095186673 0.42401338 1.9470003
-0.089005724 0.42277718 1.9470001
0.059337147 0.42648575 1.9470001
-0.25960001 0.43390292 1.9470003
-0.24476574 0.43761146 1.9470003
-0.23512344 0.43464461 1.9470001
-0.22622287 0.43204862 1.9470003
-0.21602429 0.43112147 1.9470001
0.025960004 0.43019432 1.9470003
0.03523143 0.43019432 1.9470001
0.044502866 0.43019432 1.9470003
0.055628579 0.43019432 1.9470003
0.064900003 0.43019432 1.9470001
0.076025724 0.43390286 1.9470001
0.085297152 0.43390286 1.9470003
0.09395048 0.43143052 1.9470003
0.10754858 0.43575716 1.9470001
0.11422401 0.43538627 1.9470001
-0.25514972 0.44428691 1.9470001
-0.24476573 0.44502857 1.9470003
-0.2361124 0.44255623 1.9470003
0.11558382 0.4450286 1.9470003
0.12238287 0.44873717 1.9470001
-0.25218287 0.45244575 1.9470001
-0.24476574 0.45244575 1.9470003
0.11496573 0.45615435 1.9470001
0.12238287 0.45244575 1.9470001
0.11496572 0.46542576 1.9470001
0.12238287 0.46728003 1.9470001
0.10631239 0.47716957 1.9470003
0.11549552 0.47363758 1.9470003
0.12238287 0.47840574 1.9470001
0.09456858 0.48767719 1.9470001
0.10198572 0.48211432 1.9470001
0.11867429 0.48211432 1.9470001
0.12238287 0.48211432 1.9470001
-0.20139429 0.40465334 1.9580001
-0.22190668 0.41770667 1.9580001
-0.21444762 0.41770667 1.9580001
-0.20459105 0.41504276 1.9580002
-0.19446804 0.41397721 1.9580002
-0.18461142 0.41584194 1.9580001
-0.17528763 0.41584194 1.9580001
-0.16409904 0.41621485 1.9580001
-0.15539682 0.41646355 1.9580001
-0.14731619 0.41770667 1.9580001
-0.13612762 0.41397718 1.9580001
-0.1268038 0.41770667 1.9580001
-0.085033141 0.41621491 1.9580001
-0.078319997 0.41584194 1.9580001
-0.25547236 0.42889526 1.9580001
-0.24614856 0.4270305 1.9580001
-0.23496 0.4257873 1.9580001
-0.22302555 0.42292807 1.9580001
-0.21631238 0.42330098 1.9580001
-0.16409905 0.42143625 1.9580001
-0.15477523 0.42143622 1.9580001
-0.11561524 0.42236859 1.9580001
-0.10442667 0.42143625 1.9580001
-0.095102862 0.42143622 1.9580001
-0.089508571 0.42143622 1.9580001
0.0037295239 0.42889529 1.9580001
0.015450886 0.42623129 1.9580002
0.026106669 0.4270305 1.9580001
0.035430476 0.4270305 1.9580001
0.044754289 0.4270305 1.9580001
0.055196952 0.42665753 1.9580001
0.065266669 0.42703047 1.9580001
0.073658094 0.4279629 1.9580001
0.085779056 0.42889529 1.9580001
0.095102862 0.4270305 1.9580001
0.10442667 0.42889529 1.9580001
-0.25547236 0.43448952 1.9580001
-0.24614859 0.43448958 1.9580001
-0.23868953 0.43262476 1.9580001
0.0055942857 0.43262476 1.9580001
0.014918095 0.43262476 1.9580001
0.074590474 0.43262476 1.9580001
0.085779056 0.43262476 1.9580001
0.10442667 0.43262476 1.9580001
0.11375048 0.43262476 1.9580001
0.12431745 0.43511114 1.9580001
0.13426286 0.43635434 1.9580001
-0.25640476 0.44288099 1.9580001
0.11934476 0.44194859 1.9580001
0.12493905 0.44381338 1.9580001
0.13202515 0.44455925 1.9580001
0.14731619 0.44754288 1.9580001
0.15477523 0.44754288 1.9580001
-0.25733715 0.4512724 1.9580001
0.11934476 0.45873144 1.9580001
0.12587142 0.45593429 1.9580001
0.13426286 0.45500195 1.9579999
0.14545144 0.45500195 1.9579999
0.15384285 0.45406955 1.9580001
0.11934476 0.46432573 1.9580001
0.125312 0.46544456 1.9580001
0.13202515 0.46619049 1.9580001
0.14545143 0.46246096 1.9580001
0.15291047 0.46246096 1.9580001
0.12493904 0.47551429 1.9580001
0.13053332 0.47551429 1.9580001
0.10535904 0.48763525 1.9580001
0.11375048 0.4848381 1.9580001
0.1268038 0.48110858 1.9580001
0.13053332 0.48110858 1.9580001
0.10442667 0.49229711 1.9580001
0.11188572 0.49229711 1.9580001
-0.19877525 0.40692669 1.9690001
-0.1818981 0.40880194 1.9690001
-0.22252826 0.41505271 1.9690002
-0.21452728 0.41405258 1.9690001
-0.20627619 0.41255239 1.9690001
-0.1912743 0.41255239 1.9690001
-0.18377334 0.41255242 1.9690002
-0.17439716 0.41255239 1.9690001
-0.16502096 0.41349 1.9690001
-0.15376952 0.41505274 1.9690002
-0.14439334 0.41630286 1.9690001
-0.091886669 0.41630286 1.9690001
0.026253335 0.41630286 1.9690001
0.031879049 0.41630286 1.9690001
-0.26253334 0.42567909 1.9690001
-0.25503242 0.42567906 1.9690001
-0.24378097 0.42380387 1.9690002
-0.23440477 0.42192858 1.9690001
-0.22877906 0.42005336 1.9690001
-0.12189049 0.42005336 1.9690001
-0.095637143 0.42005336 1.9690001
0.0042862589 0.42487541 1.9690001
0.01425181 0.42155358 1.9690001
0.024378097 0.42192858 1.9690001
0.033004191 0.42230365 1.9690001
0.04500572 0.42380387 1.9690002
0.054381907 0.42380384 1.9690001
0.063758098 0.42380387 1.9690002
0.075759619 0.42530403 1.9690001
0.084385723 0.42567906 1.9690001
0.09282428 0.42474145 1.9690001
0.10426325 0.42605415 1.9690001
0.11376445 0.42630419 1.9690002
0.12189049 0.42755431 1.9690001
0.11438952 0.43130478 1.9690001
0.12376573 0.43280497 1.9690001
0.13426705 0.4335551 1.9690001
0.14439334 0.43880573 1.9690001
0.13751747 0.44380638 1.9690002
0.14439334 0.44443142 1.9690001
0.13876763 0.45005718 1.9690001
0.1425181 0.45005718 1.9690001
0.13751748 0.4675594 1.9690002
0.14439334 0.46880955 1.9690001
0.15001905 0.46880955 1.9690001
0.13751748 0.47506034 1.9690002
0.14439334 0.47443527 1.9690001
0.15189429 0.47443527 1.9690001
0.13689238 0.48006096 1.9690001
0.14439334 0.48006096 1.9690001
-0.32441622 0.79885149 1.9690001
-0.3187905 0.79885149 1.9690001
-0.32441622 0.80260193 1.9690001
-0.3187905 0.80260193 1.9690001
-0.20742859 0.4073143 1.9800001
-0.24325716 0.4186286 1.9800001
-0.23382859 0.41862863 1.9800003
-0.21120001 0.41108575 1.9800001
-0.20742859 0.41108575 1.9800001
-0.19234286 0.41108575 1.9800001
-0.18857144 0.41108575 1.9800001
-0.17725715 0.41108575 1.9800001
-0.098057151 0.4186286 1.9800001
0.075428575 0.4186286 1.9800001
0.094285727 0.41862863 1.9800003
0.10560001 0.41862863 1.9800003
0.11502858 0.4186286 1.9800001
-0.26022857 0.42617145 1.9800001
-0.25268573 0.42240003 1.9800001
-0.24514288 0.42240006 1.9800003
-0.23760001 0.42240003 1.9800001
-0.11691429 0.42240003 1.9800001
-0.10560001 0.42240006 1.9800003
0.037714288 0.42240003 1.9800001
0.041485716 0.42240003 1.9800001
0.054685719 0.42240003 1.9800001
0.064114295 0.42240006 1.9800003
0.075428575 0.42240006 1.9800003
0.084857151 0.42240003 1.9800001
0.094285727 0.42240006 1.9800003
0.10654287 0.42334288 1.9800001
0.11565715 0.42365718 1.9800003
0.12445714 0.42554292 1.9800003
0.13325715 0.42868575 1.9800003
0 0.43748575 1.9800001
0.13954286 0.4337143 1.9800001
0.14457145 0.4362286 1.9800003
0.15462857 0.44502863 1.9800001
0.16217144 0.7995429 1.9800001
-0.32622859 0.81085724 1.9800001
-0.21437715 0.40978289 1.9920001
-0.19540572 0.40978289 1.9920001
-0.1897143 0.40978289 1.9920001
0.11288 0.40693718 1.9920001
0.12141715 0.4059886 1.9920001
-0.24473144 0.41737145 1.9920001
-0.23524573 0.41737145 1.9920001
-0.22386287 0.41484189 1.9920001
-0.21627429 0.41357714 1.9920001
-0.19730286 0.41357714 1.9920001
0.079680003 0.41737145 1.9920001
0.085371435 0.41737145 1.9920001
0.094857149 0.41737145 1.9920001
0.10497525 0.4161067 1.9920001
0.11382856 0.41585374 1.9920002
0.12141715 0.41737145 1.9920001
-0.25516573 0.42211431 1.9920001
-0.11382858 0.42496002 1.9920001
0.068297148 0.42116573 1.9920001
0.075885721 0.42116573 1.9920001
0.085371435 0.42116573 1.9920001
0.12616001 0.42211428 1.9920001
0.13469714 0.42496002 1.9920001
0.14165334 0.42748958 1.9920001
0.14513144 0.43349719 1.9920001
0.15556572 0.44013715 1.9920001
0.16315429 0.44393146 1.9920001
0.15366858 0.79680002 1.9920001
0.15708344 0.80287087 1.9920002
0.16568381 0.80691814 1.9920001
0.17074287 0.80628574 1.9920001
0.16694857 0.81197721 1.9920001
-0.22509904 0.40823048 2.003
0.12781048 0.4063229 2.003
0.13353334 0.40823048 2.003
-0.25562096 0.41967618 2.003
-0.23463714 0.41395333 2.003
-0.22605285 0.41299951 2.003
-0.10301143 0.41967618 2.003
-0.099196188 0.41967618 2.003
0.068674289 0.41967618 2.003
0.074397147 0.41967618 2.003
0.085842855 0.41586095 2.003
0.096334763 0.41490716 2.003
0.10428318 0.41331744 2.003
0.1157289 0.41331744 2.003
0.12637976 0.41538405 2.003
0.13544096 0.41776854 2.003
0.14116381 0.41967618 2.003
-0.26325142 0.42730665 2.003
-0.12208762 0.42349145 2.003
-0.11445715 0.42349145 2.003
-0.10491905 0.42349145 2.003
0.047690473 0.42730665 2.003
0.062951431 0.42349145 2.003
0.13734858 0.42349145 2.003
0.14497906 0.42539907 2.003
0.14879429 0.43112192 2.003
0.15451714 0.43493712 2.0030003
0.16214761 0.43684477 2.003
0.14116381 0.7973848 2.003
0.13607684 0.80374354 2.003
0.14497906 0.80310756 2.003
0.15451714 0.8088305 2.003
0.14879429 0.81264573 2.003
0.15451714 0.81455332 2.003
0.16214761 0.81646097 2.003
0.17359333 0.81646097 2.003
0.15515302 0.82154799 2.003
0.16405524 0.82409143 2.003
0.17550094 0.82409143 2.003
0.18408523 0.82504523 2.003
0.16460028 0.83444709 2.0030003
0.17550094 0.83553708 2.003
0.18503904 0.83553714 2.0030003
0.17740858 0.84507525 2.003
0.18313143 0.84507525 2.003
0.17740858 0.85079807 2.003
0.18313143 0.85079807 2.003
-0.23335622 0.40530285 2.0150001
-0.22644764 0.40683812 2.0150001
0.13625237 0.40683812 2.0150001
0.14200953 0.40683812 2.0150001
-0.25331429 0.4183524 2.0150001
-0.2456381 0.41643339 2.0150003
-0.23412383 0.41067621 2.0150001
0.095952384 0.4145143 2.0150001
0.13689207 0.41323495 2.0150001
0.14296906 0.41547382 2.0150001
-0.26482856 0.42602858 2.0150001
-0.13049524 0.42602858 2.0150001
-0.1247381 0.42410952 2.0150001
-0.11514287 0.42219052 2.0150001
0.055652384 0.42602858 2.0150001
0.14840637 0.42346987 2.0150001
0.15505905 0.4267962 2.0150001
0.1612 0.42794764 2.0150001
0.16311905 0.43370476 2.0150001
0.1247381 0.79640484 2.0150001
0.13433334 0.79832387 2.0150001
0.14584762 0.79832387 2.0150001
0.15352382 0.79832387 2.0150001
0.086357147 0.80791909 2.0150001
0.092114285 0.80983812 2.0150001
0.11322382 0.80791909 2.0150001
0.1247381 0.80600011 2.0150003
0.13305397 0.80472076 2.0150003
0.14680715 0.80504048 2.0150001
0.15352382 0.80216193 2.0150001
0.086357147 0.81559527 2.0150001
0.095952384 0.81559533 2.0150003
0.10490794 0.81495559 2.0150001
0.11514287 0.81367624 2.0150001
0.1247381 0.81559527 2.0150001
0.13433334 0.81559533 2.0150003
0.14508002 0.81521147 2.0150001
0.074842863 0.82519054 2.0150001
0.084438108 0.82519054 2.0150001
0.095952377 0.82519054 2.0150001
0.10362858 0.82327151 2.0150001
0.11514287 0.82135242 2.0150001
0.14968573 0.82327151 2.0150001
0.080600001 0.83286673 2.0150001
0.095952384 0.83286673 2.0150001
0.11898096 0.84054291 2.0150001
0.12281905 0.84246194 2.0150001
-0.23937906 0.40540004 2.0270002
-0.25482288 0.41505241 2.0270002
-0.2451705 0.41312194 2.0270002
0.14671621 0.41505241 2.0270002
0.15057716 0.41698289 2.0270002
-0.27026668 0.42856577 2.0270002
-0.25868383 0.42084384 2.0270002
-0.12741144 0.42470479 2.0270002
-0.10810667 0.42470479 2.0270002
0.15443811 0.42213082 2.0270002
0.16602097 0.42727876 2.0270002
0.16859494 0.43371367 2.0270002
0.11775906 0.79728675 2.0270002
0.10424572 0.80693913 2.0270002
0.11582857 0.80500865 2.0270004
0.096523814 0.81273055 2.0270002
0.10424572 0.81273055 2.0270004
0.11968953 0.81273055 2.0270002
0.077219054 0.8243134 2.0270002
0.081080012 0.82238293 2.0270002
0.10810667 0.8243134 2.0270002
0.11582857 0.82238293 2.0270002
-0.32818097 0.83010483 2.0270002
0.077219054 0.83589625 2.0270002
0.086871438 0.83782673 2.0270002
0.092662863 0.83782673 2.0270002
0.10424572 0.83493102 2.0270002
0.11711556 0.83267879 2.0270004
0.1235505 0.83396578 2.0270002
0.088801913 0.84554869 2.0270002
0.094593339 0.84361815 2.0270002
0.10167175 0.84297466 2.0270002
0.11737297 0.84554863 2.0270002
0.12355049 0.84168768 2.0270002
0.11775906 0.85327053 2.0270002
-0.25438952 0.40779999 2.039
-0.24468002 0.40650541 2.039
-0.27186665 0.41945145 2.039
-0.26332232 0.4163444 2.039
-0.25438952 0.4116838 2.039
-0.24662191 0.4116838 2.039
0.14758477 0.4116838 2.039
0.15535237 0.41750956 2.039
-0.27316126 0.42592448 2.039
-0.26668829 0.42462987 2.039
-0.13204953 0.42721906 2.039
0.036896188 0.42721906 2.039
0.044663809 0.42721906 2.039
0.050489523 0.42721906 2.039
0.15923619 0.42333525 2.039
0.16506191 0.42527717 2.039
0.17088762 0.42721906 2.039
-0.27704507 0.43239748 2.039
0.038838092 0.43110287 2.039
0.044663809 0.43110287 2.039
0.050489523 0.43110287 2.039
-0.073792383 0.6641314 2.039
-0.069908567 0.66218954 2.039
-0.073792383 0.673841 2.039
-0.20195809 0.76899433 2.039
-0.19807428 0.76899433 2.039
-0.21360953 0.77676195 2.039
-0.20681286 0.77384907 2.039
0.058257144 0.78841329 2.039
0.065248005 0.78685981 2.039
-0.28351811 0.79618096 2.039
-0.27769238 0.79618096 2.039
0.055667937 0.79488635 2.039
-0.28351811 0.80006474 2.039
-0.27769238 0.80006474 2.039
0.05631524 0.80394852 2.039
0.062140953 0.80394858 2.039
0.097095244 0.80783236 2.039
0.10486286 0.80589044 2.039
0.11263048 0.80200666 2.039
-0.32624 0.81948382 2.039
-0.13515656 0.81793034 2.039
-0.12816572 0.81948382 2.039
0.044663809 0.8175419 2.039
0.054858807 0.81608546 2.0389998
0.065053806 0.81851286 2.039
0.075734288 0.81948382 2.039
0.095153332 0.81365812 2.039
-0.32494542 0.82466221 2.039
-0.26021525 0.8233676 2.039
-0.25438952 0.82530951 2.039
-0.24856381 0.82725143 2.039
0.058257144 0.82530951 2.039
0.066024765 0.82530951 2.039
0.075086989 0.82466221 2.039
-0.3320657 0.83890289 2.039
-0.32624 0.83307719 2.039
-0.30293715 0.83890289 2.039
-0.29468408 0.83550459 2.0389998
-0.28740191 0.83696097 2.039
-0.25438952 0.83307719 2.039
-0.24726921 0.8337245 2.039
0.068937615 0.83404815 2.039
0.073792383 0.83501911 2.039
0.10874667 0.83890289 2.039
0.11263048 0.83890289 2.039
-0.3320657 0.84667051 2.039
-0.32429808 0.84667051 2.039
-0.29516953 0.84278667 2.039
-0.28740191 0.84278667 2.039
0.073792383 0.84278667 2.039
0.085443817 0.84667051 2.039
0.10874667 0.84472859 2.039
0.11392508 0.84408128 2.039
-0.33400762 0.85055429 2.039
-0.32429808 0.85832191 2.039
0.10486286 0.85055429 2.039
0.11263048 0.85055429 2.039
-0.32429808 0.86414766 2.039
-0.31847239 0.86414766 2.039
-0.28128001 0.40629336 2.0510001
-0.27737334 0.40629336 2.0510001
-0.25295666 0.40531671 2.0510001
