# .PCD v0.7 - Point Cloud Data file format
VERSION 0.7
FIELDS x y z
SIZE 4 4 4
TYPE F F F
COUNT 1 1 1
WIDTH 1491
HEIGHT 1
VIEWPOINT 0 0 0 1 0 0 0
POINTS 1491
DATA ascii
0.13412191 0.48354477 1.853
0.15176952 0.48001525 1.853
-0.035295241 0.49060386 1.853
-0.32646856 0.12774858 1.863
-0.32646856 0.13129714 1.863
-0.2484 0.13839428 1.863
-0.24485143 0.14549144 1.863
-0.29098287 0.15436286 1.863
-0.28344214 0.15569358 1.863
-0.27501428 0.15613715 1.8630002
-0.2675623 0.15755658 1.8630002
-0.26614287 0.16323428 1.8630002
-0.30162856 0.20759143 1.863
-0.29453143 0.20794629 1.8630002
-0.28459546 0.20723657 1.8630002
-0.26436859 0.20581715 1.8630002
-0.29808 0.21291429 1.863
-0.28506857 0.21409714 1.8630002
-0.26436859 0.21468857 1.863
-0.25549716 0.21646287 1.863
-0.2924023 0.22426973 1.8630002
-0.28388572 0.22356002 1.863
-0.27536914 0.22426973 1.8630002
-0.26614287 0.22356002 1.863
-0.25651106 0.22356001 1.8630002
-0.2484 0.22356001 1.863
-0.30872571 0.23775429 1.863
-0.28344214 0.23420571 1.863
-0.27501428 0.23420572 1.8630002
-0.26614285 0.23420569 1.863
-0.25549716 0.23376215 1.863
-0.30872571 0.24130286 1.863
-0.29808 0.24130286 1.863
-0.28388572 0.24485143 1.863
-0.27590141 0.24396428 1.863
-0.26614285 0.24307716 1.8630002
-0.25448331 0.24434452 1.8630002
-0.24662572 0.2484 1.863
-0.29275715 0.25727144 1.863
-0.28388572 0.25549713 1.863
-0.27536914 0.2562069 1.8630002
-0.26614285 0.25549716 1.863
-0.25549713 0.25549716 1.863
-0.24662571 0.25549716 1.8630002
-0.29351759 0.26664984 1.8630002
-0.28388575 0.26614285 1.863
-0.27501428 0.26614285 1.8630002
-0.26614285 0.26658645 1.863
-0.25549716 0.26614287 1.863
-0.245295 0.26658642 1.863
-0.29453143 0.27501431 1.8630002
-0.28388572 0.27501428 1.8630002
-0.27501428 0.27501428 1.863
-0.26614285 0.27501431 1.8630002
-0.25549716 0.27501428 1.8630002
-0.24556115 0.27465945 1.8630002
-0.30340284 0.28743428 1.863
-0.29689714 0.28270286 1.8630002
-0.27324 0.28211144 1.863
-0.26614285 0.28388572 1.863
-0.25549713 0.28388572 1.863
-0.24662571 0.28388572 1.8630002
-0.30340284 0.29275715 1.863
-0.29630572 0.29098287 1.863
-0.26614287 0.2909829 1.8630002
-0.25549716 0.2909829 1.8630002
-0.24662572 0.29098287 1.863
-0.11177999 0.42937714 1.863
-0.10468285 0.42760283 1.863
-0.095811427 0.427248 1.8630002
-0.084278569 0.42848998 1.863
-0.074013054 0.42684242 1.8630002
-0.065293722 0.42582855 1.8630002
-0.055357721 0.42653829 1.8630002
-0.046131432 0.42937717 1.8630002
-0.035485715 0.42937717 1.8630002
-0.01242 0.42937714 1.863
-0.0053228568 0.42937714 1.863
0 0.42937714 1.863
0.017742857 0.42937714 1.863
0.026614286 0.42937714 1.863
0.035485715 0.42937717 1.8630002
0.046131428 0.42937717 1.8630002
0.065648571 0.42937714 1.863
0.070971429 0.42937714 1.863
-0.11284456 0.43505487 1.8630002
-0.10468285 0.43470001 1.863
-0.085165709 0.43470001 1.8630002
-0.074520007 0.43470001 1.8630002
-0.067422852 0.43470001 1.863
-0.046131428 0.43292576 1.8630002
-0.035485715 0.43470001 1.8630002
-0.023065716 0.43647429 1.863
-0.014194285 0.43292576 1.8630002
-0.0053228568 0.43292573 1.863
0.0042582857 0.43434516 1.8630002
0.014194285 0.43470001 1.8630002
0.021291429 0.43470001 1.863
0.039034285 0.43292573 1.863
0.046131428 0.43292576 1.8630002
0.055002857 0.43292573 1.863
0.060325716 0.43292573 1.863
0.076294288 0.43292573 1.863
0.085165724 0.43292576 1.8630002
0.094924286 0.43470001 1.863
0.10527428 0.43410859 1.8630002
0.11266714 0.43558717 1.863
0.12065143 0.43647429 1.863
-0.15258858 0.44712001 1.863
-0.14549142 0.4453457 1.8630002
-0.13528928 0.44401503 1.863
-0.12375642 0.44401497 1.863
-0.11355428 0.44357142 1.863
-0.083391428 0.44002286 1.863
-0.076294288 0.44268429 1.863
-0.027205717 0.44120571 1.8630002
0.0070971427 0.44002286 1.863
0.014194285 0.44002286 1.863
0.11532856 0.44179714 1.863
0.12242572 0.44179714 1.863
0.13307142 0.44712001 1.863
-0.15258858 0.45421714 1.8630002
-0.14549144 0.45421717 1.863
-0.1348457 0.45421717 1.863
-0.1242 0.45421717 1.863
-0.11399786 0.45377359 1.863
0.12774858 0.45244285 1.863
0.1348457 0.45466074 1.863
0.14336228 0.45492688 1.8630002
-0.15258858 0.46131429 1.863
-0.14549142 0.46131429 1.863
-0.1348457 0.46486288 1.863
-0.12420001 0.46384901 1.8630002
-0.11355428 0.46486288 1.863
-0.10468285 0.46486288 1.8630002
-0.097940579 0.4655726 1.8630002
0.13602856 0.46249717 1.8630002
0.14430857 0.46249717 1.8630002
-0.13129714 0.47905713 1.863
-0.12183429 0.47669142 1.8630002
-0.11444142 0.47284716 1.863
-0.10468285 0.47196001 1.863
-0.097585723 0.47196001 1.863
-0.014194285 0.47905716 1.8630002
0.026969144 0.47621828 1.8630002
0.031937145 0.47550857 1.8630002
0.13129714 0.47905713 1.863
0.14667429 0.47550857 1.8630002
0.15495428 0.47669142 1.8630002
-0.13129714 0.48260573 1.863
-0.12242572 0.48260573 1.863
-0.024840001 0.48970288 1.8630002
-0.014194286 0.48615429 1.863
-0.0070971427 0.48438001 1.863
0.028388571 0.48260573 1.863
0.031937145 0.48260573 1.863
0.056777142 0.48792857 1.863
0.063164569 0.48544461 1.8630002
0.12774858 0.48615429 1.863
0.13129714 0.48792857 1.863
-0.025549715 0.49467087 1.8630002
-0.017742857 0.49325141 1.863
-0.3103829 0.098109528 1.8730001
-0.30681527 0.096325718 1.8730001
-0.29373401 0.098704129 1.8730001
-0.28719336 0.098109528 1.8730001
-0.32465336 0.10524477 1.8730001
-0.31216669 0.10524476 1.8730001
-0.30503148 0.10524476 1.8730001
-0.29611242 0.10524477 1.8730001
-0.28540957 0.10524477 1.8730001
-0.2782743 0.10524476 1.8730001
-0.32465336 0.11559087 1.8730001
-0.31276131 0.11297461 1.8730001
-0.30503148 0.11059619 1.8730001
-0.29509315 0.11365417 1.8730003
-0.28540957 0.11273676 1.8730001
-0.27684727 0.11487734 1.8730001
-0.3242074 0.12442072 1.8730001
-0.31454509 0.12605588 1.8730001
-0.30503148 0.1284343 1.8730001
-0.27542022 0.12272611 1.8730001
-0.25330099 0.1284343 1.8730001
-0.24973336 0.1284343 1.8730001
-0.32465336 0.13200191 1.8730001
-0.3103829 0.13913715 1.8730001
-0.30503148 0.13913715 1.8730001
-0.29611242 0.13913715 1.8730001
-0.28540957 0.13913715 1.8730001
-0.27470669 0.13658886 1.8730003
-0.2544902 0.13794795 1.8730001
-0.24973336 0.13556953 1.8730001
-0.3103829 0.14270477 1.8730001
-0.30467471 0.14555888 1.8730001
-0.29611245 0.14627239 1.8730003
-0.28540957 0.14627239 1.8730003
-0.27470669 0.14627239 1.8730003
-0.26400384 0.14627239 1.8730003
-0.25508481 0.14627239 1.8730001
-0.24735495 0.14686699 1.8730001
-0.30443689 0.15459684 1.8730001
-0.29789621 0.15519144 1.8730001
-0.26400381 0.15519145 1.8730001
-0.25508481 0.15519144 1.8730001
-0.24794954 0.15519144 1.8730001
-0.2390305 0.15340763 1.8730001
-0.3112748 0.16500239 1.8730001
-0.30503148 0.16411048 1.8730001
-0.29611245 0.1641105 1.8730003
-0.28591925 0.16512981 1.8730003
-0.27542022 0.16625105 1.8730001
-0.26257679 0.16553754 1.8730001
-0.25597671 0.16321857 1.8730001
-0.24616575 0.16054288 1.8730001
-0.31216669 0.17302954 1.8730001
-0.30503148 0.17302953 1.8730001
-0.29611242 0.17481335 1.8730003
-0.28540957 0.17481335 1.8730003
-0.27470669 0.17481336 1.8730003
-0.26400384 0.17481335 1.8730003
-0.2568686 0.17481336 1.8730001
-0.29611242 0.18551621 1.8730003
-0.28540957 0.18551621 1.8730003
-0.27470666 0.18551619 1.8730003
-0.26400384 0.18551621 1.8730003
-0.25597671 0.1864081 1.8730001
-0.30413958 0.19621906 1.8730001
-0.29611242 0.19621906 1.8730003
-0.28540957 0.19621904 1.8730003
-0.27470669 0.19621906 1.8730003
-0.26400384 0.19621904 1.8730003
-0.25508481 0.19621907 1.8730001
-0.24973337 0.19621906 1.8730001
-0.23189525 0.19621906 1.8730001
-0.22832763 0.19621906 1.8730001
-0.30503148 0.20513812 1.8730001
-0.29611242 0.20424621 1.8730001
-0.28540954 0.2033543 1.8730001
-0.27470669 0.20513812 1.8730001
-0.26043621 0.20513812 1.8730001
-0.25508481 0.2051381 1.8730001
-0.24616575 0.20513813 1.8730001
-0.23457097 0.20603003 1.8730001
-0.22832763 0.20513812 1.8730001
-0.30503148 0.21227334 1.8730001
-0.29539892 0.21619773 1.8730001
-0.28362575 0.21494907 1.8730001
-0.27470669 0.21405716 1.8730003
-0.26043624 0.21405715 1.8730001
-0.25472805 0.21334362 1.8730001
-0.24616575 0.21405715 1.8730003
-0.23590884 0.21361119 1.8730001
-0.22476003 0.21227334 1.8730001
-0.3103829 0.22832763 1.8730001
-0.30503148 0.22832763 1.8730001
-0.2987881 0.2238681 1.8730001
-0.27470669 0.22119239 1.8730001
-0.25330099 0.22476001 1.8730001
-0.24571978 0.22476001 1.8730001
-0.23688994 0.22476001 1.8730001
-0.3103829 0.23367906 1.8730001
-0.30538824 0.2361764 1.8730001
-0.29611245 0.23546286 1.8730003
-0.28897718 0.23546287 1.8730001
-0.2568686 0.2390305 1.8730001
-0.24616572 0.23546287 1.8730003
-0.23903051 0.23546289 1.8730001
-0.3103829 0.24794954 1.8730001
-0.30503148 0.24616575 1.8730001
-0.29566646 0.24661168 1.8730001
-0.27351749 0.24854416 1.8730001
-0.26311192 0.24884146 1.8730001
-0.24565607 0.24514642 1.8730003
-0.23724669 0.24616574 1.8730001
-0.22119239 0.24259812 1.8730001
-0.21762477 0.24259812 1.8730001
-0.3103829 0.25330099 1.8730001
-0.30503148 0.25508481 1.8730001
-0.29700431 0.25419292 1.8730001
-0.27470669 0.25330099 1.8730001
-0.24259812 0.25508481 1.8730001
-0.23724669 0.25508481 1.8730001
-0.30413955 0.26400381 1.8730001
-0.29968005 0.26400381 1.8730001
-0.26757145 0.26400381 1.8730001
-0.24259812 0.26222003 1.8730001
-0.23724669 0.26400381 1.8730001
-0.30503148 0.27470669 1.8730001
-0.24259812 0.2782743 1.8730001
-0.23546287 0.27470669 1.8730003
-0.22476003 0.2782743 1.8730001
-0.21762477 0.2782743 1.8730001
-0.3103829 0.28540957 1.8730001
-0.30503148 0.28362572 1.8730001
-0.29492319 0.28600416 1.8730001
-0.28540957 0.28540957 1.8730003
-0.2773824 0.28630146 1.8730001
-0.24259812 0.28540957 1.8730001
-0.23546287 0.28540957 1.8730003
-0.22476003 0.28540957 1.8730003
-0.21673286 0.28630143 1.8730001
-0.30503148 0.29968002 1.8730001
-0.29560274 0.29713175 1.8730003
-0.28540954 0.29611245 1.8730003
-0.27515265 0.29655838 1.8730001
-0.26400381 0.29789624 1.8730001
-0.25508481 0.29789621 1.8730001
-0.24565607 0.29713175 1.8730003
-0.23546287 0.29566646 1.8730001
-0.22476003 0.29254478 1.8730001
-0.21494906 0.29343671 1.8730001
-0.30503148 0.30324766 1.8730001
-0.29611242 0.30503148 1.8730001
-0.28540957 0.30503148 1.8730001
-0.27559859 0.30413955 1.8730001
-0.26329032 0.30467471 1.8730001
-0.25508481 0.30503148 1.8730001
-0.24616575 0.30503148 1.8730001
-0.2390305 0.30324766 1.8730001
-0.29254478 0.31216669 1.8730001
-0.28591925 0.31293118 1.8730003
-0.26222003 0.31395054 1.8730001
-0.25508481 0.31395048 1.8730001
-0.24718507 0.31344086 1.8730003
-0.29254478 0.32108572 1.8730001
-0.28897718 0.32286954 1.8730001
-0.26162541 0.32227492 1.8730001
-0.25508481 0.32286954 1.8730001
-0.24854414 0.32227492 1.8730001
-0.12248826 0.42692512 1.8730001
-0.11416382 0.42633051 1.8730001
-0.10524476 0.42454672 1.8730001
-0.096325718 0.42454672 1.8730001
-0.086336389 0.42597374 1.8730001
-0.074919999 0.42335749 1.8730001
-0.06421715 0.42335749 1.8730001
-0.055298097 0.4227629 1.8730001
-0.046379052 0.42633048 1.8730001
-0.035676196 0.4281143 1.8730001
-0.021405715 0.4281143 1.8730001
-0.014270477 0.4281143 1.8730001
-0.0053514289 0.4281143 1.8730001
0.0017838096 0.4281143 1.8730001
0.014270477 0.4281143 1.8730001
0.026757143 0.4281143 1.8730001
0.035676196 0.4281143 1.8730001
0.046379052 0.4281143 1.8730001
0.055298097 0.4281143 1.8730001
0.06421715 0.4281143 1.8730001
0.071352385 0.4281143 1.8730001
-0.15340763 0.43703336 1.8730001
-0.14627238 0.43524954 1.8730003
-0.13556953 0.43524957 1.8730003
-0.12486667 0.43524954 1.8730003
-0.11773144 0.43346572 1.8730001
-0.025482995 0.43423024 1.8730003
-0.017838096 0.43168193 1.8730001
0.0053514289 0.43168193 1.8730001
0.012486667 0.43168193 1.8730001
0.021405715 0.43168193 1.8730001
0.055298097 0.43168193 1.8730001
0.060649529 0.43168193 1.8730001
0.076703817 0.43168193 1.8730001
0.085622869 0.43168196 1.8730001
0.096325718 0.43257385 1.8730001
0.10524476 0.43168193 1.8730001
0.11487734 0.43310896 1.8730001
0.12415315 0.43596306 1.8730001
0.13378572 0.43881717 1.8730001
-0.16054288 0.44595242 1.8730001
-0.1555482 0.44523889 1.8730001
-0.14627239 0.44238481 1.8730001
-0.13200191 0.44238478 1.8730001
-0.1284343 0.44238478 1.8730001
0.1284343 0.4441686 1.8730001
0.13556953 0.4453578 1.8730001
0.14627241 0.44952005 1.8730001
-0.16054286 0.45487148 1.8730001
-0.15697524 0.45487148 1.8730001
0.13556953 0.45308766 1.8730001
0.14865081 0.45427689 1.8730001
-0.16054286 0.4602229 1.8730001
-0.15578604 0.46379054 1.8730001
-0.14627239 0.46646622 1.8730001
0.14984003 0.46379051 1.8730001
0.15483467 0.46450406 1.8730001
0.16321857 0.46646625 1.8730001
-0.15340763 0.47092575 1.8730001
-0.14484535 0.47306633 1.8730001
-0.13556953 0.4762772 1.8730001
-0.12537634 0.47500306 1.8730003
0.14984001 0.47092575 1.8730001
0.15519144 0.47270957 1.8730001
0.16366452 0.47404742 1.8730001
-0.14270477 0.48341244 1.8730001
-0.13794795 0.48281783 1.8730001
-0.1284343 0.48341244 1.8730001
-0.11416382 0.60292763 1.8730001
-0.32459337 0.087873332 1.8830001
-0.31562671 0.087873332 1.8830003
-0.32459337 0.095046669 1.8830001
-0.31634402 0.094688013 1.8830003
-0.30486667 0.095644459 1.8830001
-0.29500335 0.094150007 1.8830001
-0.28334668 0.096840009 1.8830001
-0.27796668 0.096840009 1.8830001
-0.32638669 0.10042667 1.8830001
-0.31801778 0.10401334 1.8830001
-0.30486667 0.10042667 1.8830001
-0.28334668 0.10042667 1.8830001
-0.2751486 0.10350097 1.8830004
-0.26496503 0.10446168 1.8830003
-0.25824004 0.10401335 1.8830001
-0.32638669 0.11298001 1.8830001
-0.31622446 0.11537113 1.8830003
-0.30486667 0.11656668 1.8830003
-0.29052001 0.11656667 1.8830001
-0.28334668 0.11656667 1.8830001
-0.27348337 0.11387668 1.8830001
-0.26900002 0.11477335 1.8830001
-0.25644666 0.11656667 1.8830001
-0.31443113 0.12314223 1.8830001
-0.30486667 0.12493556 1.8830003
-0.29410669 0.12553333 1.8830003
-0.28514004 0.12553334 1.8830003
-0.27527669 0.12822334 1.8830001
-0.26660892 0.12493557 1.8830003
-0.25680533 0.12481602 1.8830003
-0.32423469 0.13701068 1.8830003
-0.31607503 0.13584501 1.8830003
-0.30486667 0.13450001 1.8830003
-0.29410669 0.13450001 1.8830003
-0.28514004 0.13450001 1.8830001
-0.27617335 0.13270667 1.8830001
-0.26592577 0.13731812 1.8830004
-0.25555 0.13360333 1.8830001
-0.32399559 0.14466223 1.8830001
-0.31634402 0.14561868 1.8830003
-0.31383336 0.15422668 1.8830003
-0.30845335 0.15422668 1.8830001
-0.24269781 0.15661779 1.8830001
-0.31742001 0.16319335 1.8830001
-0.25286001 0.16678001 1.8830001
-0.24479 0.16498667 1.8830001
-0.23672001 0.16140002 1.8830001
-0.31562668 0.17754 1.8830001
-0.30666 0.17933334 1.8830001
-0.25286001 0.17574668 1.8830003
-0.24748001 0.17216 1.8830001
-0.31204003 0.18292001 1.8830001
-0.30666 0.18471333 1.8830001
-0.25286001 0.18471333 1.8830001
-0.24748001 0.18471333 1.8830001
-0.31347471 0.19439736 1.8830003
-0.30725777 0.19128892 1.8830001
-0.25106668 0.19009334 1.8830001
-0.24440575 0.1947048 1.8830004
-0.23492669 0.19547334 1.8830001
-0.22954668 0.19368002 1.8830001
-0.31347471 0.20372267 1.8830003
-0.30845335 0.20264667 1.8830001
-0.24299668 0.20175001 1.8830001
-0.23552446 0.2020489 1.8830001
-0.22954668 0.20085335 1.8830001
-0.31204003 0.21161334 1.8830001
-0.30845335 0.21699335 1.8830001
-0.23313336 0.21878667 1.8830001
-0.22596002 0.21878669 1.8830001
-0.23492669 0.22596002 1.8830001
-0.22640835 0.22640833 1.8830003
-0.21878667 0.22775334 1.8830001
-0.30486667 0.23313336 1.8830001
-0.23492669 0.23492669 1.8830001
-0.22524269 0.23456803 1.8830003
-0.21878667 0.23313336 1.8830001
-0.23403002 0.24299668 1.8830001
-0.22640835 0.24389337 1.8830003
-0.21759114 0.24269781 1.8830001
-0.23313336 0.25465333 1.8830001
-0.22835112 0.25345778 1.8830001
-0.30845335 0.26900002 1.8830001
-0.23313336 0.26541337 1.8830001
-0.22596002 0.27438003 1.8830003
-0.21878667 0.27438003 1.8830001
-0.22596002 0.29769337 1.8830001
-0.30666 0.30845335 1.8830001
-0.27438003 0.30845335 1.8830001
-0.26900002 0.30845335 1.8830001
-0.24030669 0.30845335 1.8830001
-0.23528536 0.30558401 1.8830003
-0.22685668 0.30217668 1.8830001
-0.21878667 0.30128002 1.8830001
-0.30343202 0.31419203 1.8830003
-0.29679668 0.31652334 1.8830001
-0.28514004 0.31921333 1.8830001
-0.27617335 0.31562671 1.8830003
-0.26900002 0.31562668 1.8830001
-0.24174134 0.31634402 1.8830003
-0.23492669 0.31204003 1.8830001
-0.294824 0.32710403 1.8830003
-0.28514001 0.32638669 1.8830003
-0.27617338 0.32638672 1.8830003
-0.26660892 0.32758224 1.8830003
-0.25465333 0.32997334 1.8830001
-0.24461067 0.32638669 1.8830003
-0.29231334 0.33356002 1.8830001
-0.2725867 0.33535337 1.8830001
-0.26541337 0.33535334 1.8830003
-0.25537071 0.3349947 1.8830003
-0.25824001 0.34073335 1.8830001
-0.15243334 0.42681336 1.8830001
-0.14526001 0.42681336 1.8830001
-0.13629335 0.42681336 1.8830001
-0.12553334 0.42502004 1.8830001
-0.11477335 0.42322668 1.8830001
-0.10401334 0.42322668 1.8830001
-0.096840009 0.42322668 1.8830001
-0.052006669 0.42502004 1.8830001
-0.044833332 0.42681336 1.8830001
-0.035149336 0.42537871 1.8830003
-0.023313334 0.42502004 1.8830001
-0.014346667 0.42681336 1.8830001
-0.0053800005 0.42681336 1.8830001
0.0035866669 0.42681336 1.8830001
0.014346668 0.42681336 1.8830001
0.044833332 0.42681336 1.8830001
0.053800009 0.42681336 1.8830001
0.062766671 0.42681336 1.8830001
0.089666672 0.42681336 1.8830001
0.093253337 0.42681336 1.8830001
0.10760001 0.42681336 1.8830001
-0.16140002 0.43578002 1.8830001
-0.15494402 0.43326935 1.8830003
-0.14526001 0.43040004 1.8830001
-0.13629335 0.43040007 1.8830001
-0.12912001 0.43040004 1.8830001
-0.026900001 0.43040004 1.8830001
0.0071733338 0.43040004 1.8830001
0.02152 0.43040004 1.8830001
0.077113338 0.43040004 1.8830001
0.086080007 0.43040007 1.8830001
0.095046669 0.43040004 1.8830001
0.10401335 0.43040007 1.8830001
0.11477335 0.43040007 1.8830001
0.12672889 0.43279117 1.8830003
0.13539667 0.43667668 1.8830001
-0.16558444 0.4447467 1.8830003
-0.15781334 0.44116005 1.8830001
0.13988 0.44295338 1.8830001
0.14490135 0.44546404 1.8830003
0.15183556 0.4471378 1.8830001
-0.17472193 0.45550668 1.8830004
-0.16678002 0.45550674 1.8830003
0.15602002 0.45550674 1.8830003
0.16140002 0.45909336 1.8830001
-0.17216 0.46268001 1.8830001
-0.16498667 0.46447337 1.8830001
-0.15781334 0.46985337 1.8830001
0.15781334 0.46268001 1.8830001
0.16570401 0.46411473 1.8830003
-0.18292001 0.47702667 1.8830001
-0.16140002 0.47344002 1.8830001
-0.15512335 0.47613001 1.8830001
-0.14705333 0.47702667 1.8830001
-0.18292001 0.48061338 1.8830001
-0.17395335 0.48599336 1.8830001
-0.16319335 0.48599336 1.8830001
-0.15422669 0.48420009 1.8830004
-0.14705333 0.48240671 1.8830001
-0.12194667 0.59897339 1.8830001
-0.11836001 0.59897339 1.8830001
-0.12314223 0.60495114 1.8830001
-0.11477335 0.60256004 1.8830001
-0.10760001 0.60435337 1.8830001
-0.33821431 0.035174284 1.8940001
-0.33911622 0.043291431 1.8940001
-0.30664763 0.05411429 1.8940001
-0.31025523 0.06854476 1.8940001
-0.3052046 0.065658674 1.8940001
-0.29822987 0.066139683 1.8940001
-0.33550856 0.079367615 1.8940001
-0.32396421 0.076481521 1.8940001
-0.31386286 0.075759999 1.8940001
-0.30544508 0.073354922 1.8940001
-0.2994324 0.072152384 1.8940001
-0.33190095 0.084779054 1.8940001
-0.32468572 0.082975239 1.8940001
-0.31296095 0.083877146 1.8940001
-0.30484381 0.084779054 1.8940001
-0.29672667 0.085680962 1.8940001
-0.33190095 0.093798101 1.8940001
-0.31025523 0.090190478 1.8940001
-0.30484381 0.091994286 1.8940001
-0.29582477 0.090190485 1.8940001
-0.28572342 0.09235505 1.8940001
-0.27417904 0.097405717 1.8940001
-0.32107812 0.10101333 1.8940001
-0.27057144 0.10101333 1.8940001
-0.26516002 0.11544382 1.8940001
-0.25974858 0.11183619 1.8940001
-0.30304 0.12265905 1.8940001
-0.26455876 0.12746921 1.8940001
-0.26516002 0.1334819 1.8940001
-0.32829332 0.14791238 1.8940001
-0.32365501 0.15461224 1.8940002
-0.32468572 0.16234286 1.8940001
-0.24291304 0.16835557 1.8940001
-0.24459659 0.17533028 1.8940001
-0.32107812 0.18218476 1.8940001
-0.31656855 0.18489048 1.8940001
-0.24531808 0.18398857 1.8940001
-0.23810287 0.1875962 1.8940001
-0.32288194 0.19661523 1.8940001
-0.31747046 0.19120382 1.8940001
-0.2435143 0.19120382 1.8940001
-0.23690033 0.19240636 1.8940001
-0.32288194 0.20202667 1.8940001
-0.30664763 0.22186857 1.8940001
-0.22186857 0.22367238 1.8940001
-0.23088762 0.23810287 1.8940001
-0.22006477 0.23810287 1.8940001
-0.21645714 0.23810287 1.8940001
-0.23088762 0.25614095 1.8940001
-0.2236724 0.25665635 1.8940002
-0.21645714 0.25974858 1.8940001
-0.23088762 0.26516002 1.8940001
-0.22367239 0.26516002 1.8940001
-0.23088762 0.27057144 1.8940001
-0.22367239 0.27057144 1.8940001
-0.22367239 0.30664763 1.8940001
-0.30664763 0.31747046 1.8940001
-0.23359334 0.31476474 1.8940001
-0.22367239 0.31025523 1.8940001
-0.21645714 0.31205904 1.8940001
-0.30424255 0.32468572 1.8940001
-0.24171048 0.32468572 1.8940001
-0.23665981 0.32468572 1.8940001
-0.2994324 0.33370477 1.8940001
-0.2850019 0.3373124 1.8940001
-0.27778667 0.3373124 1.8940001
-0.25253335 0.33911622 1.8940001
-0.24531811 0.33550861 1.8940002
-0.23690033 0.33310351 1.8940001
-0.27237523 0.34272382 1.8940001
-0.26455876 0.34392637 1.8940001
-0.25686249 0.3456099 1.8940001
-0.23269144 0.34272382 1.8940001
-0.15512761 0.42750287 1.8940001
-0.12987429 0.42569906 1.8940001
-0.091994286 0.42569906 1.8940001
-0.082975239 0.42569906 1.8940001
-0.050506666 0.42569906 1.8940001
-0.043291431 0.42569906 1.8940001
-0.039683808 0.42569906 1.8940001
-0.026155237 0.42750284 1.8940001
-0.016234286 0.42569906 1.8940001
-0.0072152382 0.42569906 1.8940001
0.0036076191 0.42930666 1.8940001
0.013528572 0.42750287 1.8940001
0.023449525 0.42930666 1.8940001
0.036076188 0.42930669 1.8940001
0.05411429 0.42569908 1.8940001
0.064937145 0.42750287 1.8940001
0.073956192 0.42930666 1.8940001
0.084779054 0.42930666 1.8940001
0.093798101 0.42690158 1.8940001
0.10462096 0.42810413 1.8940001
0.11544381 0.42930669 1.8940001
0.12446286 0.42930666 1.8940001
-0.16414666 0.4347181 1.8940001
-0.15873523 0.43291429 1.8940001
0.13588698 0.43411684 1.8940001
0.14069715 0.43652192 1.8940001
-0.18295783 0.44425252 1.8940002
-0.17496954 0.44373715 1.8940001
-0.16835557 0.4413321 1.8940001
0.14670984 0.4413321 1.8940001
0.15392509 0.4449397 1.8940001
-0.18443953 0.45410901 1.8940001
-0.17496952 0.45095238 1.8940001
0.15873523 0.45095238 1.8940001
0.16595048 0.45636386 1.8940001
0.17316572 0.45816764 1.8940001
-0.18326704 0.46321827 1.8940001
-0.17557079 0.46778795 1.8940001
-0.16955811 0.46899047 1.8940001
0.16775429 0.46177524 1.8940001
0.17316572 0.46357906 1.8940001
-0.18308666 0.47800952 1.8940001
-0.17460877 0.47692725 1.8940001
-0.16640142 0.47620574 1.8940001
-0.18398857 0.48342097 1.8940001
-0.17496952 0.48342097 1.8940001
-0.16685238 0.48432288 1.8940001
-0.15873523 0.48342097 1.8940001
-0.12265905 0.59886479 1.8940001
-0.11724762 0.59886479 1.8940001
-0.14069715 0.60968763 1.8940001
-0.13492493 0.60680151 1.8940001
-0.12843125 0.60535848 1.8940001
-0.11364 0.60247236 1.8940001
-0.14069715 0.61329526 1.8940001
-0.13528571 0.61329526 1.8940001
-0.12987429 0.61329526 1.8940001
-0.33365336 0.016320001 1.904
-0.34090665 0.029013334 1.904
-0.33365333 0.026422856 1.9040003
-0.33320001 0.03672 1.9040002
-0.32458669 0.036266666 1.9040002
-0.31655619 0.036784761 1.9040003
-0.30645335 0.039893333 1.904
-0.34090665 0.047146667 1.904
-0.33365333 0.045333333 1.9040002
-0.32458669 0.045333333 1.904
-0.31552002 0.045333337 1.9040002
-0.30536532 0.045696001 1.9040002
-0.29738668 0.047146667 1.904
-0.34090668 0.054400004 1.904
-0.33365336 0.054399997 1.9040002
-0.32458669 0.054399997 1.9040002
-0.31551999 0.054399997 1.9040002
-0.30282667 0.054399997 1.9040002
-0.29421332 0.054853335 1.9040002
-0.34090665 0.068906672 1.904
-0.33319998 0.065279998 1.9040002
-0.32458669 0.065280005 1.9040002
-0.31597334 0.064826667 1.9040002
-0.30282664 0.061653331 1.904
-0.29330668 0.065279998 1.9040002
-0.28469333 0.065279998 1.904
-0.34090665 0.072533339 1.904
-0.33425781 0.074951112 1.9040002
-0.32640001 0.076160006 1.904
-0.31552002 0.076160006 1.9040003
-0.30391467 0.078335993 1.9040002
-0.29376 0.076159999 1.9040002
-0.28469333 0.077973329 1.904
-0.29285336 0.084320001 1.904
-0.28469333 0.08522667 1.904
-0.27925333 0.08704 1.904
-0.28288001 0.090666667 1.904
-0.27683556 0.094293341 1.904
-0.26837331 0.097920001 1.904
-0.32519114 0.18737778 1.904
-0.24298666 0.18314667 1.904
-0.23936 0.18496001 1.904
-0.32458669 0.19221334 1.904
-0.22122668 0.25749335 1.904
-0.2176 0.25749335 1.904
-0.21578667 0.30464 1.904
-0.23210667 0.31914666 1.904
-0.22485332 0.31733334 1.9040002
-0.21397334 0.31189334 1.904
-0.30826667 0.32640001 1.904
-0.23331557 0.32519114 1.904
-0.2255787 0.32422403 1.9040002
-0.31189334 0.33184001 1.904
-0.30681601 0.33437866 1.9040002
-0.23301333 0.33456004 1.904
-0.22666667 0.33365333 1.9040002
-0.29013336 0.34634668 1.904
-0.28469333 0.34634668 1.904
-0.27653334 0.34725335 1.904
-0.26837331 0.34816 1.904
-0.25144887 0.34695113 1.904
-0.24443732 0.34525868 1.9040002
-0.23625143 0.34453332 1.9040003
-0.22848001 0.34271997 1.904
-0.29013336 0.35178667 1.904
-0.28408891 0.35299557 1.904
-0.27562669 0.35541335 1.9040002
-0.26519999 0.35586664 1.9040002
-0.25432003 0.35495999 1.9040002
-0.2448 0.35178667 1.904
-0.23573335 0.35269332 1.904
-0.27490136 0.36411735 1.9040002
-0.26474667 0.3626667 1.904
-0.16320001 0.42794669 1.904
-0.15775999 0.42794669 1.904
-0.14506668 0.42794669 1.904
-0.13600001 0.42794669 1.904
-0.11514667 0.42341334 1.904
-0.08704 0.42794669 1.904
-0.079786666 0.42794669 1.904
-0.01088 0.42794669 1.904
-0.0036266667 0.42794669 1.904
0.0036266667 0.42794669 1.904
0.018133335 0.42794669 1.904
0.022968888 0.42673779 1.904
0.039893333 0.42794669 1.904
0.045333333 0.42794669 1.904
0.054400004 0.42432004 1.904
0.065280005 0.42673779 1.904
0.076160006 0.42794669 1.904
0.08522667 0.42794669 1.904
0.097920001 0.42794669 1.904
0.10336 0.42794669 1.904
0.11605334 0.42794669 1.904
0.12330666 0.42794669 1.904
-0.18450667 0.43565333 1.9040002
-0.17408 0.43520004 1.9040002
-0.16561779 0.43278226 1.904
0.029013334 0.43157333 1.904
0.079786666 0.43157333 1.904
0.13237333 0.43157333 1.904
0.14506668 0.43761778 1.904
-0.19221334 0.44608003 1.904
-0.18858667 0.44426668 1.904
0.15739733 0.4446294 1.9040002
0.16320001 0.44970667 1.904
-0.19342224 0.45575112 1.904
0.16501334 0.45333332 1.904
0.17589334 0.45696002 1.904
-0.19480382 0.46473145 1.9040003
-0.18858667 0.46784002 1.904
0.17770667 0.46058667 1.904
-0.19312002 0.47418666 1.904
-0.18547812 0.47405714 1.9040003
-0.17770667 0.47509333 1.904
-0.19221334 0.48234668 1.904
-0.11424001 0.5748266 1.904
-0.1088 0.57663995 1.904
-0.14506668 0.58752 1.904
-0.13056 0.58752 1.904
-0.11242667 0.58752 1.904
-0.10698666 0.58752 1.904
-0.14385778 0.59598225 1.9040002
-0.13418666 0.59477329 1.9040002
-0.12512001 0.59477335 1.9040002
-0.11605333 0.59477329 1.9040002
-0.10759111 0.59356451 1.904
-0.14506666 0.60565335 1.9040002
-0.13509333 0.60293335 1.904
-0.12693334 0.60202664 1.904
-0.11242667 0.60202664 1.904
-0.1088 0.60383999 1.904
-0.14506668 0.61290663 1.904
-0.33193335 0.018238096 1.9150001
-0.32554999 0.017326191 1.9150001
-0.3428762 0.025533335 1.9150001
-0.33558095 0.021885715 1.9150001
-0.3246381 0.025533339 1.9150001
-0.31369525 0.029180955 1.9150002
-0.30275241 0.029180953 1.9150001
-0.31187144 0.034652382 1.9150001
-0.30457622 0.034652382 1.9150001
-0.29728097 0.034652382 1.9150001
-0.30275241 0.041947618 1.9150001
-0.29545718 0.043771431 1.9150002
-0.2881619 0.047419049 1.9150001
-0.29180953 0.051066671 1.9150001
-0.28633809 0.054714289 1.9150002
-0.3428762 0.063833334 1.9150001
-0.33922857 0.065657146 1.9150001
-0.28451428 0.066265084 1.9150002
-0.27721906 0.067480952 1.9150001
-0.28360239 0.073864289 1.9150001
-0.27721906 0.0766 1.9150001
-0.28086665 0.082071431 1.9150001
-0.27721906 0.083895236 1.9150002
-0.27600318 0.09362223 1.9150002
-0.21703334 0.3064 1.9150001
-0.29180953 0.3574667 1.9150001
-0.2881619 0.3574667 1.9150001
-0.24439049 0.3574667 1.9150002
-0.29180953 0.36111429 1.9150001
-0.28555647 0.36528307 1.9150002
-0.26627621 0.36840957 1.9150002
-0.25533336 0.36536989 1.9150002
-0.24512 0.36257336 1.9150002
-0.28269047 0.37205714 1.9150001
-0.26627621 0.37205714 1.9150002
-0.25715715 0.37205714 1.9150001
-0.14408097 0.41947621 1.9150001
-0.13860953 0.41947621 1.9150001
-0.16171113 0.42555556 1.9150002
-0.15502381 0.42494762 1.9150001
-0.14590478 0.42494762 1.9150002
-0.13569143 0.42531237 1.9150002
-0.12584285 0.42677143 1.9150001
-0.10760476 0.42677143 1.9150001
-0.036476191 0.42677143 1.9150001
-0.0072952383 0.42677143 1.9150001
0.0036476194 0.42677146 1.9150002
0.014590478 0.42677146 1.9150002
0.027357144 0.42677143 1.9150001
0.032828573 0.42677143 1.9150001
0.043771431 0.42677146 1.9150002
0.067480952 0.42677143 1.9150001
0.072952382 0.42677143 1.9150001
0.087542862 0.42677143 1.9150001
0.094838098 0.42677146 1.9150002
0.10578096 0.42677146 1.9150002
-0.20061906 0.43771428 1.9150001
-0.19514762 0.4358905 1.9150001
-0.18694049 0.43133098 1.9150001
-0.17508572 0.43041909 1.9150002
-0.16779049 0.43041909 1.9150001
0.029180953 0.43041909 1.9150001
0.034652382 0.43041909 1.9150001
0.12766667 0.43041909 1.9150001
0.13860953 0.43406668 1.9150001
0.14590478 0.4364984 1.9150002
-0.2020781 0.44573903 1.9150002
-0.19605953 0.44409764 1.9150001
0.15502381 0.44136193 1.9150001
0.16414288 0.4462254 1.9150002
-0.20244287 0.45595241 1.9150002
-0.19697143 0.45412859 1.9150001
0.16779049 0.45230478 1.9150001
0.1714381 0.45412859 1.9150001
-0.20244287 0.46507144 1.9150001
-0.2042667 0.47523266 1.9150002
-0.1349619 0.56902862 1.9150002
-0.12474857 0.56684011 1.9150002
-0.14408097 0.57814765 1.9150001
-0.13496192 0.57632381 1.9150001
-0.12454014 0.57736605 1.9150002
-0.11490001 0.57541192 1.9150001
-0.10942857 0.57632381 1.9150001
-0.14590478 0.5854429 1.9150002
-0.1349619 0.5854429 1.9150002
-0.12401905 0.5854429 1.9150002
-0.11490001 0.5854429 1.9150001
-0.10942857 0.5854429 1.9150001
-0.14833651 0.59577781 1.9150002
-0.13678572 0.59091431 1.9150001
-0.12401905 0.59091437 1.9150002
-0.11672381 0.59091431 1.9150001
-0.10760476 0.59820956 1.9150001
-0.10578096 0.60185713 1.9150001
-0.32450002 0.003666667 1.9250001
-0.32450002 0.012833335 1.9250001
-0.31716669 0.018333333 1.9250001
-0.30800003 0.018333333 1.9250001
-0.31533337 0.023833334 1.9250001
-0.30433336 0.025208334 1.9250001
-0.29333332 0.034833334 1.9250001
-0.29333332 0.040333334 1.9250001
-0.28844446 0.044 1.9250001
-0.28233334 0.056833334 1.9250001
-0.28233334 0.062333338 1.9250001
-0.27622223 0.066000007 1.9250001
-0.27866668 0.07333333 1.9250001
-0.27500004 0.08433333 1.9250001
-0.27500001 0.091666669 1.9250001
-0.26583332 0.099000007 1.9250001
-0.14483333 0.41800001 1.9250001
-0.13933334 0.41800001 1.9250001
-0.19066668 0.42900002 1.9250001
-0.18516667 0.42716664 1.9250001
-0.176 0.42753336 1.9250001
-0.16683334 0.42716667 1.9250001
-0.15400001 0.42166668 1.9250001
-0.13322224 0.42288893 1.9250001
-0.12650001 0.42533332 1.9250001
-0.10266667 0.42900002 1.9250001
-0.033 0.42900002 1.9250001
-0.014666667 0.42900002 1.9250001
-0.0036666668 0.42900002 1.9250001
0.036666665 0.42900002 1.9250001
0.077000007 0.42900002 1.9250001
0.082500003 0.42900002 1.9250001
0.1155 0.42900002 1.9250001
0.12466668 0.42900002 1.9250001
-0.2035 0.43633336 1.9250001
-0.19616666 0.43266669 1.9250001
0.13566668 0.43266672 1.9250001
0.14483333 0.43450004 1.9250001
0.15216668 0.43633336 1.9250001
-0.20716667 0.4436667 1.9250001
0.15583333 0.44000003 1.9250001
0.16573334 0.44440004 1.9250001
0.17233334 0.44733334 1.9250001
-0.20900002 0.4546667 1.9250001
0.176 0.45558333 1.9250001
-0.21266666 0.46566668 1.9250001
-0.20900002 0.46566671 1.9250001
-0.21266666 0.47483337 1.9250001
-0.20900001 0.47300002 1.9250001
-0.12222223 0.57444447 1.9250001
-0.11733334 0.57200003 1.9250001
-0.32082286 0.0055314288 1.9360001
-0.31713524 0.0055314288 1.9360001
-0.32082286 0.012906667 1.9360001
-0.31529143 0.014750477 1.9360001
-0.30607238 0.016594285 1.9360001
-0.29722211 0.026550859 1.9360001
-0.29132193 0.035032384 1.9360001
-0.28640512 0.044251435 1.9360002
-0.28210285 0.055314288 1.9360001
-0.27534226 0.073752388 1.9360002
-0.27288383 0.084815249 1.9360002
-0.27288383 0.094034292 1.9360001
-0.14197335 0.41670096 1.9360001
-0.19360001 0.42776385 1.9360001
-0.18438098 0.4240762 1.9360002
-0.17577653 0.42530543 1.9360002
-0.16686477 0.4249981 1.9360001
-0.15303621 0.42223239 1.9360001
-0.13459811 0.42038858 1.9360001
-0.12537906 0.42530543 1.9360002
-0.016594287 0.42776385 1.9360001
0.0036876192 0.42776385 1.9360001
0.023969525 0.42776385 1.9360001
0.059001908 0.42776385 1.9360001
0.064533338 0.42776385 1.9360001
0.084815241 0.42776385 1.9360001
0.094034292 0.42776385 1.9360001
-0.21019429 0.43882671 1.9360001
-0.20466286 0.43513906 1.9360001
-0.19728763 0.43145144 1.9360001
-0.095878109 0.43145144 1.9360002
-0.088502862 0.43145144 1.9360001
-0.077440001 0.43513906 1.9360001
-0.064533338 0.43513906 1.9360001
-0.044251435 0.43145144 1.9360002
-0.029500954 0.43145144 1.9360001
0.13459811 0.43145144 1.9360001
0.14381714 0.43329525 1.9360001
0.15488002 0.43698287 1.9360001
-0.21265273 0.44620192 1.9360002
0.16778667 0.4425143 1.9360001
0.17516191 0.44804573 1.9360001
-0.21511112 0.45603558 1.9360002
0.17700572 0.45357716 1.9360001
0.18253715 0.45726478 1.9360001
-0.21572573 0.46556193 1.9360001
0.18438096 0.4609524 1.9360001
-0.21756953 0.47385907 1.9360001
-0.32264572 0 1.9470001
-0.31416902 0.0031787758 1.9470003
-0.30657524 0.0061809528 1.9470003
-0.31337431 0.011125715 1.9470001
-0.30336115 0.014092572 1.9470001
-0.29668573 0.018542858 1.9470001
-0.29668573 0.022251431 1.9470001
-0.28926858 0.03523143 1.9470001
-0.28185144 0.05377429 1.9470001
-0.27443433 0.076025724 1.9470001
-0.27072573 0.081588574 1.9470001
-0.27072573 0.096422866 1.9470001
-0.15205143 0.4190686 1.9470001
-0.14834286 0.4190686 1.9470001
-0.19470002 0.42648575 1.9470001
-0.18542859 0.42277718 1.9470003
-0.17615716 0.42277718 1.9470001
-0.16503143 0.42277718 1.9470001
-0.15761431 0.42277718 1.9470001
-0.12980001 0.42277718 1.9470001
0.0037085717 0.42648575 1.9470001
-0.21138859 0.43761146 1.9470001
-0.20397145 0.43204859 1.9470001
-0.11867429 0.43019432 1.9470001
-0.083442859 0.43390286 1.9470001
-0.07788001 0.43390286 1.9470001
-0.05192 0.43390286 1.9470001
-0.024105716 0.43390286 1.9470001
-0.011125715 0.43019432 1.9470001
-0.0055628577 0.43019432 1.9470001
0.0037085717 0.43019432 1.9470001
0.011125715 0.43019432 1.9470001
0.029668573 0.43019432 1.9470001
0.03523143 0.43019432 1.9470001
0.044502866 0.43019432 1.9470003
0.05377429 0.43019432 1.9470001
0.074171439 0.43019432 1.9470003
0.085297152 0.43019432 1.9470001
0.10384002 0.43019432 1.9470003
0.11496572 0.43019432 1.9470003
0.12423715 0.43019432 1.9470001
0.14463429 0.43390286 1.9470001
0.15761431 0.43761146 1.9470001
-0.2225143 0.4468829 1.9470001
-0.21695146 0.44502863 1.9470001
0.16503143 0.44132003 1.9470001
0.17615716 0.4468829 1.9470001
-0.22251432 0.45615432 1.9470003
-0.21880573 0.45430005 1.9470001
0.18172002 0.45430005 1.9470001
-0.2225143 0.46728003 1.9470001
-0.21880573 0.46357146 1.9470001
-0.2225143 0.47284287 1.9470001
-0.30582097 0.0027971428 1.9580001
-0.30209145 0.011188571 1.9580001
-0.29711875 0.014918095 1.9580001
-0.29463241 0.026106669 1.9580001
-0.28717333 0.037295237 1.9580001
-0.28593016 0.044754289 1.9580001
-0.27971429 0.059672382 1.9580001
-0.27784953 0.065266669 1.9580001
-0.27225524 0.070860952 1.9580001
-0.27225524 0.08764381 1.9580001
-0.27225524 0.093238093 1.9580001
-0.14731619 0.41770667 1.9580001
-0.20263748 0.42765209 1.9580001
-0.19393525 0.42392254 1.9580001
-0.18461142 0.42143622 1.9580001
-0.17528762 0.42330098 1.9580001
-0.16036952 0.42143622 1.9580001
-0.15663999 0.42143622 1.9580001
-0.13612762 0.42143622 1.9580001
-0.12307428 0.42889526 1.9580001
-0.0037295239 0.42889526 1.9580001
0.0037295239 0.42889526 1.9580001
0.013053333 0.42889526 1.9580001
0.026106667 0.42889529 1.9580001
0.035430476 0.42889526 1.9580001
0.044754289 0.42889529 1.9580001
0.059672382 0.42889526 1.9580001
0.065266669 0.42889526 1.9580001
0.074590474 0.42889529 1.9580001
0.085779056 0.42889529 1.9580001
0.095102862 0.42889526 1.9580001
0.10442667 0.42889529 1.9580001
0.11748 0.42889526 1.9580001
0.12307428 0.42889526 1.9580001
-0.21382603 0.43511114 1.9580001
-0.20885333 0.43262476 1.9580001
-0.11188572 0.43262476 1.9580001
-0.10442667 0.43262476 1.9580001
-0.095102862 0.43262476 1.9580001
-0.089508571 0.43262476 1.9580001
-0.072725713 0.43635431 1.9580001
-0.065266669 0.43635431 1.9580001
-0.05594286 0.43511114 1.9580001
-0.044754289 0.43262476 1.9580001
0.016782857 0.43262476 1.9580001
0.13426286 0.43262476 1.9580001
0.14545143 0.43448955 1.9580001
0.15477523 0.43635431 1.9580001
0.16223428 0.43635431 1.9580001
-0.23309524 0.44754288 1.9580001
-0.22377144 0.44319177 1.9580001
-0.21631238 0.44008383 1.9580001
0.16596381 0.44008383 1.9580001
0.17404446 0.44381338 1.9580001
-0.23272228 0.45425603 1.9580001
-0.22750096 0.45500192 1.9580001
0.18461142 0.45500192 1.9580001
0.19020571 0.45873144 1.9580001
-0.23123048 0.46246096 1.9580001
-0.2256362 0.46432573 1.9580001
0.19020571 0.46246096 1.9580001
-0.29628763 0.015001905 1.9690001
-0.29253715 0.024378097 1.9690001
-0.29253715 0.03000381 1.9690001
-0.28878668 0.033754285 1.9690001
-0.2812857 0.056257147 1.9690001
-0.27378479 0.076884761 1.9690001
-0.27003428 0.082510479 1.9690001
-0.27003428 0.097512387 1.9690001
-0.20440096 0.42567909 1.9690001
-0.19690001 0.42380384 1.9690001
-0.17439716 0.42380384 1.9690001
-0.16689619 0.42380384 1.9690001
-0.15376952 0.42005336 1.9690001
-0.1275162 0.42755431 1.9690001
0.013126668 0.42755431 1.9690001
0.03000381 0.42755431 1.9690001
0.063758098 0.42755431 1.9690002
0.075009525 0.42755431 1.9690002
0.084385723 0.42755431 1.9690001
0.093761906 0.42755431 1.9690002
0.10501333 0.42755431 1.9690002
0.12376572 0.42755431 1.9690001
-0.22315335 0.43880573 1.9690001
-0.21377715 0.43255496 1.9690002
-0.10126286 0.43130478 1.9690001
-0.084385723 0.43505526 1.9690001
-0.075009525 0.43505526 1.9690002
-0.063758098 0.43505526 1.9690002
-0.056257147 0.43505526 1.9690001
-0.033754285 0.43505526 1.9690001
-0.011251429 0.43130478 1.9690001
-0.0075009526 0.43130478 1.9690001
0.018752381 0.43130478 1.9690001
0.054381907 0.43130478 1.9690001
0.11251429 0.43130478 1.9690001
0.1275162 0.43130478 1.9690001
0.13501714 0.43130478 1.9690002
0.14501843 0.43255496 1.9690002
0.15189429 0.43505526 1.9690001
0.16752128 0.4363054 1.9690002
0.17252192 0.43880573 1.9690001
-0.2337797 0.44505653 1.9690002
-0.22877906 0.4425562 1.9690001
0.17627239 0.44443142 1.9690001
0.18002287 0.44630668 1.9690001
0.18627366 0.45380765 1.9690002
0.19314954 0.45755813 1.9690001
-0.22877906 0.46880955 1.9690001
0.19502477 0.4613086 1.9690001
-0.22877906 0.47256002 1.9690001
-0.30360001 0.005657143 1.9800001
-0.2954286 0.015085716 1.9800003
-0.2904 0.026400002 1.9800001
-0.2866286 0.037714288 1.9800001
-0.2866286 0.043371432 1.9800001
-0.28285718 0.052800003 1.9800001
-0.27908573 0.064114295 1.9800001
-0.27154288 0.086742863 1.9800001
-0.27154288 0.094285719 1.9800001
-0.16782859 0.4186286 1.9800001
-0.15462859 0.4186286 1.9800001
-0.21245717 0.42868575 1.9800003
-0.20554286 0.42428574 1.9800001
-0.1961143 0.42240003 1.9800001
-0.18480001 0.42240006 1.9800003
-0.17537144 0.42240003 1.9800001
-0.16594288 0.42240006 1.9800003
-0.1584 0.42240003 1.9800001
0.0075428574 0.42994288 1.9800001
0.018857144 0.42994288 1.9800001
0.024514288 0.42994288 1.9800001
0.035828575 0.42994288 1.9800001
0.045257147 0.42994291 1.9800003
0.094285727 0.42617148 1.9800003
0.10560001 0.42617148 1.9800003
0.11502858 0.42994288 1.9800001
0.12445715 0.42994288 1.9800001
0.13954286 0.42994288 1.9800001
0.1433143 0.42994288 1.9800001
-0.2225143 0.43748575 1.9800001
-0.21874288 0.4337143 1.9800001
-0.12068572 0.4337143 1.9800001
-0.11502858 0.4337143 1.9800001
-0.10748573 0.4337143 1.9800001
-0.094285727 0.43371433 1.9800003
-0.084857151 0.4337143 1.9800001
-0.0792 0.4337143 1.9800001
-0.064114295 0.4337143 1.9800001
-0.03394286 0.43748575 1.9800001
-0.022628574 0.43748575 1.9800001
0.15557143 0.43465716 1.9800001
0.16217144 0.43748575 1.9800001
0.17348573 0.43748575 1.9800001
-0.23005715 0.44125718 1.9800001
0.17725715 0.44125718 1.9800001
0.18480001 0.4450286 1.9800003
0.19422859 0.44691432 1.9800001
0.18857144 0.45257145 1.9800001
0.19422859 0.45445716 1.9800001
0.19737145 0.82342863 1.9800003
0.20617144 0.82720006 1.9800003
0.21308573 0.82971436 1.9800001
0.19422859 0.83725721 1.9800001
0.20742859 0.83348572 1.9800001
0.21402858 0.83442855 1.9800001
0.2225143 0.83348572 1.9800001
0.19422859 0.84102863 1.9800001
0.21120001 0.84102863 1.9800001
-0.29216 0.01897143 1.9920001
-0.29216 0.022765715 1.9920001
-0.29216 0.030354287 1.9920001
-0.28836575 0.034148574 1.9920001
-0.27318859 0.091062859 1.9920001
-0.17264001 0.41737145 1.9920001
-0.16694857 0.41737145 1.9920001
-0.22196573 0.4287543 1.9920001
-0.21500954 0.4262248 1.9920001
-0.20868573 0.42496002 1.9920001
-0.19730286 0.42496002 1.9920001
-0.18592 0.42116576 1.9920001
-0.17643431 0.42116573 1.9920001
-0.16315429 0.42116573 1.9920001
-0.15556572 0.42116573 1.9920001
-0.14797714 0.42116573 1.9920001
-0.1328 0.4287543 1.9920001
0.024662858 0.4287543 1.9920001
0.034148574 0.4287543 1.9920001
0.043634288 0.4287543 1.9920001
0.064502865 0.4287543 1.9920001
0.075885728 0.4287543 1.9920001
0.085371435 0.4287543 1.9920001
0.094857141 0.42496002 1.9920001
0.10434286 0.42496002 1.9920001
0.11382857 0.42748958 1.9920001
0.12331429 0.4287543 1.9920001
0.14418288 0.4287543 1.9920001
0.15366858 0.4287543 1.9920001
-0.22386287 0.43444574 1.9920001
-0.12331429 0.43254858 1.9920001
-0.11382858 0.43254858 1.9920001
-0.10244572 0.43254858 1.9920001
-0.09296 0.43254858 1.9920001
-0.085371435 0.43254858 1.9920001
-0.075885728 0.43507814 1.9920001
-0.041737143 0.4363429 1.9920001
-0.015177144 0.4363429 1.9920001
-0.0056914287 0.43254858 1.9920001
0.001897143 0.43254858 1.9920001
0.055017143 0.43254858 1.9920001
0.13469714 0.43254858 1.9920001
0.14797714 0.43254858 1.9920001
0.15556572 0.43254861 1.9920001
0.16505143 0.4363429 1.9920001
-0.23398095 0.44140193 1.9920001
-0.22765715 0.44013715 1.9920001
-0.026560001 0.44013715 1.9920001
0.17833145 0.44013715 1.9920001
0.18686858 0.44108573 1.9920001
0.19350858 0.4420343 1.9920001
0.16568381 0.80691814 1.9920001
0.17074287 0.80628574 1.9920001
0.16315429 0.81387436 1.9920001
0.14797714 0.82525718 1.9920001
0.15366858 0.82525712 1.9920001
0.16315429 0.82525718 1.9920001
0.18667887 0.82487774 1.9920002
0.19730286 0.82715428 1.9920001
0.14797714 0.83284575 1.9920001
0.15480687 0.8324663 1.9920002
0.16441905 0.8322134 1.9920001
0.18781716 0.8347429 1.9920001
0.19540572 0.83474296 1.9920003
0.20299429 0.83664006 1.9920001
0.18781716 0.84422863 1.9920001
0.20489144 0.84422863 1.9920003
0.21627429 0.84422863 1.9920001
0.22196573 0.84422863 1.9920001
-0.30521905 0.0038152381 2.003
-0.29568094 0.013353334 2.003
-0.28995809 0.019076191 2.003
-0.28995809 0.024799047 2.003
-0.28995809 0.030521905 2.003
-0.28614286 0.047690473 2.003
-0.28232762 0.06104381 2.003
-0.27469715 0.080119997 2.003
-0.27088189 0.097288571 2.003
-0.19076191 0.41967618 2.003
-0.18503904 0.41967618 2.003
-0.17550096 0.41713271 2.003
-0.16214761 0.41967618 2.003
-0.15642476 0.41967618 2.003
-0.22319143 0.42730665 2.003
-0.20793048 0.42349145 2.003
-0.19648476 0.42349145 2.003
0.025434922 0.42603493 2.003
0.031793654 0.42603493 2.003
0.076304764 0.42730665 2.003
0.083935246 0.42730665 2.003
0.095380954 0.42730665 2.003
0.11445715 0.42539907 2.003
0.12399524 0.42730665 2.003
0.13544096 0.42730665 2.003
0.14497906 0.42730665 2.003
0.15451714 0.42730665 2.003
0.16023999 0.42730665 2.003
-0.23400128 0.43748066 2.003
-0.22891429 0.43302953 2.003
-0.11445715 0.43493712 2.003
-0.10682666 0.43493712 2.003
-0.095380954 0.43239364 2.003
-0.083935231 0.43112192 2.003
-0.074397147 0.43493712 2.003
-0.068674289 0.43875238 2.003
-0.034337144 0.43875238 2.003
-0.022891428 0.43875238 2.003
-0.019076191 0.43875238 2.003
0.0038152381 0.43112192 2.003
0.015260953 0.43112192 2.003
0.049598094 0.43112192 2.003
0.055320952 0.43112192 2.003
0.1297181 0.43112192 2.003
0.13544096 0.43112192 2.003
0.16481827 0.432648 2.003
0.17473792 0.4372263 2.003
0.19839238 0.44447523 2.003
0.20220762 0.44447523 2.003
0.20220762 0.45019808 2.003
-0.14116381 0.75160187 2.003
-0.13734858 0.75160187 2.003
0.16405523 0.8088305 2.003
0.16278349 0.81518924 2.003
0.17550096 0.81646097 2.003
0.14307143 0.82790667 2.003
0.15451714 0.82409143 2.003
0.16405523 0.82409149 2.0030003
0.17550094 0.82409143 2.003
0.18440318 0.82281971 2.003
0.13734858 0.8317219 2.003
0.14402524 0.83458334 2.003
0.16405523 0.83553708 2.003
0.17550094 0.83553708 2.003
0.18408523 0.83649093 2.003
0.19076191 0.83935237 2.003
0.14879429 0.84507525 2.003
0.15451714 0.84507525 2.003
0.16405524 0.84507525 2.0030003
0.17550096 0.84507531 2.0030003
0.18313143 0.84507525 2.003
0.14879429 0.85079807 2.003
0.15451714 0.85079807 2.003
0.16405523 0.85079807 2.003
0.17550096 0.85079807 2.003
0.18313143 0.85079807 2.003
-0.29361433 0.013433333 2.0150001
-0.28785717 0.026866667 2.0150001
-0.28785717 0.034542859 2.0150001
-0.28785717 0.04221905 2.0150001
-0.28401905 0.055652384 2.0150001
-0.18422858 0.41835243 2.0150001
-0.16695715 0.4183524 2.0150001
-0.23028573 0.42986667 2.0150001
-0.22260952 0.42602858 2.0150001
-0.21685238 0.42602858 2.0150001
-0.20341906 0.42602858 2.0150001
0.0047976188 0.42890716 2.0150001
0.015352381 0.42794761 2.0150003
0.024947619 0.42410952 2.0150001
0.034542859 0.42506903 2.0150001
0.046057146 0.42986667 2.0150001
0.055652384 0.42986667 2.0150001
0.065247625 0.42986667 2.0150001
0.074842863 0.42794764 2.0150001
0.082519054 0.42602858 2.0150001
0.095952384 0.42602858 2.0150001
0.10554762 0.42602858 2.0150001
0.11770159 0.42346987 2.0150001
0.1247381 0.42410955 2.0150001
0.13305397 0.42538887 2.0150003
0.14584762 0.42410955 2.0150003
0.15480319 0.42474923 2.0150001
0.16580573 0.42756382 2.0150001
0.17463334 0.42986667 2.0150001
-0.23604287 0.43562382 2.0150001
-0.12281905 0.43370476 2.0150001
-0.11514287 0.43370479 2.0150001
-0.10362858 0.43370476 2.0150001
-0.099790484 0.43370476 2.0150001
-0.0844381 0.43370476 2.0150001
-0.076761909 0.43370476 2.0150001
-0.034542859 0.43754286 2.0150001
-0.023028571 0.43754286 2.0150001
-0.013433333 0.43754286 2.0150001
-0.0038380953 0.43370476 2.0150001
0.17463334 0.43370476 2.0150001
0.18326905 0.43658331 2.0150001
-0.034542859 0.44138095 2.0150001
-0.026866667 0.44138095 2.0150001
0.18614763 0.44138095 2.0150001
0.19574288 0.44138095 2.0150001
0.13433334 0.79832387 2.0150001
0.13433333 0.80600005 2.0150001
0.14200953 0.80791909 2.0150001
0.1612 0.80983812 2.0150001
-0.3262381 0.81367624 2.0150001
0.12665714 0.81367624 2.0150001
0.13433334 0.81367624 2.0150001
0.14200953 0.81367624 2.0150001
0.1612 0.81367624 2.0150001
0.12281905 0.82902861 2.0150001
0.13433334 0.82710958 2.0150003
0.1247381 0.83670479 2.0150001
0.13433333 0.83478576 2.0150001
0.1247381 0.84438097 2.0150001
0.13433333 0.84438097 2.0150001
0.14296906 0.84534049 2.0150001
0.14584763 0.85205716 2.0150001
-0.32045907 -0.0038609528 2.0270002
-0.31659812 -0.0038609528 2.0270002
-0.30578747 0.0030887623 2.0270002
-0.29729334 0.0077219056 2.0270002
-0.29343241 0.011582858 2.0270002
-0.28957143 0.017374288 2.0270002
-0.28957143 0.023165716 2.0270002
-0.28957143 0.034748577 2.0270002
-0.28571051 0.044400956 2.0270002
-0.28571051 0.050192382 2.0270002
-0.28184956 0.065636203 2.0270002
-0.27798861 0.077219054 2.0270002
-0.27412763 0.088801913 2.0270002
-0.27412763 0.092662863 2.0270002
-0.27412763 0.10424572 2.0270002
0.11582858 0.41698289 2.0270002
-0.23165716 0.42856577 2.0270002
-0.22393525 0.42663527 2.0270002
-0.21428287 0.42470479 2.0270002
-0.20463049 0.42470479 2.0270002
-0.19562159 0.42213082 2.0270002
-0.16216002 0.42084384 2.0270002
-0.15636858 0.42277431 2.0270002
0.0038609528 0.42663527 2.0270002
0.015443812 0.42470479 2.0270002
0.023165716 0.42470479 2.0270002
0.038609527 0.42856577 2.0270002
0.044400956 0.42856577 2.0270002
0.054053336 0.4285658 2.0270002
0.061775245 0.42856577 2.0270002
0.073358104 0.42856577 2.0270002
