# .PCD v0.7 - Point Cloud Data file format
VERSION 0.7
FIELDS x y z
SIZE 4 4 4
TYPE F F F
COUNT 1 1 1
WIDTH 1489
HEIGHT 1
VIEWPOINT 0 0 0 1 0 0 0
POINTS 1489
DATA ascii
-0.29376 0.46421337 1.904
-0.28469333 0.46058667 1.904
0.077973336 0.46421334 1.904
0.08522667 0.46058667 1.904
0.090666667 0.46058667 1.904
0.077973329 0.47509336 1.9040002
0.083413333 0.47509333 1.904
-0.25568002 0.4896 1.904
0.079786666 0.48234668 1.904
0.16779049 0.0054714289 1.9150001
0.17508572 0.0036476192 1.9150001
0.18675809 0.0058361911 1.9150002
0.19332381 0.0072952383 1.9150001
0.16596667 0.010942858 1.9150001
0.17581525 0.013131429 1.9150002
0.18238096 0.010942858 1.9150001
0.20791429 0.17873335 1.9150001
0.21520953 0.17447779 1.9150002
0.22250476 0.17508572 1.9150001
0.20645526 0.18602858 1.9150002
0.20609048 0.19514762 1.9150001
0.20609049 0.20426667 1.9150002
0.21338573 0.20791429 1.9150001
0.20791429 0.21703334 1.9150001
0.21302097 0.21448003 1.9150002
0.19514762 0.2298 1.9150001
0.20517857 0.22524047 1.9150001
0.20061906 0.23344763 1.9150001
0.20061906 0.26627621 1.9150001
0.20548254 0.28573018 1.9150002
0.20426668 0.3064 1.9150001
0.20426668 0.31004763 1.9150001
0.018238096 0.41947621 1.9150001
-0.25168574 0.42677143 1.9150001
-0.24439049 0.42677143 1.9150001
-0.22615239 0.42677146 1.9150002
-0.21338573 0.42677143 1.9150001
-0.20791429 0.42677143 1.9150001
-0.19697143 0.42677143 1.9150001
-0.18602857 0.42677146 1.9150002
-0.17435621 0.42531237 1.9150002
-0.16505477 0.42403573 1.9150001
-0.14408097 0.42677143 1.9150001
-0.13860953 0.42677143 1.9150001
-0.11672381 0.42677143 1.9150001
-0.018238096 0.42677143 1.9150001
0.025533333 0.42312384 1.9150002
0.032828573 0.42312384 1.9150001
0.04559524 0.42312384 1.9150001
0.067480952 0.42677143 1.9150001
0.072952382 0.42677143 1.9150001
-0.28086665 0.43771428 1.9150001
-0.27721906 0.43771428 1.9150001
-0.26627621 0.43406671 1.9150002
-0.25776511 0.43163496 1.9150002
-0.2480381 0.43041909 1.9150001
0.075384133 0.43163496 1.9150002
0.083374158 0.43510893 1.9150002
0.09119048 0.43771428 1.9150001
-0.29180953 0.44865716 1.9150001
-0.28524381 0.44428 1.9150002
0.086326987 0.44257781 1.9150002
0.09119048 0.44500956 1.9150002
-0.29363334 0.45595241 1.9150001
-0.2881619 0.45230478 1.9150001
0.093379043 0.45741144 1.9150002
0.10760476 0.4596 1.9150001
0.085719049 0.46689525 1.9150001
0.09119048 0.46689525 1.9150001
0.10942857 0.46324766 1.9150001
0.083895236 0.47054285 1.9150002
0.09119048 0.47054285 1.9150001
0.1925 -0.011 1.9250001
0.176 -0.0055000009 1.9250001
0.18516667 -0.0055000004 1.9250001
0.1925 -0.0055 1.9250001
0.17661111 0.0048888894 1.9250001
0.18455558 0.0012222223 1.9250001
0.19311111 0.0012222223 1.9250001
0.17233334 0.011 1.9250001
0.21633334 0.17966667 1.9250001
0.22183335 0.17966667 1.9250001
0.2145 0.18516669 1.9250001
0.22183335 0.18516667 1.9250001
0.21450001 0.19433334 1.9250001
0.22122225 0.1918889 1.9250001
0.2145 0.2035 1.9250001
0.22091669 0.20625001 1.9250001
0.21633334 0.22000001 1.9250001
0.22000001 0.22000001 1.9250001
0.20533334 0.26766667 1.9250001
0.20625001 0.2759167 1.9250001
0.20533334 0.29333332 1.9250001
0.20533334 0.30433336 1.9250001
0.20900001 0.31349999 1.9250001
0.0275 0.41800001 1.9250001
0.033 0.41800001 1.9250001
-0.26033333 0.42900002 1.9250001
-0.25666666 0.42900002 1.9250001
-0.24566668 0.42900002 1.9250001
-0.23650001 0.42900002 1.9250001
-0.22000001 0.42900002 1.9250001
-0.2035 0.42900002 1.9250001
-0.19311111 0.42655557 1.9250001
-0.18516667 0.42533332 1.9250001
-0.17783333 0.4235 1.9250001
-0.15033334 0.42900002 1.9250001
-0.11000001 0.42900002 1.9250001
-0.014666667 0.42533332 1.9250001
0.025666669 0.42166671 1.9250001
0.035444446 0.42288893 1.9250001
0.043083332 0.42258334 1.9250001
0.055000003 0.42533335 1.9250001
0.064166665 0.42533332 1.9250001
0.077000007 0.42900002 1.9250001
0.08433333 0.42900002 1.9250001
0.091666669 0.42900002 1.9250001
-0.28233334 0.43633336 1.9250001
-0.27500004 0.43511114 1.9250001
-0.26583332 0.43266669 1.9250001
0.086166665 0.43266669 1.9250001
0.093500003 0.43450004 1.9250001
-0.29333332 0.44733334 1.9250001
-0.28783333 0.44183335 1.9250001
0.09716668 0.4436667 1.9250001
0.10266667 0.44733334 1.9250001
-0.29699999 0.45283335 1.9250001
0.09716668 0.4546667 1.9250001
0.1045 0.45466667 1.9250001
0.097166672 0.4675 1.9250001
0.10413333 0.46640006 1.9250001
0.1155 0.46200001 1.9250001
0.121 0.46200001 1.9250001
0.099000007 0.47300002 1.9250001
0.10266667 0.47300002 1.9250001
0.22125715 0.19913144 1.9360001
0.21019429 0.26919618 1.9360001
0.21019429 0.27657145 1.9360001
0.19913144 0.29869714 1.9360001
0.20466286 0.29869714 1.9360001
0.21019429 0.29132193 1.9360001
0.19913144 0.30238479 1.9360001
0.20404826 0.30361399 1.9360002
0.21019429 0.30976 1.9360001
-0.25444573 0.42776388 1.9360002
-0.24522668 0.42776385 1.9360001
-0.23600763 0.42776388 1.9360002
-0.22494477 0.42776388 1.9360002
-0.21388191 0.42776388 1.9360002
-0.20466286 0.42776385 1.9360001
-0.19544382 0.42592001 1.9360001
-0.18438098 0.4240762 1.9360002
-0.1733181 0.4240762 1.9360001
-0.15488 0.42776385 1.9360001
0.014750477 0.4240762 1.9360001
0.03687619 0.42038858 1.9360001
0.040563811 0.42038858 1.9360001
0.055314288 0.4240762 1.9360002
0.064533338 0.4240762 1.9360001
0.073752388 0.42776388 1.9360002
0.081127621 0.42776385 1.9360001
-0.28394669 0.43698287 1.9360001
-0.27657145 0.43513906 1.9360001
-0.2673524 0.43145144 1.9360001
-0.1143162 0.43145144 1.9360001
-0.10509715 0.43145144 1.9360001
-0.095878109 0.43145144 1.9360002
-0.084815249 0.43145144 1.9360002
-0.044251431 0.43145144 1.9360001
0.098336518 0.43513906 1.9360002
-0.29500955 0.44620192 1.9360002
0.10546591 0.44546443 1.9360001
0.11062858 0.44988954 1.9360001
-0.30238479 0.45542097 1.9360001
0.11062858 0.45542097 1.9360001
-0.30238479 0.4609524 1.9360001
0.11431621 0.4609524 1.9360002
0.22807716 0.20768 1.9470001
0.22993144 0.21138859 1.9470001
0.21695144 0.22622287 1.9470001
0.21138859 0.26516289 1.9470001
0.21417001 0.27443433 1.9470001
0.21138859 0.29668573 1.9470001
0.21138859 0.3041029 1.9470003
0.21880573 0.31893718 1.9470001
0.21880573 0.32264572 1.9470001
0.018542858 0.4190686 1.9470001
-0.24476574 0.42648575 1.9470003
-0.2354943 0.42648575 1.9470001
-0.22622287 0.42648575 1.9470003
-0.21509716 0.42648575 1.9470003
-0.20397145 0.42648575 1.9470003
-0.1965543 0.42648575 1.9470001
-0.17059429 0.42648575 1.9470001
-0.16503143 0.42648575 1.9470001
0.016688572 0.42277718 1.9470001
0.022251431 0.42277718 1.9470001
0.046357147 0.42277718 1.9470001
0.055628579 0.42277718 1.9470003
0.063045718 0.42277718 1.9470001
0.074171439 0.42648575 1.9470003
0.081588574 0.42648575 1.9470001
-0.28741431 0.43761146 1.9470001
-0.27443433 0.43266672 1.9470003
-0.26516289 0.43019432 1.9470001
-0.15205143 0.43019432 1.9470001
-0.14463429 0.43019432 1.9470003
-0.13721716 0.43019432 1.9470001
-0.11125715 0.43019432 1.9470001
-0.10013144 0.43019432 1.9470001
-0.076025724 0.43390286 1.9470001
-0.044502862 0.43390286 1.9470001
0.087151438 0.43019432 1.9470001
0.092714287 0.43019432 1.9470001
0.10384001 0.43575716 1.9470001
-0.3041029 0.4487372 1.9470003
-0.29483145 0.4431743 1.9470001
0.10569429 0.44132003 1.9470001
0.11249334 0.447501 1.9470003
-0.30595714 0.45244575 1.9470001
0.11589287 0.4570815 1.9470001
0.12423715 0.45986289 1.9470001
0.12423715 0.46357146 1.9470001
0.21631238 0.23496 1.9580001
0.22004192 0.23682477 1.9580001
0.21631238 0.26666096 1.9580001
0.21631238 0.28344381 1.9580001
0.21631238 0.305821 1.9580001
0.22128509 0.30830735 1.9580001
0.21631238 0.31514478 1.9580001
0.22377144 0.31514478 1.9580001
0.23309524 0.31514478 1.9580001
0.21631238 0.32073903 1.9580001
0.22377144 0.32260382 1.9580001
0.23309524 0.32260382 1.9580001
-0.26106665 0.42889526 1.9580001
-0.25547236 0.42889526 1.9580001
-0.24614857 0.42516574 1.9580001
-0.23682477 0.42516571 1.9580001
-0.22377144 0.42516574 1.9580001
-0.21444762 0.42516571 1.9580001
-0.20512383 0.42516574 1.9580001
-0.19393525 0.42516574 1.9580001
-0.18461142 0.42516571 1.9580001
-0.17715238 0.42516571 1.9580001
-0.16036952 0.42889526 1.9580001
-0.13053332 0.42889526 1.9580001
0.026106669 0.42143625 1.9580001
0.037295237 0.42143622 1.9580001
0.041024763 0.42143622 1.9580001
0.059672382 0.42143622 1.9580001
0.065266669 0.42330098 1.9580001
0.074590474 0.42516574 1.9580001
0.085779056 0.42765209 1.9580001
0.095102862 0.42889526 1.9580001
-0.29090285 0.43635431 1.9580001
-0.28530857 0.43635431 1.9580001
-0.27598476 0.43262476 1.9580001
-0.1323981 0.43262476 1.9580001
-0.12493904 0.43262476 1.9580001
-0.11748 0.43262476 1.9580001
-0.10629143 0.43262476 1.9580001
-0.095102862 0.43262476 1.9580001
-0.085779056 0.43262476 1.9580001
-0.074590474 0.43448955 1.9580001
-0.065266669 0.43635431 1.9580001
-0.052213334 0.43635431 1.9580001
0.096967623 0.43262476 1.9580001
0.10442667 0.43448955 1.9580001
0.11188572 0.43635431 1.9580001
-0.31327999 0.44754288 1.9580001
-0.30582097 0.44754288 1.9580001
-0.29463241 0.44008383 1.9580001
0.11561525 0.44381338 1.9580002
0.12493904 0.44567811 1.9580001
0.13053332 0.44567811 1.9580001
0.11934476 0.45500192 1.9580001
0.12456609 0.45425603 1.9580001
0.2212781 0.23252952 1.9690001
0.22577868 0.26478365 1.9690001
0.2337797 0.26503369 1.9690002
0.22455977 0.27331597 1.969
0.23440477 0.27190953 1.9690001
0.2250286 0.2812857 1.9690002
0.23440477 0.2812857 1.9690001
0.21752763 0.29441237 1.9690001
0.2212781 0.29441237 1.9690001
0.21752763 0.3000381 1.9690001
0.2250286 0.3037886 1.9690001
0.23440477 0.30753905 1.9690001
0.24003048 0.30753905 1.9690001
0.22877906 0.31128952 1.9690001
0.23440477 0.31128952 1.9690001
0.24003048 0.31316477 1.9690001
0.22877906 0.32441622 1.9690001
-0.26253334 0.42755431 1.9690001
-0.25503239 0.42630419 1.9690002
-0.24003048 0.42380384 1.9690001
-0.23440477 0.42567909 1.9690001
-0.2250286 0.42380387 1.9690002
-0.21377715 0.42380387 1.9690002
-0.20440096 0.42380384 1.9690001
-0.19502477 0.42380387 1.9690002
-0.17252192 0.42755431 1.9690001
0.026253335 0.42005336 1.9690001
0.031879049 0.42192858 1.9690001
0.046880953 0.42380384 1.9690001
0.054381907 0.42380384 1.9690001
0.066258416 0.42130351 1.9690002
0.075009525 0.42380387 1.9690002
0.084385723 0.42567909 1.9690001
0.093761906 0.42755431 1.9690002
-0.29628763 0.43880573 1.9690001
-0.2812857 0.43505526 1.9690001
-0.27190953 0.43130478 1.9690001
-0.15376954 0.43130478 1.9690002
-0.14439334 0.43130478 1.9690001
-0.13689238 0.43130478 1.9690001
-0.12376572 0.43130478 1.9690001
-0.11438952 0.43130478 1.9690001
-0.10501334 0.43130478 1.9690002
-0.093761906 0.43130478 1.9690002
-0.084385723 0.43130478 1.9690001
-0.075009525 0.43318003 1.9690001
-0.061882861 0.43693048 1.9690001
-0.055006988 0.4363054 1.9690002
-0.04313048 0.43505526 1.9690001
0.10501334 0.43380511 1.9690002
0.11626476 0.43880573 1.9690001
0.12189049 0.43880573 1.9690001
-0.30191335 0.44630668 1.9690001
0.12376572 0.44255623 1.9690002
0.13126667 0.4425562 1.9690001
0.23382859 0.27908573 1.9800003
0.22440001 0.2866286 1.9800001
0.21685717 0.2904 1.9800001
0.22534287 0.29322857 1.9800001
0.23382857 0.29417145 1.9800001
0.23458289 0.30322286 1.9800001
0.066000007 0.4186286 1.9800001
0.071657151 0.4186286 1.9800001
-0.27342859 0.42994288 1.9800001
-0.264 0.42805716 1.9800001
-0.25457144 0.42428574 1.9800001
-0.24514288 0.42491433 1.9800003
-0.23382859 0.42365718 1.9800003
-0.22440001 0.42240003 1.9800001
-0.21497145 0.42240006 1.9800003
-0.20742859 0.42240003 1.9800001
-0.18480001 0.42617148 1.9800003
-0.17725715 0.42617145 1.9800001
-0.16782859 0.42994288 1.9800001
-0.15085715 0.42994288 1.9800001
-0.14520001 0.42994288 1.9800001
-0.132 0.42994288 1.9800001
-0.12445715 0.42994288 1.9800001
-0.11502858 0.42994288 1.9800001
-0.10560001 0.42994291 1.9800003
-0.094285727 0.42994291 1.9800003
-0.084857151 0.42994288 1.9800001
-0.0792 0.42994288 1.9800001
0.035828575 0.42240003 1.9800001
0.049028575 0.42240003 1.9800001
0.054685719 0.42240003 1.9800001
0.060342859 0.42240003 1.9800001
0.075428575 0.42240006 1.9800003
0.085485719 0.42365718 1.9800003
0.09334287 0.4252286 1.9800001
0.10182858 0.42994288 1.9800001
-0.29417145 0.43560004 1.9800003
-0.28537148 0.43497145 1.9800003
-0.27908573 0.4337143 1.9800001
-0.26777145 0.4337143 1.9800001
-0.12445715 0.4337143 1.9800001
-0.071657151 0.4337143 1.9800001
-0.064114295 0.4362286 1.9800003
-0.049028575 0.43748575 1.9800001
0.10560001 0.4337143 1.9800001
0.11502858 0.43748575 1.9800001
-0.31302863 0.44502863 1.9800003
-0.30602452 0.44395113 1.9800003
0.12822859 0.44125718 1.9800001
0.132 0.44125718 1.9800001
0.23334858 0.20489144 1.9920003
0.22765717 0.23524573 1.9920001
0.23524573 0.28836578 1.9920001
0.068297148 0.41737145 1.9920001
-0.30354288 0.4287543 1.9920001
-0.29548001 0.42543432 1.9920003
-0.28552002 0.42780575 1.9920001
-0.27445334 0.42748952 1.9920001
-0.26560003 0.42748952 1.9920001
-0.25516573 0.42306289 1.9920001
-0.24662858 0.42496002 1.9920001
-0.23524572 0.42496002 1.9920001
-0.20489144 0.42369527 1.9920001
-0.19540572 0.42496002 1.9920001
-0.18781716 0.42496002 1.9920001
-0.17264001 0.4287543 1.9920001
-0.16694857 0.4287543 1.9920001
0.034148574 0.42116576 1.9920001
0.043634288 0.42496002 1.9920001
0.056914289 0.42116573 1.9920001
0.060708575 0.42116573 1.9920001
0.077782862 0.42116573 1.9920001
0.085371435 0.42116573 1.9920001
0.09675429 0.42496002 1.9920001
0.10244572 0.42685717 1.9920001
-0.30480763 0.43507814 1.9920001
-0.29595432 0.43254861 1.9920001
-0.28457147 0.43254861 1.9920001
-0.16315429 0.43254858 1.9920001
-0.15746287 0.43254858 1.9920001
-0.14038858 0.43254858 1.9920001
-0.1365943 0.43254858 1.9920001
-0.12521143 0.43254858 1.9920001
-0.073988579 0.43254858 1.9920001
-0.064502865 0.4363429 1.9920001
-0.056914289 0.4363429 1.9920001
0.10624 0.43254858 1.9920001
0.11382857 0.4363429 1.9920001
-0.30544001 0.44013715 1.9920001
-0.026560001 0.44393143 1.9920001
0.12331429 0.44013715 1.9920001
0.23463714 0.22891429 2.003
0.23463716 0.23463716 2.003
0.24036001 0.23463714 2.003
0.23463714 0.24036001 2.003
-0.20983809 0.41967618 2.003
0.062951431 0.41967618 2.003
0.074397147 0.41967618 2.003
0.080119997 0.41967618 2.003
-0.28614286 0.42539907 2.003
-0.27469715 0.42501757 2.003
-0.26579493 0.4247632 2.003
-0.25180572 0.42349145 2.003
-0.24417526 0.42349145 2.003
-0.23463714 0.42349145 2.003
-0.22509906 0.42349145 2.003
-0.21556094 0.42349145 2.003
-0.20602286 0.42349145 2.003
-0.19076191 0.42349145 2.003
-0.18503904 0.42539907 2.003
-0.1747379 0.42578059 2.003
-0.16500905 0.42635286 2.003
-0.15451714 0.42730665 2.003
0.047690473 0.42349145 2.003
0.053413332 0.42349145 2.003
0.095380954 0.42349145 2.003
0.10491905 0.42539907 2.003
-0.16214761 0.43112192 2.003
-0.15451714 0.43112192 2.003
-0.14497906 0.43112192 2.003
-0.13544096 0.43112192 2.003
-0.12590286 0.43112192 2.003
-0.11445715 0.43112192 2.003
-0.10491905 0.43112192 2.003
-0.095380954 0.43112192 2.003
-0.083935231 0.43112192 2.003
-0.074397147 0.43112192 2.003
-0.064859048 0.43493712 2.003
-0.053413332 0.43875238 2.003
-0.049598094 0.43875238 2.003
0.10682666 0.43112192 2.003
0.11350334 0.43398333 2.003
0.12513982 0.4372263 2.003
-0.034337148 0.44256765 2.003
-0.024163175 0.44383937 2.003
0.14307143 0.45782858 2.003
-0.29758859 0.8088305 2.003
-0.29361433 0.4183524 2.0150001
0.063328572 0.4183524 2.0150001
0.0844381 0.4183524 2.0150001
0.10362858 0.4183524 2.0150001
-0.28210002 0.42410952 2.0150001
-0.27442384 0.42219049 2.0150001
-0.26482856 0.42219049 2.0150001
-0.25523335 0.42219049 2.0150001
-0.2456381 0.42219052 2.0150001
-0.23412383 0.42219052 2.0150001
-0.22452858 0.42219049 2.0150001
-0.21685238 0.42219049 2.0150001
-0.20469843 0.42346987 2.0150001
-0.1983016 0.42474923 2.0150001
-0.18422858 0.42474923 2.0150001
-0.17463334 0.42219049 2.0150001
-0.16503811 0.42474923 2.0150001
-0.15544286 0.42602858 2.0150001
-0.14968573 0.42986667 2.0150001
-0.12281905 0.42986667 2.0150001
-0.11514287 0.42986667 2.0150001
-0.10746667 0.42986667 2.0150001
0.046057146 0.42410952 2.0150001
0.055652384 0.42219049 2.0150001
0.086357147 0.42219049 2.0150001
0.095952384 0.42219052 2.0150001
0.10618731 0.42346987 2.0150001
0.11437525 0.42833146 2.0150001
-0.067166671 0.43370476 2.0150001
-0.053733334 0.43754286 2.0150001
0.11706191 0.43370476 2.0150001
0.12281905 0.43370476 2.0150001
-0.046057142 0.44138095 2.0150001
-0.034542859 0.44138095 2.0150001
-0.024947619 0.44138095 2.0150001
-0.015352381 0.44266033 2.0150001
-0.0076761907 0.44138095 2.0150001
0.13241428 0.44521904 2.0150001
0.13817143 0.46440956 2.0150001
0.14508002 0.46594483 2.0150001
0.14661525 0.49741718 2.0150001
0.15352382 0.49703336 2.0150001
0.14584765 0.50470954 2.0150003
0.15352382 0.50470954 2.0150001
0.14776668 0.51238573 2.0150001
0.15352382 0.51238573 2.0150001
0.076761909 0.78680956 2.0150001
0.086996838 0.78553027 2.0150001
0.092114285 0.78489053 2.0150001
0.086996838 0.79192704 2.0150001
0.092114292 0.79448581 2.0150001
0.0930738 0.80600005 2.0150001
0.11562262 0.80600011 2.0150001
-0.30320954 0.81367624 2.0150001
0.075482547 0.81495559 2.0150001
0.099790484 0.81559527 2.0150001
0.10554762 0.81559527 2.0150001
0.11514287 0.81559533 2.0150003
0.12281905 0.81559527 2.0150001
0.10231524 0.41698289 2.0270002
-0.28571051 0.42470479 2.0270002
-0.26640573 0.42470479 2.0270002
-0.1949781 0.42277431 2.0270002
-0.18339525 0.42470479 2.0270002
-0.17567335 0.42084384 2.0270002
-0.16602097 0.42470479 2.0270002
-0.15057716 0.42856577 2.0270002
0.046331432 0.42470479 2.0270002
0.054053336 0.42084384 2.0270002
0.069497153 0.42084384 2.0270002
0.075288579 0.42084384 2.0270002
0.084940962 0.42084384 2.0270002
0.094593339 0.42084384 2.0270002
0.10424571 0.42084384 2.0270002
0.11505639 0.42393261 2.0270002
0.12355049 0.42856577 2.0270002
-0.14478573 0.43242669 2.0270002
-0.13513336 0.43242669 2.0270002
-0.12741144 0.43242669 2.0270002
-0.10231524 0.43242669 2.0270002
-0.094593339 0.43242669 2.0270002
-0.086871438 0.43242669 2.0270002
-0.061775245 0.43628767 2.0270002
-0.027026668 0.43628767 2.0270002
0.12548096 0.43435717 2.0270002
-0.054053336 0.44014859 2.0270002
-0.043757465 0.44143558 2.0270002
-0.034748577 0.44111383 2.0270002
-0.025096193 0.44014859 2.0270002
-0.015443811 0.44143558 2.0270002
0.13384637 0.44143558 2.0270002
0.14478573 0.49613243 2.0270002
0.15250763 0.49420196 2.0270002
0.1640905 0.49613243 2.0270002
0.18532573 0.49613243 2.0270002
0.13623649 0.50633639 2.0270004
0.18532573 0.50385433 2.0270004
0.13706383 0.51543719 2.0270002
0.14285526 0.51543719 2.0270002
0.14478573 0.52122861 2.0270002
0.15250763 0.52122861 2.0270002
0.17760383 0.52895051 2.0270002
0.18532573 0.52895057 2.0270002
0.17760383 0.53281146 2.0270002
0.18532573 0.5337767 2.0270002
0.069497153 0.7857039 2.0270002
0.073358104 0.7857039 2.0270002
0.083010487 0.78763431 2.0270002
0.038609527 0.79149532 2.0270002
0.052766353 0.79664326 2.0270002
0.069497153 0.79535627 2.0270002
0.07490249 0.79612845 2.0270002
0.08204525 0.79632151 2.0270002
0.096523814 0.79921722 2.0270002
0.10424571 0.79921722 2.0270002
0.11660077 0.79767287 2.0270002
0.027026668 0.80500865 2.0270002
0.034748577 0.80500859 2.0270004
0.044400956 0.80500865 2.0270002
0.052122861 0.80500865 2.0270002
0.075932071 0.80436516 2.0270002
0.084940962 0.80500865 2.0270004
0.096523814 0.80500865 2.0270002
0.10424572 0.80539477 2.0270002
0.11582857 0.80307811 2.0270002
-0.29536289 0.8165915 2.0270002
0.027026668 0.81273055 2.0270002
0.03474858 0.81273055 2.0270004
0.043757465 0.81208706 2.0270002
0.052122861 0.81273055 2.0270002
0.069497153 0.81852198 2.0270002
0.075932071 0.81337404 2.0270002
0.084940962 0.81273055 2.0270004
0.096523814 0.8165915 2.0270002
0.10424572 0.81273055 2.0270004
0.11196762 0.81080008 2.0270002
-0.30501527 0.82238293 2.0270002
0.096523814 0.82238293 2.0270002
-0.32045907 0.85520101 2.0270002
-0.31659812 0.85520101 2.0270002
-0.22137713 0.41945145 2.039
0.054373335 0.41945145 2.039
0.066024765 0.41945145 2.039
0.075734288 0.41945145 2.039
0.085443817 0.41945145 2.039
0.095153332 0.41945145 2.039
0.10680477 0.41750956 2.039
0.11263048 0.41945145 2.039
-0.28351811 0.42333525 2.039
-0.27575049 0.42333525 2.039
-0.26215714 0.42333525 2.039
-0.25438952 0.42333525 2.039
-0.2427381 0.42333525 2.039
-0.23497048 0.42333525 2.039
-0.22526096 0.42333525 2.039
-0.21555144 0.42333525 2.039
-0.2058419 0.42333525 2.039
-0.19030666 0.42333525 2.039
-0.18448095 0.42333525 2.039
-0.17088762 0.42333525 2.039
-0.16441461 0.42462987 2.039
-0.15535238 0.42721909 2.039
-0.14758477 0.42721906 2.039
-0.13204953 0.42721906 2.039
-0.12622382 0.42721906 2.039
0.038838092 0.42721906 2.039
0.04401651 0.42462987 2.039
0.12169271 0.42592448 2.039
-0.14564286 0.43110287 2.039
-0.13593334 0.43110287 2.039
-0.12428191 0.43110287 2.039
-0.11457238 0.43110287 2.039
-0.10486286 0.43110287 2.039
-0.081560001 0.43498668 2.039
-0.075734288 0.43498668 2.039
-0.064082861 0.43498668 2.039
-0.054373335 0.43887049 2.039
-0.044663809 0.43887046 2.039
-0.033983331 0.4378995 2.039
-0.025244761 0.43692857 2.039
-0.015535238 0.43887049 2.039
0.12816572 0.43498668 2.039
0.13399142 0.43887046 2.039
-0.019419046 0.44275427 2.039
-0.0077676191 0.44275427 2.039
0 0.44275427 2.039
0.14758477 0.48936 2.039
0.15341046 0.48936 2.039
0.17477143 0.48936003 2.039
0.18448095 0.48936 2.039
0.13787523 0.49712762 2.039
0.14499557 0.49453843 2.039
0.15146858 0.49324381 2.039
0.17574239 0.4951857 2.039
0.18448095 0.49324381 2.039
0.12687112 0.50748444 2.039
0.13496238 0.50392431 2.039
0.17768431 0.50392431 2.039
0.18253905 0.50101143 2.039
0.12687112 0.5139575 2.039
0.13204953 0.51654667 2.039
0.18448094 0.51460481 2.039
0.19224858 0.51460481 2.039
0.12557651 0.52496165 2.039
0.13537851 0.525424 2.039
0.14564286 0.52819812 2.039
0.15535238 0.52819812 2.039
0.17671335 0.52819812 2.039
0.18409257 0.52509111 2.039
0.19224858 0.52431434 2.039
0.12622382 0.53693664 2.039
0.13593334 0.53596574 2.0389998
0.14629017 0.53855491 2.039
0.17477144 0.53208196 2.039
0.19419049 0.53208196 2.039
0.11651429 0.5437333 2.039
0.12428191 0.5437333 2.039
0.13690428 0.54470426 2.039
0.14629017 0.54502791 2.039
0.12816572 0.55150092 2.039
0.13593334 0.55150092 2.039
0.14629017 0.55279553 2.039
0.14758477 0.56315237 2.039
0.12317225 0.57535869 2.039
0.13648817 0.57591355 2.039
0.14525448 0.5755806 2.039
0.15146858 0.57674575 2.039
0.12816572 0.58257145 2.039
0.13204953 0.58257145 2.039
0.14564286 0.58257145 2.039
-0.033012379 0.59810668 2.039
-0.050489523 0.60781622 2.039
-0.043692857 0.6058743 2.039
-0.034954283 0.60587436 2.0389998
-0.027186668 0.60781622 2.039
-0.062140953 0.66801524 2.039
-0.05631524 0.66607332 2.039
-0.065377459 0.67707747 2.039
-0.054373331 0.67578286 2.0389998
-0.031070476 0.67578286 2.039
-0.066024765 0.68355054 2.039
-0.05631524 0.68355048 2.039
-0.20389999 0.76899433 2.039
-0.21360953 0.77287811 2.039
-0.23302858 0.79423904 2.039
-0.22526096 0.79423904 2.039
-0.21555144 0.79423904 2.039
-0.20778382 0.79423904 2.039
0.025244761 0.79618096 2.039
0.034177523 0.79385066 2.039
0.044663809 0.79618096 2.039
0.053078733 0.79488635 2.039
0.097095244 0.79618096 2.039
-0.24079619 0.80589044 2.039
-0.23458211 0.80472535 2.039
-0.22526094 0.80394852 2.0389998
-0.21555144 0.80394858 2.039
-0.20778382 0.80394858 2.039
0.019419046 0.80589044 2.039
0.024856381 0.80317181 2.039
0.034954283 0.80200666 2.039
0.044663809 0.80200666 2.039
0.05631524 0.80394858 2.039
0.064915106 0.80450332 2.039
0.097095244 0.80006474 2.039
0.10486286 0.80239505 2.039
0.11263048 0.80006474 2.039
-0.29128572 0.8175419 2.039
-0.28643095 0.81657094 2.039
-0.24419452 0.81608546 2.0389998
-0.23497048 0.81560004 2.039
-0.2258158 0.81449038 2.039
-0.21555144 0.81365812 2.039
-0.20972572 0.81365812 2.039
0.019419046 0.8117162 2.039
0.023302859 0.81560004 2.039
0.046605714 0.81948382 2.039
0.058257144 0.81560004 2.039
0.067578278 0.81715357 2.039
0.073792383 0.81365812 2.039
-0.29439276 0.8256979 2.039
-0.28546 0.82530951 2.039
-0.27963427 0.82530951 2.039
-0.25244763 0.82530951 2.039
-0.24467999 0.82530951 2.039
-0.23497048 0.82530951 2.039
-0.22785017 0.82595682 2.039
0.019419046 0.8233676 2.039
0.025244761 0.8233676 2.039
0.035731044 0.82492113 2.039
0.044663809 0.8233676 2.039
0.053402379 0.82433856 2.039
0.06796667 0.82530951 2.039
0.073792383 0.82725143 2.039
-0.32365081 0.83760828 2.039
-0.31458855 0.83501911 2.0389998
-0.30487907 0.83501911 2.039
-0.29516956 0.83501911 2.0389998
-0.28584838 0.83501911 2.039
-0.27575046 0.83501911 2.0389998
-0.26701191 0.83599001 2.039
-0.25244763 0.83113527 2.039
-0.24468002 0.83113527 2.039
0.068355046 0.83424234 2.039
0.073792383 0.83113527 2.039
-0.32429808 0.84472859 2.039
-0.31458855 0.84472865 2.039
-0.30487907 0.84472859 2.039
-0.29614049 0.84375763 2.039
-0.33012381 0.85832191 2.039
-0.3246865 0.85366136 2.039
-0.31614208 0.85366136 2.039
-0.30293715 0.85055429 2.039
-0.33012381 0.86220574 2.039
-0.32624 0.86220574 2.039
-0.28518668 0.41801336 2.0510001
-0.22463334 0.41801336 2.0510001
-0.18361333 0.41801336 2.0510001
-0.17970668 0.41801336 2.0510001
0.056646667 0.41801336 2.0510001
0.064460002 0.41801336 2.0510001
0.07422667 0.41801339 2.0510001
0.085946672 0.41801339 2.0510001
0.095713332 0.41801336 2.0510001
0.10548 0.41801336 2.0510001
0.11524667 0.41801336 2.0510001
-0.29300001 0.42582667 2.0510001
-0.28616336 0.42289668 2.0510001
-0.27542001 0.42192 2.0510001
-0.26662999 0.42289668 2.0510001
-0.25295669 0.42289665 2.0510001
-0.24416669 0.42192 2.0510001
-0.23440002 0.42192 2.0510001
-0.22658668 0.42192 2.0510001
-0.21486668 0.42192 2.0510001
-0.2051 0.42192 2.0510001
-0.19533335 0.42192 2.0510001
-0.18556666 0.42192 2.0510001
-0.17580001 0.42192 2.0510001
-0.16408001 0.42387334 2.0510001
-0.15431334 0.42582667 2.0510001
-0.14376535 0.42738935 2.0510004
-0.13543111 0.42712891 2.0510001
-0.12501334 0.42712891 2.0510001
-0.11524667 0.42973337 2.0510001
-0.10548 0.42973337 2.0510001
0.037113335 0.42778003 2.0510001
0.046880003 0.42192 2.0510001
0.1172 0.42192 2.0510001
0.12501334 0.42582667 2.0510001
-0.095713332 0.43364 2.0510001
-0.070320003 0.43754667 2.0510001
-0.064460002 0.43364 2.0510001
-0.054693338 0.43559337 2.0510004
-0.045577779 0.43624446 2.0510001
-0.035160001 0.43624446 2.0510001
-0.023440002 0.43754667 2.0510001
-0.015626667 0.43754667 2.0510001
-0.0058599999 0.43754667 2.0510001
0.0039066668 0.43754667 2.0510001
0.016408002 0.43598405 2.0510004
0.024742223 0.43494225 2.0510001
0.12892 0.43364 2.0510001
0.13478 0.43559337 2.0510001
-0.005208889 0.44275558 2.0510001
0.0039066668 0.44243002 2.0510001
0.013673333 0.44145337 2.0510001
0.14064001 0.47661334 2.0510001
0.16408001 0.47661337 2.0510001
0.17970668 0.47466004 2.0510001
0.18491554 0.47531113 2.0510001
0.13673334 0.48052001 2.0510001
0.14454669 0.48331052 2.0510004
0.15470402 0.48364535 2.0510004
0.16359167 0.48442668 2.0510004
0.17970668 0.48442668 2.0510001
0.18556666 0.48638001 2.0510001
0.12501334 0.49614674 2.0510001
0.13478 0.49419338 2.0510001
0.14194223 0.49354228 2.0510001
0.15626667 0.49614671 2.0510001
0.16408002 0.49419338 2.0510004
0.17580001 0.49614671 2.0510001
0.12452501 0.50347173 2.0510004
0.13282667 0.50200665 2.0510001
0.16017334 0.50005335 2.0510001
0.17580001 0.50786668 2.0510001
0.11589779 0.51437783 2.0510001
0.12208334 0.5166567 2.0510001
0.17840445 0.51568007 2.0510001
0.10938667 0.52349335 2.0510001
0.11589777 0.52479553 2.0510001
0.1224089 0.52609777 2.0510001
0.17775334 0.52544665 2.0510001
0.18752001 0.52349335 2.0510001
0.10938667 0.53521341 2.0510001
0.11524668 0.53521335 2.0510004
0.12306 0.53716671 2.0510001
0.1458489 0.53651565 2.0510001
0.15431334 0.53716671 2.0510001
0.16310334 0.5381434 2.0510001
0.17384668 0.53912002 2.0510001
0.11524667 0.54302669 2.0510001
0.12501334 0.54498005 2.0510001
0.15431334 0.54498005 2.0510001
0.16408002 0.54498005 2.0510004
0.17580001 0.54498005 2.0510004
0.18361333 0.54498005 2.0510001
0.1172 0.55474675 2.0510001
0.12452501 0.55474669 2.0510004
0.13517068 0.55474663 2.0510004
0.14324445 0.55604893 2.0510001
0.15431336 0.55474663 2.0510004
0.16173601 0.55552799 2.0510004
0.17531167 0.55425829 2.0510004
0.1172 0.56451333 2.0510001
0.12501335 0.56451339 2.0510004
0.13478 0.56451333 2.0510001
0.14376535 0.56412268 2.0510004
0.15431334 0.56451339 2.0510001
0.16212668 0.56451339 2.0510001
0.1172 0.57232666 2.0510001
0.12657601 0.57271737 2.0510004
0.13478 0.57232666 2.0510001
0.14552334 0.57134998 2.0510001
0.15431334 0.57232666 2.0510001
0.16212668 0.57232666 2.0510001
-0.062506668 0.60944003 2.0510001
-0.055474669 0.60709608 2.0510004
-0.044926669 0.60358 2.0510001
-0.039066669 0.60162669 2.0510001
-0.054693338 0.61464894 2.0510001
-0.045577779 0.61595118 2.0510001
-0.033206668 0.61725336 2.0510001
-0.027346667 0.61725336 2.0510001
-0.042973336 0.62116003 2.0510001
-0.036462225 0.62246227 2.0510001
-0.062506668 0.65632004 2.0510001
-0.054693338 0.65632004 2.0510001
-0.017580001 0.65632004 2.0510001
-0.070320003 0.66804004 2.0510001
-0.063483335 0.66511005 2.0510001
-0.054135244 0.66301721 2.0510004
-0.023440002 0.66413337 2.0510001
-0.016115 0.66364503 2.0510004
-0.07422667 0.67585337 2.0510004
-0.066413336 0.67585337 2.0510001
-0.05078667 0.6719467 2.0510001
-0.044926669 0.67585343 2.0510004
-0.036462225 0.67650449 2.0510004
-0.024416666 0.67683005 2.0510001
-0.018556667 0.67487669 2.0510001
-0.05078667 0.68757337 2.0510001
-0.045577779 0.68496895 2.0510001
-0.035160001 0.68366671 2.0510001
-0.025393333 0.68366671 2.0510001
-0.019533334 0.68366671 2.0510001
-0.082040004 0.69147998 2.0510001
-0.074226677 0.6934334 2.0510004
-0.064069338 0.69460535 2.0510004
-0.054693341 0.69427049 2.0510004
-0.052740004 0.72468674 2.0510001
-0.044926669 0.72664005 2.0510001
-0.035160001 0.72664011 2.0510001
-0.025393333 0.72664005 2.0510001
-0.05078667 0.73445332 2.0510001
-0.044536006 0.73445338 2.0510004
-0.038090002 0.73543 2.0510001
-0.05078667 0.74422002 2.0510001
-0.044926669 0.74422002 2.0510001
-0.035160005 0.74422014 2.0510004
-0.05078667 0.75789332 2.0510001
-0.044536006 0.75476807 2.0510004
-0.035648335 0.75447506 2.0510004
-0.027346667 0.75594002 2.0510001
-0.054693338 0.76570666 2.0510004
-0.044926669 0.76570672 2.0510004
-0.035160001 0.76570666 2.0510004
-0.02637 0.7666834 2.0510001
-0.21096 0.77547336 2.0510001
-0.2051 0.77742672 2.0510001
-0.19631001 0.77449673 2.0510001
-0.054693338 0.77508271 2.0510004
-0.044926669 0.77547336 2.0510001
-0.035160005 0.77547336 2.0510004
-0.025393333 0.77547336 2.0510001
-0.2137505 0.78579819 2.0510004
-0.2051 0.78328669 2.0510001
-0.19924001 0.78133333 2.0510001
-0.14064001 0.78133333 2.0510001
-0.054693338 0.78524005 2.0510004
-0.044926669 0.78524011 2.0510004
-0.035160001 0.78524005 2.0510004
-0.025393333 0.78328669 2.0510001
-0.25002667 0.79696006 2.0510001
-0.24416669 0.79696006 2.0510001
-0.23830667 0.79696006 2.0510001
-0.21486668 0.79305339 2.0510001
-0.20444891 0.79435563 2.0510001
-0.19533335 0.79696006 2.0510001
-0.17970668 0.79696006 2.0510001
-0.14064001 0.79696006 2.0510001
-0.1172 0.79305339 2.0510001
0.0039066668 0.79696006 2.0510001
0.019533334 0.79696006 2.0510001
0.025393333 0.79500669 2.0510001
0.035160001 0.79305339 2.0510001
0.044275559 0.79565787 2.0510001
0.054693334 0.79696006 2.0510001
0.097666666 0.79696006 2.0510001
0.10352667 0.79696006 2.0510001
-0.25002667 0.80477333 2.0510001
-0.24455737 0.80399197 2.0510004
-0.23830667 0.80281997 2.0510001
-0.20314668 0.80477333 2.0510001
-0.19533333 0.80477333 2.0510004
-0.18752001 0.80281997 2.0510001
-0.17970668 0.80086666 2.0510001
-0.017580001 0.80086666 2.0510001
0.0039066668 0.80477339 2.0510004
0.015138335 0.80428499 2.0510004
0.058600001 0.80086666 2.0510001
0.064460002 0.80086666 2.0510001
0.10548001 0.80086672 2.0510001
0.11329334 0.80086666 2.0510001
-0.28323334 0.81649339 2.0510001
-0.27737334 0.81649339 2.0510001
-0.26565334 0.81649339 2.0510001
-0.25315201 0.81493074 2.0510004
-0.24612002 0.81258672 2.0510001
-0.20444891 0.81519121 2.0510001
-0.19924001 0.81258672 2.0510001
0.0058599999 0.81258672 2.0510001
0.013673333 0.81454009 2.0510001
0.064460002 0.81649339 2.0510001
-0.28258225 0.82170224 2.0510001
-0.27542001 0.82430667 2.0510004
-0.26565334 0.82430667 2.0510004
-0.25627735 0.82352537 2.0510004
-0.22463334 0.82626003 2.0510001
-0.21486668 0.82625997 2.0510004
-0.20705333 0.82040006 2.0510001
-0.093760006 0.82235336 2.0510001
-0.089853339 0.82235336 2.0510001
0.0048833331 0.82723671 2.0510001
0.015138335 0.82381839 2.0510004
0.063808888 0.82300448 2.0510001
-0.28518668 0.8399334 2.0510001
-0.27607113 0.83472455 2.0510001
-0.26453716 0.83546859 2.0510004
-0.25686336 0.83700335 2.0510001
0.0078133335 0.83212006 2.0510001
0.013673333 0.83212006 2.0510001
0.044926669 0.83212006 2.0510001
0.055995561 0.83537567 2.0510004
0.063483335 0.83504999 2.0510001
-0.28518671 0.84774673 2.0510001
-0.27542001 0.84774667 2.0510001
-0.26565334 0.84579337 2.0510001
-0.25588667 0.84384 2.0510001
-0.31253335 0.85751343 2.0510001
-0.30862668 0.85751343 2.0510001
-0.29495335 0.85165334 2.0510001
-0.28714001 0.85165334 2.0510001
-0.23577146 0.4165296 2.0630002
-0.22496527 0.41554719 2.0630002
-0.18665239 0.41652957 2.0630002
-0.28292572 0.42045909 2.0630002
-0.2750667 0.42045912 2.0630002
-0.26524287 0.42045909 2.0630002
-0.25738382 0.42045909 2.0630002
-0.24559525 0.42045909 2.0630002
-0.23577146 0.42045912 2.0630002
-0.22005336 0.42045909 2.0630002
-0.21415907 0.42045909 2.0630002
-0.20433526 0.42045912 2.0630002
-0.19451144 0.42045909 2.0630002
-0.18861715 0.42045909 2.0630002
-0.17486382 0.42045909 2.0630002
-0.16504002 0.42307878 2.0630002
-0.15718096 0.42438859 2.0630002
-0.12181525 0.42831814 2.0630002
-0.11395621 0.42831814 2.0630002
-0.10413238 0.42831814 2.0630002
0.035365716 0.42831814 2.0630002
0.04518953 0.42242384 2.0630002
0.051083814 0.42045909 2.0630002
0.12705463 0.42307878 2.0630002
0.13556859 0.42831814 2.0630002
-0.094308577 0.43355751 2.0630002
-0.084484771 0.43617719 2.0630002
-0.074660957 0.43617719 2.0630002
-0.062872387 0.43224767 2.0630002
-0.058942862 0.43224767 2.0630002
-0.043224767 0.43617719 2.0630002
-0.037330478 0.43617719 2.0630002
-0.025541907 0.43617719 2.0630002
-0.015718097 0.43617719 2.0630002
-0.0052393656 0.43486738 2.0630002
0.0039295242 0.43421242 2.0630002
0.014735716 0.43323004 2.0630002
0.025541907 0.43224767 2.0630002
0.031436194 0.43224767 2.0630002
0.13556859 0.43224767 2.0630002
0.16700478 0.46368384 2.0630002
0.15587112 0.47809213 2.0630002
0.16504002 0.4735077 2.0630002
0.17486382 0.4774372 2.0630002
0.13556859 0.48529625 2.0630002
0.16896954 0.487261 2.0630002
0.17486382 0.48529622 2.0630002
0.18468764 0.48464131 2.0630002
0.13753335 0.49119052 2.0630002
0.14539239 0.49119052 2.0630002
0.15325144 0.49119052 2.0630002
0.17486382 0.49119052 2.0630002
0.11395621 0.52262676 2.0630002
0.11199145 0.53048575 2.0630002
0.1676597 0.55537271 2.0630002
-0.070731431 0.59532291 2.0630002
-0.066801913 0.59532291 2.0630002
-0.058942862 0.59728765 2.0630002
-0.062872395 0.60514677 2.0630002
-0.05501334 0.60357493 2.0630002
-0.047154289 0.60318196 2.0630002
-0.062872387 0.61693525 2.0630002
-0.062872387 0.62086481 2.0630002
-0.055504527 0.62528557 2.063
-0.045844451 0.62741399 2.0630002
-0.035365716 0.62577671 2.0630002
-0.026196828 0.62741399 2.0630002
-0.03457981 0.63501114 2.0630002
-0.025541907 0.63461816 2.0630002
-0.019647621 0.63461816 2.0630002
-0.056978099 0.64837146 2.0630002
-0.033793908 0.64365608 2.0630002
-0.025541907 0.64247721 2.0630002
-0.019647621 0.64444196 2.0630002
-0.062872387 0.65623051 2.0630002
-0.056978103 0.65426576 2.0630002
-0.070731431 0.66801906 2.0630002
-0.066801921 0.66408956 2.0630002
-0.04518953 0.66408956 2.0630002
-0.036348097 0.66605431 2.0630002
-0.02750667 0.66801906 2.0630002
-0.04518953 0.67194867 2.0630002
-0.03457981 0.67352051 2.0630002
-0.026524289 0.67489576 2.0630002
-0.044796579 0.69631165 2.0630002
-0.035927076 0.69440299 2.0630002
-0.025541907 0.69159627 2.0630002
-0.017682858 0.69159627 2.0630002
-0.072696194 0.70338482 2.0630002
-0.065492079 0.7060045 2.0630002
-0.055013336 0.70574254 2.0630002
-0.04518953 0.70534956 2.0630002
-0.039295241 0.70338482 2.0630002
-0.070731431 0.71124387 2.0630002
-0.06483715 0.71124387 2.0630002
-0.056978099 0.71419102 2.0630002
-0.04518953 0.71713817 2.0630002
-0.037330478 0.71910292 2.0630002
-0.023577144 0.71910292 2.0630002
-0.017682858 0.71910292 2.0630002
-0.073351115 0.72565216 2.0630002
-0.06483715 0.72696197 2.0630002
-0.055995721 0.72401488 2.0630002
-0.04518953 0.72499728 2.0630002
-0.036151621 0.72539014 2.0630002
-0.025541907 0.72696197 2.0630002
-0.017682858 0.72696197 2.0630002
-0.073351115 0.73220134 2.0630002
-0.066801913 0.73285627 2.0630002
-0.056323178 0.73613089 2.0630002
-0.047154289 0.73875052 2.0630002
-0.033400953 0.73678577 2.0630002
-0.025541907 0.73678577 2.0630002
-0.017682858 0.73285627 2.0630002
-0.056323182 0.74398994 2.0630002
-0.031436194 0.74268007 2.0630002
-0.025541907 0.74464488 2.0630002
-0.019647621 0.74464482 2.0630002
-0.05422743 0.75604045 2.0630002
-0.047154289 0.75446862 2.0630002
-0.025541907 0.75053912 2.0630002
-0.056978099 0.76232767 2.0630002
-0.062872387 0.77608103 2.0630002
-0.05501334 0.77018678 2.0630002
-0.023577144 0.77018678 2.0630002
-0.20040573 0.78983438 2.0630002
-0.1949044 0.785119 2.0630002
-0.18861715 0.78197533 2.0630002
-0.16111049 0.78983438 2.0630002
-0.14408256 0.78852451 2.0630002
-0.13753335 0.78786957 2.0630002
-0.09627334 0.78983438 2.0630002
-0.062872387 0.78197533 2.0630002
-0.05501334 0.78197533 2.0630002
-0.016840819 0.7864663 2.0630002
-0.0078590484 0.78983438 2.0630002
0.039295241 0.78983438 2.0630002
0.043224767 0.78983438 2.0630002
0.053048577 0.78786957 2.0630002
-0.20335287 0.79474628 2.0630002
-0.19451144 0.79572856 2.0630002
-0.1833778 0.79638356 2.0630002
-0.17682858 0.79769337 2.0630002
-0.16242033 0.79638356 2.0630002
-0.15718096 0.79769337 2.0630002
-0.14441001 0.79671097 2.0630002
-0.13556859 0.79572856 2.0630002
-0.12574477 0.79474622 2.0630002
-0.11395621 0.79507369 2.0630002
-0.10216763 0.79769337 2.0630002
-0.095094487 0.79533565 2.0630002
-0.086449534 0.79376388 2.0630002
-0.025541907 0.79572862 2.0630002
-0.015718097 0.79572868 2.0630002
-0.0058942866 0.79572856 2.0630002
0.0029471433 0.79671097 2.0630002
0.016700476 0.79671097 2.0630002
0.025541907 0.79376388 2.0630002
0.035365716 0.79376388 2.0630002
0.045844451 0.79507369 2.0630002
0.054227438 0.7961216 2.0630002
0.06483715 0.79769337 2.0630002
-0.27113718 0.80555242 2.0630002
-0.26484993 0.80633831 2.0630002
-0.25738382 0.80555242 2.0630002
-0.18468763 0.80555248 2.0630002
-0.17525677 0.80633831 2.0630002
-0.16504002 0.80555248 2.063
-0.15560916 0.80633831 2.0630002
-0.14595376 0.80555254 2.0630002
-0.13556859 0.80162293 2.0630002
-0.12574477 0.80162293 2.0630002
-0.10315001 0.80457002 2.0630002
-0.094308585 0.80555242 2.063
-0.086449534 0.80555242 2.0630002
-0.023577144 0.80358768 2.0630002
-0.015156736 0.80555242 2.0630002
-0.0058942866 0.80555242 2.0630002
0.0039295242 0.80162293 2.0630002
0.013753334 0.80162293 2.0630002
0.06483715 0.80162293 2.0630002
-0.28292572 0.81734103 2.0630002
-0.2789962 0.81734103 2.0630002
-0.26524287 0.81537628 2.0630002
-0.25803876 0.81472135 2.0630002
-0.19451144 0.81734103 2.0630002
-0.18468764 0.81498337 2.0630002
-0.17289907 0.81341153 2.0630002
-0.16634986 0.81472135 2.0630002
-0.15587112 0.81603122 2.0630002
-0.10413239 0.81537628 2.0630002
-0.094308585 0.8153764 2.0630002
-0.086449534 0.81537628 2.0630002
-0.013753334 0.81537628 2.0630002
-0.0058942861 0.81537628 2.0630002
0 0.81734103 2.0630002
-0.27310193 0.82127059 2.0630002
-0.2632781 0.82127059 2.0630002
-0.20354937 0.82598603 2.0630002
-0.19385652 0.82389021 2.0630002
-0.18861715 0.82520008 2.0630002
-0.1552162 0.82127059 2.0630002
-0.14277272 0.82650995 2.0630002
-0.13753335 0.82520008 2.0630002
-0.10216763 0.82127059 2.0630002
-0.095880389 0.82362825 2.0630002
-0.086449534 0.82127059 2.0630002
-0.013753334 0.82421768 2.0630002
-0.0058942866 0.82520008 2.0630002
0.0034383335 0.82470888 2.063
-0.22201812 0.83698863 2.0630002
-0.21415907 0.83698863 2.0630002
-0.20826478 0.83502388 2.0630002
-0.011788572 0.83305913 2.0630002
-0.0052393656 0.83436894 2.0630002
0.0019647621 0.83698863 2.0630002
-0.28292572 0.85663629 2.0630002
-0.27703145 0.85663629 2.0630002
-0.26720765 0.85270673 2.0630002
-0.28273144 0.41915435 2.0760002
-0.27482289 0.41915435 2.0760002
-0.26889145 0.41915435 2.0760002
-0.24714287 0.41915435 2.0760002
-0.23528002 0.41520005 2.0760002
-0.22341716 0.41520005 2.0760002
-0.21484953 0.41783628 2.0760002
-0.20661145 0.4181658 2.0760002
-0.19507812 0.41783628 2.0760002
-0.18585145 0.41651815 2.0760002
-0.17596573 0.41915435 2.0760002
0.077108577 0.41915435 2.0760002
0.085017145 0.41915435 2.0760002
0.094902873 0.41915435 2.0760002
0.10676572 0.41915435 2.0760002
-0.25307432 0.42310861 2.0760002
-0.16410288 0.42310861 2.0760002
-0.15224001 0.4270629 2.0760002
-0.14630859 0.4270629 2.0760002
-0.13444573 0.4270629 2.0760002
0.039542861 0.4270629 2.0760002
0.13642287 0.4270629 2.0760002
-0.093914293 0.43200573 2.0760002
-0.085017145 0.43497145 2.0760002
-0.075131431 0.43596002 2.0760002
-0.067222863 0.43497145 2.0760002
-0.053382862 0.43497145 2.0760002
-0.045474291 0.43497145 2.0760002
-0.033611432 0.43497145 2.0760002
-0.027680002 0.43497145 2.0760002
-0.013840001 0.43497145 2.0760002
-0.0059314296 0.43299431 2.0760002
0.0039542867 0.43101722 2.0760002
0.015817147 0.43101722 2.0760002
0.027680002 0.43101719 2.0760002
0.03163429 0.43101719 2.0760002
0.16608001 0.46265149 2.0760002
0.17003429 0.46265149 2.0760002
0.16410288 0.47056004 2.0760002
0.17003429 0.47056004 2.0760002
-0.05140572 0.56941718 2.0760002
-0.045474291 0.56941718 2.0760002
-0.043497145 0.57337147 2.0760002
-0.071177147 0.58721149 2.0760002
-0.06564115 0.58523434 2.0760002
-0.056678098 0.58589339 2.0760002
-0.071177147 0.59314293 2.0760002
-0.064586669 0.59446108 2.0760002
-0.055360012 0.59512007 2.0760002
-0.045474291 0.59512007 2.0760002
-0.06326858 0.60105151 2.0760002
-0.054041915 0.60236961 2.0760002
-0.047451433 0.60105151 2.0760002
-0.067222863 0.61489147 2.0760002
-0.06326858 0.62873149 2.0760002
-0.065245718 0.63466287 2.0760002
-0.055360004 0.63664001 2.0760002
-0.045474291 0.63664001 2.0760002
-0.039542861 0.63664001 2.0760002
-0.071177147 0.64454865 2.0760002
-0.065245718 0.64454865 2.0760002
-0.055360012 0.64454871 2.0760002
-0.045474291 0.64454865 2.0760002
-0.039542861 0.64652574 2.0760002
-0.071177147 0.65245724 2.0760002
-0.064586669 0.65377533 2.0760002
-0.05140572 0.65443432 2.0760002
-0.045474291 0.65443432 2.0760002
-0.035588574 0.6548298 2.0760002
-0.026361909 0.65377533 2.0760002
-0.019771431 0.65245724 2.0760002
-0.067222863 0.66036582 2.0760002
-0.05140572 0.66036582 2.0760002
-0.045474291 0.66036582 2.0760002
-0.035588577 0.66488498 2.0760002
-0.02570286 0.6662972 2.0760002
-0.02570286 0.69990861 2.0760002
-0.017794289 0.69990861 2.0760002
-0.079085723 0.7078172 2.0760002
-0.033611432 0.70584005 2.0760002
-0.02570286 0.70584011 2.0760002
-0.019771431 0.7078172 2.0760002
-0.083040006 0.71374869 2.0760002
-0.074472398 0.71572584 2.0760002
-0.065245718 0.71968007 2.0760002
-0.052723818 0.71836203 2.0760002
-0.045474291 0.71572578 2.0760002
-0.035588577 0.71572578 2.0760002
-0.02570286 0.71572584 2.0760002
-0.017794289 0.71968007 2.0760002
-0.075131439 0.72521609 2.0760002
-0.065245718 0.72561151 2.0760002
-0.055360004 0.72363436 2.0760002
-0.03163429 0.72561151 2.0760002
-0.026361909 0.72627056 2.0760002
-0.017794289 0.72758865 2.0760002
-0.075131431 0.73549718 2.0760002
-0.06326858 0.73747432 2.0760002
-0.074340582 0.74498749 2.0760002
-0.065245718 0.74538291 2.0760002
-0.01713524 0.74472392 2.0760002
-0.05733715 0.75526863 2.0760002
-0.065245718 0.76515436 2.0760002
-0.090948582 0.77899438 2.0760002
-0.08699429 0.77899438 2.0760002
-0.065245718 0.7710858 2.0760002
-0.019771431 0.77899438 2.0760002
-0.15224001 0.78690296 2.0760002
-0.10281144 0.78690296 2.0760002
-0.095891431 0.78591436 2.0760002
-0.017794289 0.78294861 2.0760002
-0.19376002 0.79481149 2.0760002
-0.18641634 0.79481155 2.0760002
-0.17300001 0.79777718 2.0760002
-0.16476193 0.79481149 2.0760002
-0.15421717 0.79481155 2.0760002
-0.14630859 0.79876578 2.0760002
-0.13246858 0.79283434 2.0760002
-0.1133562 0.79612958 2.0760002
-0.10478859 0.79481149 2.0760002
-0.093914293 0.79184574 2.0760002
-0.085017145 0.79283434 2.0760002
-0.011862858 0.7908572 2.0760002
-0.0059314296 0.79283434 2.0760002
0.0047451439 0.79639322 2.0760002
0.015817145 0.79744768 2.0760002
0.02570286 0.79481149 2.0760002
0.035588574 0.79349345 2.0760002
0.047451433 0.79481149 2.0760002
-0.18585144 0.80272007 2.0760002
-0.17267048 0.80403817 2.0760002
-0.15421715 0.80469716 2.0760002
-0.13049145 0.80272007 2.0760002
-0.12456001 0.80469716 2.0760002
-0.11467429 0.8056857 2.0760002
-0.10676572 0.80272007 2.0760002
-0.090948582 0.80272007 2.0760002
-0.084358096 0.80403817 2.0760002
-0.28174287 0.81557155 2.0760002
-0.27521834 0.81537384 2.0760002
-0.17794289 0.81853724 2.0760002
-0.16608001 0.81853724 2.0760002
-0.15224001 0.81853724 2.0760002
-0.14499049 0.81721914 2.0760002
-0.13444573 0.81458306 2.0760002
-0.12357143 0.8135944 2.0760002
-0.11467429 0.81458288 2.0760002
-0.10676572 0.8126058 2.0760002
-0.019771431 0.81853724 2.0760002
-0.27482289 0.82249153 2.0760002
-0.1977143 0.82644576 2.0760002
-0.18585145 0.82545722 2.0760002
-0.17398858 0.82446861 2.0760002
-0.16410288 0.82446867 2.0760002
-0.15026288 0.82446861 2.0760002
-0.14499049 0.82380962 2.0760002
-0.13365488 0.82407326 2.0760002
-0.12258286 0.82446861 2.0760002
-0.11467429 0.82446873 2.0760002
-0.10676572 0.82644576 2.0760002
-0.019771431 0.82446861 2.0760002
-0.20298669 0.83699059 2.0760002
-0.19573715 0.83633155 2.0760002
-0.18684003 0.8333658 2.0760002
-0.17201144 0.83040011 2.0760002
-0.14235429 0.83040011 2.0760002
-0.13444573 0.83040011 2.0760002
-0.12258286 0.83040011 2.0760002
-0.11467429 0.83040011 2.0760002
-0.10478858 0.83040011 2.0760002
-0.015817145 0.8333658 2.0760002
-0.28436571 0.41561145 2.0880001
-0.27707428 0.41627431 2.0880001
-0.25254858 0.41760001 2.0880001
-0.24459429 0.41760001 2.0880001
-0.23266286 0.41362286 2.0880001
-0.22470857 0.41362286 2.0880001
-0.21741715 0.41494858 2.0880001
-0.20482287 0.41760001 2.0880001
-0.19686857 0.41561145 2.0880001
-0.18294857 0.41760001 2.0880001
0.08550857 0.41760001 2.0880001
0.095451437 0.41760001 2.0880001
-0.26447999 0.42157716 2.0880001
-0.2565257 0.42157716 2.0880001
-0.17101716 0.42157716 2.0880001
-0.16703999 0.42157716 2.0880001
-0.15510857 0.42555428 2.0880001
-0.14450286 0.42688 2.0880001
-0.13422857 0.42754287 2.0880001
-0.12527999 0.42953146 2.0880001
-0.11533716 0.42953146 2.0880001
-0.10738286 0.42953146 2.0880001
-0.093462855 0.42953146 2.0880001
-0.08550857 0.42953146 2.0880001
-0.075565718 0.42953146 2.0880001
-0.065622859 0.42953146 2.0880001
-0.059657145 0.42953146 2.0880001
0.0039771432 0.42953146 2.0880001
0.015908573 0.42953146 2.0880001
0.023862857 0.42953146 2.0880001
0.037782855 0.42754287 2.0880001
0.043748572 0.42555428 2.0880001
0.053691428 0.42157716 2.0880001
0.065622859 0.42157716 2.0880001
0.071588568 0.42157716 2.0880001
0.10340571 0.42157716 2.0880001
0.11533715 0.42157716 2.0880001
0.12527999 0.42157716 2.0880001
-0.08550857 0.43350857 2.0880001
-0.075565718 0.43350857 2.0880001
-0.065622859 0.43350857 2.0880001
-0.055679999 0.43350857 2.0880001
-0.045737144 0.43350857 2.0880001
-0.035794288 0.43483433 2.0880001
-0.025851429 0.43549716 2.0880001
-0.015908573 0.43483433 2.0880001
-0.0079542855 0.43350857 2.0880001
0.023862857 0.43350857 2.0880001
-0.063634284 0.57469714 2.0880001
-0.056475431 0.57509488 2.0880001
-0.047725715 0.57668573 2.0880001
-0.064960003 0.58331436 2.0880001
-0.054354288 0.58397722 2.0880003
-0.045737144 0.5826515 2.0880001
-0.067611434 0.62838858 2.0880001
-0.071588568 0.63435429 2.0880001
-0.067611434 0.6323657 2.0880001
-0.071588568 0.64032 2.0880001
-0.071588568 0.66219431 2.0880001
-0.067611434 0.66020572 2.0880001
-0.031817142 0.6641829 2.0880001
-0.025188571 0.66285717 2.0880001
-0.017897144 0.66219431 2.0880001
-0.017897144 0.7079314 2.0880001
-0.07954286 0.7158857 2.0880001
