# .PCD v0.7 - Point Cloud Data file format
VERSION 0.7
FIELDS x y z
SIZE 4 4 4
TYPE F F F
COUNT 1 1 1
WIDTH 1513
HEIGHT 1
VIEWPOINT 0 0 0 1 0 0 0
POINTS 1513
DATA ascii
0.11588572 0.20601907 1.6900003
0.12554286 0.20601906 1.6900003
0.1351102 0.20565228 1.6945714
0.14554286 0.20376001 1.6980001
0.15524571 0.20181945 1.6980002
0.16402452 0.20329799 1.6980002
0.099790484 0.21728572 1.6900001
0.10622858 0.21567619 1.6900003
0.11588571 0.21567617 1.6900003
0.12554285 0.21567616 1.6900003
0.13527237 0.21455999 1.6953335
0.14554286 0.21022858 1.6980001
0.16494858 0.21022858 1.6980001
-0.051504765 0.22855239 1.6900001
-0.048285715 0.22694287 1.6900001
0.097491167 0.2257932 1.6900003
0.10622857 0.22533332 1.6900003
0.11601101 0.22557206 1.6917779
0.12593906 0.22604956 1.6953335
0.13260572 0.22478287 1.6980001
-0.052309524 0.23579524 1.6900001
-0.046676189 0.23499048 1.6900003
-0.035409525 0.23820953 1.6900001
0.065668575 0.23563431 1.6900002
0.075111121 0.23713653 1.6900001
0.082890481 0.23740476 1.6900001
0.094961904 0.23499048 1.6900004
0.10622858 0.23499049 1.6900003
0.11619556 0.23561017 1.6944444
0.12505905 0.23556381 1.6980002
-0.053157464 0.24484321 1.6913335
-0.045066666 0.24464764 1.6900003
-0.035028096 0.24519667 1.6910002
-0.02897143 0.24786668 1.6900001
0.016555104 0.24556737 1.6900003
0.025752382 0.24464761 1.6900003
0.033800002 0.24625716 1.6900001
0.048285715 0.24625716 1.6900001
0.054723814 0.24625716 1.6900003
0.064416505 0.24477799 1.6908891
0.074440479 0.24505001 1.6900003
0.083695233 0.24464761 1.6900003
0.094961911 0.24464759 1.6900004
0.10639958 0.24503367 1.6926668
0.11603 0.24540144 1.6980001
0.12290286 0.24418858 1.6980001
-0.053864133 0.25584447 1.6966667
-0.045117456 0.2545706 1.6917779
-0.035446774 0.2545706 1.6917779
-0.027361907 0.25430477 1.6900003
-0.0048285718 0.2559143 1.6900001
0.005267533 0.25459743 1.6900004
0.01609524 0.2543048 1.6900003
0.025349999 0.25390241 1.6900003
0.033263497 0.25215876 1.6900001
0.045986395 0.25476465 1.6900003
0.05472381 0.2543048 1.6900003
0.064587511 0.25510564 1.6953335
0.074192166 0.25484484 1.6935556
0.083737567 0.25444022 1.6908891
0.094961911 0.25430483 1.6900004
0.10608144 0.25450239 1.694
0.11481714 0.25389141 1.6980001
-0.054411978 0.26513362 1.6945714
-0.045115769 0.26423618 1.6917779
-0.035028096 0.26371381 1.6910002
-0.025752382 0.26396191 1.6900003
-0.01609524 0.26396191 1.6900003
-0.0064380956 0.26396191 1.6900003
0.0048336508 0.26417017 1.6913337
0.01609524 0.26396191 1.6900003
0.02414286 0.26396191 1.6900003
0.035869386 0.26488161 1.6900003
0.045066666 0.26396191 1.6900003
0.054754287 0.26409906 1.6908891
0.064621374 0.2649321 1.6962223
0.074388571 0.26521146 1.6980001
0.084001698 0.26493716 1.6962222
0.094261341 0.26439431 1.6948
0.10342749 0.26503512 1.6968572
-0.061354928 0.27448761 1.6953334
-0.054891434 0.27448252 1.6953335
-0.045164872 0.27419811 1.6935556
-0.03549926 0.2743403 1.6944447
-0.025833651 0.27448764 1.6953335
-0.016129101 0.27419978 1.6935558
-0.0064380961 0.27361909 1.6900003
0.0048323809 0.27383238 1.6913337
0.016102012 0.27376127 1.6908891
0.025752382 0.27361909 1.6900003
0.035426456 0.2737647 1.6908891
0.045186877 0.27434373 1.6944444
0.054840639 0.27419981 1.6935556
0.064653546 0.27477208 1.6971111
0.074388579 0.27491429 1.6980001
0.083444573 0.27297372 1.6980002
0.092985719 0.27248856 1.6980001
-0.05493715 0.28439623 1.6966667
-0.045186881 0.28402627 1.6944444
-0.035516191 0.28417018 1.6953335
-0.025874287 0.28461716 1.6980001
-0.016171429 0.28461716 1.6980001
-0.0061360006 0.284592 1.6940001
0.0048285718 0.2848857 1.6900004
0.015802599 0.28444678 1.6900004
0.025825184 0.28402287 1.6944444
0.035577144 0.28461716 1.6980001
0.045279998 0.28461719 1.6980001
0.054336 0.28267661 1.6980002
-0.05498286 0.29108572 1.6980001
-0.045280002 0.29108572 1.6980002
-0.03881143 0.29432002 1.6980002
-0.012937143 0.29108572 1.6980001
-0.0064634928 0.29493082 1.6953332
0.0048400005 0.2952438 1.694
0.016633471 0.2952441 1.6980002
0.023718096 0.29216382 1.6980002
0.035577144 0.29432002 1.6980001
0.043662861 0.29431999 1.6980002
-0.048514288 0.30725718 1.6980001
-0.016171429 0.30442715 1.6980001
-0.0068633338 0.30406523 1.6960001
0.0044103898 0.30346704 1.6965456
0.012937143 0.30240571 1.6980001
0.03881143 0.30402288 1.6980002
0.043662861 0.30402288 1.6980002
-0.015093334 0.31588194 1.6980002
-0.0064616455 0.31449181 1.6958183
0.0035025401 0.3146975 1.6960001
0.043662861 0.31049144 1.6980001
-0.051748574 0.3234286 1.6980002
-0.046573717 0.32278177 1.6980002
-0.03881143 0.3250457 1.6980001
-0.016575715 0.3230243 1.6980001
-0.0064685722 0.32435268 1.6980002
0.0053904764 0.3250457 1.6980002
-0.061161906 0.33800003 1.6900001
-0.05498286 0.33879149 1.6980001
-0.048514288 0.33960003 1.6980001
-0.0064685717 0.33313146 1.6980001
0.0043123811 0.33744383 1.6980002
-0.061161906 0.34121904 1.6900001
-0.054414768 0.34464332 1.6930001
-0.047705717 0.34687716 1.6980001
-0.051504765 0.35570478 1.6900001
-0.047174864 0.35608611 1.6964
-0.03881143 0.35900572 1.6980001
-0.054180574 0.3625097 1.6932
-0.045280002 0.36385715 1.6980001
-0.03881143 0.36385715 1.6980001
-0.03881143 0.37841144 1.6980001
-0.03396 0.38164574 1.6980001
0.32738954 0.0040619047 1.7060001
0.33377254 0.0037137419 1.7060002
0.34119999 0.0097485716 1.7060001
0.32603559 0.018413968 1.7060001
0.34119999 0.012998096 1.7060001
0.31845334 0.025996191 1.7060001
0.32495239 0.025996193 1.7060002
0.30870476 0.037369527 1.7060001
0.31520382 0.035744764 1.7060002
0.32495239 0.032495242 1.7060001
0.33340114 0.035094857 1.7060002
0.29651907 0.047930479 1.7060001
0.30545527 0.044410162 1.7060001
0.3160162 0.043056194 1.7060001
0.32332763 0.043868572 1.7060001
0.29570669 0.051992383 1.7060001
0.28704131 0.066073656 1.7060002
0.27620953 0.0769054 1.7060001
0.28595811 0.071489528 1.7060001
0.26727334 0.085300006 1.7060001
0.27296001 0.081238098 1.7060001
0.26321143 0.090986669 1.7060001
0.24696381 0.10723429 1.7060001
0.25508761 0.10479715 1.7060001
0.24696383 0.11373334 1.7060001
0.25183809 0.11048381 1.7060001
0.23396574 0.12803125 1.7060002
0.24263112 0.12239873 1.7060001
0.22313397 0.13648002 1.7060001
0.2307162 0.13323049 1.7060001
0.21771811 0.14785334 1.7060001
0.22096762 0.14622858 1.7060001
0.21487477 0.15597714 1.7060002
0.20407009 0.16442591 1.7060002
0.21284382 0.1624762 1.7060001
0.18738922 0.17764065 1.7060001
0.19578382 0.17466192 1.7060001
0.17547429 0.18684763 1.7060001
0.18305652 0.18522286 1.7060001
0.16897525 0.19172192 1.7060001
0.17588048 0.19497144 1.7060002
0.15597714 0.20715715 1.7060001
0.16897525 0.20634477 1.7060001
0.17547429 0.20472001 1.7060002
0.13972953 0.21771811 1.7060001
0.14622857 0.21487477 1.7060002
0.15557095 0.21406239 1.7060002
0.16507582 0.21381867 1.7060002
0.17222477 0.21121906 1.7060001
0.13810477 0.22421715 1.7060001
0.14663476 0.22421716 1.7060002
0.15597716 0.22421715 1.7060001
0.1624762 0.22096762 1.7060001
0.1283562 0.23721525 1.7060001
0.13404287 0.23315334 1.7060001
0.14622858 0.2307162 1.7060001
0.12868117 0.24436419 1.7060002
0.13485524 0.24696381 1.7060001
0.14297906 0.24696381 1.7060001
-0.055241905 0.25671238 1.7060001
0.11373334 0.25996193 1.7060001
0.12473172 0.25396281 1.706
0.13648 0.25671238 1.7060001
-0.14297906 0.26971048 1.7060001
-0.055241905 0.26321143 1.7060001
0.10723429 0.26971048 1.7060001
0.11292095 0.26402381 1.7060001
0.085300006 0.27864668 1.7060001
0.094886102 0.27815923 1.7060002
0.10317239 0.27377239 1.7060001
-0.1371299 0.28790784 1.7060002
-0.12608154 0.28855774 1.7060002
-0.11698286 0.28920764 1.7060001
-0.061740953 0.28920764 1.7060001
-0.055241909 0.28595811 1.7060001
0.055241905 0.28758287 1.7060001
0.064990483 0.28433335 1.7060002
0.074739054 0.28502971 1.7060002
0.083837718 0.28400841 1.7060002
0.090986669 0.28270859 1.7060001
-0.13648002 0.29477823 1.7060002
-0.12673146 0.29477826 1.7060002
-0.061740953 0.29245716 1.7060001
-0.055241909 0.29611287 1.7060002
-0.045493335 0.29733142 1.7060002
-0.034444954 0.29570672 1.7060002
-0.02653778 0.29516506 1.7060002
-0.01665381 0.29611287 1.7060002
0.027079366 0.29678985 1.7060002
0.048742861 0.29570669 1.7060001
0.051992383 0.29570669 1.7060001
0.074739054 0.29663509 1.7060002
0.082862861 0.29733145 1.7060001
-0.12348191 0.3038305 1.7060001
-0.053617146 0.30545527 1.7060002
-0.045087144 0.30504906 1.7060002
-0.038181905 0.30626762 1.7060001
-0.02437143 0.30545527 1.7060001
-0.016247621 0.30220571 1.7060001
0.0097485716 0.30870476 1.7060001
0.016247621 0.30437207 1.7060001
0.025996191 0.30220571 1.7060001
0.034120005 0.30545524 1.7060002
0.048742861 0.30545527 1.7060001
0.051992383 0.30545527 1.7060001
0.074739046 0.30545527 1.7060002
0.082537912 0.30610517 1.7060002
-0.054158732 0.31466222 1.7060002
-0.045493335 0.31520382 1.7060002
-0.037044577 0.31390402 1.7060002
-0.016789207 0.31412065 1.7060002
0.0097485716 0.31357905 1.7060001
0.013810477 0.3160162 1.7060001
0.037044574 0.31390402 1.7060002
0.045957554 0.31613225 1.7060002
0.051992383 0.31357905 1.7060001
0.074739046 0.31520382 1.7060002
0.084081434 0.31479764 1.7060002
-0.055241905 0.32657716 1.7060001
-0.043868572 0.32576478 1.7060001
-0.034816332 0.32448816 1.7060002
-0.025996193 0.32495242 1.7060002
-0.012998096 0.32820192 1.7060001
0.015164446 0.32603556 1.7060002
0.032495242 0.32495239 1.7060001
0.077988572 0.32170287 1.7060001
0.082862861 0.32170287 1.7060001
-0.054158732 0.33470094 1.7060002
-0.045493335 0.33470097 1.7060002
-0.037044574 0.33340114 1.7060002
-0.025531974 0.33377254 1.7060002
-0.016247619 0.33470097 1.7060002
-0.0064990479 0.33470097 1.7060002
0.0050548147 0.33542308 1.7060002
0.016247619 0.33470097 1.7060002
0.022746667 0.33470097 1.7060001
-0.043868572 0.34444952 1.7060002
-0.03899429 0.34444952 1.7060001
-0.027620953 0.34119999 1.7060001
-0.0032495239 0.34444952 1.7060001
0.0048742858 0.34509945 1.7060002
0.016247621 0.34363714 1.7060001
0.022746667 0.34607428 1.7060001
-0.042243812 0.3541981 1.7060001
-0.037911113 0.35311493 1.7060001
-0.0032495239 0.3509486 1.7060001
0.0048742858 0.3509486 1.7060001
0.018413968 0.35311493 1.7060001
0.026646096 0.35549793 1.7060002
-0.044410162 0.36394668 1.7060001
-0.035744764 0.36557144 1.7060001
0.028162539 0.36178035 1.7060001
-0.042243812 0.37044573 1.7060001
-0.03899429 0.37369525 1.7060001
-0.035744764 0.38019428 1.7060001
-0.026402384 0.38709956 1.7060002
-0.019497143 0.38831812 1.7060001
0.32612222 0.036477778 1.715
0.30380002 0.048999999 1.715
0.29563332 0.057166666 1.715
0.30216667 0.053900003 1.715
0.294 0.065333337 1.715
0.28256667 0.07676667 1.715
0.29073334 0.071866661 1.715
0.27548891 0.086022221 1.715
0.26656005 0.095386662 1.715
0.27113333 0.093099996 1.715
0.25806665 0.1078 1.715
0.26351112 0.10344445 1.715
0.25480002 0.11487778 1.715
0.24630666 0.12544 1.715
0.25153336 0.12413333 1.715
0.22703333 0.1372 1.715
0.23519999 0.13393334 1.715
0.24282223 0.13175556 1.715
0.22703335 0.14373335 1.715
0.23193333 0.14210001 1.715
0.22458334 0.15271667 1.715
0.2079778 0.16877779 1.715
0.21494666 0.16725335 1.715
0.22213334 0.16170001 1.715
0.19600001 0.17966668 1.715
0.20580003 0.17313334 1.715
0.18816 0.18685333 1.715
0.19599999 0.18293333 1.715
0.18375 0.19599999 1.715
0.18456668 0.2058 1.715
0.16578333 0.21804999 1.715
0.17680833 0.21600834 1.715
0.18293333 0.2156 1.715
0.14210001 0.22703333 1.715
0.15516667 0.2254 1.715
0.16514815 0.2254 1.715
0.17313334 0.2254 1.715
0.18293333 0.22213334 1.715
0.1372 0.23683333 1.715
0.14326668 0.23613337 1.7150002
0.15394168 0.23560835 1.715
0.16224444 0.23411112 1.715
-0.13458668 0.24696 1.715
-0.1274 0.24826665 1.715
0.13556667 0.24336666 1.715
0.14373334 0.24459168 1.715
0.15353332 0.24499999 1.715
0.16006669 0.245 1.715
-0.14046668 0.25806665 1.715
-0.133 0.25526667 1.7150002
-0.12454166 0.25520831 1.715
-0.11651111 0.25697777 1.715
0.13556667 0.25316668 1.715
0.14373335 0.25534445 1.715
0.15306668 0.25386667 1.7150002
0.16006668 0.25316668 1.715
-0.15353334 0.26623333 1.715
-0.14264446 0.2656889 1.715
-0.13393334 0.26459998 1.715
-0.12454167 0.26460001 1.715
-0.1134 0.26413333 1.7150002
-0.10671111 0.26677778 1.715
0.11596666 0.26786667 1.715
0.12454166 0.26500833 1.715
0.13393334 0.26459998 1.715
0.14155558 0.26351112 1.715
-0.16006668 0.27603334 1.715
-0.15400001 0.27346668 1.7150002
-0.14326666 0.2744 1.7150002
-0.13393334 0.27440003 1.715
-0.12413333 0.2744 1.715
-0.11433335 0.27486667 1.7150002
-0.10671111 0.2765778 1.715
0.10616667 0.27766669 1.715
0.11302667 0.27309331 1.715
0.12478667 0.27243999 1.715
0.13327999 0.27243999 1.715
-0.1568 0.28093335 1.715
-0.14242667 0.28354666 1.715
-0.13393334 0.28326666 1.7150002
-0.12413333 0.28420001 1.715
-0.11433334 0.28419998 1.715
-0.10616666 0.28420001 1.715
0.088200003 0.28746665 1.715
0.095386669 0.28615999 1.715
0.10453334 0.28420004 1.715
0.11215556 0.28637779 1.715
-0.14373332 0.294 1.715
-0.12086667 0.29563332 1.715
-0.113925 0.29440835 1.715
-0.10616668 0.29400003 1.715
-0.063699998 0.29726666 1.715
-0.032666665 0.29726666 1.715
-0.024500001 0.29726666 1.715
0.057166673 0.29400003 1.715
0.065333329 0.29400003 1.715
0.075133331 0.29236668 1.715
0.085400008 0.29306668 1.7150002
0.094733335 0.294 1.715
0.10453334 0.29400003 1.715
0.11106667 0.294 1.715
-0.14046668 0.30379999 1.715
-0.13352498 0.30420834 1.715
-0.12358889 0.30380002 1.715
-0.11433334 0.30380002 1.715
-0.10616667 0.30216667 1.715
-0.063700005 0.30379999 1.715
-0.058800001 0.30543333 1.715
-0.034299999 0.30543333 1.715
-0.02695 0.30379999 1.715
0.017966665 0.30706668 1.715
0.026133334 0.30625001 1.715
0.057166666 0.30380002 1.715
0.065333337 0.30380002 1.715
0.087383337 0.30379999 1.715
0.094733335 0.30380002 1.715
0.10453334 0.30380002 1.715
0.11302667 0.30379999 1.715
-0.14046668 0.31360003 1.715
-0.13434166 0.3136 1.715
-0.123725 0.31360003 1.715
-0.11526668 0.31313336 1.7150002
-0.063373335 0.31294668 1.715
-0.058800001 0.31196666 1.715
-0.033755556 0.31468889 1.715
-0.026541665 0.31400833 1.715
0.016333332 0.3136 1.715
0.0294 0.3136 1.715
0.034299999 0.31686667 1.715
0.057166666 0.3136 1.715
0.065333337 0.3136 1.715
0.088200003 0.31033334 1.715
0.094324999 0.31319168 1.715
0.10371667 0.31115001 1.715
-0.14046668 0.3255778 1.715
-0.1372 0.32340002 1.715
-0.057166666 0.32176667 1.715
-0.034299999 0.32013336 1.715
-0.026133334 0.32013339 1.715
0.018783335 0.32340002 1.715
0.026133332 0.32503334 1.715
0.035933334 0.32536 1.715
0.045733333 0.32666665 1.715
0.054444443 0.32394445 1.715
0.066639997 0.32209334 1.715
0.074044444 0.32612222 1.715
0.088200003 0.32013336 1.715
0.094733328 0.32176667 1.715
-0.14046668 0.33320001 1.715
-0.058800001 0.33483332 1.715
-0.034299999 0.33810002 1.715
-0.027766667 0.33973333 1.715
0.027066668 0.33646667 1.7150002
0.035524998 0.33646667 1.715
0.045188889 0.33537778 1.715
0.058800001 0.33973333 1.715
0.062066663 0.33973333 1.715
-0.034299999 0.34626669 1.715
-0.025666667 0.34720004 1.7150002
-0.016333334 0.34626669 1.715
-0.0081666671 0.34626669 1.715
0.016333334 0.34692001 1.715
0.027066668 0.34580001 1.7150002
0.034844447 0.34681115 1.715
0.042466667 0.34626669 1.715
0.058800001 0.34463334 1.715
0.062066663 0.34463334 1.715
-0.044100001 0.35606664 1.715
-0.035933331 0.35443333 1.715
-0.026133334 0.35606667 1.715
-0.015026666 0.35475999 1.715
-0.0071866671 0.35475999 1.715
0.0058800001 0.35671997 1.715
0.01568 0.35606667 1.715
0.025316667 0.35443336 1.715
0.035525002 0.356475 1.715
-0.03348333 0.36504999 1.715
-0.026133336 0.36586666 1.715
-0.017266667 0.36540002 1.7150002
0.018511113 0.36368889 1.715
0.025480002 0.36652002 1.715
0.034299999 0.36423331 1.715
-0.045188889 0.37566668 1.715
-0.034626666 0.37501332 1.715
-0.026133334 0.37240002 1.715
-0.032666665 0.3822 1.715
-0.026133332 0.38383335 1.715
-0.0196 0.38546669 1.715
-0.0049000001 0.38873333 1.715
0.0294 0.40180001 1.715
0.035933331 0.40180001 1.715
0.33311334 0.039382856 1.723
0.30849907 0.049228575 1.723
0.31424236 0.046767145 1.723
0.33311334 0.042664763 1.723
0.30587354 0.056448765 1.7229999
0.31342191 0.05579238 1.723
0.29865333 0.065638095 1.723
0.30193526 0.065638095 1.723
0.28716666 0.07712476 1.723
0.29537141 0.073295876 1.723
0.28224382 0.083688572 1.723
0.27568004 0.095175244 1.7229999
0.26665479 0.10584144 1.723
0.27239808 0.10338001 1.723
0.25927049 0.11814857 1.723
0.26364636 0.11267873 1.723
0.25467584 0.12471237 1.7229999
0.23793811 0.13784 1.723
0.24679923 0.13521448 1.7229999
0.2553322 0.13258897 1.7229999
0.23723485 0.14487267 1.7229999
0.24286096 0.14112191 1.723
0.22809237 0.15589048 1.723
0.23383571 0.15342906 1.723
0.21988761 0.16737714 1.723
0.22738913 0.16456409 1.7229999
0.23410921 0.16300127 1.723
0.20511904 0.17722285 1.723
0.21619548 0.17517164 1.7229998
0.19472638 0.18597463 1.723
0.20216535 0.18444306 1.7229999
0.21168286 0.18050475 1.723
0.18706858 0.19363239 1.723
0.19297603 0.19363239 1.7229999
0.18706858 0.20019619 1.723
0.1903505 0.2034781 1.723
0.18706858 0.21660572 1.723
0.19100687 0.21594933 1.7229999
0.17503493 0.22699842 1.7229999
0.18378668 0.22513866 1.7229999
0.19035049 0.22316952 1.723
0.16628318 0.2384851 1.723
0.17262821 0.23498438 1.7229999
-0.14112191 0.24614286 1.723
-0.13784 0.24286096 1.723
0.1657362 0.24614286 1.7229999
0.17065905 0.24614286 1.723
-0.14374743 0.25664496 1.7229999
-0.13784 0.25434762 1.723
0.14604476 0.25270668 1.723
0.15589048 0.25927049 1.723
0.16464221 0.2559886 1.7229999
-0.16245428 0.26747528 1.723
-0.15424953 0.26255238 1.723
-0.14659175 0.26364636 1.723
-0.12143048 0.2658343 1.723
-0.11814857 0.26747525 1.723
0.14549778 0.26638126 1.7229999
0.15383928 0.26542407 1.7229998
0.16343886 0.26386517 1.7229999
-0.15260857 0.2789619 1.723
-0.14768572 0.2789619 1.723
-0.11486667 0.27403903 1.723
-0.10436459 0.27502361 1.7229999
0.11650762 0.27732095 1.723
0.1238919 0.27814144 1.723
0.13537857 0.27814144 1.723
0.14440382 0.27568001 1.7229998
0.15096763 0.27239808 1.723
-0.15260857 0.28388476 1.723
-0.14768574 0.28552574 1.723
0.11596064 0.28443176 1.7229999
0.12471238 0.28552571 1.7229998
0.1345581 0.28552571 1.7229998
0.14276287 0.28552574 1.7229999
-0.14768574 0.29537147 1.723
0.11650762 0.29537144 1.7229999
0.12471238 0.29537144 1.7229998
0.13455811 0.29537144 1.7229998
0.14112191 0.29537141 1.723
-0.10666192 0.30849907 1.723
0.11650762 0.30521715 1.723
0.12430213 0.30480692 1.7229998
0.13502695 0.30427948 1.7229999
-0.13127619 0.31506285 1.723
-0.12799428 0.31506285 1.723
-0.11158476 0.3167038 1.723
-0.1069901 0.31440648 1.7229999
0.019691428 0.31506285 1.723
0.025317552 0.31506285 1.7229999
0.09845715 0.31834477 1.723
0.10502096 0.31670383 1.723
0.11421029 0.31309372 1.7229999
-0.14112191 0.32490858 1.723
-0.13362043 0.32490858 1.7229999
-0.12512262 0.32449833 1.7229998
-0.11445644 0.32449833 1.7229998
0.056448765 0.32687771 1.7229999
0.063997142 0.32654953 1.723
0.086149998 0.32737002 1.723
0.095175251 0.32819051 1.723
0.10305182 0.32425222 1.7229999
-0.13619906 0.3314724 1.723
0.039382856 0.33803621 1.723
0.045946669 0.33803621 1.723
0.056261227 0.33569199 1.7229999
0.065638095 0.33475432 1.7229998
0.07589405 0.33516455 1.7229998
0.084016763 0.33344156 1.7229999
0.096488014 0.33344156 1.7229999
0.038288891 0.34678793 1.723
0.047587626 0.34460002 1.7229999
0.054151431 0.34460005 1.7229999
0.067279056 0.34460002 1.7229999
0.075483806 0.34418976 1.7229998
0.082047619 0.34295905 1.723
0.09845715 0.34295905 1.723
0.10502096 0.34295905 1.723
-0.034460001 0.35772762 1.723
-0.018050477 0.35772762 1.723
0.039382856 0.3544457 1.723
0.046356905 0.35485595 1.7229998
0.055792384 0.35444567 1.7229998
0.065638103 0.3544457 1.7229998
0.074827433 0.35444573 1.7229999
0.082047619 0.3544457 1.723
-0.034460001 0.36100951 1.723
-0.016409524 0.36319745 1.723
-0.0065638102 0.3642914 1.7229998
0.0044753249 0.36458978 1.7229998
0.013948096 0.36511192 1.723
0.039382856 0.3659324 1.723
0.045946669 0.36429143 1.7229998
0.055792384 0.36100954 1.723
0.063997142 0.36100951 1.723
-0.026255239 0.37741908 1.723
-0.015940681 0.37507483 1.7229999
-0.0065638102 0.37413713 1.7229998
0.0049228575 0.37413716 1.7229998
0.016409526 0.37413716 1.7229998
0.025786394 0.37507483 1.7229999
0.035690717 0.3737269 1.7229998
0.045946669 0.37085527 1.723
0.065638095 0.37413716 1.723
-0.032819048 0.38070098 1.723
-0.025598858 0.38201377 1.7229999
-0.015999286 0.38357264 1.7229998
-0.0065638097 0.3839829 1.7229998
0.0049228575 0.38398287 1.7229998
0.016409524 0.38398287 1.7229998
0.025786394 0.38304523 1.7229999
0.034460001 0.38070098 1.723
0.056886353 0.38507685 1.723
0.062356189 0.38398287 1.723
-0.014768571 0.39218765 1.723
-0.0098457141 0.39054668 1.723
0.0056261225 0.39195329 1.7229999
0.016819762 0.39341837 1.7229998
0.026255239 0.3942388 1.7229998
0.035163268 0.39429748 1.7229999
0.045946669 0.39711046 1.723
0.05333095 0.39464906 1.723
0.019691428 0.40039238 1.723
0.026255239 0.40039238 1.723
0.036100954 0.40039238 1.723
0.045946673 0.4036743 1.7229998
0.054698415 0.40476823 1.7229999
0.31670856 0.049485717 1.7320001
0.32165718 0.049485717 1.7320001
0.31406936 0.056743622 1.7320002
0.30681142 0.065980963 1.7320001
0.31340957 0.065980963 1.7320002
0.32000765 0.064331427 1.7320001
0.29361528 0.078077465 1.7320001
0.30351239 0.073678739 1.7320001
0.31340954 0.074228577 1.7320002
0.28619236 0.086600006 1.7320001
0.28041908 0.097321913 1.7320001
0.27514061 0.10688914 1.7320002
0.26612321 0.11766604 1.7320001
0.27217144 0.11381715 1.7320001
0.26298124 0.12489253 1.7320004
0.25402671 0.13856003 1.7320001
0.26172447 0.13636065 1.7320001
0.24610896 0.14581792 1.7320002
0.25402668 0.14557049 1.7320002
0.23753144 0.15670477 1.7320001
0.24412952 0.15505524 1.7320002
0.25072762 0.15505525 1.7320001
0.23643176 0.16605207 1.7320001
0.24346972 0.16297297 1.7320002
0.2259848 0.17484954 1.7320002
0.23175809 0.17402476 1.7320001
0.20784001 0.18474668 1.7320001
0.21443811 0.18474667 1.7320002
0.22235583 0.18408687 1.7320002
0.23093334 0.18144764 1.7320001
0.19684319 0.1957435 1.7320001
0.20289145 0.19464383 1.7320002
0.19629334 0.20454095 1.7320002
0.20206667 0.20454097 1.7320001
0.19629334 0.21443813 1.7320002
0.2023416 0.21223876 1.7320001
0.19464381 0.22516002 1.7320001
0.17649905 0.23753144 1.7320001
0.18474667 0.2342324 1.7320002
0.19134478 0.23258287 1.7320001
-0.14625779 0.24632892 1.7320001
0.17649905 0.24412954 1.7320002
0.18474667 0.24248001 1.7320002
-0.15340573 0.25567621 1.7320001
-0.14713752 0.25336689 1.7320002
0.17429969 0.25402671 1.7320002
-0.16165334 0.26392382 1.7320001
-0.15505525 0.26062477 1.7320001
0.16825144 0.26392382 1.7320001
0.17320001 0.26392385 1.7320002
0.15615493 0.27492064 1.7320002
0.1649524 0.27340856 1.7320002
0.17265019 0.27162158 1.7320001
0.14845714 0.28536761 1.7320001
0.15505524 0.28371811 1.7320002
0.16165334 0.28206861 1.7320001
0.14713752 0.29427508 1.7320002
0.15458396 0.29267272 1.7320004
0.14515811 0.30351242 1.7320004
0.15258096 0.30268762 1.7320001
0.11876572 0.31670856 1.7320001
0.12583512 0.31435212 1.7320004
0.13484859 0.31382191 1.7320002
0.14421552 0.31340954 1.7320004
0.15285589 0.31230986 1.7320001
-0.12206478 0.32990479 1.7320001
-0.11876572 0.32990479 1.7320001
0.10820877 0.32594594 1.7320002
0.11422952 0.32371905 1.7320002
0.12536383 0.32000765 1.7320001
0.13567333 0.32330671 1.7320002
0.14515811 0.32000765 1.7320001
0.1517562 0.32000765 1.7320001
-0.12442125 0.33603162 1.7320004
-0.1171162 0.33650291 1.7320002
0.08742477 0.33815241 1.7320001
0.094022863 0.33815241 1.7320001
0.10556953 0.33650288 1.7320002
0.11348724 0.3371627 1.7320002
-0.12536383 0.34310097 1.7320001
-0.11656636 0.34420067 1.7320001
0.075878099 0.34969905 1.7320001
0.086717829 0.34687132 1.7320004
0.094729804 0.34687132 1.7320004
0.10556953 0.34687132 1.7320004
0.11381714 0.34640002 1.7320002
0.076702863 0.35629714 1.7320001
0.086187631 0.35629717 1.7320002
0.095672384 0.35629717 1.7320002
0.10556953 0.35629714 1.7320002
0.11299238 0.35547239 1.7320001
0.05608381 0.36784384 1.7320002
0.06645225 0.3671369 1.7320004
0.075878099 0.36619431 1.7320002
0.085775249 0.36619428 1.7320002
0.095122539 0.36509463 1.7320002
0.10462695 0.36619431 1.7320004
0.039588571 0.37939048 1.7320001
0.046186667 0.37774098 1.7320002
0.056083813 0.37609148 1.7320002
0.065980956 0.37609145 1.7320002
0.075878091 0.37609148 1.7320002
0.085775249 0.37609148 1.7320002
0.093198098 0.3769162 1.7320001
0.10392 0.37279242 1.7320001
0.028041907 0.38928762 1.7320001
0.036760818 0.38693115 1.7320004
0.046186667 0.38598862 1.7320002
0.055533972 0.38543877 1.7320002
0.066393331 0.38598862 1.7320002
0.075878099 0.38598862 1.7320002
0.086187631 0.386401 1.7320002
0.094572708 0.38543877 1.7320002
0.10392 0.38598859 1.7320001
-0.0059382864 0.39720535 1.7320002
0.0039588576 0.39852497 1.7320002
0.013196191 0.39918476 1.7320001
0.026392382 0.39258671 1.7320001
0.039588571 0.39423621 1.7320001
0.046186667 0.39423621 1.7320002
0.058063239 0.39522594 1.7320002
0.065980956 0.39588571 1.7320002
0.075465716 0.39547333 1.7320002
0.085775241 0.39588574 1.7320002
0.095260002 0.39547336 1.7320002
0.10509824 0.39494318 1.7320004
0.014845715 0.40248385 1.7320001
0.058283176 0.40358353 1.7320001
0.065568574 0.40619528 1.7320002
0.07340382 0.40578288 1.7320001
0.086187631 0.40619531 1.7320002
0.092373334 0.40248385 1.7320001
0.08742477 0.41238096 1.7320001
0.32332858 0.054717142 1.7410001
0.29845715 0.07958857 1.7410001
0.30575275 0.078262091 1.7410001
0.29472646 0.085806429 1.7410001
0.30177334 0.08456286 1.7410001
0.28519237 0.096169531 1.7410001
0.28187618 0.10446 1.7410001
0.27607286 0.11689571 1.7410001
0.26861146 0.12767333 1.7410001
0.27192765 0.12601525 1.7410001
0.26728496 0.13596383 1.7410001
0.27192762 0.13596381 1.7410001
0.25534669 0.14259619 1.7410001
0.26330552 0.14657563 1.7410001
0.27192762 0.14259619 1.7410001
0.25700477 0.15420286 1.7410001
0.2453981 0.16802034 1.7410001
0.25203049 0.16249335 1.7410001
0.23655495 0.17575809 1.7410001
0.24208191 0.17244191 1.7410001
0.21721047 0.18902285 1.7410001
0.22715905 0.18570668 1.7410001
0.20892003 0.19565526 1.7410001
0.21334159 0.19454984 1.7410001
0.20759355 0.20560382 1.7410001
0.20626704 0.21621564 1.7410001
0.19897144 0.22715905 1.7410001
0.20311669 0.22467192 1.7410001
0.19660273 0.23592329 1.7410002
0.20228763 0.23544954 1.7410001
-0.15586096 0.24587186 1.7410002
-0.14922857 0.24373999 1.7410001
0.18570666 0.2487143 1.7410001
0.19565523 0.24539807 1.7410001
0.20228763 0.24208191 1.7410001
-0.16332239 0.25617573 1.7410001
-0.15718743 0.25402018 1.7410001
0.17907429 0.25700477 1.7410001
0.18570668 0.25402018 1.7410001
0.19233905 0.25203049 1.7410001
-0.16691492 0.26418984 1.7410001
0.17907429 0.26529524 1.7410001
0.18239048 0.26529524 1.7410001
0.16580953 0.27856001 1.7410001
0.17686352 0.27634925 1.7410001
0.16636223 0.28519237 1.7410001
0.17509486 0.28320268 1.7410001
0.15751904 0.29845715 1.7410001
0.16332239 0.29431194 1.7410001
0.14922857 0.30840573 1.7410001
0.15785067 0.30575275 1.7410001
0.16249335 0.30177334 1.7410001
0.14922857 0.31503808 1.7410001
0.1565242 0.31503808 1.7410001
0.16249335 0.31503811 1.7410001
0.11938286 0.32664478 1.7410001
0.12601525 0.32664478 1.7410001
0.13264762 0.3249867 1.7410001
0.14508334 0.32581574 1.7410001
-0.13264762 0.33659333 1.7410001
-0.12933142 0.33825141 1.7410001
0.11805638 0.334272 1.7410001
0.12601525 0.33493522 1.7410001
0.13596381 0.33493522 1.7410001
0.1449649 0.33446151 1.7410002
-0.13397411 0.34554708 1.7410001
-0.12684429 0.34654194 1.7410001
-0.11938286 0.34820002 1.7410001
0.11938286 0.34488386 1.7410001
0.12402552 0.34488386 1.7410001
0.14259619 0.34156764 1.7410001
-0.13397411 0.35416916 1.7410001
-0.12642975 0.35441786 1.7410001
-0.11938286 0.35151619 1.7410001
0.11855381 0.35566142 1.7410001
0.12380444 0.35262161 1.7410001
-0.13264762 0.36146477 1.7410001
-0.12767333 0.36146477 1.7410001
0.096169524 0.36809716 1.7410001
0.10943429 0.36478096 1.7410001
0.11606666 0.36478096 1.7410002
0.097496003 0.37406629 1.7410001
0.10943429 0.37141335 1.7410001
0.11606666 0.37141335 1.7410001
0.082904764 0.3846781 1.7410001
0.099485718 0.38302001 1.7410001
0.1061181 0.38401487 1.7410001
0.11606666 0.38716525 1.7410001
0.097827621 0.39131048 1.7410001
0.1061181 0.39131048 1.7410001
0.11275048 0.39794287 1.7410001
0.0066323816 0.40457529 1.7410001
0.069640003 0.40457526 1.7410001
0.078759521 0.40457526 1.7410001
0.082904764 0.40457526 1.7410001
0.097274929 0.40568066 1.7410001
0.10528905 0.40374619 1.7410001
0.11275048 0.40125906 1.7410001
0.078483179 0.41231298 1.7410001
0.082904764 0.41452381 1.7410001
0.096169531 0.41120762 1.7410001
0.30824381 0.085437149 1.7590001
0.31159431 0.085437149 1.7590001
0.29333335 0.095000014 1.7500002
0.30441472 0.092856057 1.7590001
0.31159431 0.09381333 1.7590002
0.28666669 0.105 1.7500001
0.29400763 0.10357334 1.7540001
0.30154288 0.10386477 1.7590001
0.28583926 0.11313297 1.7572001
0.29484195 0.11056571 1.7590001
0.2766667 0.12500001 1.7500001
0.28249222 0.12317409 1.7572001
0.27583337 0.13416669 1.7500001
0.28144002 0.13401905 1.7590001
0.26666668 0.14333335 1.7500001
0.27222228 0.14333335 1.7500002
0.28144002 0.14072001 1.7590001
0.26500002 0.15500002 1.7500001
0.27000004 0.15666668 1.7500001
0.25649336 0.16459095 1.7545002
0.26453906 0.16408192 1.758
0.27272877 0.16484343 1.7590001
0.24448381 0.17606048 1.7522502
0.25236878 0.17337981 1.7572001
0.23477095 0.18631335 1.7545002
0.24327239 0.18353306 1.7564287
0.215 0.19666667 1.7500001
0.22391336 0.19550288 1.7545002
0.23118286 0.19265237 1.7590001
0.21533334 0.20400003 1.7500002
0.22320139 0.20360166 1.7564287
0.21500002 0.21333335 1.7500002
0.2226181 0.21425049 1.7575001
0.20666668 0.22666667 1.7500001
0.21370287 0.22372003 1.753
0.22113143 0.22448191 1.7590001
0.20583335 0.23333335 1.7500001
0.21394858 0.2340019 1.755
0.22113143 0.23118286 1.7590001
-0.17380595 0.24416596 1.7589999
-0.16542429 0.24562572 1.7545002
-0.15666668 0.24500002 1.7500001
0.20554593 0.24358706 1.7518002
0.21242021 0.24391465 1.7590001
-0.18092571 0.25798669 1.7590001
-0.17393334 0.25420192 1.756
-0.16583335 0.25250003 1.7500001
0.18500002 0.25666669 1.7500001
0.19555557 0.2555556 1.7500002
0.20378643 0.25389174 1.7538573
0.21108 0.25128573 1.7590001
-0.18092571 0.26301241 1.7590001
-0.17454287 0.2632392 1.7525716
0.18583335 0.26333335 1.7500001
0.19389145 0.26408762 1.755
0.20102857 0.26133716 1.7590001
0.18532002 0.27380192 1.7530001
0.1939088 0.27515787 1.7589999
0.18469718 0.28443405 1.7538573
0.19432761 0.28479049 1.7589999
0.20102857 0.28311527 1.7590001
0.16666669 0.29666668 1.7500001
0.17343432 0.29350287 1.751
0.1838574 0.29442313 1.7589999
0.19097714 0.29149145 1.7590001
0.16583335 0.30416667 1.7500001
0.1740305 0.30454859 1.757
0.18176334 0.30573097 1.7590001
0.16533336 0.31266671 1.7500002
0.17403047 0.31458476 1.757
0.18092571 0.3149448 1.7590002
0.15555558 0.32555556 1.7500002
0.16352193 0.32370669 1.7520001
0.17347595 0.32395598 1.755625
0.14666668 0.33000001 1.7500001
0.15394929 0.33376625 1.7522501
0.16380382 0.33428958 1.755
0.17087428 0.33337241 1.7590001
-0.14000002 0.34333336 1.7500002
-0.13666669 0.3416667 1.7500001
0.12666668 0.34666669 1.7500001
0.13356763 0.34559143 1.7530001
0.14388192 0.34633288 1.7567501
0.15403618 0.34490475 1.758
0.16417333 0.345099 1.7589999
-0.14000002 0.35166669 1.7500001
0.12666668 0.35666668 1.7500001
0.13356572 0.35393524 1.753
0.14388192 0.35511714 1.75675
0.15460056 0.35419324 1.7590001
0.16333573 0.35263765 1.7590001
-0.13666669 0.36166668 1.7500001
0.12532572 0.36426765 1.7545002
0.13401906 0.36520192 1.7589999
0.14407049 0.36520192 1.7589999
0.1534518 0.36721221 1.7590001
0.11376619 0.37728193 1.7567501
0.12354857 0.37397721 1.753
0.13401905 0.37525338 1.7589999
0.14407048 0.37525338 1.7589999
0.15160906 0.37441573 1.7590001
0.10333334 0.38000005 1.7500002
0.11358069 0.383221 1.7538573
0.12361334 0.38420382 1.7540001
0.13401905 0.38530472 1.7589999
0.14365166 0.38488594 1.7589999
0.114 0.39466667 1.7500002
0.12422572 0.3952736 1.75675
0.13386858 0.39491048 1.757
0.14072001 0.39200574 1.7590001
0.10666667 0.4066667 1.7500001
0.11478668 0.405085 1.7518002
0.12301035 0.40492901 1.7590001
0.13234381 0.40205714 1.7590001
0.10666667 0.41000003 1.7500001
0.1126108 0.41252255 1.7560003
0.12229238 0.4121086 1.7590001
0.30813715 0.097660959 1.7680001
0.30687433 0.10439619 1.7679999
0.31318858 0.10271238 1.7680001
0.28961524 0.11786667 1.7680001
0.29567695 0.11449905 1.768
0.30476955 0.11113144 1.7680001
0.28877336 0.12544382 1.7680001
0.28512511 0.13470477 1.7680001
0.28624764 0.14144 1.7680001
0.25846478 0.17595811 1.7680001
0.26604193 0.17343239 1.768
0.27446097 0.17343238 1.7680001
0.24920383 0.18690287 1.7680001
0.253694 0.18297398 1.7680001
0.23669554 0.19580302 1.768
0.24541527 0.19490096 1.7679999
0.22899811 0.20710859 1.7680001
0.23573335 0.20542479 1.7679999
0.24583621 0.20542479 1.7679999
0.25257143 0.20879239 1.7680001
0.22899811 0.21552764 1.7680001
0.23573335 0.21552761 1.7679999
0.24583621 0.21552764 1.7679999
0.25593907 0.21384382 1.768
0.22563051 0.22495697 1.768
0.22563049 0.23573336 1.768
0.23236573 0.23236573 1.7680001
-0.18297398 0.24695876 1.7680001
-0.17848383 0.24920383 1.7680001
0.21777271 0.24583623 1.7680001
0.22394669 0.24246858 1.7680001
-0.18353525 0.25593907 1.7680001
0.20879239 0.2593067 1.7680001
0.21384382 0.25425524 1.7680001
-0.18521905 0.2643581 1.7680001
0.20486352 0.26716447 1.768
0.21216002 0.26940954 1.7680001
0.19868954 0.27277714 1.7680001
0.20542479 0.27614477 1.7679999
0.21216002 0.27782857 1.7680001
0.20638695 0.28672874 1.768
0.21328257 0.28400257 1.7680001
0.18858668 0.29971811 1.7680001
0.19574288 0.29677144 1.7679999
0.20205717 0.29635048 1.7680001
0.18723965 0.30577984 1.768
0.19363812 0.30308574 1.7680001
0.18690287 0.31655622 1.768
0.18521905 0.32497525 1.768
0.1919543 0.32665908 1.7680001
0.17713678 0.33406782 1.768
0.18454555 0.33137375 1.768
0.1751162 0.34349719 1.7679999
0.14480762 0.35191619 1.7680001
0.17511621 0.35191619 1.768
0.15423696 0.36302936 1.768
0.16164573 0.36707053 1.7680001
0.15715557 0.3760508 1.7680001
0.16248763 0.37464768 1.7680001
0.15533143 0.38432956 1.7679999
0.16501334 0.3839086 1.7679999
0.17174858 0.3822248 1.7680001
0.14548115 0.394685 1.768
0.15491049 0.39064384 1.7680001
0.16332954 0.39064384 1.7680001
0.12796953 0.40748191 1.7680001
0.13554667 0.40663999 1.7680001
0.14228192 0.40495619 1.7680001
0.11786667 0.41590098 1.7680001
0.12594895 0.41556421 1.768
0.13470478 0.41421714 1.7679999
0.14228192 0.41337526 1.7680001
0.11786668 0.42432004 1.7680001
0.12363974 0.42383894 1.768
0.13694984 0.42207497 1.7680001
0.2944743 0.1252362 1.7770002
0.2877048 0.13539048 1.7770001
0.29108953 0.13539049 1.7770002
0.29108953 0.14216 1.7770001
0.26570383 0.1793924 1.7770001
0.27247334 0.1793924 1.7770001
0.25611368 0.18841842 1.7770002
0.26333448 0.18413106 1.7770001
0.25385717 0.19631618 1.7770001
0.25588802 0.20579353 1.7770001
0.26175493 0.20872699 1.7770002
0.26401144 0.21324001 1.7770001
0.23422554 0.22542515 1.7770001
0.24370287 0.22508667 1.7770002
0.25301096 0.2225481 1.7770001
0.26062667 0.22000954 1.7770001
0.23354858 0.23270239 1.7770001
0.24370287 0.23354858 1.7770001
-0.1940597 0.24595937 1.7770002
-0.18700808 0.24454907 1.7770001
-0.17770001 0.2403181 1.7770001
0.22508667 0.24708763 1.7770001
0.23151772 0.24302593 1.7770001
-0.18819277 0.25318024 1.7770001
0.21662477 0.2572419 1.7770001
0.2233943 0.25047237 1.7770002
-0.2318562 0.26739621 1.7770001
-0.22677906 0.26739621 1.7770001
-0.18954667 0.26401144 1.7770002
0.20985524 0.26570383 1.7770001
0.21436827 0.26626796 1.7770002
-0.2318562 0.27078095 1.7770001
-0.22677906 0.27078095 1.7770001
-0.18548496 0.27213487 1.7770001
0.21577856 0.27416572 1.7770001
0.21662477 0.28432003 1.7770001
0.22000954 0.28432006 1.7770002
0.20816286 0.29616666 1.7770001
0.21324001 0.29108953 1.7770001
0.19716239 0.30716714 1.7770001
0.20421398 0.30462858 1.7770002
0.1963162 0.31478286 1.7770002
0.20308572 0.31478286 1.7770002
0.1963162 0.32445365 1.7770002
0.20308572 0.3215524 1.7770001
0.1870081 0.33763003 1.7770001
0.1940597 0.33283493 1.7770002
0.18616192 0.34524575 1.7770002
0.18519482 0.35491651 1.7770002
0.18390541 0.36329779 1.7770002
0.14892954 0.3994019 1.7770001
0.15231429 0.39770955 1.7770001
0.14757563 0.40549451 1.7770001
0.15366821 0.4068484 1.7770001
0.12862095 0.42817241 1.7770001
0.13313398 0.4253518 1.7770002
0.29936764 0.11906668 1.7860001
0.30617145 0.11736573 1.7860001
0.31467623 0.11396382 1.7860001
0.29936764 0.12416954 1.7860001
0.29709971 0.13721018 1.7860001
0.30617145 0.13947812 1.7860001
0.2976667 0.14288001 1.7860001
0.30617148 0.14288001 1.7860001
0.26875049 0.18710478 1.7860001
0.27470383 0.18370287 1.7860001
0.28235811 0.18030097 1.7860001
0.25854477 0.19731048 1.7860001
0.26330742 0.1932282 1.7860001
0.25854477 0.2007124 1.7860001
0.26194668 0.20241335 1.7860001
0.25514287 0.22452572 1.7860001
0.23813336 0.23473144 1.7860001
0.2444512 0.23424548 1.7860003
0.25344193 0.23303048 1.7860001
-0.2007124 0.24663812 1.7860001
-0.19731048 0.24493717 1.7860001
0.23699939 0.24493717 1.7860001
-0.20071241 0.25514287 1.7860001
-0.19560954 0.25514287 1.7860001
0.22452573 0.25684386 1.7860001
0.23246351 0.25287497 1.7860001
-0.23388097 0.26449808 1.7860001
-0.22622667 0.26534858 1.7860001
-0.19526935 0.26602897 1.7860001
0.21658795 0.26308066 1.7860001
0.22225779 0.26648256 1.7860001
-0.19390859 0.27215239 1.7860001
0.22282478 0.2755543 1.7860001
0.22452573 0.28576002 1.7860001
0.21545398 0.29596576 1.7860001
0.20751621 0.30787241 1.7860001
0.21261907 0.30617145 1.7860001
0.20751621 0.31467623 1.7860001
0.21205209 0.31410924 1.7860001
0.20298034 0.32771689 1.7860001
0.19731048 0.33678859 1.7860001
0.20241335 0.33508766 1.7860001
0.19526935 0.34291202 1.7860001
0.1930581 0.35464859 1.7860001
0.18710478 0.36740574 1.7860001
0.19050668 0.36400384 1.7860001
0.18710478 0.37420955 1.7860001
0.15818858 0.39802289 1.7860001
0.16499239 0.39802289 1.7860001
0.17349717 0.39802289 1.7860001
0.15852877 0.40414628 1.7860001
0.16465221 0.4048267 1.7860001
0.17349714 0.40227526 1.7860001
0.15988953 0.41163051 1.7860001
0.16499239 0.41333145 1.7860001
-0.16329144 0.43884572 1.7860001
-0.054430481 0.44905144 1.7860001
-0.037420955 0.44564956 1.7860001
-0.054430481 0.45245337 1.7860001
-0.08164572 0.49667811 1.7860001
-0.082779691 0.50234801 1.7860001
-0.076542862 0.50348198 1.7860001
0.30771428 0.11624762 1.7950001
0.30429527 0.12718859 1.7950001
0.31113333 0.12650476 1.7950001
0.29745716 0.1367619 1.7950001
0.3020159 0.13448255 1.7950001
0.27694285 0.18804763 1.7950001
0.28207144 0.18633811 1.7950001
0.26668572 0.19830476 1.7950001
0.27238414 0.19374603 1.7950001
0.26668572 0.20172381 1.7950001
0.25870797 0.22793654 1.7950001
0.26326668 0.22907621 1.7950001
0.24959049 0.23933335 1.7950001
0.2564286 0.23591429 1.7950001
0.26326668 0.23249525 1.7950001
0.23933335 0.24959049 1.7950001
0.24617144 0.24617144 1.7950001
0.25300953 0.24617144 1.7950001
-0.23249525 0.25813812 1.7950001
-0.22907621 0.25984764 1.7950001
-0.20514287 0.25813812 1.7950001
0.23705399 0.2575683 1.7950001
0.24617147 0.25545174 1.7950002
0.25471905 0.25642857 1.7950001
-0.2028635 0.26440638 1.7950001
-0.19830476 0.26326668 1.7950001
0.22651193 0.26412144 1.7950001
0.23249525 0.2649762 1.7950001
-0.20172381 0.27010477 1.7950001
0.22822145 0.27266905 1.7950001
0.23420477 0.27523333 1.7950001
0.22907621 0.28378099 1.7950001
0.23249525 0.28378096 1.7950001
0.21881905 0.29745716 1.7950001
0.22480239 0.29403812 1.7950001
0.23249525 0.29061908 1.7950001
0.21881905 0.30258572 1.7950001
0.19830476 0.34874287 1.7950001
0.20257857 0.34446904 1.7950001
0.19830476 0.35558099 1.7950001
0.20172381 0.35387143 1.7950001
0.19659524 0.36583811 1.7950001
0.20172381 0.36583811 1.7950001
0.18633811 0.37780479 1.7950001
0.1931762 0.37609527 1.7950001
0.18633811 0.38635239 1.7950001
0.1928343 0.38566861 1.7950001
0.18633811 0.39319047 1.7950001
0.16753334 0.40686667 1.7950001
0.17095238 0.40686667 1.7950001
0.17095238 0.41028574 1.7950001
-0.054704767 0.43763813 1.7950001
-0.043592859 0.43678331 1.7950001
-0.037609525 0.4376381 1.7950001
0.13505238 0.43592858 1.7950001
-0.17095238 0.44618571 1.7950001
-0.16362587 0.44545308 1.7950002
-0.1572762 0.44447622 1.7950001
-0.073167622 0.44516 1.7950001
-0.06447348 0.44545308 1.7950002
-0.054704767 0.44447619 1.7950001
-0.044447619 0.44447625 1.7950001
-0.037609525 0.44276667 1.7950001
-0.16240478 0.4513143 1.7950001
-0.073509529 0.45473337 1.7950001
-0.06496191 0.45473331 1.7950001
-0.054704767 0.4552218 1.7950002
-0.044447619 0.45473337 1.7950001
-0.037609525 0.45473337 1.7950001
-0.074079372 0.46442068 1.7950001
-0.06496191 0.46499053 1.7950001
-0.054704767 0.46499053 1.7950001
-0.044447619 0.46499053 1.7950001
-0.036754765 0.46584526 1.7950001
-0.092314295 0.47524762 1.7950001
-0.068380952 0.47524762 1.7950001
-0.052995242 0.47182858 1.7950001
-0.041028574 0.47182858 1.7950001
-0.037609525 0.47524762 1.7950001
-0.082057148 0.48892379 1.7950001
-0.077498421 0.48778412 1.7950001
-0.068380952 0.48892379 1.7950001
-0.037609525 0.48550481 1.7950001
0.11795714 0.48892379 1.7950001
0.12650476 0.48892379 1.7950001
-0.094878577 0.49832624 1.7950001
-0.08590357 0.49533454 1.7950001
-0.07564643 0.4961893 1.7950001
-0.067013338 0.49644575 1.7950001
-0.037609525 0.49405241 1.7950001
0.10940953 0.49576196 1.7950001
0.11624762 0.49478513 1.7950002
0.1242254 0.49348256 1.7950001
-0.095733337 0.50260007 1.7950001
-0.087185711 0.50260001 1.7950001
-0.075219058 0.50260007 1.7950001
-0.068380952 0.50260001 1.7950001
-0.037609525 0.50260001 1.7950001
0.11624762 0.50260001 1.7950001
0.14360002 0.50430954 1.7950001
0.30925718 0.12198476 1.8040001
0.31655908 0.12327334 1.804
0.32300195 0.12370287 1.8040003
0.30839813 0.13487048 1.8040001
0.3161296 0.13401143 1.804
0.32300195 0.13057524 1.8040001
0.31612957 0.14260191 1.8040001
0.27718604 0.19815367 1.8040003
0.28176764 0.19414479 1.8040001
0.26802287 0.20617144 1.8040001
0.27317715 0.20273525 1.8040001
0.26630479 0.2267886 1.8040001
0.26802287 0.23022479 1.8040001
-0.23366097 0.25427812 1.8040001
-0.20617144 0.25256002 1.8040001
0.25599623 0.25427812 1.8040001
-0.24053334 0.26286858 1.8040001
-0.23709716 0.26286858 1.8040001
-0.21418922 0.2622959 1.8040003
0.23709716 0.26630479 1.8040001
0.24396956 0.26556846 1.8040001
0.25427809 0.26458666 1.804
0.26115048 0.26286858 1.8040001
0.23537907 0.27145904 1.8040001
0.2577143 0.27145904 1.8040001
0.2267886 0.29894859 1.8040001
0.23022479 0.29723048 1.8040001
0.22507051 0.3041029 1.8040001
0.20788953 0.34705526 1.8040001
0.20754592 0.35461485 1.8040001
0.20660095 0.36380669 1.804
0.21418922 0.36652702 1.8040003
0.19929907 0.3762629 1.8040001
0.20568055 0.37356308 1.8040001
0.21304382 0.3745448 1.8040001
0.19929907 0.38485336 1.8040003
0.19357209 0.39516196 1.8040003
0.005154286 0.42265144 1.8040001
-0.087622859 0.43983242 1.8040001
-0.075596198 0.43983242 1.8040003
-0.06528762 0.43983242 1.8040003
-0.053260956 0.43639621 1.8040001
-0.046388574 0.43639621 1.8040001
-0.034361906 0.43811432 1.8040001
-0.025771432 0.43983242 1.8040001
-0.087622866 0.4449867 1.8040001
-0.077886999 0.44441399 1.8040003
-0.067005716 0.4432686 1.8040001
-0.03264381 0.4449867 1.8040001
-0.024053335 0.4449867 1.8040001
-0.014890159 0.44441399 1.8040003
-0.17352763 0.45357716 1.8040001
-0.16837333 0.45529526 1.8040001
-0.086334303 0.4540067 1.804
-0.079032391 0.45357716 1.8040003
-0.03264381 0.45357716 1.8040001
-0.024053335 0.45357719 1.804
-0.013744763 0.45357719 1.804
-0.0068723815 0.45701337 1.8040001
-0.1855543 0.46388575 1.8040001
-0.17524573 0.46560383 1.8040001
-0.094495244 0.46560383 1.8040001
-0.08590477 0.46388572 1.804
-0.079032391 0.46216768 1.8040001
-0.03264381 0.46388572 1.8040001
-0.024053335 0.46388572 1.804
-0.015462859 0.46216768 1.8040001
-0.096213348 0.47370347 1.8040001
-0.08590477 0.47419432 1.804
-0.076025724 0.47462383 1.804
-0.064600386 0.47625604 1.8040001
-0.055838101 0.47677144 1.8040001
-0.045357715 0.47625604 1.8040001
-0.032300193 0.47488156 1.8040001
-0.024053335 0.47075814 1.8040003
0.0045815879 0.4764851 1.8040003
0.01145397 0.47533971 1.8040003
-0.095783815 0.48407337 1.804
-0.085904762 0.48450285 1.804
-0.075166672 0.48407337 1.804
-0.06528762 0.48499379 1.8040001
-0.054488167 0.48450291 1.8040001
-0.044670481 0.48450285 1.804
-0.03264381 0.48450288 1.8040001
-0.027489526 0.48106667 1.8040001
0.13572952 0.48793909 1.8040001
0.14088382 0.48793909 1.8040001
-0.092777148 0.49309337 1.8040001
-0.087622859 0.49137527 1.8040001
-0.072160006 0.49309337 1.8040001
-0.063225918 0.49412423 1.8040001
-0.054979049 0.49481148 1.804
-0.044670481 0.49481145 1.804
-0.033502858 0.49481148 1.8040001
-0.027489526 0.49652958 1.8040001
-0.017180953 0.49652958 1.8040001
0.12713906 0.49824765 1.8040001
0.13444096 0.49524102 1.804
0.1422583 0.49549872 1.8040001
-0.062996835 0.50397468 1.8040003
-0.054406352 0.50397468 1.8040001
-0.044670481 0.5051201 1.804
-0.036080003 0.50597912 1.8040001
-0.026115051 0.50580734 1.8040001
-0.017180953 0.50168389 1.8040001
0.10909906 0.50512004 1.8040001
0.11425334 0.50597912 1.8040001
0.12370287 0.5051201 1.804
0.13401143 0.5051201 1.804
0.14432001 0.50168389 1.8040003
-0.036080003 0.51199239 1.8040001
0.1099581 0.51542866 1.8040003
0.11511239 0.5154286 1.8040001
0.12112572 0.51456958 1.8040001
0.14260191 0.5137105 1.8040001
0.28678477 0.19349335 1.8140001
0.29283145 0.19608478 1.8140001
0.30060571 0.19694859 1.8140001
0.27641904 0.20558669 1.8140001
0.28332955 0.20040382 1.8140001
0.29369527 0.20040384 1.8140001
0.30060571 0.20213145 1.8140001
-0.24186668 0.25914285 1.8140001
-0.23380446 0.25799114 1.8140001
-0.22113526 0.25741524 1.8140001
-0.21422479 0.25741524 1.8140001
-0.22401462 0.26490164 1.8140001
-0.21537653 0.26605338 1.8140001
0.26432574 0.26950857 1.8140001
0.24575381 0.27598715 1.8140001
0.25396001 0.27469143 1.8140001
0.26432574 0.27296382 1.8140001
0.23668382 0.28678477 1.8140001
0.23841144 0.29024002 1.8140001
0.23322859 0.30233335 1.8140001
0.21422479 0.35675335 1.8140001
0.21652827 0.36395177 1.8140001
0.22113526 0.36452764 1.8140001
0.21422479 0.37316576 1.8140001
0.20558669 0.38353145 1.8140001
0.21249716 0.3800762 1.8140001
0.19694859 0.3973524 1.8140001
0.20155558 0.39389718 1.8140001
0.19694859 0.40080765 1.8140001
0.20040382 0.40080765 1.8140001
-0.053556196 0.42672193 1.8140001
-0.043930892 0.42548794 1.8140002
-0.038007624 0.42499432 1.8140001
-0.0069104768 0.42844957 1.8140001
0.0051828576 0.42844957 1.8140001
-0.093291439 0.43708766 1.8140001
-0.087244764 0.43795145 1.8140001
-0.076015249 0.4388153 1.8140001
-0.064785719 0.43795145 1.8140001
-0.055777423 0.43437281 1.8140002
-0.044918101 0.43363237 1.8140001
-0.035704132 0.43536004 1.8140001
-0.024186671 0.4388153 1.8140001
-0.013820954 0.4388153 1.8140001
-0.0057587307 0.43651175 1.8140001
0.0034552384 0.43536001 1.8140001
0.010365715 0.43190479 1.8140001
-0.095019057 0.44572577 1.8140001
-0.082925722 0.44572577 1.8140001
-0.020731431 0.44227052 1.8140001
-0.013245082 0.44514987 1.8140001
-0.0051828576 0.44572577 1.8140001
0.0034552384 0.44572577 1.814
0.010365715 0.44572577 1.8140001
-0.18312763 0.45954672 1.8140001
-0.17880858 0.45695525 1.8140001
-0.093291447 0.45609146 1.8140001
-0.082925722 0.45263621 1.8140001
-0.0048373337 0.45540044 1.8140001
0.0024680276 0.45658511 1.8140002
-0.19176573 0.46732098 1.8140001
-0.18520078 0.46645719 1.8140001
-0.17794478 0.46300194 1.8140001
-0.10135367 0.46876067 1.8140001
-0.095019057 0.46300194 1.8140001
-0.012957145 0.46732098 1.8140001
-0.0048373337 0.46576616 1.8140001
0.0034552384 0.46645722 1.814
0.0149727 0.4676089 1.8140001
-0.1900381 0.47336766 1.8140001
-0.18485525 0.47336766 1.8140001
-0.17448953 0.47509527 1.8140001
-0.10192954 0.47509527 1.8140001
-0.024186669 0.47682291 1.8140001
-0.014684763 0.47423145 1.8140001
-0.0046069846 0.47567114 1.8140001
0.0034552384 0.47474977 1.8140001
0.014684763 0.47423148 1.8140001
-0.10503925 0.48304233 1.8140001
-0.062194284 0.48718861 1.8140001
-0.057011433 0.48718861 1.8140001
-0.044918098 0.48718861 1.8140001
-0.023754766 0.48373336 1.8140001
-0.017276194 0.48373336 1.8140001
-0.0051828576 0.48286957 1.8140001
0.0028793653 0.4843092 1.8140001
0.013820955 0.48373336 1.8140002
