# .PCD v0.7 - Point Cloud Data file format
VERSION 0.7
FIELDS x y z
SIZE 4 4 4
TYPE F F F
COUNT 1 1 1
WIDTH 1488
HEIGHT 1
VIEWPOINT 0 0 0 1 0 0 0
POINTS 1488
DATA ascii
-0.17065905 0.27239808 1.723
-0.16409524 0.27764913 1.7229999
-0.15753143 0.27732095 1.723
0.078765713 0.27568001 1.723
0.085798368 0.27614886 1.7229999
0.095175251 0.27239808 1.723
0.10502096 0.27458602 1.723
0.11486667 0.27403906 1.7229999
0.12471238 0.27609026 1.7229998
0.13209668 0.27650046 1.723
-0.16212609 0.28486934 1.7229999
-0.15643746 0.28771365 1.723
0.078765713 0.28552571 1.723
0.084509045 0.28470525 1.723
0.13390173 0.28355658 1.7229999
-0.16245428 0.2961919 1.723
-0.15518722 0.29584032 1.7229999
0.078765713 0.29537141 1.723
-0.16409524 0.30521718 1.7229998
-0.15424953 0.30521718 1.7229998
-0.14440382 0.30521718 1.7229998
-0.13496834 0.30562741 1.7229998
-0.12668154 0.30587357 1.7229999
0.078765713 0.30193526 1.723
-0.16409524 0.31178093 1.723
-0.15753143 0.31342191 1.723
-0.13237017 0.31287491 1.723
-0.12565008 0.3155317 1.7229999
0.067826033 0.3139689 1.723
0.073842853 0.31506288 1.7229999
-0.12274324 0.32490858 1.7229999
-0.11814857 0.32654953 1.723
-0.10338001 0.32819048 1.723
-0.096816197 0.32819048 1.723
0.068920001 0.32162666 1.723
0.074171059 0.32425222 1.7229999
-0.13127619 0.33803621 1.723
-0.12424354 0.33475432 1.7229999
-0.11533551 0.33569199 1.7229999
-0.10502097 0.33569202 1.7229999
-0.095585488 0.33516458 1.7229998
-0.015315555 0.33584827 1.723
0.075483814 0.3314724 1.723
-0.13346414 0.34569401 1.7229999
-0.12471238 0.34501022 1.7229998
-0.11486667 0.34460002 1.7229998
-0.10461073 0.34460002 1.7229998
-0.095175244 0.34460002 1.7229998
-0.088611424 0.3413181 1.723
-0.034460001 0.34788191 1.723
-0.022973334 0.34460002 1.723
-0.017503493 0.34241208 1.723
0.029537143 0.34788191 1.723
0.036100954 0.34788191 1.723
-0.13619906 0.35526621 1.723
-0.12339962 0.35575852 1.7229999
-0.11486667 0.35444573 1.7229998
-0.10502096 0.3544457 1.7229998
-0.096488014 0.35313299 1.7229999
-0.034460001 0.35444573 1.723
0.027896192 0.35362527 1.723
0.035444573 0.3524766 1.7229999
-0.12143048 0.36757335 1.723
-0.11650762 0.36757335 1.723
-0.10408327 0.36476028 1.7229999
-0.097636677 0.36511192 1.723
-0.032819048 0.36100951 1.723
-0.11486667 0.37085524 1.723
-0.10338001 0.37413713 1.7229999
-0.095175244 0.37413713 1.7229998
-0.085329525 0.37741908 1.723
-0.075483814 0.37741905 1.723
-0.068920001 0.37741905 1.723
-0.014768572 0.37741905 1.723
-0.0071107941 0.37523112 1.7229999
0.0016409525 0.37413713 1.7229999
-0.10173905 0.38726479 1.723
-0.094237559 0.38445175 1.7229999
-0.085739762 0.38439313 1.7229998
-0.075014971 0.38492057 1.7229999
-0.067279056 0.3839829 1.7229999
-0.015315555 0.38452989 1.7229999
-0.0065638102 0.3839829 1.7229998
0.0039382861 0.38431108 1.7229998
0.013127619 0.38726479 1.723
-0.10173905 0.39218765 1.723
-0.0932061 0.39317223 1.7229999
-0.085329525 0.3938286 1.7229998
-0.075483814 0.3938286 1.7229998
-0.065638095 0.3938286 1.7229998
-0.05825381 0.3938286 1.723
-0.035006985 0.39164066 1.723
-0.024067303 0.39273462 1.723
-0.016819762 0.39341834 1.7229998
-0.0073842853 0.39136717 1.723
0.0065638097 0.39054668 1.723
-0.091893338 0.4036743 1.723
-0.085329525 0.40367427 1.7229998
-0.075483806 0.4036743 1.7229998
-0.065638095 0.4036743 1.7229999
-0.056886353 0.4036743 1.723
-0.047587622 0.40531522 1.723
-0.072201908 0.41023809 1.723
-0.29361525 0.10886858 1.7320001
-0.29196572 0.11216763 1.7320001
-0.28701714 0.1171162 1.7320001
-0.28701714 0.12206478 1.7320001
-0.27052191 0.13361144 1.7320001
-0.26557335 0.13691048 1.7320001
-0.2622743 0.1451581 1.7320001
-0.25732574 0.14845714 1.7320001
-0.2342324 0.16715178 1.7320001
-0.23093335 0.17484954 1.7320001
-0.22763431 0.17814858 1.7320001
-0.22598478 0.18557145 1.7320001
-0.22527784 0.19511513 1.7320004
-0.22433525 0.20454098 1.7320002
-0.21663748 0.20674035 1.7320001
-0.2137783 0.21245869 1.7320002
-0.20520078 0.21509793 1.7320002
-0.20256154 0.22433524 1.7320002
-0.20344129 0.2342324 1.7320001
-0.19794287 0.23753144 1.7320001
-0.2023416 0.24193017 1.7320001
-0.19546857 0.24660383 1.7320001
-0.18380409 0.25355539 1.7320004
-0.17814858 0.25567621 1.7320001
-0.19134478 0.26062477 1.7320001
-0.18364701 0.26282415 1.7320002
-0.17814858 0.26557335 1.7320001
0.10721906 0.26392382 1.7320002
0.11505429 0.26433623 1.7320002
0.12618859 0.26309907 1.7320001
0.13526095 0.26392385 1.7320002
0.14433333 0.26639813 1.7320001
-0.18144764 0.27217144 1.7320001
-0.17539936 0.27382097 1.7320002
0.079177141 0.27382097 1.7320001
0.082476199 0.27382097 1.7320001
0.10721906 0.27217144 1.7320001
0.11216763 0.27052191 1.7320001
0.12426414 0.27162158 1.7320001
0.13691048 0.27382097 1.7320001
0.14350858 0.27052191 1.7320001
-0.17155048 0.28206861 1.7320001
-0.16825144 0.28536761 1.7320001
0.079177141 0.28206861 1.7320001
0.082476199 0.28371811 1.7320001
0.13856001 0.28041908 1.7320001
-0.16660193 0.29361525 1.7320002
-0.17155048 0.30351239 1.7320001
-0.1649524 0.30021337 1.7320001
-0.17155048 0.31176001 1.7320001
-0.1649524 0.31588382 1.7320001
-0.15340573 0.31505907 1.7320001
-0.14515811 0.31505907 1.7320002
-0.13746034 0.31560892 1.7320001
0.065980956 0.31340954 1.7320001
-0.16165334 0.32660574 1.7320001
-0.15505525 0.32495621 1.7320002
-0.14545803 0.32450634 1.7320002
-0.13526097 0.32429644 1.7320002
-0.1278381 0.32660574 1.7320001
0.067630485 0.32440642 1.7320002
0.072579056 0.32990479 1.7320001
-0.13361144 0.33485335 1.7320001
-0.12866287 0.33320382 1.7320001
0.069280006 0.33485335 1.7320001
0.072579056 0.33485335 1.7320001
-0.14350858 0.34804952 1.7320001
-0.13691048 0.34475049 1.7320001
-0.10886858 0.34640002 1.7320001
-0.14268382 0.35547239 1.7320001
-0.13361144 0.36289528 1.7320001
-0.12536383 0.36572301 1.7320004
-0.11499538 0.36525172 1.7320004
-0.10886858 0.36454481 1.7320001
-0.1237143 0.37279242 1.7320001
-0.11629143 0.37444192 1.7320001
-0.10886858 0.37444192 1.7320001
-0.10424991 0.3853288 1.7320002
-0.098971434 0.38433909 1.7320001
-0.10392 0.39588574 1.7320001
-0.09814667 0.39671052 1.7320001
-0.013196191 0.39918476 1.7320001
-0.005938286 0.39786515 1.7320002
0.0040321695 0.39551917 1.7320002
0.013196191 0.39258671 1.7320001
-0.10227048 0.40413338 1.7320001
-0.097321913 0.40578291 1.7320002
-0.014845715 0.40248385 1.7320001
-0.0065980954 0.40248388 1.7320001
-0.29514095 0.11606666 1.7410001
-0.29514095 0.12269904 1.7410001
-0.26861146 0.13928001 1.7410001
-0.26640067 0.14591239 1.7410001
-0.25402018 0.15453449 1.7410001
-0.24705617 0.15586096 1.7410001
-0.2453981 0.16249335 1.7410001
-0.23544954 0.17575811 1.7410001
-0.23379144 0.18570668 1.7410001
-0.22881715 0.18570668 1.7410001
-0.23379144 0.19565526 1.7410001
-0.23379144 0.20560382 1.7410001
-0.22502722 0.21460488 1.7410002
-0.21638143 0.21803953 1.7410001
-0.20892002 0.21886858 1.7410001
-0.20781462 0.22550097 1.7410001
-0.20781462 0.23544954 1.7410001
-0.20449841 0.24760889 1.7410001
-0.20339303 0.25313589 1.7410001
-0.19565524 0.25534669 1.7410001
-0.18902285 0.25700477 1.7410001
-0.19631849 0.26396877 1.7410001
-0.18791746 0.26750606 1.7410001
0.11938286 0.26197904 1.7410001
0.12435714 0.26197904 1.7410001
0.13762191 0.26197904 1.7410001
0.14480701 0.26308447 1.7410001
-0.18570666 0.27524385 1.7410001
-0.17907429 0.27856001 1.7410001
0.13928001 0.27856001 1.7410001
0.14508334 0.27524382 1.7410001
0.15254477 0.27192762 1.7410001
-0.18404858 0.28187618 1.7410001
-0.17575809 0.2851924 1.7410001
0.1442543 0.28519237 1.7410001
-0.17410001 0.29514098 1.7410001
-0.17708457 0.30575278 1.7410001
-0.17492904 0.31586716 1.7410001
-0.17244191 0.32498667 1.7410001
-0.16622405 0.32457218 1.7410001
-0.13596381 0.32830286 1.7410001
-0.16580953 0.33161908 1.7410001
-0.15586096 0.33659333 1.7410001
-0.14543864 0.33588272 1.7410002
-0.13762191 0.33327717 1.7410001
-0.16912571 0.34156764 1.7410001
-0.15586098 0.34488386 1.7410001
-0.14657561 0.34554708 1.7410001
-0.13817462 0.34267303 1.7410001
-0.15254477 0.35649049 1.7410001
-0.14790212 0.35483241 1.7410001
-0.14757049 0.36146477 1.7410001
-0.13430572 0.36809716 1.7410001
-0.12933142 0.36809716 1.7410001
-0.13430572 0.37141335 1.7410001
-0.12601523 0.37694031 1.7410001
-0.11275048 0.37804571 1.7410001
-0.12269904 0.38136193 1.7410001
-0.11606667 0.38467813 1.7410001
-0.10943429 0.38467813 1.7410001
-0.11275048 0.39628476 1.7410001
-0.10860525 0.39545572 1.7410001
-0.10744458 0.40391204 1.7410001
-0.0033161906 0.40789142 1.7410001
0.0016580953 0.40623334 1.7410001
-0.10446 0.41286573 1.7410001
-0.099485718 0.41452381 1.7410001
-0.31662002 0.07538572 1.7590001
-0.31608289 0.083616197 1.756
-0.30222225 0.11555555 1.7500002
-0.30111113 0.12111112 1.7500002
-0.29333335 0.12166667 1.7500001
-0.28144002 0.14742096 1.7590001
-0.27448902 0.14391729 1.7512859
-0.27339083 0.15287651 1.7575001
-0.2642743 0.1554945 1.7518002
-0.25666669 0.15666668 1.7500001
-0.27138859 0.1624981 1.7590001
-0.26348573 0.16342857 1.751
-0.25444448 0.16444448 1.7500002
-0.24500002 0.16666669 1.7500001
-0.26393455 0.17358309 1.75675
-0.25333336 0.17333336 1.7500001
-0.245 0.17333335 1.7500002
-0.24000001 0.17333335 1.7500002
-0.262454 0.18204254 1.7590002
-0.2539143 0.18375811 1.7540001
-0.24500003 0.18333337 1.7500002
-0.24000001 0.18333334 1.7500002
-0.25421739 0.19390881 1.7589999
-0.24605143 0.19416475 1.7575001
-0.24000001 0.19333336 1.7500002
-0.25128573 0.2027038 1.7590001
-0.24458477 0.20437905 1.7589999
-0.24324457 0.21309029 1.7590001
-0.23500001 0.215 1.7500001
-0.24123429 0.22280666 1.7590001
-0.23351666 0.22349526 1.7545
-0.22414017 0.22461881 1.7525716
-0.215 0.22500001 1.7500001
-0.21000001 0.22666667 1.7500001
-0.23118286 0.23453335 1.7590002
-0.22448193 0.23453334 1.7589999
-0.21500002 0.23333335 1.7500002
-0.22448193 0.24458477 1.7589999
-0.21518575 0.24353907 1.7515001
-0.21000001 0.24333334 1.7500002
-0.22352463 0.25415757 1.7590001
-0.21518575 0.25355336 1.7515001
-0.20916668 0.25416669 1.7500001
-0.22113143 0.26133716 1.7590001
-0.21480605 0.26446477 1.7575001
-0.20638289 0.26308811 1.7511251
0.12500001 0.26000002 1.7500001
0.14333335 0.26000005 1.7500002
0.15329753 0.26642364 1.7572001
0.16417335 0.26636288 1.7590001
0.17087428 0.26803809 1.7590001
-0.20331313 0.27344382 1.7533751
-0.19428574 0.27380955 1.7500002
0.15484732 0.27459177 1.7545002
0.16417335 0.27138859 1.7590002
0.17087428 0.27138859 1.7590001
-0.20327486 0.28410617 1.7577144
-0.19344574 0.28349715 1.751
-0.18500002 0.28666669 1.7500001
-0.18000001 0.28666669 1.7500001
0.14555557 0.28222227 1.7500002
0.15360667 0.28502929 1.757875
-0.20437907 0.29484192 1.7589999
-0.19355811 0.29367051 1.7520001
-0.18500003 0.29333335 1.7500002
-0.18000001 0.29333335 1.7500002
-0.20326224 0.30265972 1.7590002
-0.19366452 0.30408669 1.75675
-0.18516003 0.30359626 1.7515001
-0.18000001 0.30166668 1.7500001
-0.19265237 0.3149448 1.7590001
-0.18516003 0.31359908 1.7515001
-0.18000001 0.31500003 1.7500001
-0.19209397 0.32276258 1.7590002
-0.18496165 0.32500467 1.7564287
-0.17733334 0.32400003 1.7500002
-0.18379755 0.33409038 1.7590001
-0.17459588 0.33473307 1.7515001
-0.16500002 0.3366667 1.7500001
-0.17409071 0.34399551 1.7533751
-0.16500002 0.34333336 1.7500002
-0.14416668 0.34333336 1.7500001
-0.17240381 0.35485053 1.7575001
-0.16375002 0.35375005 1.7500001
-0.15555558 0.35444447 1.7500002
-0.17199111 0.36296827 1.7590002
-0.16333334 0.36333337 1.7500001
-0.15444447 0.36444446 1.7500002
-0.14333335 0.36666673 1.7500002
-0.16342859 0.37354866 1.751
-0.15333334 0.37333339 1.7500001
-0.14333333 0.37333339 1.7500001
-0.13500002 0.37666669 1.7500001
-0.16321607 0.38482612 1.7590001
-0.15403618 0.38508382 1.758
-0.14407049 0.38530475 1.7589999
-0.13333334 0.38333338 1.7500001
-0.12555557 0.3855556 1.7500002
-0.16166049 0.39451861 1.7590001
-0.15412191 0.39535621 1.7589999
-0.1444893 0.39535621 1.7589999
-0.13364191 0.39423624 1.7540001
-0.12500001 0.39333338 1.7500002
-0.11733333 0.39466667 1.7500002
-0.14407048 0.40792048 1.7590001
-0.13387048 0.40494481 1.757
-0.12510858 0.40367624 1.7515001
-0.11708333 0.40375006 1.7500001
-0.13200878 0.41478902 1.7590001
-0.12492491 0.4154591 1.7590001
-0.11454546 0.41333339 1.7500002
-0.12329753 0.42484036 1.7590001
-0.11454042 0.4223592 1.7538573
-0.10555556 0.42111111 1.7500002
-0.12061714 0.43221146 1.7590001
-0.32329145 0.074087627 1.7680001
-0.32329145 0.082506672 1.7680001
-0.28288001 0.15154287 1.7680001
-0.27782857 0.15659429 1.7680001
-0.27502224 0.16501334 1.7680001
-0.27277714 0.17343238 1.7680001
-0.2643581 0.18690287 1.7680001
-0.2626743 0.19532192 1.7680001
-0.2593067 0.19868954 1.7680001
-0.25690126 0.20590585 1.768
-0.25425524 0.21384382 1.7680001
-0.24695876 0.21665017 1.7680001
-0.24471366 0.22563049 1.7680001
-0.23910096 0.22899811 1.7680001
-0.23657525 0.23489144 1.7680001
-0.23320763 0.24499431 1.7680001
-0.23236573 0.25257143 1.7680001
-0.22899811 0.2576229 1.7680001
0.15491049 0.25930673 1.7680001
0.16585524 0.25846481 1.7680001
0.17511621 0.2576229 1.768
0.18353525 0.25762287 1.7680001
-0.22394669 0.2643581 1.7680001
-0.21889524 0.26940954 1.7680001
0.15575239 0.26351622 1.7680001
0.16501334 0.2626743 1.7680001
0.17553715 0.26562098 1.7679999
0.18521905 0.26435813 1.768
-0.21350709 0.27547127 1.768
-0.20879239 0.27951238 1.7680001
0.16501334 0.27782857 1.768
0.17174858 0.27782857 1.7680001
-0.21300191 0.28540573 1.7680001
-0.20879239 0.28793144 1.7680001
0.15827811 0.28288001 1.7680001
0.16433983 0.2842271 1.768
0.17174858 0.28288001 1.7680001
-0.20542477 0.30476955 1.7680001
-0.19868954 0.30982095 1.7680001
-0.19868955 0.31655622 1.7680001
-0.19756699 0.32553655 1.7680001
-0.1919543 0.33339429 1.7680001
-0.1846578 0.34349716 1.768
-0.18409654 0.35247749 1.768
-0.17848383 0.35528386 1.7680001
-0.18185145 0.36201906 1.7680001
-0.17764191 0.36454481 1.7680001
-0.17174858 0.37380576 1.7680001
-0.17174858 0.38054097 1.7680001
-0.16838096 0.3872762 1.7680001
-0.17174858 0.39064384 1.7680001
-0.16725843 0.39401147 1.7680001
-0.14144 0.39737907 1.7680001
-0.16332954 0.40243047 1.7680001
-0.15406859 0.40495622 1.7680001
-0.14480762 0.40546137 1.768
-0.15154287 0.41084954 1.7680001
-0.14312381 0.41590098 1.7680001
-0.13807239 0.41590098 1.7680001
-0.13358223 0.42319751 1.7680001
-0.12460192 0.43273908 1.7680001
-0.3283219 0.082926676 1.7770001
-0.2877048 0.14892954 1.7770001
-0.29108953 0.15400667 1.7770001
-0.28432003 0.15654524 1.7770001
-0.28093526 0.16416097 1.7770001
-0.27755049 0.16923811 1.7770001
-0.2750119 0.17685382 1.7770001
-0.27247334 0.18277714 1.7770001
-0.26739621 0.18954666 1.7770001
-0.26739621 0.19631618 1.7770002
-0.26536536 0.20579353 1.7770001
-0.26175493 0.21436827 1.7770002
-0.25047237 0.22677906 1.7770001
-0.24483112 0.23467684 1.7770002
-0.24201047 0.24370287 1.7770002
-0.23693335 0.24708763 1.7770001
-0.23580509 0.25385717 1.7770002
0.18954666 0.2572419 1.7770001
0.19293143 0.2572419 1.7770001
-0.23287164 0.26401144 1.7770001
-0.22677906 0.26739621 1.7770001
0.18954666 0.26062667 1.7770001
0.19293143 0.26231906 1.7770001
-0.22113781 0.27416572 1.7770002
-0.22000954 0.28432003 1.7770002
-0.21662477 0.28432003 1.7770001
-0.22000954 0.29785907 1.7770001
-0.21527086 0.29515123 1.7770001
-0.21324001 0.31647524 1.7770001
-0.20604739 0.31520596 1.7770002
-0.21324001 0.32493716 1.7770002
-0.20647047 0.32493713 1.7770002
-0.19767009 0.33441448 1.7770001
-0.19293143 0.34524572 1.7770001
-0.18954666 0.34693813 1.7770001
-0.19462381 0.35540003 1.7770002
-0.18841842 0.35765654 1.7770002
-0.19496228 0.36555427 1.7770001
-0.18712898 0.36603788 1.7770002
-0.18277714 0.3740162 1.7770001
-0.17770001 0.37570858 1.7770002
-0.17533068 0.38518593 1.7770001
-0.17431524 0.39432478 1.7770001
-0.16923811 0.3994019 1.7770001
-0.16416097 0.40786383 1.7770001
-0.15739143 0.40955621 1.7770001
-0.16246858 0.41294095 1.7770001
-0.15654525 0.41463336 1.7770001
-0.14892954 0.4180181 1.7770001
-0.12862095 0.42986479 1.7770001
-0.12862095 0.43494189 1.7770001
-0.11338952 0.48402095 1.7770001
-0.12523618 0.49079049 1.7770001
-0.11508191 0.49417526 1.7770001
-0.11508191 0.50094473 1.7770001
-0.33565468 0.07597588 1.7860001
-0.32885084 0.077109843 1.7860001
-0.33508766 0.085047625 1.7860001
-0.33508766 0.091851436 1.7860001
-0.28916192 0.15818858 1.7860001
-0.28576002 0.16499239 1.7860001
-0.28320858 0.17264667 1.7860001
-0.27640477 0.18455334 1.7860001
-0.27385336 0.19390857 1.7860001
-0.27351317 0.20411432 1.7860001
-0.27385336 0.21091811 1.7860001
-0.26789999 0.2151705 1.7860001
-0.26194668 0.22112383 1.7860001
-0.2551429 0.22282478 1.7860001
-0.25174099 0.23473144 1.7860001
-0.25174099 0.24493717 1.7860001
-0.24833906 0.24493717 1.7860001
-0.24493715 0.25514287 1.7860001
-0.23813336 0.25854477 1.7860001
0.2007124 0.25854477 1.7860001
-0.24396519 0.2648626 1.7860003
-0.23699939 0.26648256 1.7860001
0.2007124 0.26194668 1.7860001
-0.24323621 0.27215239 1.7860001
-0.23337069 0.27419356 1.7860001
-0.22656687 0.27623469 1.7860001
-0.22622669 0.28576005 1.7860001
-0.2364324 0.29426479 1.7860001
-0.22495097 0.29554051 1.7860001
-0.22452572 0.30617145 1.7860001
-0.21529198 0.30665743 1.7860003
-0.23132953 0.31977907 1.7860001
-0.22452575 0.31637719 1.7860001
-0.21568079 0.31501639 1.7860001
-0.23132953 0.32658288 1.7860001
-0.22452572 0.32658288 1.7860001
-0.21772192 0.32658288 1.7860001
-0.23132953 0.33338669 1.7860001
-0.22282478 0.33338669 1.7860001
-0.21432 0.33508766 1.7860001
-0.20581526 0.33508766 1.7860001
-0.21772192 0.34019047 1.7860001
-0.20184636 0.34132445 1.7860001
-0.19617651 0.34586033 1.7860001
-0.20071241 0.35379812 1.7860001
-0.19731048 0.35039622 1.7860001
-0.2007124 0.3623029 1.7860001
-0.19731048 0.36400384 1.7860001
-0.2007124 0.37080765 1.7860001
-0.19390857 0.37477654 1.7860001
-0.18710478 0.37591052 1.7860001
-0.19050668 0.38101336 1.7860001
-0.18370287 0.38441527 1.7860001
-0.18256891 0.39518794 1.7860001
-0.17689906 0.39462098 1.7860001
-0.17293017 0.4048267 1.7860001
-0.17301117 0.41600439 1.7860003
-0.16584286 0.41588286 1.7860001
-0.15648763 0.41843429 1.7860001
-0.010205715 0.41843429 1.7860001
-0.0068038101 0.41843429 1.7860001
-0.17349716 0.4252381 1.7860001
-0.16499239 0.42353719 1.7860001
-0.15697363 0.42426619 1.7860003
-0.13437524 0.43374288 1.7860001
0.13721018 0.4547213 1.7860001
0.14628193 0.45528829 1.7860001
0.15308572 0.45925716 1.7860001
-0.11396381 0.46946287 1.7860001
-0.10716001 0.46946287 1.7860001
-0.11469281 0.47675276 1.7860003
-0.10643103 0.47578073 1.7860003
-0.12416955 0.48647243 1.7860001
-0.11702553 0.48647243 1.7860001
-0.1075002 0.48579201 1.7860001
-0.1258705 0.49531737 1.7860001
-0.11566477 0.49531737 1.7860001
-0.10772699 0.49441022 1.7860001
-0.12416955 0.50348198 1.7860001
-0.11566477 0.503968 1.7860003
-0.1075002 0.5028016 1.7860001
-0.33506668 0.078638099 1.7950001
-0.2934683 0.16525398 1.7950001
-0.29147384 0.17351668 1.7950001
-0.2872 0.17608096 1.7950001
-0.28378096 0.18377382 1.7950001
-0.28036192 0.19146667 1.7950001
-0.28121668 0.20599763 1.7950001
-0.27694285 0.20514287 1.7950001
-0.28150162 0.21312067 1.7950001
-0.27523333 0.21710953 1.7950001
-0.2649762 0.22565715 1.7950001
-0.25813812 0.22907621 1.7950001
-0.25728336 0.23505953 1.7950001
-0.25642857 0.24617144 1.7950001
-0.25386429 0.25728333 1.7950001
-0.25471905 0.26326668 1.7950001
-0.24446191 0.27694285 1.7950001
-0.23762381 0.27694285 1.7950001
-0.24389207 0.28150162 1.7950001
-0.23634169 0.28420833 1.7950001
-0.23454666 0.29267049 1.7950001
-0.22651191 0.33763096 1.7950001
-0.22394761 0.34190476 1.7950001
-0.21334858 0.34463999 1.7950001
-0.20628254 0.3464635 1.7950001
-0.21369049 0.35216191 1.7950001
-0.20599763 0.3547262 1.7950001
-0.20514289 0.36583814 1.7950001
-0.2028635 0.37837464 1.7950001
-0.19830476 0.37951431 1.7950001
-0.20343333 0.38293335 1.7950001
-0.1953131 0.38677976 1.7950001
-0.18804763 0.38806191 1.7950001
-0.20514287 0.39660951 1.7950001
-0.1931762 0.39489999 1.7950001
-0.18633811 0.39319047 1.7950001
-0.2028635 0.40116829 1.7950001
-0.1928343 0.40276384 1.7950001
-0.18511702 0.40442449 1.7950002
-0.17779048 0.40686667 1.7950001
-0.19146667 0.41370481 1.7950001
-0.18462858 0.41370478 1.7950001
-0.17665081 0.41256511 1.7950001
0.0068380954 0.42054287 1.7950001
0.011966668 0.42054287 1.7950001
-0.16582382 0.43421909 1.7950001
0.06496191 0.44789523 1.7950001
0.073509529 0.44789523 1.7950001
0.064473473 0.45375648 1.7950002
0.12906906 0.45558813 1.7950001
0.13505238 0.45473337 1.7950001
-0.11368334 0.46584526 1.7950001
-0.10855477 0.46584526 1.7950001
-0.037609525 0.4649905 1.7950001
0.12992382 0.46157146 1.7950001
0.13505238 0.46328098 1.7950001
0.14408845 0.46401367 1.7950002
0.15214762 0.46670002 1.7950001
-0.12445333 0.47593147 1.7950001
-0.11966668 0.47524762 1.7950001
-0.10257144 0.47524762 1.7950001
-0.097784765 0.47593147 1.7950001
0.044447623 0.47695717 1.7950001
0.051285718 0.47695714 1.7950001
0.1367619 0.47182858 1.7950001
0.14223239 0.47456384 1.7950001
-0.12479524 0.48208573 1.7950001
-0.10257145 0.48550475 1.7950001
-0.097784765 0.48550478 1.7950001
0.044447623 0.48379529 1.7950001
0.051285718 0.48379526 1.7950001
0.14189048 0.48550478 1.7950001
-0.10393906 0.49576193 1.7950001
-0.098012701 0.49348256 1.7950001
-0.12992382 0.50430954 1.7950001
-0.1034262 0.50687379 1.7950001
-0.12479524 0.51285714 1.7950001
-0.11556382 0.51422477 1.7950001
-0.10770001 0.51456666 1.7950001
-0.30238479 0.16837333 1.8040001
-0.29894859 0.16493717 1.8040001
-0.30238479 0.17352763 1.8040001
-0.29723051 0.17524572 1.8040001
-0.2937943 0.1855543 1.8040001
-0.28749463 0.1878451 1.8040003
-0.2920762 0.19242668 1.8040001
-0.28692192 0.19242668 1.8040001
-0.28749463 0.20731685 1.8040003
-0.28405842 0.21877083 1.8040003
-0.27317715 0.2233524 1.8040001
-0.26527393 0.23434821 1.8040001
-0.2622959 0.24167874 1.8040003
-0.26286858 0.25599623 1.8040001
-0.2577143 0.25599623 1.8040001
-0.26286858 0.26115048 1.8040001
0.20617144 0.26286858 1.8040001
-0.24626033 0.28749463 1.8040003
-0.24396954 0.2920762 1.8040001
-0.21991621 0.34705526 1.8040001
-0.2233524 0.35392764 1.8040001
-0.21716726 0.35392764 1.8040001
-0.20960763 0.35736382 1.8040001
-0.21390286 0.36509526 1.8040001
-0.20960765 0.36423624 1.8040003
-0.21304382 0.3745448 1.8040001
-0.20823315 0.37523204 1.8040001
-0.21304382 0.38828957 1.8040001
-0.20754591 0.38622785 1.8040001
-0.21304382 0.39172575 1.8040001
-0.20568055 0.39418021 1.8040001
-0.19929907 0.39688003 1.8040001
-0.19844002 0.40632954 1.8040001
-0.19586287 0.41406095 1.8040001
-0.005154286 0.42608765 1.8040001
0.0057269847 0.42837843 1.8040003
0.012026668 0.42780572 1.8040001
0.025771432 0.42780572 1.8040001
0.030925717 0.42780572 1.8040001
-0.010308573 0.43811432 1.8040001
-0.005154286 0.43811432 1.8040001
0.001145397 0.43868703 1.8040003
0.015462859 0.43983242 1.8040001
0.025427813 0.43777069 1.8040001
0.03436191 0.43811435 1.8040001
0.044670485 0.43811429 1.8040001
0.052688256 0.43868703 1.8040003
0.065287627 0.43983242 1.8040003
-0.010308573 0.4449867 1.8040001
-0.005154286 0.4449867 1.8040001
0.0034361908 0.4449867 1.8040001
0.013744763 0.4449867 1.8040001
0.024053335 0.4449867 1.8040001
0.03436191 0.4449867 1.8040001
0.044670485 0.4449867 1.8040001
0.054979052 0.4449867 1.8040001
0.06528762 0.4449867 1.8040001
0.074908964 0.44533035 1.8040001
0.082468584 0.4467048 1.8040001
-0.036080003 0.45443621 1.8040001
-0.022678858 0.45495167 1.8040001
-0.013744762 0.45357719 1.804
-0.0051542865 0.45357722 1.8040001
0.0034361908 0.45357719 1.804
0.013744762 0.45357719 1.804
0.024053335 0.45357719 1.804
0.03436191 0.45357719 1.804
0.044670481 0.45357716 1.804
0.054979045 0.45357719 1.804
0.076087087 0.45455897 1.8040001
0.082468584 0.45357716 1.8040003
0.12713906 0.45529526 1.8040001
-0.10537651 0.46617657 1.8040003
-0.041234292 0.46560383 1.8040001
-0.033674669 0.46457297 1.8040001
-0.024053335 0.46345627 1.804
-0.013744762 0.46216768 1.8040001
-0.0048106671 0.46319851 1.8040001
0.0034361908 0.46388578 1.804
0.013744762 0.46388578 1.804
0.024053335 0.46388578 1.804
0.03436191 0.46388572 1.804
0.044670481 0.46388572 1.804
0.054979049 0.46388572 1.804
0.065717146 0.4643153 1.804
0.074450806 0.46274036 1.8040001
0.12542096 0.46216768 1.8040001
0.13057524 0.46732193 1.8040001
-0.13057524 0.4776305 1.8040001
-0.12370287 0.47247624 1.8040001
-0.10308572 0.47075814 1.8040001
-0.094495244 0.47591239 1.8040001
-0.041234292 0.47419429 1.8040003
-0.035220955 0.47333527 1.8040001
-0.0034361908 0.47419429 1.8040003
0.0034361908 0.47419432 1.804
0.013744763 0.47419432 1.804
0.024053335 0.47419432 1.804
0.03436191 0.47419432 1.804
0.044670485 0.47247624 1.8040001
0.055408575 0.47376478 1.804
0.062710479 0.47333527 1.8040001
0.086763814 0.47677144 1.8040001
0.092777148 0.47591239 1.8040001
0.13572952 0.4733353 1.8040001
0.14260191 0.47075814 1.8040001
-0.13057524 0.48278478 1.8040001
-0.093922548 0.48450288 1.8040003
-0.043296006 0.4831284 1.8040001
-0.037798099 0.48450288 1.8040003
-0.012599367 0.48221207 1.8040003
-0.005154286 0.48278478 1.8040001
0.0034361908 0.48450285 1.804
0.013744762 0.48450291 1.804
0.024053335 0.48450285 1.804
0.03436191 0.48450285 1.804
0.056697145 0.48450288 1.8040001
0.061851434 0.48450288 1.8040003
0.072160006 0.48106667 1.8040001
0.085904762 0.48450288 1.8040001
0.092777155 0.48450288 1.8040003
0.13744763 0.48450288 1.8040003
0.14202923 0.48335749 1.8040003
-0.094495244 0.49652958 1.8040001
-0.041234292 0.49137527 1.8040001
-0.037798099 0.49137527 1.8040001
-0.010308573 0.49824765 1.8040001
0.0044179596 0.49432057 1.8040001
0.013744763 0.49481148 1.804
0.024053335 0.49481145 1.804
0.03436191 0.49481145 1.804
0.044670481 0.49481148 1.804
0.054549526 0.49438193 1.804
0.061851434 0.49137527 1.8040001
0.086395651 0.49481148 1.8040001
0.092777148 0.49652958 1.8040001
0.13744763 0.49824765 1.8040001
0.14260191 0.49824765 1.8040001
-0.098275058 0.5051201 1.8040001
0.0060133338 0.50426102 1.8040001
0.01331524 0.50469053 1.804
0.023623813 0.50469053 1.804
0.03436191 0.5051201 1.804
0.044670481 0.5051201 1.804
0.05326096 0.5051201 1.8040001
0.092777148 0.50168389 1.8040001
0.14260191 0.50168389 1.8040001
-0.12370287 0.51886481 1.8040003
-0.10308572 0.51714671 1.8040001
0.024053335 0.51199239 1.8040001
0.03436191 0.51199239 1.8040003
0.041234292 0.51199239 1.8040001
-0.12713906 0.52230096 1.8040001
-0.1133943 0.52230096 1.8040001
-0.10824001 0.52230096 1.8040001
-0.30060571 0.17967239 1.8140001
-0.30060571 0.18485525 1.8140001
-0.29542288 0.18658288 1.8140001
-0.30060571 0.20040382 1.8140001
-0.29369527 0.20213145 1.8140001
-0.28678477 0.20385906 1.8140001
-0.29024002 0.22113526 1.8140001
-0.28332955 0.2245905 1.8140001
-0.27728286 0.22718191 1.8140001
-0.26490161 0.2476254 1.8140001
0.20731431 0.24704953 1.8140001
-0.26432574 0.2522324 1.8140001
0.20731431 0.2522324 1.8140001
0.21076953 0.25741524 1.8140001
0.21076953 0.26432574 1.8140001
-0.2522324 0.29024002 1.8140001
-0.24532191 0.29715049 1.8140001
-0.24532191 0.30060571 1.8140001
-0.22286287 0.35934478 1.8140001
-0.22199906 0.36711904 1.8140001
-0.21768001 0.36452764 1.8140001
-0.22389944 0.3752389 1.8140001
-0.21652827 0.37546927 1.8140001
-0.2241586 0.38309956 1.8140001
-0.21629791 0.38422251 1.8140001
-0.222287 0.39159366 1.8140001
-0.21768001 0.39216954 1.8140001
-0.010365715 0.42844957 1.8140001
0.0017276192 0.42844957 1.8140001
0.017276192 0.42844957 1.8140001
0.020731431 0.42844957 1.8140001
-0.072560005 0.43536004 1.8140001
-0.069104776 0.43536004 1.8140001
-0.05413207 0.43305653 1.8140001
-0.012093334 0.43708766 1.8140001
-0.0051828576 0.4336324 1.8140001
0.0034552384 0.43593585 1.8140001
0.014314559 0.43634728 1.8140002
0.022113526 0.43605104 1.8140001
0.035243433 0.43397793 1.8140001
0.041462861 0.4336324 1.8140001
0.057011433 0.43881527 1.8140001
0.065649532 0.4388153 1.8140001
0.072560005 0.43881527 1.8140001
-0.044918101 0.44572577 1.814
-0.038007624 0.44572577 1.8140001
-0.02332286 0.44831717 1.8140001
-0.015548572 0.44572577 1.8140001
0.0069104768 0.44227052 1.8140001
0.010365715 0.44227052 1.8140001
0.058739051 0.44227052 1.8140001
0.076879054 0.44313431 1.8140001
0.082925722 0.44399813 1.8140001
-0.043930892 0.45609149 1.8140002
-0.033170287 0.45540044 1.8140001
-0.025914289 0.45436385 1.8140001
0.086380959 0.45609146 1.8140001
0.12438857 0.45954672 1.8140001
-0.10020191 0.46991241 1.8140001
-0.044918098 0.46576616 1.8140001
-0.032824762 0.46300194 1.8140001
-0.024186669 0.46991241 1.8140001
-0.013820954 0.46783924 1.8140001
-0.0069104768 0.46991241 1.8140001
0.078318745 0.46876067 1.8140001
0.084307827 0.46576616 1.8140001
0.093291439 0.46818477 1.8140001
0.12438858 0.46645719 1.8140001
-0.10020191 0.47336766 1.8140001
-0.093291439 0.47682288 1.8140001
-0.046069842 0.47567114 1.8140001
-0.032824762 0.47682288 1.8140001
-0.024186671 0.47474977 1.8140001
-0.013820954 0.47509527 1.8140001
-0.0069104768 0.47509527 1.8140001
0.06795302 0.47567114 1.8140001
0.076015249 0.47509527 1.8140001
0.085689917 0.47474977 1.8140001
0.095594935 0.47451943 1.8140001
0.13129906 0.47336766 1.8140001
-0.046645716 0.48373336 1.8140001
-0.032824762 0.48373336 1.8140001
-0.024186669 0.484227 1.8140002
-0.014396827 0.48315749 1.8140001
-0.0069104768 0.4802781 1.8140001
0.06737715 0.48373336 1.8140001
0.076447144 0.48373336 1.8140001
0.086380959 0.48373336 1.8140001
0.096746676 0.48373336 1.8140001
-0.093291439 0.49237144 1.8140001
-0.045905311 0.4945927 1.8140002
-0.03340064 0.49409908 1.8140001
-0.024186671 0.49409905 1.814
-0.013820954 0.49409905 1.814
-0.0051828576 0.49409908 1.8140001
0 0.49755427 1.8140001
0.066636741 0.4945927 1.8140002
0.076015249 0.49409905 1.814
0.086380959 0.49237144 1.8140001
0.095882863 0.49409905 1.8140001
0.13820954 0.49582666 1.8140001
0.14281653 0.49525079 1.8140001
-0.095019057 0.50446481 1.8140001
-0.043536007 0.50308269 1.8140001
-0.038007624 0.50273716 1.8140001
-0.021883175 0.50331306 1.8140001
-0.014512002 0.50308275 1.8140001
-0.0051828576 0.50273716 1.8140001
0.0008638096 0.50532866 1.8140001
0.058739051 0.50446486 1.8140001
0.065649532 0.50446481 1.814
0.076015249 0.50273722 1.8140001
0.085887358 0.50545204 1.8140002
0.13648191 0.50446481 1.8140001
-0.10020191 0.51483047 1.8140001
-0.020731431 0.51310289 1.8140001
-0.015548572 0.51310289 1.8140001
-0.0034552384 0.51310289 1.8140001
0.0011517461 0.51252699 1.8140001
0.027641907 0.51310289 1.8140001
0.046645716 0.51483047 1.8140001
0.056147624 0.51396668 1.8140001
0.064785719 0.51223904 1.8140001
-0.12323683 0.52634805 1.8140001
-0.11488668 0.52778769 1.8140001
-0.10538478 0.52692389 1.8140001
-0.11229526 0.5321067 1.8140001
-0.10711239 0.5321067 1.8140001
-0.30313146 0.19542858 1.8240001
-0.29647243 0.19687621 1.8240001
-0.2866286 0.1980343 1.8240001
-0.30434746 0.20567773 1.8240002
-0.29600915 0.20428801 1.8240002
-0.2866286 0.20150858 1.8240001
-0.2866286 0.22756572 1.8240001
-0.28141713 0.23277715 1.8240001
-0.27504763 0.23625144 1.8240002
-0.27215239 0.24435812 1.8240001
-0.27099428 0.25362286 1.8240001
0.21453714 0.25449142 1.8240001
0.21679544 0.26335087 1.8240002
0.22235429 0.26230857 1.8240001
-0.25188571 0.29705146 1.8240001
-0.23277715 0.36132574 1.8240001
-0.22791314 0.36549488 1.8240002
-0.23277716 0.37522289 1.8240001
-0.22930287 0.37348574 1.8240001
-0.23277715 0.3839086 1.8240001
-0.015634287 0.42733717 1.8240001
-0.064274281 0.43602288 1.8240001
-0.056978285 0.43428573 1.8240002
-0.045165718 0.43602288 1.8240002
-0.038217146 0.43602288 1.8240001
-0.024320001 0.43776003 1.8240001
-0.014889797 0.43428573 1.8240004
0.046902858 0.43776003 1.8240001
-0.074697152 0.44470859 1.8240001
-0.065577142 0.44514287 1.8240002
-0.055588569 0.44470862 1.8240002
-0.045165718 0.44123429 1.8240001
-0.034742858 0.44470859 1.8240002
-0.024754288 0.44427431 1.8240002
-0.017371429 0.44123429 1.8240001
0.078171432 0.44123429 1.8240001
0.086857148 0.44644573 1.8240001
0.090331435 0.44818288 1.8240001
0.12507428 0.44470859 1.8240001
-0.073828578 0.45513144 1.8240001
-0.066011429 0.45513147 1.8240002
-0.055588577 0.45513144 1.8240002
-0.048640002 0.45513144 1.8240001
-0.033005714 0.45165715 1.8240001
0.086857148 0.45513144 1.8240001
0.093309395 0.45612413 1.8240004
0.10075429 0.45860574 1.8240001
0.11465143 0.45860574 1.8240001
0.12565334 0.45513147 1.8240002
-0.072960004 0.46555433 1.8240001
-0.066011429 0.4655543 1.8240002
-0.055588569 0.46555424 1.8240002
-0.048640002 0.46381715 1.8240001
0.093805723 0.46512002 1.8240002
0.10162286 0.46642286 1.8240001
0.11604115 0.4662492 1.8240002
0.12160001 0.4655543 1.8240001
-0.093805723 0.47481906 1.8240002
-0.085699052 0.47481906 1.8240001
-0.074118108 0.47366095 1.8240001
-0.066011429 0.47424003 1.8240002
-0.055009525 0.47481906 1.8240002
-0.048640002 0.47424001 1.8240001
-0.024320001 0.47945148 1.8240001
0.086857148 0.47250286 1.8240001
0.093805715 0.47250286 1.8240001
0.102144 0.47597715 1.8240002
0.12739049 0.47597718 1.8240001
0.13202286 0.47945148 1.8240001
0.1737143 0.47945148 1.8240001
-0.090331435 0.48640007 1.8240001
-0.085120007 0.48813719 1.8240001
-0.07990858 0.48987433 1.8240001
-0.052114289 0.48640007 1.8240001
-0.024320001 0.48466289 1.8240001
0.10249144 0.48640007 1.8240002
0.1737143 0.48292574 1.8240001
-0.090331435 0.49508578 1.8240001
-0.053272389 0.49566483 1.8240001
0.10353372 0.49473834 1.8240002
0.13549714 0.49334863 1.8240001
-0.091489539 0.50377142 1.8240001
-0.085120007 0.50203425 1.8240001
-0.07990858 0.50203431 1.8240001
-0.053851433 0.50377148 1.8240002
-0.046902858 0.50724572 1.8240001
-0.033353146 0.5044663 1.8240002
-0.026636191 0.50492954 1.8240001
0.10191239 0.50145525 1.8240001
-0.052114289 0.51072001 1.8240001
-0.046902858 0.51072001 1.8240001
-0.034742858 0.51245713 1.8240001
-0.025014861 0.5121097 1.8240002
-0.013028571 0.51158857 1.8240001
-0.0057904767 0.51187813 1.8240001
0.076434299 0.51245713 1.8240002
-0.13202286 0.52635431 1.8240001
-0.10075429 0.52114284 1.8240001
-0.12160001 0.5333029 1.8240001
-0.11551999 0.53764576 1.8240001
-0.10509715 0.53590858 1.8240001
-0.11551999 0.54285717 1.8240001
-0.10596572 0.54198855 1.8240001
-0.31073716 0.18853715 1.8330001
-0.3072457 0.18504572 1.8330001
-0.31161001 0.19639286 1.8330001
-0.3072457 0.19377428 1.8330001
-0.29677144 0.19901143 1.8330001
-0.31073716 0.20250286 1.8330001
-0.29502571 0.22694287 1.8330001
-0.29502571 0.2304343 1.8330001
-0.28629714 0.23479858 1.8330001
-0.28280571 0.24265429 1.8330001
-0.27844143 0.24527286 1.8330001
0.21716686 0.24649487 1.8330001
0.22607002 0.24527286 1.8330001
-0.27756858 0.25487432 1.8330001
0.21821427 0.25312859 1.8330001
0.22554629 0.25557256 1.8330001
0.21996 0.26884001 1.8330001
0.22607002 0.26622143 1.8330001
0.2304343 0.26534858 1.8330001
0.21996 0.27233142 1.8330001
0.22345144 0.27233142 1.8330001
-0.26360285 0.29502571 1.8330001
-0.25836572 0.29502571 1.8330001
-0.26185715 0.30026287 1.8330001
-0.25836572 0.30026287 1.8330001
-0.24090858 0.36660001 1.8330001
-0.23567143 0.36660001 1.8330001
-0.24090859 0.37358284 1.8330001
-0.2365443 0.37271002 1.8330001
-0.24090859 0.38405716 1.8330001
-0.23741715 0.38405716 1.8330001
-0.036660001 0.42944574 1.8330001
-0.024440002 0.42944574 1.8330001
-0.090777144 0.43817431 1.8330001
-0.083794288 0.43817431 1.8330001
-0.033916734 0.43592983 1.8330002
-0.02444 0.43543103 1.8330002
0.055862859 0.43992001 1.8330001
-0.090777144 0.44515717 1.8330001
-0.083794288 0.44515714 1.8330001
-0.031422857 0.44515717 1.8330001
0.085539997 0.44341144 1.8330001
0.090777144 0.44690287 1.8330001
0.12394571 0.44690287 1.8330001
-0.090777144 0.4538857 1.8330001
-0.083794281 0.4538857 1.8329999
-0.076811425 0.45214 1.8330001
0.096014284 0.45214 1.8330001
0.10387 0.45650429 1.8330001
0.11609001 0.45650429 1.8330001
0.1222 0.45388573 1.8330001
-0.090777144 0.4608686 1.8330001
-0.083794281 0.46436003 1.8329999
-0.076811425 0.46436 1.8330001
0.10648858 0.46436 1.8330001
0.11451886 0.46366173 1.8330001
0.20948572 0.46785143 1.8330001
0.21297714 0.46785143 1.8330001
-0.091940962 0.47367048 1.8330001
-0.083295509 0.47483429 1.8330002
-0.076811425 0.47483429 1.8330001
-0.055862859 0.47832572 1.8330001
0.10736143 0.47570714 1.8330001
0.11405334 0.47541618 1.8330001
0.12394571 0.47658002 1.8330001
0.17457142 0.47657999 1.8330001
0.20250286 0.47134286 1.8330001
0.21297714 0.47134286 1.8330001
-0.082630485 0.48472673 1.8330001
-0.075065717 0.48530859 1.8330001
-0.065838367 0.48431104 1.8330002
-0.057608575 0.48530859 1.8330001
0.10823429 0.48530859 1.8330001
0.1131223 0.48461029 1.8330001
0.12743714 0.48530859 1.8330001
0.13441999 0.48705426 1.8330001
0.17806286 0.48356286 1.8330001
0.18155429 0.48356286 1.8330001
-0.083794288 0.49752861 1.8330001
-0.057026669 0.49578291 1.8330001
0.10823429 0.49578285 1.8330001
0.11259858 0.4966557 1.8330001
0.12918286 0.49578288 1.8330001
0.13383809 0.49345526 1.8330001
-0.090777144 0.50974858 1.8330001
-0.085539997 0.50974858 1.8330001
-0.059354287 0.50625718 1.8330001
0.10683771 0.50695539 1.8330001
0.11463525 0.50625718 1.8330001
0.12743714 0.50625712 1.8330001
0.13441999 0.50451142 1.8330001
-0.094268575 0.51498574 1.8330001
-0.062845714 0.51324004 1.8330001
-0.057608575 0.51498574 1.8330001
-0.034914285 0.51498574 1.8330001
0.11521715 0.51324004 1.8330001
-0.10125143 0.52720577 1.8330001
-0.097759999 0.5219686 1.8330001
-0.10125144 0.53418863 1.8330001
-0.096596196 0.53651625 1.8330001
-0.11347143 0.54815429 1.8330001
-0.10334629 0.54605943 1.8330001
-0.096887141 0.54378998 1.8330001
-0.11288953 0.5528096 1.8330001
-0.10474285 0.55339146 1.8330001
-0.090777144 0.55862856 1.8330001
-0.085539997 0.55862856 1.8330001
-0.094268575 0.56386572 1.8330001
-0.31243238 0.18605524 1.8430001
-0.29370984 0.23637208 1.8430002
0.22818096 0.23871239 1.8430001
-0.28698143 0.24661095 1.8430001
0.22467048 0.24573335 1.8430001
0.23470044 0.24523188 1.8430002
-0.28434858 0.25275427 1.8430001
0.22467048 0.25275427 1.8430001
0.2352019 0.25626475 1.8430002
0.24222288 0.25275427 1.8430001
0.23695715 0.26504096 1.8430001
0.24222288 0.26328573 1.8430001
-0.24573335 0.3773762 1.8430001
-0.094782859 0.44583049 1.8430001
0.056167617 0.44231999 1.8430001
0.064943805 0.44231999 1.8430001
0.073720008 0.44231999 1.8430002
0.087761909 0.44231999 1.8430001
0.094782859 0.44758573 1.8430001
0.11818603 0.44817084 1.8430002
-0.091272384 0.45636192 1.8430001
0.10601638 0.45425564 1.8430001
0.11514362 0.45425564 1.8430001
0.21238381 0.45987239 1.8430001
-0.091272384 0.46689335 1.8430001
0.19658667 0.46689335 1.8430001
0.2043097 0.46548915 1.8430001
0.21238381 0.46513808 1.8430001
-0.10355905 0.4739143 1.8430001
-0.094782859 0.47215906 1.8430001
0.17552382 0.4739143 1.8430001
0.18535315 0.47602057 1.8430001
0.19518249 0.47461638 1.8430001
0.20360759 0.47391433 1.8430002
0.21062857 0.47566953 1.8430001
0.1193562 0.48444575 1.8430002
0.12286668 0.48444575 1.8430002
0.18605524 0.48181286 1.8430001
0.19483143 0.48093525 1.8430001
0.20185238 0.48093525 1.8430001
-0.07254985 0.49556226 1.8430002
-0.064943805 0.49585477 1.8430001
-0.059678096 0.49673235 1.8430001
0.11760095 0.49497718 1.8430002
0.12537417 0.49497715 1.8430002
-0.064943805 0.5055086 1.8430002
0.1193562 0.5055086 1.8430002
0.12520699 0.50433844 1.8430002
0.13515332 0.50199813 1.8430001
-0.091272384 0.51779526 1.8430001
-0.087761909 0.51604003 1.8430001
-0.063188568 0.51252955 1.8430001
0.11233524 0.51428479 1.8430001
0.12286668 0.51252955 1.8430001
-0.093027622 0.52306092 1.8430001
-0.097123176 0.5335924 1.8430002
-0.093027622 0.54412377 1.8430001
-0.094782867 0.55565828 1.8430002
-0.08659175 0.55699557 1.8430002
-0.091272384 0.56694192 1.8430001
-0.086006671 0.56694192 1.8430001
-0.091272384 0.57220763 1.8430001
-0.086006671 0.57220763 1.8430001
-0.29648 0.23647809 1.853
0.2453019 0.23647809 1.853
-0.30000952 0.24177238 1.853
-0.29471523 0.24177238 1.853
0.23294857 0.24000762 1.853
0.24397835 0.24353716 1.8529999
0.25236094 0.24353714 1.853
0.23647809 0.2505962 1.853
0.2453019 0.25324333 1.853
-0.098826669 0.44824955 1.853
0.081179045 0.44472003 1.853
0.095297143 0.4464848 1.853
0.11647429 0.44824955 1.853
-0.12353334 0.45177907 1.853
-0.09617953 0.45442617 1.853
0.10588571 0.45177907 1.853
0.11294477 0.45177907 1.853
0.2135362 0.45883808 1.853
-0.095297143 0.46589714 1.853
0.18706475 0.46766192 1.853
0.19553563 0.46519122 1.853
0.20353588 0.46354413 1.853
-0.095297143 0.47295618 1.853
0.18353525 0.47472095 1.853
0.19235905 0.47472095 1.853
-0.067060955 0.49766287 1.853
-0.074624225 0.50573033 1.853
-0.074120007 0.51430207 1.853
-0.067060955 0.51707524 1.853
-0.093532383 0.5294286 1.853
-0.088238098 0.52413428 1.853
-0.07412 0.52236956 1.853
-0.065296188 0.52236956 1.853
-0.095297143 0.53472286 1.853
-0.091767624 0.54354668 1.853
-0.088238098 0.54354668 1.853
-0.091767624 0.55237049 1.853
0.25372285 0.23775429 1.863
-0.29689714 0.24721715 1.8630002
0.23775429 0.24130286 1.863
0.25194857 0.24485144 1.863
-0.29453143 0.25194857 1.863
0.2484 0.25904572 1.863
0.25194857 0.25372285 1.863
0.24485143 0.26259428 1.863
0.22533429 0.43470001 1.863
0.23243143 0.43470001 1.863
-0.10290857 0.4453457 1.863
-0.097585723 0.4453457 1.863
0.085165717 0.44712001 1.863
0.097585723 0.44712001 1.863
0.11355428 0.44712004 1.8630002
0.22533429 0.44357145 1.8630002
0.23243144 0.44357145 1.8630002
-0.12183429 0.45658287 1.8630002
-0.11266714 0.45510426 1.863
-0.10468286 0.4542172 1.8630002
-0.099360004 0.45776573 1.863
0.10468285 0.45066857 1.863
0.11177999 0.45066857 1.863
0.19694571 0.45599145 1.863
0.20581715 0.45776576 1.8630002
0.21433373 0.45492688 1.8630002
0.22356002 0.45599145 1.8630002
0.23243143 0.45066857 1.863
-0.1242 0.46131429 1.863
-0.11000571 0.46131429 1.863
-0.10468285 0.46486288 1.8630002
-0.099360012 0.46486288 1.8630002
0.18629999 0.46486288 1.863
0.19375201 0.46344343 1.8630002
0.20581713 0.46220145 1.863
0.22178572 0.46131429 1.863
-0.10468286 0.47373429 1.863
-0.099360004 0.47373429 1.863
0.17742857 0.47550857 1.863
0.18452571 0.47373429 1.863
0.19162287 0.47373429 1.863
-0.083746284 0.52589828 1.8630002
-0.07392858 0.52637142 1.8630002
-0.063874289 0.52873719 1.8630002
-0.092262857 0.53760856 1.863
-0.086179599 0.53532737 1.8630002
-0.078068569 0.53406 1.863
-0.060325716 0.53228575 1.863
-0.084456004 0.54435092 1.8630002
-0.086940005 0.55357718 1.8630002
-0.083391428 0.56067431 1.863
0.2390305 0.2390305 1.8730001
0.24616574 0.23665211 1.8730001
0.2568686 0.24616574 1.8730001
0.26186326 0.24687926 1.8730001
0.2568686 0.25508481 1.8730001
0.26043621 0.25330099 1.8730001
0.24973336 0.26400381 1.8730001
0.23724669 0.4067086 1.8730001
0.24259812 0.4067086 1.8730001
0.22547355 0.41598445 1.8730001
0.2361764 0.41598439 1.8730001
0.24259812 0.41562766 1.8730001
0.21762477 0.42633051 1.8730001
0.22476001 0.42454666 1.8730003
0.23546287 0.42454672 1.8730003
0.21524636 0.43643877 1.8730001
0.22333296 0.43382248 1.8730001
0.23635478 0.4325738 1.8730001
-0.10702857 0.44952002 1.8730001
0.10524476 0.44952002 1.8730001
0.11594763 0.4441686 1.8730001
0.12129906 0.44952002 1.8730001
0.19800287 0.44952002 1.8730001
0.20573273 0.44833082 1.8730001
0.21405715 0.44595242 1.8730003
0.2211924 0.44595242 1.8730001
-0.11059619 0.45308766 1.8730001
0.18908381 0.45665526 1.8730001
0.19532715 0.45397958 1.8730001
0.20513812 0.45487148 1.8730001
0.21286796 0.45427689 1.8730001
0.22476003 0.45308766 1.8730001
-0.12248826 0.46616894 1.8730001
-0.11518314 0.46430019 1.8730003
0.17362414 0.46616894 1.8730001
0.18551621 0.46379051 1.8730001
0.19265144 0.4602229 1.8730001
-0.12248826 0.47211498 1.8730001
-0.11202325 0.47449335 1.8730001
0.17600255 0.47211498 1.8730001
0.18194859 0.47449335 1.8730001
-0.082055241 0.52444005 1.8730001
-0.07848762 0.52444005 1.8730001
-0.082055241 0.53871053 1.8730001
-0.073136196 0.53692675 1.8730001
-0.066000953 0.53692675 1.8730001
-0.082055241 0.54227811 1.8730001
-0.075365953 0.54539979 1.8730001
-0.082055241 0.55476481 1.8730001
-0.076703817 0.55476481 1.8730001
-0.082055241 0.56368387 1.8730001
-0.07848762 0.56368387 1.8730001
-0.082055241 0.57081908 1.8730001
-0.07848762 0.57081908 1.8730001
0.26182669 0.25824001 1.8830001
0.25537068 0.26469603 1.8830003
0.26900002 0.31742001 1.8830001
0.2725867 0.31742001 1.8830001
0.26900002 0.32280004 1.8830001
0.2725867 0.32280004 1.8830001
0.22835112 0.36823115 1.8830001
0.23492669 0.36763334 1.8830001
0.24150226 0.36823115 1.8830001
0.22596002 0.37480673 1.8830003
0.23492669 0.3748067 1.8830001
0.24389336 0.3748067 1.8830003
0.25286001 0.3748067 1.8830001
0.22596002 0.38162136 1.8830003
0.23492669 0.38198003 1.8830001
0.24389337 0.38198003 1.8830003
0.25286001 0.38198 1.8830001
0.23672001 0.39632669 1.8830001
0.24389336 0.39812002 1.8830001
0.22536224 0.4064889 1.8830003
0.23492669 0.40529335 1.8830001
0.24317601 0.40314135 1.8830003
0.21699335 0.41784668 1.8830001
0.22506335 0.41336334 1.8830001
0.23432891 0.41366225 1.8830001
0.24210002 0.41246668 1.8830001
0.21520001 0.42502004 1.8830001
0.21304801 0.43326935 1.8830003
0.08608 0.44833335 1.8830001
0.095644459 0.4471378 1.8830001
0.10452573 0.44577149 1.8830004
0.11208335 0.44385004 1.8830001
0.20515735 0.44546404 1.8830003
0.18650667 0.45909336 1.8830001
0.19128892 0.45311558 1.8830001
0.17574668 0.46626672 1.8830001
0.18471333 0.46447337 1.8830001
-0.12553334 0.47702667 1.8830001
-0.11716446 0.47583112 1.8830001
0.17574668 0.47523335 1.8830001
-0.12314223 0.48180896 1.8830001
-0.11836001 0.48061338 1.8830001
0.26696381 0.25794476 1.8940001
0.27417904 0.25614095 1.8940001
0.26335621 0.26516002 1.8940001
0.27057144 0.26335621 1.8940001
0.25686249 0.27273601 1.8940001
0.26455876 0.31626794 1.8940001
0.26516002 0.32107812 1.8940001
0.23810287 0.33550856 1.8940001
0.24171048 0.33550856 1.8940001
0.25253335 0.33550856 1.8940001
0.23449525 0.36436957 1.8940001
0.2453181 0.36677462 1.8940001
0.25433713 0.36797714 1.8940001
0.24892572 0.37158477 1.8940001
0.25433713 0.37158477 1.8940001
0.22547619 0.38781905 1.8940001
0.23449525 0.38962287 1.8940001
0.2453181 0.38962287 1.8940001
0.25253335 0.38962287 1.8940001
0.22439392 0.39467353 1.8940001
0.23377371 0.39467353 1.8940001
0.2453181 0.39503428 1.8940001
0.25253335 0.39323047 1.8940001
0.21645714 0.40766096 1.8940001
0.22427367 0.4034521 1.8940001
0.23269144 0.40224952 1.8940001
0.2152546 0.41487622 1.8940001
0.22006477 0.41307241 1.8940001
0.20924191 0.42569906 1.8940001
0.21284953 0.42389524 1.8940001
0.20924191 0.43652192 1.8940001
0.093798101 0.44734475 1.8940001
0.10281715 0.44373715 1.8940001
0.2056343 0.44373715 1.8940001
0.1875962 0.45816764 1.8940001
0.19841905 0.45095238 1.8940001
0.18218476 0.46357906 1.8940001
0.27200001 0.25749335 1.904
0.26837331 0.26655999 1.904
0.27441782 0.26716444 1.904
0.25296 0.27834669 1.904
0.26474667 0.27472001 1.904
0.27381337 0.27562669 1.9040002
0.26293331 0.28288001 1.904
0.27562672 0.28288001 1.904
0.24661332 0.29013336 1.904
0.25749335 0.31914666 1.904
0.26353776 0.31672892 1.904
0.27200001 0.31552002 1.904
0.24661332 0.32640001 1.904
0.25459203 0.32494935 1.9040002
0.26111999 0.32458669 1.904
0.24661332 0.33546668 1.904
0.25334859 0.33365336 1.9040003
0.26429331 0.33320001 1.9040002
0.23754667 0.34453332 1.904
0.2448 0.34090665 1.904
0.25265777 0.34211552 1.904
0.23694222 0.35299557 1.904
0.23754667 0.36266667 1.904
0.24661332 0.36629334 1.904
0.25386667 0.36629337 1.904
0.22848001 0.39168 1.904
0.2176 0.40437335 1.904
0.22122668 0.40618667 1.904
0.21034667 0.42432001 1.904
0.10517333 0.43882668 1.904
0.20671999 0.43882668 1.904
0.21034667 0.43338668 1.904
0.094293341 0.44728893 1.904
0.10517333 0.44245335 1.904
0.11242667 0.44245335 1.904
0.19584 0.44970667 1.904
0.20490667 0.44426668 1.904
0.067093335 0.45333332 1.904
0.076159999 0.45333332 1.904
0.16682667 0.45696002 1.904
0.17480533 0.45550933 1.9040002
0.18496001 0.45550933 1.9040002
0.19402668 0.45333332 1.904
0.16682667 0.46058667 1.904
0.17459811 0.4631772 1.9040003
0.18314667 0.46058667 1.904
0.28269047 0.25898096 1.9150001
0.28451428 0.26627618 1.9150001
0.29302543 0.26506037 1.9150002
0.26992381 0.27721906 1.9150001
0.28451428 0.27539527 1.9150002
0.25533336 0.28633809 1.9150002
0.26749209 0.28512222 1.9150002
0.27539524 0.2881619 1.9150001
0.28451428 0.2832984 1.9150002
0.29180953 0.28269047 1.9150001
0.2480381 0.29728097 1.9150001
0.25533333 0.29545718 1.9150001
0.26627621 0.29545715 1.9150001
0.27539524 0.29545718 1.9150002
