# .PCD v0.7 - Point Cloud Data file format
VERSION 0.7
FIELDS x y z
SIZE 4 4 4
TYPE F F F
COUNT 1 1 1
WIDTH 1482
HEIGHT 1
VIEWPOINT 0 0 0 1 0 0 0
POINTS 1482
DATA ascii
0.16357088 0.29424545 1.7525716
-0.20186619 0.30405575 1.7590001
-0.19410859 0.3045505 1.757
-0.18547717 0.30411905 1.7545002
-0.17566669 0.30333334 1.7500002
-0.16333334 0.30333334 1.7500001
-0.15333334 0.30333334 1.7500001
-0.14349525 0.30368382 1.7520001
-0.13356191 0.30385903 1.753
0.14555557 0.30555558 1.7500002
0.15415071 0.30453214 1.7545
0.1624981 0.30489337 1.7590001
-0.20102857 0.31662002 1.7590001
-0.19421524 0.31476381 1.758
-0.18427621 0.31494477 1.7589999
-0.17373143 0.31405523 1.7540001
-0.16342857 0.31351432 1.751
-0.15367812 0.31405145 1.7540001
-0.14574572 0.3149448 1.7590001
0.14444445 0.31444448 1.7500002
0.15308736 0.31283894 1.7525716
0.1624981 0.31326953 1.7590001
-0.20102857 0.3249962 1.7590002
-0.19432762 0.3249962 1.7589999
-0.18427621 0.32499623 1.7589999
-0.17412761 0.32480955 1.758
-0.16352382 0.32370096 1.7520001
-0.15376572 0.32425526 1.755
-0.14574572 0.32499623 1.7590001
-0.12508446 0.32722986 1.7590002
0.1362527 0.32722986 1.7590002
0.14399049 0.32481334 1.758
0.15368192 0.32407808 1.7540001
0.16027431 0.32389337 1.7530001
-0.20102857 0.33337241 1.7590001
-0.19366452 0.33420244 1.75675
-0.18468982 0.33358458 1.7538573
-0.17470913 0.33394495 1.7516365
-0.16333334 0.3333334 1.7500001
-0.15350668 0.33371055 1.7520001
-0.14430071 0.33503577 1.75675
-0.13468914 0.33705792 1.7590001
-0.12354881 0.33504766 1.7589999
0.13401906 0.33504766 1.7589999
-0.19097714 0.34509906 1.7590002
-0.18496411 0.34507567 1.7564287
-0.17462809 0.34319246 1.7508183
-0.16333334 0.34333339 1.7500001
-0.15333335 0.34333339 1.7500001
-0.14390287 0.34470856 1.757
-0.13513589 0.34398222 1.7590001
-0.12463772 0.34308878 1.7590001
0.12648048 0.34509906 1.7590001
0.13360025 0.34468022 1.7589999
-0.18226591 0.35448042 1.7590001
-0.17393334 0.35454476 1.756
-0.16370098 0.35414287 1.7540001
-0.15385334 0.35454476 1.756
-0.14518732 0.35403368 1.7590001
-0.13736953 0.35180002 1.7590001
0.1273181 0.35180002 1.7590001
0.13066858 0.35347527 1.7590001
-0.18092571 0.36687714 1.7590001
-0.17422476 0.36520192 1.7589999
-0.16417333 0.36520192 1.7589999
-0.15448545 0.36398017 1.7577144
-0.18092571 0.37860385 1.7590001
-0.17392762 0.37460768 1.756
-0.16501096 0.37274051 1.7590001
-0.17666668 0.38000003 1.7500001
0.11726667 0.38362953 1.7590001
0.13360023 0.38488594 1.7589999
0.10498159 0.41322541 1.7590002
-0.043556191 0.44896382 1.7590001
-0.026666669 0.45666668 1.7500002
0.085437149 0.45901525 1.7590001
-0.040205717 0.46236572 1.7590001
-0.032886352 0.46548319 1.756
-0.024082286 0.46467143 1.7563
-0.015051428 0.46492764 1.756
0.084878735 0.46627459 1.7590001
0.09269651 0.46627459 1.7590001
-0.023453336 0.47241721 1.7590002
-0.016752381 0.47241718 1.7590001
-0.003339048 0.47413906 1.7530001
0.0038974602 0.47414193 1.7530001
0.01338762 0.4770343 1.7575001
0.023453336 0.47911811 1.7590002
0.031829525 0.47911811 1.7590001
0.083761916 0.47241721 1.7590002
0.090462856 0.47241718 1.7590001
-0.0046803812 0.48499772 1.7536001
0.004666667 0.48333335 1.7500002
0.013333333 0.48333338 1.7500001
0.02342857 0.48526287 1.757
0.033504762 0.48581901 1.7589999
0.043556195 0.48749429 1.7590001
0.050257143 0.48749429 1.7590001
-0.020102859 0.49922097 1.7590001
-0.010051429 0.49587047 1.7590002
-0.0050228573 0.4954505 1.7575001
0.0033409526 0.49474859 1.755
0.01288653 0.49538046 1.7538573
0.023344764 0.49361718 1.751
0.033430476 0.49474478 1.755
0.043508578 0.4953067 1.757
0.05360762 0.49587053 1.7589999
0.060308572 0.49754572 1.7590001
-0.020102859 0.50257146 1.7590001
-0.01273181 0.50391167 1.7590001
-0.0050257142 0.50592196 1.7590001
0.002233651 0.50536346 1.7590001
0.013401906 0.50257146 1.7590002
0.023453336 0.50257146 1.7590002
0.034063175 0.50480515 1.7590001
0.042886097 0.50391167 1.7590001
0.05360762 0.50257146 1.7590002
-0.36370289 -0.030308573 1.7680001
-0.34349716 -0.031992383 1.7680001
-0.33507812 -0.030308573 1.7680001
-0.37380573 -0.024695877 1.7680001
-0.33171052 -0.026940955 1.7680001
-0.32665908 -0.026940955 1.7680001
-0.38054097 -0.011786668 1.7680001
-0.37717336 -0.016838096 1.7680001
-0.38054097 -0.0050514289 1.7680001
-0.38054097 0 1.7680001
-0.37717336 0.0067352387 1.7680001
-0.32497525 0.085874289 1.7680001
-0.32329145 0.090925723 1.7680001
-0.29803431 0.13807239 1.7680001
-0.29803431 0.14312381 1.7680001
-0.28288001 0.16332954 1.7680001
-0.27782857 0.16838096 1.7680001
-0.27502224 0.17511621 1.7680001
-0.27277714 0.18185145 1.7680001
-0.2593067 0.18521905 1.7680001
-0.2626743 0.19532192 1.7680001
-0.2626743 0.20879239 1.7680001
-0.2626743 0.21216002 1.7680001
-0.25593907 0.21552764 1.7680001
-0.24920383 0.21721144 1.7680001
-0.2441524 0.22563049 1.7680001
-0.23910096 0.22731429 1.7680001
-0.2433105 0.23489143 1.7680001
-0.23825905 0.23657525 1.7680001
-0.23236573 0.2441524 1.7680001
-0.22731429 0.24920383 1.7680001
-0.22310477 0.25593907 1.7680001
-0.21889524 0.25257143 1.7680001
-0.21889524 0.26772574 1.7680001
-0.21889524 0.27614474 1.7680001
0.13133715 0.27951238 1.7680001
-0.21665017 0.28512511 1.7680001
0.13133715 0.28288001 1.7680001
-0.21216004 0.29635051 1.7680001
-0.20766985 0.29747304 1.7680001
-0.21216004 0.30645335 1.7680001
-0.20766985 0.30533081 1.7680001
-0.21300191 0.31655622 1.7680001
-0.2060983 0.31722972 1.768
-0.14144 0.31655622 1.7680001
-0.13470477 0.31318861 1.7680001
-0.14144 0.32497525 1.7680001
-0.13358223 0.32553655 1.7680001
-0.126847 0.32441401 1.7680001
0.13302097 0.32665908 1.7680001
-0.14144 0.33171052 1.7680001
-0.13422368 0.33243212 1.768
-0.12796953 0.33676192 1.7680001
0.13133715 0.33002669 1.7680001
0.14480764 0.33507812 1.768
0.15491049 0.33507812 1.768
0.16164573 0.33507812 1.7680001
-0.19700572 0.34433907 1.7680001
-0.13133715 0.34686479 1.7680001
0.14480764 0.34349719 1.7679999
0.15491049 0.34349719 1.7679999
0.16164573 0.34181333 1.7680001
-0.19363812 0.35444194 1.7680001
-0.18858668 0.35528386 1.7680001
-0.14144 0.35696766 1.7680001
-0.1341435 0.35360003 1.768
-0.12628573 0.35191619 1.7680001
0.12544382 0.35444194 1.7680001
0.13672534 0.35427356 1.768
0.14480762 0.35360003 1.7679999
0.15406859 0.35107428 1.7680001
-0.1919543 0.36370289 1.7680001
-0.18618125 0.36370292 1.768
-0.1453689 0.36370289 1.768
-0.13694985 0.36145779 1.7680001
0.12628573 0.36033526 1.7680001
0.13470477 0.36370289 1.768
0.14312381 0.36286098 1.7680001
-0.1919543 0.3704381 1.7680001
-0.18521905 0.37324449 1.768
-0.15491048 0.37296385 1.7680001
0.13518587 0.37476793 1.768
0.14144 0.37212193 1.7680001
-0.18521905 0.38054097 1.7680001
0.12460192 0.38390857 1.7679999
0.13470477 0.38054097 1.7680001
0.09597715 0.41758478 1.7680001
0.10439619 0.41758478 1.7680001
0.11113144 0.41758478 1.7680001
0.09597715 0.42432004 1.768
0.10439619 0.42432001 1.7679999
0.11113144 0.42095241 1.7680001
0.096313916 0.43374935 1.768
0.10391511 0.43346074 1.768
0.097660959 0.44284195 1.7680001
0.085874289 0.45799622 1.7680001
0.094293341 0.45799622 1.7680001
0.10102858 0.45799622 1.7680001
-0.04209524 0.46136385 1.7680001
0.074929528 0.46725714 1.7680001
0.081945404 0.46360892 1.7680001
0.094966866 0.46271086 1.768
-0.030308573 0.47483432 1.7680001
-0.025257144 0.47820193 1.7680001
0.0033676194 0.47258922 1.7680001
0.013470477 0.47483432 1.7680001
0.022731429 0.47736004 1.7680001
0.031992383 0.47820193 1.7680001
0.064658284 0.47685486 1.768
0.07408762 0.47483435 1.7679999
0.083348572 0.47651809 1.7680001
0.09541589 0.47595686 1.768
-0.025257144 0.48156956 1.7680001
0.037043814 0.48156956 1.7680001
0.043779053 0.48325336 1.768
0.05430286 0.48451623 1.7679999
0.063984767 0.48493719 1.7679999
0.072965086 0.48381466 1.768
0.08419048 0.48325336 1.768
0.093732074 0.48381466 1.768
-0.013470477 0.49840766 1.7680001
0.055565719 0.49167243 1.7680001
0.063423499 0.49391755 1.768
-0.015154287 0.50177526 1.7680001
0.0050514289 0.50851053 1.7680001
0.013470477 0.50851053 1.7680001
0.023573335 0.50851053 1.7680001
0.030308573 0.50851053 1.7680001
0.0067352387 0.51187813 1.7680001
0.014144002 0.5132252 1.768
0.022731431 0.51272005 1.7680001
0.030308573 0.51187813 1.7680001
-0.3740162 -0.030462859 1.7770001
-0.36216953 -0.033847619 1.7770001
-0.35540003 -0.033847623 1.7770002
-0.34524572 -0.034975871 1.7770002
-0.33170667 -0.030462859 1.7770001
-0.3283219 -0.030462859 1.7770001
-0.40617144 -0.016923809 1.7770001
-0.38586286 -0.006769524 1.7770001
-0.38247812 0.003384762 1.7770001
-0.34186095 0.074464768 1.7770001
-0.33170667 0.084619053 1.7770001
-0.29108953 0.15569906 1.7770001
-0.2877048 0.15739143 1.7770001
-0.28601241 0.16585335 1.7770001
-0.28093526 0.17431524 1.7770001
-0.27755049 0.1793924 1.7770001
-0.27416572 0.18446952 1.7770001
-0.2651397 0.18729016 1.7770002
-0.26739621 0.19800857 1.7770001
-0.26570383 0.2056243 1.7770001
-0.26570383 0.21493238 1.7770001
-0.26062667 0.22000954 1.7770001
-0.25329301 0.2233943 1.7770002
-0.25047237 0.23354858 1.7770002
-0.24708763 0.23354858 1.7770001
-0.25047237 0.2403181 1.7770001
-0.24454907 0.24285668 1.7770001
-0.23693335 0.24539524 1.7770001
-0.23219466 0.2545341 1.7770001
-0.22677906 0.25385717 1.7770001
-0.2318562 0.26062667 1.7770001
-0.22452256 0.26401144 1.7770002
-0.23016381 0.27078095 1.7770001
-0.22565082 0.27642223 1.7770002
-0.22000954 0.2877048 1.7770001
-0.21662477 0.2877048 1.7770001
-0.22000954 0.2944743 1.7770002
-0.21662477 0.29616666 1.7770001
-0.22000954 0.30462858 1.7770002
-0.21662478 0.30462858 1.7770002
-0.22170192 0.31816763 1.7770001
-0.21662477 0.3130905 1.7770001
-0.20816286 0.3130905 1.7770001
-0.13539049 0.31816763 1.7770002
-0.12862095 0.31816763 1.7770001
-0.22000954 0.3215524 1.7770001
-0.21493238 0.32324478 1.7770001
-0.20759873 0.32606542 1.7770002
-0.1359546 0.32380891 1.7770002
-0.12862095 0.3215524 1.7770001
-0.20731667 0.33509144 1.7770001
-0.20308572 0.34186095 1.7770001
-0.19970095 0.34524575 1.7770001
-0.19885476 0.3554 1.7770001
-0.13200572 0.35878479 1.7770001
-0.12692857 0.35878479 1.7770001
-0.19728328 0.3655543 1.7770002
-0.14216 0.36724669 1.7770001
-0.13471353 0.36623126 1.7770001
-0.1274927 0.36329779 1.7770002
0.12692857 0.36724666 1.7770001
0.13539049 0.36555427 1.7770002
0.14216 0.36555427 1.7770001
-0.19563924 0.37503162 1.7770001
-0.18785429 0.37909332 1.7770001
-0.15231429 0.37232381 1.7770001
-0.14892954 0.37232381 1.7770001
0.12636444 0.37683684 1.7770002
0.13369811 0.37232381 1.7770001
-0.19293143 0.38247812 1.7770001
-0.18664545 0.38682994 1.7770002
0.091388568 0.42986479 1.7770001
0.11338952 0.42648003 1.7770001
0.091388568 0.43494189 1.7770001
0.094773337 0.44340381 1.7770002
0.10425067 0.44272691 1.7770001
-0.044001907 0.4558146 1.7770002
-0.037232384 0.45694286 1.7770001
0.095337465 0.45355815 1.7770002
-0.044678859 0.46371242 1.7770001
-0.037232384 0.46032763 1.7770001
0.075593024 0.46484065 1.7770002
-0.03554 0.47725144 1.7770001
0.006769524 0.4738667 1.7770001
0.013539049 0.4738667 1.7770002
0.023693332 0.47555906 1.7770001
0.032155238 0.47725144 1.7770001
0.054156195 0.47725147 1.7770002
0.063826948 0.47289962 1.7770002
-0.032155238 0.48063621 1.7770001
0.037232384 0.48063621 1.7770001
0.044001907 0.48063621 1.7770002
0.054156195 0.48063621 1.7770002
0.07784953 0.48740575 1.7770001
0.067695238 0.49756005 1.7770001
0.074464768 0.49465883 1.7770002
0.08461906 0.49248284 1.7770002
0.091388568 0.49248287 1.7770001
0.067695238 0.50263715 1.7770001
0.07398124 0.50529665 1.7770002
0.081234291 0.50602198 1.7770001
-0.36400387 -0.04082286 1.7860001
-0.35549909 -0.04082286 1.7860001
-0.37250859 -0.035720002 1.7860001
-0.36485431 -0.036570478 1.7860001
-0.35549909 -0.037420955 1.7860001
-0.34274191 -0.036570478 1.7860001
-0.33678859 -0.037420955 1.7860001
-0.40414628 -0.021772193 1.7860001
-0.39802289 -0.02041143 1.7860001
-0.40618744 -0.012927239 1.7860001
-0.38781717 -0.011906668 1.7860001
-0.40822861 -0.0068038101 1.7860001
-0.39121908 -0.0068038101 1.7860001
-0.38781717 -0.0034019051 1.7860001
-0.3866832 0.0034019051 1.7860001
-0.39292002 0.015308572 1.7860001
-0.38484049 0.013182382 1.7860001
-0.34586033 0.077109843 1.7860001
-0.34359241 0.08164572 1.7860001
-0.33565462 0.087315559 1.7860001
-0.33474746 0.095933728 1.7860001
-0.32862404 0.095933728 1.7860001
-0.30617145 0.1394781 1.7860001
-0.30617145 0.14288001 1.7860001
-0.29256383 0.15988953 1.7860001
-0.29256383 0.16499239 1.7860001
-0.28916192 0.16669334 1.7860001
-0.28780118 0.17417753 1.7860001
-0.28349209 0.18143493 1.7860001
-0.27725524 0.18710478 1.7860001
-0.26875049 0.19220763 1.7860001
-0.26875049 0.20751621 1.7860001
-0.2646682 0.22384536 1.7860001
-0.25854477 0.22622669 1.7860001
-0.26194668 0.23303048 1.7860001
-0.25684384 0.23473144 1.7860001
-0.25344193 0.24493717 1.7860001
-0.24493717 0.24833906 1.7860001
-0.2445119 0.25471765 1.7860001
-0.23813336 0.2551429 1.7860001
-0.24493715 0.26534858 1.7860001
-0.23521742 0.26632056 1.7860003
-0.22792764 0.26704955 1.7860001
-0.24493715 0.2755543 1.7860001
-0.23515667 0.27597952 1.7860001
-0.2256597 0.2732864 1.7860001
-0.24380319 0.28349209 1.7860001
-0.23473144 0.28576005 1.7860001
-0.22622669 0.28576005 1.7860001
-0.23132953 0.29596576 1.7860001
-0.22622667 0.29596576 1.7860001
-0.23132953 0.30957335 1.7860001
-0.22622667 0.30617148 1.7860001
-0.23132953 0.31637716 1.7860001
-0.22452573 0.31524321 1.7860001
-0.22316496 0.32726327 1.7860001
-0.2151705 0.32913432 1.7860001
-0.22282478 0.33508766 1.7860001
-0.21500039 0.33474746 1.7860001
-0.22452573 0.3401905 1.7860001
-0.21432003 0.3401905 1.7860001
-0.20638224 0.34586033 1.7860001
-0.2041143 0.35209715 1.7860001
-0.2041143 0.36570477 1.7860001
-0.20241335 0.37761146 1.7860001
0.12927239 0.37591052 1.7860001
-0.20241335 0.38101336 1.7860001
-0.19731048 0.3827143 1.7860001
-0.062368259 0.4365778 1.7860001
-0.057832383 0.43884572 1.7860001
-0.052729528 0.4473505 1.7860001
0.091851436 0.44564956 1.7860001
0.10716001 0.4473505 1.7860001
-0.052729528 0.45415431 1.7860001
-0.04762667 0.45585525 1.7860001
0.08674857 0.45925716 1.7860001
0.091851436 0.45415431 1.7860001
0.1037581 0.45245337 1.7860001
-0.061234292 0.46776193 1.7860001
-0.053069718 0.46674138 1.7860001
-0.04762667 0.46265906 1.7860001
-0.0068038101 0.46946287 1.7860001
0.064636193 0.46946287 1.7860001
0.073707938 0.46606097 1.7860001
0.08164572 0.46265906 1.7860001
-0.043090798 0.47513276 1.7860001
-0.037420955 0.47626671 1.7860001
-0.0045358734 0.47399876 1.7860001
0.0034019051 0.47286481 1.7860001
0.01360762 0.47286481 1.7860001
0.027215241 0.47626671 1.7860001
0.034019049 0.47740072 1.7860001
0.046492703 0.47853467 1.7860001
0.055280954 0.47541624 1.7860001
-0.04082286 0.48307049 1.7860001
-0.034869526 0.48562193 1.7860001
0.078243814 0.49667811 1.7860001
0.076542862 0.50348198 1.7860001
0.083913647 0.50461596 1.7860001
-0.36925718 -0.051285718 1.7950001
-0.38293335 -0.041028574 1.7950001
-0.3751184 -0.043959189 1.7950002
-0.36583814 -0.046157144 1.7950001
-0.35643572 -0.044447619 1.7950001
-0.3453238 -0.041028574 1.7950001
-0.33848572 -0.041028574 1.7950001
-0.38293335 -0.034190476 1.7950001
-0.37951431 -0.0359 1.7950001
-0.3367762 -0.034190476 1.7950001
-0.40173811 -0.013676191 1.7950001
-0.39546984 -0.011396827 1.7950001
-0.40344763 -0.0068380958 1.7950001
-0.39489999 -0.0051285718 1.7950001
-0.39319047 0.0034190479 1.7950001
-0.38977143 0.0068380954 1.7950001
-0.40002859 0.015385714 1.7950001
-0.39489999 0.010257144 1.7950001
-0.34361428 0.087185718 1.7950001
-0.34361428 0.095733337 1.7950001
-0.33848572 0.092314295 1.7950001
-0.29745716 0.16753334 1.7950001
-0.3008762 0.17608096 1.7950001
-0.29574764 0.17437142 1.7950001
-0.3008762 0.18120952 1.7950001
-0.29147384 0.18377382 1.7950001
-0.28606033 0.18690795 1.7950001
-0.28378096 0.19488572 1.7950001
-0.27523333 0.19488572 1.7950001
-0.28150162 0.2028635 1.7950001
-0.27523333 0.20514286 1.7950001
-0.27266905 0.21625477 1.7950001
-0.27010477 0.22907621 1.7950001
-0.26668572 0.22907621 1.7950001
-0.26583096 0.23676905 1.7950001
-0.26326668 0.24275239 1.7950001
-0.25899288 0.24702621 1.7950001
-0.25437716 0.25574479 1.7950001
-0.24959049 0.25984764 1.7950001
-0.25300953 0.2649762 1.7950001
-0.25300953 0.27352381 1.7950001
-0.25471905 0.28036192 1.7950001
-0.24731112 0.28606033 1.7950001
-0.24617144 0.29061908 1.7950001
-0.23762381 0.29574764 1.7950001
-0.23420477 0.30600476 1.7950001
-0.23249525 0.31797144 1.7950001
-0.22907621 0.31797144 1.7950001
-0.22907621 0.32651907 1.7950001
-0.23249525 0.33335716 1.7950001
-0.22907621 0.33506668 1.7950001
-0.22394761 0.34532383 1.7950001
-0.2147162 0.34669146 1.7950001
-0.21369049 0.35387143 1.7950001
-0.20770715 0.35643572 1.7950001
-0.21198097 0.36925718 1.7950001
-0.20770715 0.36498332 1.7950001
-0.20719431 0.37541148 1.7950001
-0.14360002 0.37609527 1.7950001
-0.13448255 0.37495559 1.7950001
-0.068380952 0.4376381 1.7950001
0.088895239 0.43592858 1.7950001
0.11282858 0.43592858 1.7950001
-0.084336512 0.44675559 1.7950001
-0.073167622 0.44516 1.7950001
-0.06538929 0.44490358 1.7950001
-0.056984127 0.44561586 1.7950001
0.088895246 0.44447622 1.7950001
0.11282858 0.44276667 1.7950001
-0.08547619 0.45302385 1.7950001
-0.072654761 0.45387861 1.7950001
-0.06496191 0.45473337 1.7950001
-0.058123812 0.45473337 1.7950001
0.086615875 0.45587307 1.7950001
0.10684525 0.45558813 1.7950001
-0.083196834 0.4661302 1.7950001
-0.074730612 0.46596742 1.7950002
-0.06538929 0.46456313 1.7950001
-0.055844449 0.46385083 1.7950001
-0.010257144 0.46840954 1.7950001
-0.0051285718 0.46840954 1.7950001
0.047866669 0.46840954 1.7950001
0.054704767 0.46840954 1.7950001
0.06496191 0.46840954 1.7950001
0.073509529 0.4649905 1.7950001
0.082057148 0.46157146 1.7950001
0.099152379 0.46157146 1.7950001
-0.092314295 0.47695714 1.7950001
-0.085476197 0.47524759 1.7950001
-0.075707488 0.47524768 1.7950002
-0.064392075 0.47524768 1.7950001
-0.054704763 0.47622448 1.7950002
-0.047866669 0.47866669 1.7950001
-0.010257144 0.47182858 1.7950001
-0.0034190477 0.47182858 1.7950001
0.0034190479 0.47182858 1.7950001
0.011966668 0.47182858 1.7950001
0.023933334 0.47524762 1.7950001
0.034190476 0.47638732 1.7950001
0.04513143 0.47593147 1.7950001
0.054020952 0.47319624 1.7950001
0.06496191 0.47182858 1.7950001
-0.092314295 0.48208573 1.7950001
-0.084792383 0.48345336 1.7950001
-0.075902857 0.48345336 1.7950001
-0.063594282 0.48550478 1.7950001
-0.054704759 0.48550478 1.7950001
-0.045424495 0.48599324 1.7950002
0.041028574 0.48208573 1.7950001
-0.061542857 0.49234286 1.7950001
-0.056984127 0.49348256 1.7950001
-0.044447623 0.49234289 1.7950001
-0.033763096 0.49533457 1.7950001
-0.071800008 0.50601906 1.7950001
-0.06496191 0.50644642 1.7950001
-0.056756195 0.50601906 1.7950001
-0.034190476 0.50430954 1.7950001
0.08633095 0.50345474 1.7950001
-0.071800001 0.51285714 1.7950001
-0.068380952 0.51285714 1.7950001
-0.38141719 -0.05154286 1.8040001
-0.37523204 -0.053604573 1.8040001
-0.36767241 -0.053260956 1.8040001
-0.39172575 -0.044670485 1.8040003
-0.38534424 -0.045652252 1.8040001
-0.35220954 -0.044670478 1.8040001
-0.38828957 -0.036080003 1.8040001
-0.40547049 -0.0034361908 1.8040003
-0.39859813 -0.0034361908 1.8040001
-0.40547049 0.0034361908 1.8040001
-0.39859813 0.0034361908 1.8040003
-0.40203431 0.010308573 1.8040001
-0.2966578 0.18555431 1.8040003
-0.29293525 0.19672193 1.8040001
-0.2920762 0.20445335 1.8040001
-0.28589106 0.20685866 1.8040001
-0.28348571 0.21304382 1.8040001
-0.27833143 0.21476191 1.8040001
-0.27374986 0.2256432 1.8040003
-0.27145904 0.23537907 1.8040001
-0.26687747 0.24626033 1.8040003
-0.26372764 0.2534191 1.8040001
-0.26115048 0.26630479 1.8040001
-0.25771433 0.26458669 1.8040003
-0.25771433 0.27489525 1.8040003
-0.23709716 0.31784767 1.8040001
-0.23709716 0.32300195 1.8040001
-0.2244978 0.35278225 1.8040003
-0.21991621 0.35392761 1.8040003
-0.2233524 0.36767241 1.8040001
-0.21648002 0.36423624 1.804
-0.21476191 0.3745448 1.8040001
-0.08590477 0.43983242 1.8040003
-0.073305406 0.43868703 1.8040003
-0.068723813 0.43639621 1.8040001
0.092777148 0.43296003 1.8040001
-0.094495244 0.4467048 1.8040001
-0.08590477 0.44464308 1.8040001
-0.077886999 0.44441399 1.8040003
0.085904762 0.4449867 1.8040001
-0.095067941 0.45472258 1.8040003
-0.086592011 0.4542644 1.8040001
-0.078173339 0.45443621 1.8040001
-0.015462859 0.45701337 1.8040001
0.077314295 0.45701337 1.8040001
0.084759377 0.45357722 1.8040003
0.11339431 0.45357722 1.8040003
-0.093922548 0.46617651 1.8040003
-0.086395659 0.46290407 1.8040001
-0.077314295 0.46216768 1.8040001
-0.012762995 0.46339488 1.8040001
-0.0060133338 0.46474481 1.8040001
0.035220955 0.46646291 1.8040001
0.044670485 0.46560389 1.8040001
0.054979052 0.46560389 1.8040001
0.064714931 0.46445847 1.8040001
0.075596198 0.46216768 1.8040001
0.1065219 0.46274039 1.8040003
0.1133943 0.46044958 1.8040001
-0.10446019 0.47488156 1.8040001
-0.096642867 0.47376484 1.804
-0.087622859 0.47075814 1.8040001
-0.073878102 0.4776305 1.8040001
-0.068723813 0.4776305 1.8040001
0.0034361908 0.47075814 1.8040003
0.01460381 0.47161722 1.8040001
0.024053335 0.47247624 1.8040001
0.034852795 0.4732126 1.8040001
0.042608768 0.47350708 1.8040001
-0.10394477 0.48364383 1.8040001
-0.098790482 0.48364383 1.8040001
-0.072160006 0.48793909 1.8040001
-0.06757842 0.48335749 1.8040003
-0.073534481 0.49549872 1.8040001
-0.06626939 0.49530235 1.8040001
-0.052688256 0.49710226 1.8040003
-0.044670485 0.49824768 1.8040003
-0.076168895 0.50512004 1.8040001
-0.06528762 0.50254297 1.8040001
-0.053833656 0.50454736 1.8040001
-0.044670478 0.5051201 1.804
-0.037798099 0.50168389 1.8040001
-0.076741599 0.51313782 1.8040003
-0.05154286 0.51199239 1.8040001
-0.046388574 0.51199239 1.8040001
-0.022335241 0.62882286 1.8040001
-0.024053335 0.63225913 1.8040001
-0.39216954 -0.051828578 1.8140001
-0.38525909 -0.053556196 1.8140001
-0.37489337 -0.058739051 1.8140001
-0.36452764 -0.051828578 1.8140001
-0.35934478 -0.051828578 1.8140001
-0.35934478 -0.048373338 1.8140001
-0.40633607 0.0027641908 1.8140001
-0.40771812 0.012093334 1.8140001
-0.30060571 0.18658288 1.8140001
-0.30060571 0.19349335 1.8140001
-0.29715049 0.19522098 1.8140001
-0.30060571 0.20385908 1.8140001
-0.29715049 0.20558669 1.8140001
-0.30060571 0.21249716 1.8140001
-0.29139179 0.2119213 1.8140001
-0.28505716 0.21768001 1.8140001
-0.28332955 0.22113526 1.8140001
-0.27987429 0.22113526 1.8140001
-0.27641907 0.23322859 1.8140001
-0.27296382 0.24532191 1.8140001
-0.26605335 0.25741524 1.8140001
-0.26432574 0.26432574 1.8140001
-0.26259813 0.27641907 1.8140001
-0.26259813 0.28332955 1.8140001
-0.25568762 0.28678477 1.8140001
-0.25568762 0.29024002 1.8140001
-0.24532191 0.29715049 1.8140001
-0.2522324 0.304061 1.8140001
-0.2476254 0.30175748 1.8140001
-0.24359429 0.3161543 1.8140001
-0.23841144 0.31442666 1.8140001
-0.24359429 0.32306477 1.8140001
-0.23668382 0.32824764 1.8140001
-0.24186668 0.3334305 1.8140001
-0.23725972 0.33285463 1.8140001
-0.22631812 0.35934478 1.8140001
-0.22631812 0.36625525 1.8140001
-0.22459048 0.37489337 1.8140001
-0.086380959 0.4388153 1.8140001
-0.077742867 0.43881527 1.8140001
0.086380959 0.43881527 1.8140001
0.1174781 0.43881527 1.8140001
-0.10020191 0.44572574 1.8140001
-0.095019057 0.44399813 1.8140001
-0.079470485 0.44227052 1.8140001
0.077742867 0.44918099 1.8140001
0.08407747 0.44572577 1.8140001
0.1174781 0.44572577 1.8140001
-0.10020191 0.4578191 1.8140001
-0.094443187 0.45493972 1.8140001
-0.013129907 0.45609146 1.8140001
-0.0051828576 0.45609146 1.8140001
0.0017276192 0.45954672 1.8140001
0.038007624 0.45954672 1.8140001
0.044918101 0.45954674 1.8140001
0.055974867 0.4581646 1.8140001
0.064497784 0.4572432 1.8140001
0.076706298 0.45540044 1.8140001
0.082925722 0.45436382 1.8140001
0.1174781 0.45263621 1.8140001
-0.10250541 0.46760893 1.8140001
-0.095594935 0.46415371 1.8140001
-0.0034552384 0.46472955 1.8140001
0.0030233336 0.46688908 1.8140001
0.012957145 0.46904859 1.8140001
0.024877718 0.46853033 1.8140001
0.033861335 0.46438405 1.8140001
0.044918101 0.46300194 1.8140001
0.055283815 0.46300194 1.8140001
0.06680128 0.46530542 1.8140001
-0.11171938 0.47567114 1.8140001
-0.10711239 0.47336766 1.8140001
-0.11229526 0.4802781 1.8140001
0.10538478 0.48718861 1.8140001
-0.024186669 0.61762381 1.8140001
-0.023754764 0.62582999 1.8140001
-0.015548572 0.62539816 1.8140001
-0.3839086 -0.059062857 1.8240001
-0.35611433 -0.048640002 1.8240001
-0.2964724 0.21656382 1.8240002
-0.29531431 0.22235429 1.8240001
-0.28836575 0.22235429 1.8240001
-0.28141713 0.23798859 1.8240001
-0.27794287 0.23972574 1.8240001
-0.28141713 0.24493717 1.8240001
-0.27794287 0.24493717 1.8240001
-0.28257525 0.25130665 1.8240001
-0.27562669 0.25478095 1.8240002
-0.27099428 0.26230857 1.8240001
-0.26752001 0.26404572 1.8240001
-0.26230857 0.28836575 1.8240001
-0.26230857 0.29531431 1.8240001
-0.25449142 0.29792005 1.8240001
-0.26057142 0.30400002 1.8240001
-0.25709715 0.30400002 1.8240001
-0.26057142 0.31268573 1.8240001
-0.2527543 0.31702858 1.8240001
-0.25188571 0.32484573 1.8240001
-0.25312653 0.33253881 1.8240004
-0.24580574 0.33266288 1.8240001
-0.25014856 0.34048003 1.8240001
-0.24435812 0.34163815 1.8240001
-0.23856764 0.34279627 1.8240001
-0.2345143 0.35437721 1.8240002
-0.10075429 0.43776003 1.8240001
-0.093805723 0.43602285 1.8240002
-0.085120007 0.43602288 1.8240001
-0.076434299 0.43602294 1.8240002
0.086857148 0.43776003 1.8240001
0.090331435 0.43776003 1.8240001
0.12160001 0.43776003 1.8240001
-0.11256687 0.44540343 1.8240002
-0.10466287 0.44470859 1.8240002
-0.095542863 0.44123429 1.8240001
0.062537141 0.44818288 1.8240001
0.077129148 0.44679317 1.8240002
0.08338286 0.44297144 1.8240001
0.12246858 0.44557714 1.8240001
-0.11365879 0.45562777 1.8240004
-0.10522123 0.45513147 1.8240004
-0.010422857 0.45513144 1.8240001
0.0027794286 0.45721602 1.8240002
0.010422857 0.45860574 1.8240001
0.024320001 0.45773715 1.8240001
0.034742858 0.45860574 1.8240001
0.045165718 0.45686862 1.8240002
0.055588573 0.45455241 1.8240002
0.067169532 0.45397338 1.8240002
0.072960004 0.45513147 1.8240001
0.11812571 0.45860574 1.8240001
0.1250743 0.45513144 1.8240002
0.13723429 0.45686859 1.8240001
0.14244573 0.45860574 1.8240001
-0.12333714 0.4655543 1.8240001
-0.11421715 0.46598858 1.8240002
-0.10631315 0.46485946 1.8240002
0.0069485717 0.46381715 1.8240001
0.014331429 0.46512002 1.8240002
0.023823675 0.46456161 1.8240004
0.033005714 0.46208 1.8240001
0.11552 0.46642289 1.8240001
0.1250743 0.46381718 1.8240002
0.13549714 0.46208 1.8240001
-0.12333714 0.47597718 1.8240002
-0.11580952 0.47481906 1.8240002
0.10631315 0.47667202 1.8240002
0.11117715 0.47597718 1.8240001
0.12854858 0.47250286 1.8240001
0.13549714 0.47250286 1.8240001
-0.12333715 0.48292574 1.8240001
-0.11812571 0.48292574 1.8240001
0.10596572 0.48466289 1.8240001
0.11117715 0.48640007 1.8240001
0.10596572 0.49508578 1.8240001
0.11117715 0.49508578 1.8240001
0.12681143 0.49334863 1.8240001
0.13202286 0.49334863 1.8240001
-0.033584766 0.60684198 1.8240001
-0.026057143 0.60800004 1.8240001
-0.033005714 0.61494869 1.8240002
-0.024320001 0.61451435 1.8240002
-0.015634287 0.61842293 1.8240001
-0.03265829 0.62467664 1.8240002
-0.027794287 0.62537146 1.8240001
-0.013897143 0.6242134 1.8240001
-0.0069485717 0.62884575 1.8240001
-0.010422857 0.63232005 1.8240001
-0.0069485717 0.63232005 1.8240001
-0.29328001 0.22345144 1.8330001
-0.28629717 0.22694287 1.8330001
-0.28629717 0.23342694 1.8330002
-0.30026287 0.24440001 1.8330001
-0.29537484 0.24370173 1.8330001
-0.28804284 0.24440002 1.8330001
-0.30026287 0.25138286 1.8330001
-0.29677144 0.25138286 1.8330001
-0.28746098 0.25603813 1.8330001
-0.28280571 0.26185715 1.8330001
-0.27682042 0.26584736 1.8330002
-0.27233142 0.27233142 1.8330001
-0.26884001 0.27582288 1.8330001
-0.26884001 0.28629714 1.8330001
-0.26418477 0.29560763 1.8330001
-0.26418477 0.3037543 1.8330001
-0.26395199 0.31422859 1.8330001
-0.25487429 0.31335571 1.8330001
-0.24789144 0.31248286 1.8330001
-0.26360285 0.32121143 1.8330001
-0.25836572 0.32121143 1.8330001
-0.26360285 0.33517718 1.8330001
-0.25661999 0.33866858 1.8330001
-0.25400144 0.3447786 1.8330001
-0.24527286 0.34827 1.8330001
-0.23741715 0.34914285 1.8330001
-0.24265429 0.35438001 1.8330001
-0.2304343 0.35612571 1.8330001
-0.2304343 0.36660001 1.8330001
-0.23508953 0.37125525 1.8330001
-0.09252286 0.42944574 1.8330001
0.13267428 0.42595428 1.8330001
-0.12481858 0.43904716 1.8330001
-0.11521715 0.43817431 1.8330001
-0.10474285 0.4370105 1.8330001
-0.094268583 0.43293715 1.8330001
-0.083794288 0.43293715 1.8330001
-0.076811425 0.43293715 1.8330001
0.083794288 0.43992001 1.8330001
0.12801906 0.43759239 1.8330001
0.13616571 0.43992004 1.8330001
0.14489429 0.43992001 1.8330001
0.15362287 0.43992004 1.8330001
0.16409716 0.43992004 1.8330001
0.17457144 0.43992004 1.8330001
0.18504572 0.43992001 1.8330001
0.19202857 0.43992001 1.8330001
-0.12569144 0.44515714 1.8330001
-0.11754477 0.44457528 1.8330001
0.045388572 0.44690287 1.8330001
0.055862859 0.44690287 1.8330001
0.066337138 0.44690287 1.8330001
0.074483812 0.44457528 1.8330001
0.080302857 0.44341144 1.8330001
0.12743714 0.44515717 1.8330001
0.13616571 0.44515714 1.8330001
0.14489429 0.44515717 1.8330001
0.15362285 0.44515714 1.8330001
0.16409716 0.44515714 1.8330001
0.17457144 0.44515714 1.8330001
0.18504572 0.44515714 1.8330001
-0.13442001 0.45388576 1.8330001
-0.12569143 0.4538857 1.8329999
-0.11870857 0.45388573 1.8330001
-0.013965715 0.45388573 1.8330001
-0.005237143 0.45388573 1.8330001
0.0043642856 0.45475858 1.8330001
0.013965715 0.45563146 1.8330001
0.024440002 0.4552823 1.8330001
0.034914285 0.45563146 1.8330001
0.045388572 0.45214003 1.8330001
0.054990005 0.45126715 1.8330001
0.068082854 0.45039427 1.8330001
0.12918286 0.45039427 1.8330001
0.13566694 0.45288816 1.8330002
0.14489429 0.45388573 1.8330001
0.15362287 0.45388576 1.8329999
0.16409715 0.45388576 1.8329999
0.17457142 0.4538857 1.8329999
0.18548214 0.45344931 1.8330001
0.19552 0.45039427 1.8330001
-0.13441999 0.46348715 1.8330001
-0.12627335 0.46319622 1.8330001
-0.11870857 0.46436 1.8330001
0.015711429 0.4608686 1.8330001
0.1355838 0.46552381 1.8330001
0.14524344 0.4650583 1.8330001
0.15362285 0.46436003 1.8329999
0.16409715 0.46436003 1.8329999
0.17457145 0.46436003 1.8329999
0.1833 0.4608686 1.8330001
-0.13354713 0.47396144 1.8330001
-0.12831001 0.47396144 1.8330001
0.11638095 0.4759981 1.8330001
0.125255 0.47483426 1.8330001
0.13616571 0.47483426 1.8330001
0.14454515 0.47413597 1.8330001
0.15362285 0.47308856 1.8330001
0.16322429 0.47221574 1.8330001
0.17515334 0.47367045 1.8330001
0.1833 0.47483429 1.8330001
-0.13267428 0.48356286 1.8330001
-0.12918286 0.48356286 1.8330001
0.11696286 0.48530859 1.8330001
0.12569144 0.48530859 1.8329999
0.13572928 0.48530859 1.8330001
0.14314857 0.48530859 1.8330001
0.11661372 0.49508458 1.8330001
0.12481858 0.4931643 1.8330001
0.13686399 0.49368802 1.8330001
0.14489429 0.49229142 1.8330001
0.15013143 0.49229142 1.8330001
0.0017457143 0.59528857 1.8330001
-0.041897144 0.60227144 1.8330001
-0.034914285 0.6040172 1.8330001
-0.023741715 0.606112 1.8330001
0.0034914287 0.60401714 1.8330001
-0.038405713 0.61449146 1.8330001
-0.020948572 0.61100006 1.8330001
-0.015129524 0.6156553 1.8330001
0.005237143 0.6144914 1.8330001
0.010474286 0.6144914 1.8330001
-0.038405713 0.62322003 1.8330001
-0.010474286 0.62496579 1.8330001
-0.0055862856 0.62426746 1.8330001
-0.29663527 0.22818096 1.8430001
-0.29588303 0.23520191 1.8430002
-0.29488003 0.2492438 1.8430001
-0.29488003 0.25275427 1.8430001
-0.28668889 0.26562604 1.8430002
-0.28364649 0.27311501 1.8430001
-0.27615747 0.27615747 1.8430002
-0.2808381 0.2808381 1.8430001
-0.2729395 0.28434858 1.8430001
-0.27030668 0.29488003 1.8430002
-0.27206188 0.30190095 1.8430001
-0.25802001 0.34753713 1.8430001
-0.2556797 0.35455811 1.8430002
-0.2492438 0.35631335 1.8430001
-0.24222288 0.36859998 1.8430001
-0.23695715 0.36684474 1.8430001
-0.24222288 0.37386572 1.8430001
-0.23754224 0.37796128 1.8430002
-0.23695715 0.38264191 1.8430001
0.13690856 0.42827812 1.8430001
-0.1333981 0.43880951 1.8430001
-0.12637714 0.43705431 1.8430001
-0.11584571 0.43442145 1.8430001
-0.10531428 0.43412894 1.8430002
-0.098293334 0.43178859 1.8430001
-0.086006671 0.43178859 1.8430001
0.084251434 0.43880951 1.8430002
0.093027622 0.43880951 1.8430001
0.12988763 0.43880951 1.8430001
0.13515334 0.4352991 1.8430002
0.14349072 0.43573785 1.8430002
0.15446097 0.43705425 1.8430002
0.16499239 0.43630207 1.8430002
0.17502233 0.43630207 1.8430002
0.18605524 0.43880951 1.8430002
0.19307619 0.43880951 1.8430001
-0.13515334 0.44583052 1.8430002
0.035104763 0.449341 1.8430002
0.045636192 0.44723469 1.8430001
0.056167617 0.44583052 1.8430002
0.064943805 0.44583049 1.8430001
0.072842389 0.44319761 1.8430001
0.080740951 0.44231999 1.8430001
0.18605524 0.44231999 1.8430001
0.19518249 0.44653258 1.8430001
0.20360759 0.44583049 1.8430002
0.21150619 0.44670808 1.8430001
-0.14041905 0.45987239 1.8430001
-0.015212065 0.45753211 1.8430002
-0.0052657146 0.45285144 1.8430001
0.0035104766 0.45285147 1.8430002
0.014041906 0.45285147 1.8430002
0.024573334 0.45285147 1.8430002
0.035104763 0.45285147 1.8430002
0.18254477 0.45987239 1.8430001
0.19448039 0.457064 1.8430001
0.20360759 0.45636192 1.8430002
0.21203275 0.457064 1.8430001
-0.14041905 0.46338284 1.8430001
-0.1333981 0.46689335 1.8430001
0.18693286 0.46601573 1.8430001
0.19483143 0.46513811 1.8430001
0.20290552 0.46478701 1.8430001
0.21062857 0.46338284 1.8430001
-0.13690856 0.47742477 1.8430001
0.16674763 0.47742477 1.8430001
0.17201333 0.47742477 1.8430001
0.18655676 0.47291136 1.8430002
0.19483143 0.47391433 1.8430002
0.20316878 0.47347552 1.8430002
-0.13690856 0.48444575 1.8430002
0.14568478 0.48532334 1.8430001
0.15446097 0.48444578 1.8430002
0.16449089 0.48344281 1.8430002
0.17201333 0.48093525 1.8430001
0.14744002 0.4914667 1.8430001
0.15446097 0.49234432 1.8430001
0.1614819 0.4914667 1.8430001
-0.010531429 0.59678096 1.8430001
-0.0035104763 0.59502572 1.8430001
0 0.59327048 1.8430001
-0.042125717 0.60029143 1.8430001
-0.035982382 0.60292435 1.8430001
-0.025450954 0.60467958 1.8430001
-0.01354041 0.60480493 1.8430002
-0.0052657146 0.60380197 1.8430002
0.0017552382 0.60731244 1.8430001
-0.012871748 0.61316323 1.8430002
-0.0052657146 0.61433339 1.8430002
0.0021062859 0.61433339 1.8430001
-0.0052657146 0.62135428 1.8430001
0.0030716667 0.62442595 1.8430002
0.010531429 0.62486476 1.8430001
-0.0035104763 0.63188577 1.8430001
0.0017552382 0.63188577 1.8430001
-0.29295048 0.26824382 1.853
-0.29295048 0.27530289 1.853
-0.28824446 0.2776559 1.853
-0.28353846 0.28589147 1.853
-0.27883241 0.28589147 1.853
-0.28236192 0.29295048 1.853
-0.27706763 0.29471526 1.853
-0.28236192 0.30530381 1.853
-0.27600881 0.30353904 1.853
-0.24353714 0.3670705 1.853
-0.13294542 0.43530795 1.853
-0.12353334 0.4323667 1.853
-0.11470953 0.43236667 1.853
-0.10765047 0.43413144 1.853
-0.093532383 0.43060192 1.853
-0.088238098 0.43060192 1.853
0.14471048 0.43177843 1.853
0.15529905 0.43413147 1.853
0.16677001 0.4323667 1.853
0.17471144 0.43236667 1.853
0.18353525 0.43589622 1.853
0.19412383 0.43766099 1.853
0.20118286 0.43766096 1.853
-0.14420627 0.44572845 1.853
-0.13765143 0.44119048 1.853
0.035295241 0.44824955 1.853
0.056472383 0.44472003 1.853
0.064413808 0.44383764 1.853
0.07412 0.44119048 1.853
0.19765334 0.44119048 1.853
0.20471239 0.44119048 1.853
0.21706572 0.4464848 1.853
0.22236001 0.44472003 1.853
-0.14471048 0.45530856 1.853
0.001764762 0.45177907 1.853
0.014118096 0.45177907 1.853
0.024706667 0.45177907 1.853
0.21794809 0.45530856 1.853
-0.14471048 0.46413237 1.853
0.20824191 0.46942666 1.853
0.21177143 0.46942666 1.853
0.21177143 0.47295618 1.853
-0.14118096 0.48354477 1.853
0.20824191 0.48001525 1.853
-0.14118096 0.49060383 1.853
-0.045883812 0.59472477 1.853
-0.012353334 0.59648955 1.853
-0.0070590479 0.59648955 1.853
-0.046589717 0.60143083 1.853
-0.034412857 0.60090142 1.853
-0.023824286 0.6026662 1.853
-0.015882859 0.60178381 1.853
-0.0070590479 0.60001904 1.853
-0.29098287 0.28566 1.863
-0.28743428 0.28743428 1.863
-0.29098287 0.29275715 1.863
-0.28743428 0.29275715 1.863
-0.28033715 0.30872571 1.863
-0.28033715 0.31227428 1.863
-0.27501428 0.31404856 1.863
-0.1348457 0.42937717 1.8630002
-0.12420001 0.42937717 1.8630002
-0.11532857 0.42937714 1.863
-0.095811434 0.42937714 1.863
0.14549144 0.42937717 1.8630002
0.15968572 0.42937714 1.863
0.16500857 0.42937714 1.863
0.17210571 0.42937714 1.863
0.18452571 0.42937714 1.863
-0.14478171 0.43505487 1.8630002
-0.13721143 0.43410859 1.8630002
-0.11177999 0.43292573 1.863
-0.10468285 0.43292573 1.863
-0.099360004 0.43292573 1.863
0.14904 0.43292573 1.863
0.15613714 0.43292576 1.8630002
0.16323428 0.43292573 1.863
0.17742857 0.43292573 1.863
0.18541285 0.43381286 1.863
0.19517143 0.43558717 1.863
0.20404285 0.43647429 1.863
-0.15347572 0.44445857 1.863
-0.14620115 0.44144231 1.8630002
0.047905713 0.44712001 1.863
0.053228572 0.44712001 1.863
0.062100001 0.44357142 1.863
0.070971429 0.44002286 1.863
0.085165724 0.44002289 1.8630002
0.094037145 0.44002286 1.863
0.20759143 0.44002286 1.863
0.21468857 0.44179714 1.863
0.22444713 0.44445857 1.863
0.23420572 0.44712004 1.8630002
0.24130286 0.44712001 1.863
-0.15347572 0.45333001 1.863
-0.01242 0.45776573 1.863
-0.0053228568 0.45421714 1.863
0.0070971427 0.45421714 1.863
0.014194285 0.45066857 1.8630002
0.024840001 0.45066857 1.8630002
0.22533429 0.45421717 1.8630002
0.23420572 0.45244285 1.8630002
0.24130286 0.45066857 1.863
-0.15258858 0.46131429 1.863
-0.14904 0.46663713 1.863
-0.14549144 0.48792857 1.863
-0.14549144 0.49325141 1.863
-0.01242 0.58906287 1.863
-0.044357143 0.59616005 1.863
-0.035485715 0.59717393 1.8630002
-0.024840001 0.59970868 1.8630002
-0.01348457 0.59545034 1.8630002
-0.0059142858 0.59497714 1.8630002
-0.026614286 0.60325712 1.863
-0.13556954 0.4281143 1.8730001
-0.12486668 0.4281143 1.8730001
-0.11594763 0.4281143 1.8730001
-0.094541907 0.4281143 1.8730001
-0.089190483 0.4281143 1.8730001
0.14805621 0.4281143 1.8730001
0.16411048 0.4281143 1.8730001
0.17302954 0.4281143 1.8730001
0.18730001 0.4281143 1.8730001
-0.15459684 0.43762797 1.8730001
-0.14716429 0.43257385 1.8730001
-0.11059619 0.43168193 1.8730001
-0.10524476 0.43168193 1.8730001
-0.096325725 0.43168193 1.8730001
-0.089190483 0.43168193 1.8730001
0.067784764 0.43881717 1.8730001
0.071352385 0.43881717 1.8730001
0.098704129 0.43643877 1.8730001
0.15519144 0.43168193 1.8730001
0.17838097 0.43168193 1.8730001
0.18551621 0.43168193 1.8730001
0.19621907 0.43310902 1.8730001
0.20513812 0.43346572 1.8730001
0.21405715 0.43703339 1.8730001
0.22297621 0.43881717 1.8730001
-0.15697524 0.4441686 1.8730001
0.017838096 0.44952002 1.8730001
0.024973337 0.44952005 1.8730001
0.035676192 0.44952005 1.8730001
0.046379052 0.4477362 1.8730001
0.055298097 0.44595242 1.8730001
0.066000953 0.44238478 1.8730001
0.076703817 0.44238478 1.8730001
0.22476003 0.44238481 1.8730001
0.23457097 0.44506049 1.8730001
0.24259812 0.44595242 1.8730001
-0.010702858 0.45665526 1.8730001
0.0035676192 0.45308766 1.8730001
-0.042811431 0.58865714 1.8730001
-0.035676192 0.58687335 1.8730001
-0.023784129 0.5862788 1.8730001
-0.01664889 0.58746797 1.8730001
-0.044000637 0.59341407 1.8730001
-0.036568098 0.59400862 1.8730001
-0.024973335 0.59579247 1.8730003
-0.017838096 0.59579241 1.8730001
-0.14526001 0.42681336 1.8830001
-0.13629335 0.42681336 1.8830001
-0.12553334 0.42681336 1.8830001
-0.11656667 0.42681336 1.8830001
-0.10042667 0.42681336 1.8830001
-0.095046669 0.42681336 1.8830001
-0.089666672 0.42681336 1.8830001
0.14705333 0.42681336 1.8830001
0.15422668 0.42681336 1.8830001
0.16498668 0.42681336 1.8830001
0.17574668 0.42681336 1.8830001
0.18531112 0.42561781 1.8830001
0.19368003 0.42502004 1.8830003
0.20264667 0.42681336 1.8830001
-0.15422669 0.43398672 1.8830001
-0.14526001 0.43040004 1.8830001
-0.12553334 0.43040004 1.8830001
-0.11118668 0.43040004 1.8830001
-0.10401335 0.43040007 1.8830001
0.08787334 0.43757334 1.8830001
0.094448894 0.43518227 1.8830001
0.10042667 0.43398669 1.8830001
0.15602002 0.43040004 1.8830001
0.17933334 0.43040004 1.8830001
0.18292001 0.43040004 1.8830001
0.19547334 0.43040004 1.8830001
0.20444003 0.43040007 1.8830001
0.21430334 0.43309003 1.8830001
0.22524269 0.43613869 1.8830003
0.23313336 0.43757334 1.8830001
0.24210002 0.43757334 1.8830001
0.017933335 0.44654003 1.8830001
0.024389334 0.4468987 1.8830003
0.03497 0.44743669 1.8830001
0.044833332 0.44833335 1.8830001
0.053800002 0.4447467 1.8830001
0.062168892 0.4423556 1.8830001
0.077113338 0.44116005 1.8830001
0.086080007 0.44116005 1.8830001
0.095046669 0.44116005 1.8830001
0.22954668 0.44116005 1.8830001
0.23552446 0.4423556 1.8830001
0.24210002 0.44295338 1.8830001
-0.012553334 0.45730004 1.8830001
-0.0053800005 0.45550671 1.8830001
0.012553334 0.45192 1.8830001
-0.017933335 0.46268001 1.8830001
-0.04304 0.58821332 1.8830001
-0.034970004 0.58642 1.8830001
-0.026900001 0.58462667 1.8830001
-0.046626668 0.59180003 1.8830001
-0.034671113 0.59299558 1.8830001
-0.1533238 0.42930666 1.8940001
-0.12807047 0.42750287 1.8940001
-0.11183619 0.42930666 1.8940001
-0.10822857 0.42930666 1.8940001
0.14791238 0.42569906 1.8940001
0.15512761 0.42569908 1.8940001
0.16595048 0.42569908 1.8940001
0.17496952 0.42569906 1.8940001
0.18398857 0.4244965 1.8940001
0.19481145 0.42209142 1.8940001
0.2065362 0.42660093 1.8940001
0.21465334 0.42930666 1.8940001
-0.15512761 0.43291429 1.8940001
0.093798101 0.43411684 1.8940001
0.10101333 0.43291429 1.8940001
0.21645714 0.43291429 1.8940001
0.22367239 0.43291432 1.8940001
0.23449525 0.43652195 1.8940001
0.24171048 0.43652192 1.8940001
0.018038096 0.44373715 1.8940001
0.025253333 0.4449397 1.8940001
0.03788 0.44734475 1.8940001
0.043291431 0.44734475 1.8940001
0.055918097 0.44373715 1.8940001
0.06854476 0.44012955 1.8940001
0.075759999 0.44012958 1.8940001
0.082975239 0.44012955 1.8940001
0.23810287 0.44012955 1.8940001
0.0054114284 0.45456001 1.8940001
0.012626667 0.45095238 1.8940001
-0.018038096 0.46177524 1.8940001
-0.2453181 0.49785143 1.8940001
-0.24171048 0.50506675 1.8940001
-0.23494621 0.50461572 1.8940001
-0.22547619 0.50326288 1.8940001
-0.043291431 0.5880419 1.8940001
-0.034873649 0.58443433 1.8940001
-0.027658414 0.58202922 1.8940001
-0.12512 0.42794669 1.904
-0.11424001 0.42794669 1.904
-0.10517333 0.42794669 1.904
-0.096106663 0.42794669 1.904
0.15594667 0.42432004 1.904
0.16501334 0.42432001 1.904
0.17408 0.42432004 1.904
0.18495999 0.42250669 1.904
0.19584 0.42069334 1.904
0.20490667 0.42432001 1.904
0.21397334 0.42613336 1.904
0.22576001 0.42704001 1.904
0.235008 0.42649603 1.9040002
-0.16320001 0.43882668 1.904
-0.15957333 0.43701333 1.904
-0.10517333 0.43157333 1.904
0.068906672 0.43882668 1.904
0.076159999 0.43882668 1.904
0.08522667 0.43882668 1.904
0.094293341 0.43278226 1.904
0.22485337 0.43157333 1.904
0.23573336 0.43338668 1.9040002
0.24298666 0.43338668 1.904
-0.16320001 0.44608003 1.904
0.012693333 0.44970667 1.904
0.029013334 0.44608 1.904
0.036266666 0.44608003 1.904
0.047146667 0.44970667 1.904
0.054400004 0.44366226 1.904
0.063466668 0.44245335 1.904
-0.16501334 0.45696002 1.904
-0.01088 0.45696002 1.904
-0.0072533335 0.45696002 1.904
0.0036266667 0.45514667 1.904
-0.21216001 0.46784002 1.904
-0.16320001 0.46058667 1.904
-0.02176 0.46240002 1.904
-0.016320001 0.46058667 1.904
-0.24661332 0.47872001 1.904
-0.22485337 0.47690666 1.9040002
-0.21352002 0.47554666 1.9040002
-0.20581333 0.47600001 1.904
-0.19584 0.47872004 1.904
-0.25024003 0.48597336 1.904
-0.24480002 0.48597333 1.9040002
-0.23573335 0.48597336 1.9040002
-0.22485335 0.48597336 1.9040002
-0.21397334 0.48597336 1.9040002
-0.20671999 0.48597333 1.904
-0.25024 0.49504 1.904
-0.2448 0.49504 1.904
-0.23573336 0.49504 1.9040002
-0.22485337 0.49504003 1.9040002
-0.21397334 0.49503994 1.9040002
-0.20671999 0.49322665 1.904
-0.25024 0.50048 1.904
-0.24298666 0.50048 1.904
-0.23573333 0.50048006 1.904
-0.22340269 0.50265598 1.9040002
-0.2176 0.50048 1.904
-0.22122668 0.51136005 1.904
-0.04352 0.58570671 1.904
-0.038079999 0.58570671 1.904
-0.15684763 0.42677143 1.9150001
0.14955239 0.42677143 1.9150001
0.16414288 0.42312384 1.9150002
0.17508572 0.42312384 1.9150002
0.18238096 0.42312384 1.9150001
0.20609048 0.42312384 1.9150001
0.21612144 0.42403573 1.9150001
0.22542286 0.42458287 1.9150002
0.23344763 0.42312384 1.9150001
-0.16341333 0.43479618 1.9150002
-0.15502381 0.43041909 1.9150001
-0.14590478 0.43041909 1.9150002
-0.13678572 0.43041909 1.9150001
-0.12037143 0.43041909 1.9150001
0.087542862 0.43771428 1.9150001
0.094838105 0.43163496 1.9150002
0.10213334 0.43224287 1.9150001
-0.1714381 0.44500956 1.9150002
-0.1677905 0.44500956 1.9150002
0.018238096 0.44500953 1.9150001
0.025533333 0.44500956 1.9150002
0.034652382 0.44500953 1.9150001
0.044500954 0.44646856 1.9150002
0.053802382 0.44227383 1.9150001
0.063833334 0.44136193 1.9150001
0.0766 0.44136193 1.9150001
-0.1714381 0.45595241 1.9150002
-0.16657463 0.45473656 1.9150002
-0.023709524 0.4596 1.9150001
-0.015806351 0.45838413 1.9150002
-0.0036476192 0.4596 1.9150001
0.0036476192 0.45412859 1.9150001
-0.1714381 0.46507144 1.9150001
-0.16779049 0.46507144 1.9150001
-0.027357144 0.46507144 1.9150001
-0.24347858 0.47692621 1.9150001
-0.23527144 0.47601432 1.9150001
-0.22615239 0.47236669 1.9150002
-0.21885714 0.47236669 1.9150001
-0.20244287 0.47601432 1.9150001
-0.24256667 0.48148572 1.9150001
-0.23527144 0.48148572 1.9150001
-0.20305082 0.48634923 1.9150002
-0.20517859 0.49698812 1.9150001
-0.2480381 0.50701904 1.9150001
-0.21520953 0.50458735 1.9150002
-0.2480381 0.51066667 1.9150001
-0.21885714 0.51066667 1.9150001
-0.16231905 0.51066667 1.9150001
-0.041947618 0.58361906 1.9150001
-0.034652382 0.58361906 1.9150001
-0.16133334 0.42900002 1.9250001
-0.15216668 0.42900002 1.9250001
-0.14483333 0.42900002 1.9250001
-0.13933334 0.42900002 1.9250001
-0.1045 0.42900002 1.9250001
0.097166672 0.42900002 1.9250001
0.10266667 0.42900002 1.9250001
0.15400001 0.42533335 1.9250001
0.21633334 0.42166668 1.9250001
0.22366667 0.42166671 1.9250001
-0.16683334 0.43450004 1.9250001
0.08433333 0.43633336 1.9250001
0.091666669 0.43266669 1.9250001
-0.17508334 0.44275004 1.9250001
0.029333334 0.44366667 1.9250001
0.034833334 0.44366667 1.9250001
0.044916667 0.44275001 1.9250001
0.055000003 0.44000003 1.9250001
0.066 0.44000003 1.9250001
0.075166672 0.44000003 1.9250001
0.082500003 0.44000003 1.9250001
-0.17691666 0.45466667 1.9250001
-0.02475 0.45741665 1.9250001
-0.014666666 0.45613337 1.9250001
-0.0055 0.45650002 1.9250001
0.00275 0.45191666 1.9250001
0.012833334 0.45100001 1.9250001
-0.23283334 0.46933335 1.9250001
-0.22366667 0.46933335 1.9250001
-0.176 0.46383333 1.9250001
-0.029333334 0.46200001 1.9250001
-0.24566668 0.47666669 1.9250001
-0.23650001 0.47300002 1.9250001
-0.19800001 0.4876667 1.9250001
-0.20166668 0.49500006 1.9250001
-0.19800001 0.49133337 1.9250001
-0.21450001 0.50966668 1.9250001
-0.20716667 0.50783336 1.9250001
-0.16316667 0.51700002 1.9250001
-0.16409905 0.42776385 1.9360001
-0.15672381 0.42776385 1.9360001
0.15672381 0.4240762 1.9360001
0.16594288 0.4240762 1.9360002
0.17454731 0.422847 1.9360002
0.18438098 0.4240762 1.9360002
0.19544384 0.4240762 1.9360002
0.20466286 0.4240762 1.9360001
0.21388191 0.422847 1.9360002
0.22310096 0.42038858 1.9360001
-0.17454731 0.43759748 1.9360002
-0.16840129 0.43268067 1.9360002
-0.13644192 0.43145144 1.9360001
-0.11062858 0.43145144 1.9360001
0.055314288 0.43882674 1.9360002
0.064533338 0.43882671 1.9360001
0.074674286 0.4379048 1.9360001
0.084815249 0.43513906 1.9360002
-0.24338287 0.4425143 1.9360001
-0.23600762 0.44398937 1.9360001
-0.22740319 0.44497272 1.9360002
-0.18253717 0.44620189 1.9360001
-0.011062858 0.44988954 1.9360001
-0.0055314288 0.44988954 1.9360001
0.0036876192 0.44988954 1.9360002
0.014750476 0.44866034 1.9360002
0.025813336 0.44620192 1.9360001
0.03687619 0.4425143 1.9360001
0.042407621 0.4425143 1.9360001
-0.23600766 0.45542097 1.9360001
-0.22740319 0.45603558 1.9360002
-0.18315177 0.45480639 1.9360002
-0.033188574 0.45726478 1.9360001
-0.025813334 0.45603558 1.9360002
-0.014750477 0.45357716 1.9360002
