# .PCD v0.7 - Point Cloud Data file format
VERSION 0.7
FIELDS x y z
SIZE 4 4 4
TYPE F F F
COUNT 1 1 1
WIDTH 1512
HEIGHT 1
VIEWPOINT 0 0 0 1 0 0 0
POINTS 1512
DATA ascii
0.0035104766 0.43354386 1.8430002
0.014041906 0.43178862 1.8430002
0.035104763 0.43178862 1.8430002
0.045636192 0.43178862 1.8430002
0.052657142 0.43178859 1.8430001
0.075475246 0.43178859 1.8430001
0.082496196 0.43178859 1.8430001
0.12637715 0.43178862 1.8430002
0.13515332 0.43178859 1.8430001
0.14480716 0.43617666 1.8430001
0.15358335 0.4379319 1.8430001
0.22467048 0.4352991 1.8430002
-0.15212063 0.44817084 1.8430002
-0.14436835 0.44539171 1.8430002
-0.13515332 0.44407523 1.8430001
-0.12637715 0.44407529 1.8430002
-0.11760096 0.44407523 1.8430001
0.16499239 0.44495285 1.8430001
0.22423169 0.44539171 1.8430002
-0.15504605 0.45636195 1.8430002
-0.14744002 0.45285144 1.8430001
0.16850287 0.45285144 1.8430001
0.17201333 0.45636192 1.8430001
0.22291523 0.45460668 1.8430001
-0.1614819 0.46689335 1.8430001
-0.15797144 0.46338284 1.8430001
-0.1614819 0.47391433 1.8430002
-0.16235952 0.48532337 1.8430001
-0.15496247 0.48444575 1.8430002
-0.14568478 0.4879562 1.8430001
-0.14392954 0.4914667 1.8430002
-0.13690856 0.49673235 1.8430001
-0.13690856 0.50199813 1.8430001
0.2453019 0.23647809 1.853
0.24706668 0.24353714 1.853
0.2505962 0.24353714 1.853
0.24706668 0.2505962 1.853
0.2505962 0.2505962 1.853
0.20471238 0.40942475 1.853
0.20647714 0.4129543 1.853
0.21530096 0.41507202 1.853
0.22588953 0.41648382 1.853
-0.10412095 0.42707241 1.853
-0.095297143 0.42354286 1.853
-0.084708571 0.42707241 1.853
-0.074120007 0.42707241 1.853
-0.062825523 0.42424878 1.853
-0.05470762 0.42707241 1.853
-0.047648571 0.42707241 1.853
0.045883812 0.42707241 1.853
0.065296188 0.42707241 1.853
0.10941524 0.42707241 1.853
0.11470953 0.42707241 1.853
0.12000381 0.42707241 1.853
0.21647748 0.42236638 1.853
0.22236001 0.42530763 1.853
-0.14118096 0.43766096 1.853
-0.13412191 0.43677858 1.853
-0.12265096 0.43677858 1.853
-0.11470953 0.43589622 1.853
-0.10823873 0.43177843 1.853
-0.070590481 0.43060192 1.853
-0.042354286 0.43060192 1.853
-0.035295241 0.43177843 1.853
-0.024706667 0.43295497 1.853
-0.014118096 0.43060192 1.853
-0.0052942857 0.43060192 1.853
0.001764762 0.43060192 1.853
0.014118096 0.43060192 1.853
0.022941906 0.43060192 1.853
0.033530477 0.43060192 1.853
0.045883812 0.43060192 1.853
0.052942857 0.43060192 1.853
0.075884759 0.43060192 1.853
0.081179045 0.43060192 1.853
0.091767624 0.43060192 1.853
0.1252981 0.43060192 1.853
0.13235715 0.43060192 1.853
0.14471048 0.43413147 1.853
0.15529905 0.43589622 1.853
0.21530095 0.43766096 1.853
0.22500715 0.43148431 1.853
-0.15529905 0.44472006 1.853
-0.14471048 0.44119048 1.853
0.16706413 0.44472003 1.853
0.20824191 0.44472003 1.853
0.21671276 0.44472003 1.853
0.22941904 0.44119048 1.853
0.23294859 0.44472003 1.853
-0.18353525 0.45530856 1.853
-0.17471144 0.4570733 1.853
-0.16632882 0.45574972 1.8529999
-0.15882857 0.45354381 1.853
0.17294668 0.45530856 1.853
0.21741867 0.45460269 1.853
-0.17294668 0.46766192 1.853
-0.1663288 0.46545592 1.8529999
-0.17471144 0.47295618 1.853
-0.16765237 0.47472095 1.853
-0.16765237 0.4835448 1.853
-0.17294668 0.49060383 1.853
-0.16941714 0.49060383 1.853
-0.15412256 0.49295685 1.853
-0.14471048 0.49766287 1.853
-0.14471048 0.50119245 1.853
0.25620684 0.24698058 1.8630002
0.25727144 0.25194857 1.863
0.26259428 0.25194857 1.863
0.20759143 0.41873142 1.863
-0.1348457 0.42937714 1.863
-0.12242572 0.42937714 1.863
-0.11266714 0.42848998 1.863
-0.10468285 0.42582858 1.863
-0.095811427 0.42582858 1.863
-0.086052857 0.42494145 1.863
-0.075229719 0.42440915 1.8630002
-0.066239998 0.42346287 1.8630002
-0.055594288 0.42464575 1.8630002
-0.046131432 0.42701143 1.8630002
-0.039034285 0.42937714 1.863
-0.014194285 0.42937717 1.8630002
-0.0070971427 0.42937714 1.863
0.0017742857 0.42937714 1.863
0.014194285 0.42937717 1.8630002
0.024840003 0.42937717 1.8630002
0.03371143 0.42937714 1.863
0.047905713 0.42760286 1.863
0.055002857 0.42937714 1.863
0.060325716 0.42937714 1.863
0.1259743 0.42937714 1.863
0.13307142 0.42937714 1.863
0.20847857 0.42494142 1.863
0.21409714 0.42819428 1.8630002
-0.15436286 0.43647429 1.863
-0.14549144 0.43470001 1.8630002
-0.13484572 0.43434516 1.8630002
-0.12490971 0.43434516 1.8630002
-0.11532857 0.43292573 1.863
-0.031937145 0.43292573 1.863
-0.028388571 0.43292573 1.863
0.0070971427 0.43292573 1.863
0.014194285 0.43292573 1.863
0.039034285 0.43292573 1.863
0.086940005 0.43292573 1.863
0.13839428 0.43292573 1.863
0.14549142 0.43292576 1.8630002
0.15613714 0.43470001 1.863
0.20818286 0.43410859 1.8630002
0.21468857 0.43470001 1.863
0.22001143 0.43470001 1.863
-0.20404285 0.44712001 1.863
-0.19428429 0.44623289 1.863
-0.18452571 0.44458532 1.8630002
-0.17337306 0.44458532 1.8630002
-0.16536343 0.44428116 1.8630002
-0.15702429 0.44091001 1.863
-0.14726572 0.44002286 1.863
0.1656 0.44120571 1.8630002
0.17388001 0.44593716 1.8630002
0.20818286 0.44357142 1.8630002
0.21528 0.44238859 1.8630002
-0.20404285 0.45421717 1.8630002
-0.19517143 0.45421717 1.863
-0.18452571 0.45244288 1.8630002
-0.17458971 0.45208803 1.8630002
-0.16441715 0.45185146 1.8630002
0.17600916 0.45350742 1.8630002
0.21468857 0.45066857 1.863
-0.20368801 0.46486288 1.8630002
-0.19472785 0.46486282 1.863
-0.1845257 0.46486282 1.863
-0.17624573 0.46604571 1.8630002
0.17742857 0.46308857 1.863
0.20936571 0.46663713 1.863
0.21291429 0.46663713 1.863
-0.19251001 0.47550857 1.863
-0.1845257 0.4755086 1.863
-0.17624572 0.47669142 1.8630002
-0.19162288 0.48615429 1.8630002
-0.1845257 0.48615429 1.863
-0.17565429 0.48615432 1.8630002
-0.19162287 0.49325141 1.863
-0.18452571 0.49502572 1.8630002
-0.17742857 0.49502569 1.863
-0.16323428 0.49680001 1.863
-0.15968572 0.49680001 1.863
-0.16323428 0.50212288 1.863
-0.15613715 0.50212288 1.8630002
0.2033543 0.41741148 1.8730001
-0.13378572 0.4281143 1.8730001
-0.12397478 0.4272224 1.8730001
-0.11416382 0.42692512 1.8730001
-0.10524476 0.42454672 1.8730001
-0.096325718 0.42454672 1.8730001
-0.083839051 0.42454672 1.8730001
-0.071352385 0.42454672 1.8730001
-0.054703496 0.42216831 1.8730001
-0.046379052 0.42573592 1.8730001
-0.03924381 0.4281143 1.8730001
0.014270477 0.4281143 1.8730001
0.023189526 0.4281143 1.8730001
0.049946669 0.4281143 1.8730001
0.053514287 0.4281143 1.8730001
0.11773144 0.4281143 1.8730001
0.12575859 0.4272224 1.8730001
0.13319112 0.42692512 1.8730001
0.20692192 0.4281143 1.8730001
-0.21048954 0.43881717 1.8730001
-0.20454352 0.43762797 1.8730001
-0.19621907 0.43703339 1.8730001
-0.18551621 0.4362689 1.8730003
-0.17481336 0.43703339 1.8730001
-0.16411048 0.43703339 1.8730001
-0.15459684 0.43406034 1.8730001
-0.14627239 0.43168196 1.8730001
-0.13556953 0.43168193 1.8730001
-0.1284343 0.43168193 1.8730001
-0.035676192 0.43168193 1.8730001
-0.023189526 0.43346572 1.8730001
-0.0035676192 0.43168193 1.8730001
0.0071352385 0.43168193 1.8730001
0.03924381 0.43168193 1.8730001
0.042811431 0.43168193 1.8730001
0.071352385 0.43168193 1.8730001
0.098109528 0.43168193 1.8730001
0.10524476 0.43168193 1.8730001
0.13913715 0.43168193 1.8730001
0.14627241 0.43168196 1.8730001
0.15519144 0.43346572 1.8730001
0.16411048 0.43703336 1.8730001
0.17124572 0.43881717 1.8730001
0.20513812 0.43614143 1.8730001
-0.21286795 0.44714162 1.8730001
-0.2051381 0.44416857 1.8730001
-0.19693258 0.44381186 1.8730001
-0.18551621 0.44238478 1.8730001
-0.17659715 0.44238478 1.8730001
-0.16411048 0.44238478 1.8730001
0.17552687 0.44381186 1.8730001
0.18373239 0.44952002 1.8730001
0.20513812 0.44595242 1.8730001
-0.22119239 0.45487148 1.8730001
-0.21405715 0.45487148 1.8730001
0.18194859 0.45487148 1.8730001
0.19978668 0.45487148 1.8730001
0.20513812 0.45487148 1.8730001
0.21167874 0.45546609 1.8730001
-0.21405715 0.46379054 1.8730003
-0.20692192 0.46735814 1.8730001
-0.19978668 0.46735814 1.8730001
0.18408917 0.46521756 1.8730001
0.19978669 0.46379051 1.8730001
0.20513812 0.46379051 1.8730001
0.21227333 0.46200669 1.8730001
-0.25330099 0.47806099 1.8730001
-0.24973336 0.47806099 1.8730001
-0.21048956 0.47449335 1.8730001
-0.20513812 0.47627717 1.8730001
-0.19859748 0.47568259 1.8730001
0.18730001 0.47092575 1.8730001
0.19978668 0.47092575 1.8730001
0.2057327 0.47330421 1.8730001
0.21227334 0.47627717 1.8730001
-0.22119239 0.48519623 1.8730001
-0.21227333 0.48519623 1.8730001
-0.20513812 0.4851962 1.8730001
-0.19800287 0.48519623 1.8730001
0.21227334 0.48162863 1.8730001
-0.20513812 0.49411529 1.8730001
-0.19978668 0.49411529 1.8730001
-0.17302954 0.49946672 1.8730001
-0.1676781 0.49946672 1.8730001
-0.17302954 0.50303429 1.8730001
-0.1676781 0.50481814 1.8730001
-0.15243334 0.42681336 1.8830001
-0.14526001 0.42681336 1.8830001
-0.13629335 0.42681336 1.8830001
-0.12732667 0.42681336 1.8830001
-0.11656667 0.42681336 1.8830001
-0.10401335 0.42322668 1.8830001
-0.08608 0.42322668 1.8830001
-0.077113338 0.42322668 1.8830001
-0.064560011 0.42322668 1.8830001
-0.04304 0.42681336 1.8830001
0.014346668 0.42681336 1.8830001
0.02152 0.42681336 1.8830001
0.12553334 0.42502004 1.8830001
0.13701068 0.42466137 1.8830003
0.14526001 0.42681336 1.8830001
0.20444001 0.42502004 1.8830001
-0.21280891 0.43637782 1.8830001
-0.20444 0.43398672 1.8830003
-0.19296269 0.43255207 1.8830003
-0.18411557 0.43159562 1.8830001
-0.17646401 0.43255207 1.8830003
-0.16570401 0.43255207 1.8830003
-0.15512335 0.43129671 1.8830001
-0.14526001 0.43040004 1.8830001
-0.13988 0.43040004 1.8830001
-0.034073338 0.43219337 1.8830001
-0.026900001 0.43398669 1.8830001
-0.01076 0.43040004 1.8830001
-0.0071733338 0.43040004 1.8830001
0.0035866671 0.43040007 1.8830001
0.014346668 0.43040004 1.8830001
0.028693335 0.43040004 1.8830001
0.03586667 0.43040004 1.8830001
0.04304 0.43040004 1.8830001
0.05738667 0.43040004 1.8830001
0.077113338 0.43398669 1.8830001
0.086080007 0.43398672 1.8830001
0.093253337 0.43398669 1.8830001
0.11477334 0.43040004 1.8830001
0.13988 0.43040004 1.8830001
0.14526001 0.43040004 1.8830001
0.15422668 0.43219337 1.8830001
0.16498668 0.43518227 1.8830001
0.17395334 0.43757334 1.8830001
0.20324445 0.43398672 1.8830001
-0.22237335 0.44654003 1.8830001
-0.21735202 0.44402939 1.8830003
0.17754 0.44116005 1.8830001
0.18435468 0.44546404 1.8830003
0.19439736 0.44546404 1.8830003
0.20175001 0.4447467 1.8830001
-0.22506334 0.45461002 1.8830001
0.18650667 0.45730004 1.8830001
0.19368002 0.45550671 1.8830003
0.20085335 0.45192 1.8830001
-0.22416668 0.46626672 1.8830003
0.18650667 0.46447337 1.8830001
0.19412835 0.46581835 1.8830003
-0.25465333 0.47702667 1.8830001
-0.22237335 0.47344002 1.8830001
-0.21699335 0.47523335 1.8830001
0.19439735 0.47559199 1.8830003
0.20444003 0.47702667 1.8830001
-0.21609668 0.48330337 1.8830001
0.19419239 0.48420006 1.8830004
0.20399168 0.48464838 1.8830003
-0.21284953 0.42930666 1.8940001
-0.20563428 0.42930669 1.8940001
-0.19481145 0.42930669 1.8940001
-0.18398857 0.42930669 1.8940001
-0.17496952 0.42930666 1.8940001
-0.16595048 0.42930669 1.8940001
-0.15873523 0.42930666 1.8940001
-0.12626669 0.42569908 1.8940001
-0.11544381 0.42569908 1.8940001
-0.095601909 0.42569906 1.8940001
-0.086582862 0.42569906 1.8940001
-0.072152384 0.42569906 1.8940001
-0.050506666 0.42569906 1.8940001
-0.04689905 0.42569906 1.8940001
-0.03788 0.42930666 1.8940001
0.052310474 0.42930666 1.8940001
0.097405717 0.42930666 1.8940001
0.14610857 0.42569906 1.8940001
0.15152 0.42930666 1.8940001
-0.22367239 0.43652195 1.8940001
-0.2152546 0.43411684 1.8940001
-0.2074381 0.43291429 1.8940001
-0.19841905 0.43291429 1.8940001
-0.17316572 0.43291429 1.8940001
-0.16234286 0.43291429 1.8940001
-0.032468572 0.43291429 1.8940001
-0.025253333 0.43291429 1.8940001
-0.016234286 0.43291429 1.8940001
-0.0036076191 0.43291429 1.8940001
0.036076188 0.43291429 1.8940001
0.093798101 0.43291432 1.8940001
0.10822857 0.43291429 1.8940001
0.11183619 0.43291429 1.8940001
0.15512761 0.43291429 1.8940001
0.16955811 0.43652192 1.8940001
0.17496952 0.43652192 1.8940001
0.19841905 0.43652192 1.8940001
0.20202667 0.4347181 1.8940001
-0.23269144 0.44734475 1.8940001
-0.22487494 0.44253463 1.8940001
0.18398857 0.44133207 1.8940001
0.19421017 0.44253463 1.8940001
-0.23178953 0.4536581 1.8940001
-0.22728001 0.45095238 1.8940001
0.19481143 0.45095238 1.8940001
-0.23088762 0.46538287 1.8940001
-0.22607747 0.47861081 1.8940001
-0.22367238 0.48522478 1.8940001
0.19481143 0.48342097 1.8940001
-0.19584 0.42794669 1.904
-0.16501334 0.42794669 1.904
-0.15594667 0.42794669 1.904
-0.14506668 0.42794669 1.904
-0.04352 0.42794669 1.904
-0.038079999 0.42794669 1.904
0.12330666 0.42794669 1.904
0.20309334 0.42794669 1.904
-0.23331557 0.43761778 1.904
-0.22394668 0.43429333 1.904
-0.2176 0.43157333 1.904
-0.032639999 0.43157333 1.904
-0.025386667 0.43278226 1.904
0.01088 0.43157333 1.904
0.058026668 0.43157333 1.904
0.065280005 0.43520004 1.904
0.08704 0.43520001 1.904
0.092480004 0.43157333 1.904
0.10517333 0.43338665 1.904
0.11968 0.43157333 1.904
0.16501334 0.43520001 1.904
0.18496001 0.43882668 1.904
0.19584 0.43761778 1.904
0.20309334 0.43157333 1.904
-0.24443734 0.44680533 1.9040002
-0.23625143 0.44504383 1.9040003
0.18858667 0.44245335 1.904
-0.2448 0.45514667 1.904
-0.23815112 0.45575112 1.904
-0.24298666 0.46421337 1.904
-0.23754665 0.46421337 1.9040002
-0.23618665 0.47554666 1.9040002
-0.24298666 0.48597333 1.904
-0.23573335 0.48597336 1.9040002
-0.22848001 0.4896 1.904
-0.23392001 0.49322665 1.904
-0.22848001 0.49322665 1.904
-0.19946666 0.50229335 1.904
-0.20061906 0.42677143 1.9150001
-0.19514762 0.42677143 1.9150001
-0.18602857 0.42677146 1.9150002
-0.17508572 0.42677146 1.9150002
-0.16414288 0.42677146 1.9150002
-0.15502381 0.42677143 1.9150001
-0.14590478 0.42677146 1.9150002
-0.13860953 0.42677143 1.9150001
-0.093014285 0.42677143 1.9150001
-0.083895236 0.42677146 1.9150002
-0.0766 0.42677143 1.9150001
-0.036476191 0.42677143 1.9150001
0.20244287 0.42677143 1.9150001
-0.25168574 0.43771428 1.9150001
-0.2443905 0.4351089 1.9150002
-0.23618335 0.43406668 1.9150001
-0.22688191 0.43187815 1.9150002
-0.21520953 0.43041909 1.9150002
-0.20426667 0.43041909 1.9150002
-0.19332381 0.43041909 1.9150001
-0.18602858 0.43041909 1.9150002
-0.17508572 0.43041909 1.9150002
-0.13678572 0.43041909 1.9150001
-0.032828573 0.43041909 1.9150001
-0.027357144 0.43224287 1.9150001
-0.014590478 0.43406671 1.9150002
0.018238096 0.43406668 1.9150001
0.043771427 0.43406671 1.9150002
0.062009525 0.43406668 1.9150001
0.087542862 0.43406668 1.9150001
0.10213334 0.43406668 1.9150001
0.1130762 0.43406668 1.9150001
0.15684763 0.43406668 1.9150001
0.16049524 0.43771428 1.9150001
0.17508572 0.43771428 1.9150002
0.19575557 0.4364984 1.9150002
0.20061906 0.43224287 1.9150001
-0.25429118 0.44553065 1.9150002
-0.24530239 0.44227383 1.9150001
-0.26262859 0.45412859 1.9150001
-0.25533336 0.45595244 1.9150001
-0.25533336 0.4650715 1.9150002
-0.2480381 0.46507144 1.9150001
-0.25314477 0.47346097 1.9150002
-0.24657908 0.47492 1.9150002
-0.25259763 0.48513335 1.9150001
-0.24657908 0.48440382 1.9150002
-0.25168574 0.4924286 1.9150001
-0.24439049 0.49425241 1.9150001
-0.24383333 0.42900002 1.9250001
-0.23466668 0.42900002 1.9250001
-0.22183335 0.42900002 1.9250001
-0.21450001 0.42900002 1.9250001
-0.20533334 0.42777777 1.9250001
-0.19433334 0.42533335 1.9250001
-0.18516667 0.42533332 1.9250001
-0.176 0.42533335 1.9250001
-0.16500001 0.42533335 1.9250001
-0.15400001 0.42533335 1.9250001
-0.14483333 0.42533332 1.9250001
-0.13493334 0.42679998 1.9250001
-0.12466668 0.42900002 1.9250001
-0.11366668 0.42900002 1.9250001
-0.1045 0.42900002 1.9250001
-0.095333338 0.42716667 1.9250001
-0.086166665 0.42533332 1.9250001
-0.07333333 0.42900002 1.9250001
0.044 0.42900002 1.9250001
0.14483333 0.42900002 1.9250001
0.19800001 0.42900002 1.9250001
0.2035 0.42533332 1.9250001
-0.26033333 0.43633336 1.9250001
-0.25483334 0.43450004 1.9250001
-0.24566668 0.43266669 1.9250001
-0.23466668 0.43266669 1.9250001
-0.023833334 0.43266669 1.9250001
-0.0165 0.43266669 1.9250001
-0.0055 0.43633336 1.9250001
0.025666667 0.43633336 1.9250001
0.042166665 0.43266669 1.9250001
0.055000003 0.43266672 1.9250001
0.066 0.43633336 1.9250001
0.095333338 0.43266669 1.9250001
0.10633333 0.43266669 1.9250001
0.11366667 0.43450004 1.9250001
0.19433334 0.43511114 1.9250001
-0.26180002 0.44440004 1.9250001
-0.25666666 0.44000003 1.9250001
0.07333333 0.44000003 1.9250001
0.18516667 0.44000003 1.9250001
0.19066668 0.44000003 1.9250001
-0.264 0.45100001 1.9250001
-0.26366478 0.42776385 1.9360001
-0.2559208 0.42555127 1.9360001
-0.24584129 0.42653465 1.9360002
-0.23600763 0.42776388 1.9360002
-0.22494477 0.42776388 1.9360002
-0.21388191 0.42776388 1.9360002
-0.20650668 0.42776385 1.9360001
-0.19544384 0.4240762 1.9360002
-0.18622477 0.4240762 1.9360001
-0.17700572 0.4240762 1.9360001
-0.15303621 0.4240762 1.9360001
-0.14381716 0.4240762 1.9360002
-0.13398351 0.422847 1.9360002
-0.12611659 0.42628881 1.9360001
-0.11800382 0.42776385 1.9360001
-0.10325334 0.42776385 1.9360001
-0.097721912 0.42776385 1.9360001
-0.084815249 0.42530543 1.9360002
-0.2630502 0.43513906 1.9360002
-0.25444573 0.43145144 1.9360002
-0.22863239 0.43145144 1.9360001
-0.070064761 0.43145144 1.9360001
-0.047939051 0.43145144 1.9360001
-0.033188574 0.43145144 1.9360001
-0.029500954 0.43145144 1.9360001
-0.011062858 0.43513906 1.9360001
0 0.43882671 1.9360001
0.029500954 0.43882671 1.9360001
0.035032384 0.43882671 1.9360001
0.047939051 0.43513906 1.9360001
0.062689528 0.43513906 1.9360001
0.084815241 0.43882671 1.9360001
0.099565722 0.43513906 1.9360001
0.10325334 0.43513906 1.9360001
0.12537906 0.43329525 1.9360001
0.16594288 0.43882674 1.9360002
0.17516191 0.43882671 1.9360001
0.18438098 0.43882674 1.9360002
0.19360001 0.43513906 1.9360001
-0.26550859 0.4425143 1.9360001
0.077440001 0.4425143 1.9360001
0.084815241 0.4425143 1.9360001
-0.24723813 0.41783243 1.9470003
-0.23734859 0.4190686 1.9470001
-0.22622287 0.4190686 1.9470001
-0.25403717 0.42463148 1.9470001
-0.24402404 0.42426062 1.9470001
-0.2354943 0.42463148 1.9470001
-0.22548115 0.42500234 1.9470001
-0.21583886 0.42500231 1.9470001
-0.20471315 0.42426062 1.9470001
-0.19470002 0.42277718 1.9470001
-0.18542859 0.42463148 1.9470001
-0.17430288 0.42524958 1.9470003
-0.16503143 0.42648575 1.9470001
-0.15576002 0.42401338 1.9470003
-0.14463429 0.42277718 1.9470003
-0.13721716 0.42277718 1.9470001
-0.12609145 0.42401338 1.9470003
-0.11867429 0.42648575 1.9470001
-0.10384002 0.42648575 1.9470003
-0.09456858 0.42648575 1.9470001
-0.085297152 0.42401338 1.9470003
-0.26701716 0.43575716 1.9470001
-0.11311144 0.43019432 1.9470001
-0.10754858 0.43019432 1.9470001
-0.076025724 0.43019432 1.9470001
-0.064900003 0.43390286 1.9470001
-0.042648576 0.43390286 1.9470001
-0.016688572 0.43390286 1.9470001
0.022251431 0.43761146 1.9470001
0.055628575 0.43390286 1.9470001
0.064900003 0.43575716 1.9470001
0.087151438 0.43761146 1.9470001
0.092714287 0.43761146 1.9470001
0.11496572 0.43761146 1.9470001
0.15761431 0.43761146 1.9470001
0.16503143 0.43761146 1.9470001
0.18542859 0.43761146 1.9470003
0.1953181 0.43266672 1.9470003
0.20026287 0.43019432 1.9470001
0.0055628577 0.44132003 1.9470001
0.074171439 0.44132003 1.9470003
0.081588574 0.4431743 1.9470001
0.26701716 0.44873717 1.9470001
0.27072573 0.44873717 1.9470001
0.25960001 0.45800859 1.9470001
0.26516289 0.45615435 1.9470003
0.27072573 0.45244575 1.9470001
-0.2442838 0.41770667 1.9580001
-0.23442723 0.41504279 1.9580002
-0.22377141 0.41397718 1.9579999
-0.21506922 0.41646355 1.9580001
-0.20698857 0.41770667 1.9580001
-0.25547236 0.42143622 1.9580001
-0.24241905 0.42143622 1.9580001
-0.23247366 0.42267939 1.9580001
-0.22190668 0.42143622 1.9580001
-0.21382603 0.42267939 1.9580001
-0.20512383 0.42143625 1.9580001
-0.19393525 0.42143625 1.9580001
-0.18461142 0.42516571 1.9580001
-0.17342286 0.42516571 1.9580001
-0.16409905 0.42516574 1.9580001
-0.14545143 0.42143625 1.9580001
-0.13426286 0.42143625 1.9580001
-0.12493904 0.42330098 1.9580001
-0.11486933 0.42665753 1.9580001
-0.093238093 0.42516571 1.9580001
-0.082049526 0.42516571 1.9580001
-0.074590474 0.42889529 1.9580001
-0.070860952 0.43262476 1.9580001
-0.06713143 0.43262476 1.9580001
-0.055010479 0.43542191 1.9580001
-0.044754289 0.43262476 1.9580001
-0.026106667 0.43635431 1.9580001
-0.011188571 0.43635431 1.9580001
-0.0055942857 0.43635431 1.9580001
0.05594286 0.43635431 1.9580001
0.06713143 0.43635431 1.9580001
0.1268038 0.43635431 1.9580001
0.16409905 0.43635431 1.9580001
0.18461142 0.43635431 1.9580001
0.19207048 0.43448955 1.9580001
-0.0055942857 0.44008383 1.9580001
0.0037295239 0.44008383 1.9580001
0.011188571 0.44008383 1.9580001
0.035430476 0.44008383 1.9580001
0.074590474 0.44008383 1.9580001
0.082049526 0.44008383 1.9580001
0.11934476 0.44008383 1.9580001
0.17528763 0.44008383 1.9580001
0.26852572 0.44567811 1.9580001
0.27412 0.44567811 1.9580001
0.25547236 0.45686668 1.9580001
0.26293141 0.45313716 1.9580001
0.25733715 0.46246096 1.9580001
0.29628763 0.25503239 1.9690001
0.3000381 0.25503239 1.9690001
-0.23440477 0.40880194 1.9690001
-0.22690383 0.40880194 1.9690001
-0.24190572 0.41442764 1.9690001
-0.23628001 0.41255239 1.9690001
-0.21377715 0.41442764 1.9690001
-0.20627619 0.41630286 1.9690001
-0.20252572 0.42005336 1.9690001
-0.19877525 0.42005336 1.9690001
-0.18377334 0.42380387 1.9690002
-0.17627239 0.42380384 1.9690001
-0.15251938 0.42130351 1.9690002
-0.14439334 0.42005336 1.9690001
-0.13501716 0.42005336 1.9690002
-0.12564096 0.42192858 1.9690001
-0.10501334 0.42755431 1.9690002
-0.093761906 0.42567909 1.9690001
-0.084385723 0.42380384 1.9690001
-0.076884761 0.42755431 1.9690001
0.20627619 0.42755431 1.9690001
-0.061882861 0.43505526 1.9690001
-0.056257147 0.43505526 1.9690001
-0.045005716 0.43505526 1.9690001
-0.031879049 0.43505526 1.9690001
-0.022502858 0.43880573 1.9690001
-0.013126668 0.43505526 1.9690001
0.0037504765 0.43880576 1.9690002
0.011251429 0.43880573 1.9690001
0.048756193 0.43880573 1.9690001
0.073134288 0.43880573 1.9690001
0.084385723 0.43880573 1.9690001
0.097512387 0.43880573 1.9690001
0.10876381 0.43880573 1.9690001
0.11438952 0.43880573 1.9690001
0.12189049 0.43880573 1.9690001
0.15564477 0.43880573 1.9690001
0.16502097 0.43755555 1.9690002
0.17439716 0.43880573 1.9690001
0.18377334 0.4363054 1.9690002
0.19502477 0.43318003 1.9690001
0.20440096 0.43130478 1.9690001
0.21002668 0.43130478 1.9690001
0.25878286 0.43880573 1.9690001
0.26440859 0.43880573 1.9690001
0.27378482 0.43693051 1.9690001
0.2812857 0.43693048 1.9690001
0.016877143 0.4425562 1.9690001
0.026253335 0.4425562 1.9690001
0.03000381 0.4425562 1.9690001
0.25690764 0.44630668 1.9690001
0.26503369 0.44505653 1.9690002
0.27378482 0.44255623 1.9690002
0.2812857 0.4425562 1.9690001
0.25690764 0.4519324 1.9690001
0.26378351 0.45130736 1.9690002
0.3017143 0.26022857 1.9800001
0.28537148 0.40480003 1.9800003
-0.21120001 0.41485718 1.9800001
-0.20365715 0.4186286 1.9800001
-0.15085715 0.4186286 1.9800001
-0.0792 0.4186286 1.9800001
-0.19422859 0.42240003 1.9800001
-0.18668571 0.42240003 1.9800001
-0.17348573 0.42617145 1.9800001
-0.16594288 0.42617148 1.9800003
-0.1584 0.42428574 1.9800001
-0.12068572 0.42617145 1.9800001
-0.11502858 0.42617145 1.9800001
-0.076371431 0.42617145 1.9800001
0.27657145 0.42868575 1.9800003
0.28285718 0.42805716 1.9800001
-0.064114295 0.43371433 1.9800003
-0.054685719 0.4337143 1.9800001
-0.037714288 0.43748575 1.9800001
-0.018857144 0.43748575 1.9800001
-0.005657143 0.43748575 1.9800001
0 0.43748575 1.9800001
0.1697143 0.43748575 1.9800001
0.18102859 0.43748575 1.9800001
0.1961143 0.4337143 1.9800001
0.26588571 0.43748575 1.9800001
0.2753143 0.43371433 1.9800003
0.28285718 0.4337143 1.9800001
0.01697143 0.44125718 1.9800001
0.0792 0.44125718 1.9800001
0.092400007 0.44125718 1.9800001
0.10371429 0.44125718 1.9800001
0.25457144 0.44314289 1.9800001
0.26211429 0.4450286 1.9800001
0.30733714 0.25801143 1.9920001
0.31302857 0.25801143 1.9920001
0.2997486 0.26180574 1.9920001
0.31492573 0.26180574 1.9920001
0.2864686 0.39840001 1.9920001
0.25801143 0.40788573 1.9920001
0.26654857 0.40693715 1.9920001
0.27571809 0.40725335 1.9920001
0.28330669 0.40535623 1.9920003
-0.20868573 0.41737145 1.9920001
-0.16694857 0.41737145 1.9920001
0.2561143 0.41357714 1.9920001
0.26939431 0.4154743 1.9920001
0.27508572 0.4154743 1.9920001
0.28204194 0.41484189 1.9920001
-0.20109715 0.42116573 1.9920001
-0.18592 0.42243049 1.9920001
-0.17453717 0.42306289 1.9920003
-0.16505143 0.42306286 1.9920001
-0.15746287 0.42116573 1.9920001
-0.14797714 0.42116573 1.9920001
-0.11003429 0.4287543 1.9920001
-0.10624 0.4287543 1.9920001
-0.09675429 0.4287543 1.9920001
0.26939434 0.42496002 1.9920001
0.27508569 0.42496002 1.9920003
0.28204194 0.42369527 1.9920001
-0.011382857 0.4363429 1.9920001
-0.0056914287 0.4363429 1.9920001
0 0.4363429 1.9920001
0.18781716 0.4363429 1.9920001
0.19477335 0.43381333 1.9920001
0.20299429 0.43254858 1.9920001
0.26939431 0.43444574 1.9920001
0.27698284 0.43254858 1.9920001
-0.022765715 0.44013715 1.9920001
0.0037942859 0.44013715 1.9920001
0.024662858 0.44393143 1.9920001
0.034148574 0.44393143 1.9920001
0.041737143 0.44393143 1.9920001
0.1365943 0.44393143 1.9920001
0.14228573 0.44393143 1.9920001
0.16315429 0.44013715 1.9920001
0.17643431 0.44013715 1.9920001
0.2561143 0.44013715 1.9920001
0.26180574 0.44013715 1.9920001
-0.013280001 0.58811432 1.9920001
-0.013280001 0.59190857 1.9920001
-0.0075885719 0.59190857 1.9920001
0.032251433 0.63744003 1.9920001
0.026560001 0.64123428 1.9920001
0.032630861 0.64426976 1.9920002
0.30903429 0.26325142 2.003
0.31284952 0.26325142 2.003
0.28423524 0.33955619 2.003
0.29568094 0.33383334 2.003
0.28614286 0.34718665 2.003
0.28805047 0.35481715 2.0030003
0.28805047 0.36244762 2.003
0.26706669 0.37389335 2.003
0.27422023 0.37389332 2.003
0.28232762 0.37770855 2.003
0.27660477 0.38533908 2.0030003
0.28614286 0.38533905 2.003
0.29377335 0.38533908 2.003
0.26706669 0.39296952 2.003
0.27546021 0.39449561 2.003
0.28614289 0.39487717 2.0030003
0.29377332 0.39487714 2.003
-0.17359333 0.40823048 2.003
0.25689271 0.40568703 2.003
0.26579496 0.4031435 2.003
0.27469715 0.40250763 2.0030003
0.28232762 0.40059999 2.003
0.29377332 0.40059999 2.003
-0.20602286 0.41967618 2.003
-0.19076191 0.41967618 2.003
-0.18694668 0.41967618 2.003
-0.17441088 0.41640604 2.0030003
-0.16405523 0.41776857 2.003
-0.15451714 0.41967618 2.003
-0.14879429 0.41967618 2.003
0.25752857 0.41967618 2.003
0.26515907 0.41586095 2.0030003
0.27469715 0.41204572 2.003
-0.19648476 0.42349145 2.003
-0.18313143 0.42349145 2.003
-0.12590286 0.42730665 2.003
-0.11445715 0.42730665 2.003
-0.10682666 0.42730665 2.003
0.19648476 0.42730665 2.003
0.20602286 0.42730665 2.003
0.25816447 0.4247632 2.003
0.26515907 0.42539907 2.003
-0.10301143 0.43112192 2.003
-0.072489522 0.43112192 2.003
-0.064859048 0.43493712 2.003
-0.045782857 0.43875238 2.003
-0.017168572 0.43875238 2.003
0.15642476 0.43875238 2.003
0.16405523 0.43875238 2.003
0.17645475 0.43779856 2.003
0.18465753 0.43417406 2.003
0.19362333 0.43207571 2.003
0.20602286 0.43112192 2.003
0.26515907 0.43493718 2.0030003
-0.026706666 0.44256762 2.003
0.0076304763 0.44256762 2.003
0.11827239 0.44256762 2.003
0.12590286 0.44256765 2.003
0.14497906 0.44256765 2.003
0.15451714 0.44256762 2.003
0.16023999 0.44256762 2.003
-0.015260953 0.59772062 2.003
-0.0050869845 0.59772062 2.003
0 0.59517717 2.003
-0.0038152381 0.60471523 2.003
0 0.60471523 2.003
-0.0050869845 0.61298162 2.003
0 0.61043811 2.003
0 0.62569904 2.003
0.033860236 0.62617594 2.003
0.026706666 0.63523716 2.003
0.032429524 0.63523716 2.003
0.019076191 0.64477527 2.003
0.024417523 0.64477527 2.003
0.017804446 0.65494919 2.003
0.024799047 0.65431333 2.003
0.030521905 0.65431333 2.003
0.024799047 0.66194379 2.003
0.033247076 0.66439646 2.0030003
0.038152382 0.67529714 2.003
0.041967619 0.67529714 2.003
0.026706666 0.72489524 2.003
0.030521905 0.72680283 2.003
0.026706666 0.73443329 2.003
0.030521905 0.73443329 2.003
0.019076191 0.7477867 2.003
0.024799047 0.74397147 2.0030003
0.030521905 0.74397147 2.003
0.022891428 0.75160187 2.003
0.29169527 0.31856191 2.0150001
0.28401905 0.3262381 2.0150001
0.26866665 0.3377524 2.0150001
0.27538335 0.33487386 2.0150001
0.28401905 0.33391431 2.0150001
0.29399812 0.33237907 2.0150001
0.26866665 0.34159049 2.0150001
0.27480766 0.34466097 2.0150001
0.2827397 0.34606826 2.0150003
0.29361433 0.34542859 2.0150003
0.27634287 0.35310477 2.0150001
0.28401905 0.3550238 2.0150001
0.29553336 0.35310477 2.0150001
0.26866665 0.36845714 2.0150001
0.27480766 0.36538664 2.0150001
0.28337938 0.36589837 2.0150003
0.29361433 0.36845714 2.0150001
0.28529841 0.37549371 2.0150003
0.29361433 0.37613338 2.0150003
0.26866665 0.3857286 2.0150001
0.27250478 0.3857286 2.0150001
0.2663638 0.39532384 2.0150001
0.27250478 0.39532384 2.0150001
0.26290953 0.40300003 2.0150001
-0.18358891 0.41579366 2.0150003
-0.16599762 0.41355479 2.0150001
0.19766192 0.4183524 2.0150001
0.20533811 0.4183524 2.0150001
-0.20341906 0.42219049 2.0150001
-0.19766192 0.42219049 2.0150001
-0.18422857 0.42219049 2.0150001
-0.12281905 0.42986667 2.0150001
-0.10554762 0.42794764 2.0150001
-0.097871438 0.42986667 2.0150001
-0.076761909 0.42986667 2.0150001
0.17463334 0.42986667 2.0150001
0.18470834 0.42650837 2.0150001
0.19519459 0.42493194 2.0150003
0.20533811 0.42410952 2.0150001
0.21109524 0.42410952 2.0150001
0.25715238 0.42986667 2.0150001
-0.065247625 0.43370476 2.0150001
-0.055652384 0.43754286 2.0150001
-0.0076761907 0.43754286 2.0150001
0.15544286 0.43754286 2.0150001
0.16503811 0.43562385 2.0150003
0.17463334 0.43562382 2.0150001
0.18039048 0.43370476 2.0150001
0.25715238 0.43562382 2.0150001
0.26099047 0.43562382 2.0150001
-0.023028571 0.44138095 2.0150001
0.0038380953 0.44138095 2.0150001
0.011514286 0.44521904 2.0150001
0.034542859 0.44521904 2.0150001
0.046057146 0.44521904 2.0150001
0.055652384 0.44521904 2.0150001
0.063328572 0.44521904 2.0150001
0.097871438 0.44521904 2.0150001
0.10746667 0.44521904 2.0150001
0.11514287 0.44521904 2.0150001
0.13625237 0.44330001 2.0150001
0.14584765 0.44138095 2.0150001
0.15352382 0.44138095 2.0150001
0.25715238 0.44138095 2.0150001
0.26099047 0.44138095 2.0150001
0.0057571428 0.59490478 2.0150001
-0.015352381 0.60513973 2.0150001
-0.0076761907 0.60641909 2.0150001
0.0051174606 0.60513973 2.0150001
-0.014255783 0.61354697 2.0150003
-0.0076761907 0.61217618 2.0150001
0.0028785714 0.61505473 2.0150001
-0.013433333 0.62560958 2.0150003
-0.0057571433 0.62560958 2.0150003
0.0038380953 0.62560952 2.0150003
0.015352382 0.62752861 2.0150003
0.025331428 0.62637711 2.0150001
0.032623813 0.62177145 2.0150001
-0.013433333 0.63520479 2.0150001
-0.0057571428 0.63520479 2.0150001
0.0038380953 0.63520479 2.0150003
0.01612 0.634821 2.0150001
0.024307936 0.63456511 2.0150001
-0.023028571 0.64288092 2.0150001
-0.014804082 0.6437034 2.0150003
-0.0057571433 0.64479995 2.0150003
0.0038380953 0.64480001 2.0150001
0.014255783 0.6442517 2.0150003
0.023028571 0.64096189 2.0150001
-0.014073017 0.65375561 2.0150001
-0.0057571428 0.65439522 2.0150001
0.0038380953 0.65439528 2.0150003
0.013433333 0.65439522 2.0150001
-0.011514286 0.66015244 2.0150001
-0.0057571433 0.6639905 2.0150003
0.0038380953 0.6639905 2.0150001
0.014804082 0.66508716 2.0150003
-0.0057571433 0.67550486 2.0150003
0.0038380953 0.67550474 2.0150001
0.015352381 0.6755048 2.0150001
0.023988094 0.67454529 2.0150001
0.03377524 0.6770401 2.0150001
-0.013433333 0.68318099 2.0150001
-0.0057571428 0.68510002 2.0150001
0.0038380953 0.68510008 2.0150003
0.015352381 0.68510008 2.0150003
0.024307936 0.6844604 2.0150001
0.034542859 0.68510008 2.0150003
-0.026866667 0.69661433 2.0150001
-0.0038380953 0.69085717 2.0150001
0.0038380953 0.69469529 2.0150001
0.015352381 0.69469529 2.0150001
0.023028571 0.69661433 2.0150001
0.032623813 0.69085717 2.0150001
0.0063968254 0.70365083 2.0150001
0.015352381 0.70429057 2.0150003
0.023028571 0.70429051 2.0150001
0.014584762 0.7115829 2.0150001
0.015352381 0.72923815 2.0150001
0.024947619 0.72731906 2.0150001
0.035310477 0.72693527 2.0150001
0.015352381 0.73499525 2.0150003
0.024307936 0.73435563 2.0150001
0.0057571428 0.74842858 2.0150001
0.015832143 0.74507022 2.0150001
0.023028571 0.7407524 2.0150001
-0.011514286 0.75802386 2.0150001
-0.0038380953 0.75418574 2.0150001
0.0038380953 0.7541858 2.0150003
0.014584762 0.75456953 2.0150001
0.026866667 0.75610477 2.0150001
0.031984132 0.75866354 2.0150001
0.015352381 0.76761907 2.0150001
0.032623813 0.76569998 2.0150001
0.01644898 0.77474695 2.0150003
0.024947619 0.77145714 2.0150001
0.032623813 0.77529526 2.0150003
0.0076761907 0.78489053 2.0150001
0.015352381 0.78489053 2.0150003
-0.0076761907 0.79448575 2.0150001
0.0057571433 0.79448581 2.0150003
0.015352382 0.79256672 2.0150003
0.024947619 0.79256672 2.0150001
0.0051174606 0.80536032 2.0150003
0.013433333 0.80408096 2.0150001
0.0076761907 0.8482191 2.0150001
0.01688762 0.84591627 2.0150001
0.023028571 0.8482191 2.0150001
0.015352381 0.85397625 2.0150003
0.023028571 0.85397625 2.0150001
0.30694574 0.29729334 2.0270002
0.29439765 0.30405003 2.0270002
0.30630228 0.30372831 2.0270004
0.28764099 0.31659812 2.0270002
0.29536289 0.31466764 2.0270002
0.30308479 0.31466764 2.0270002
0.25675336 0.32625049 2.0270002
0.27670163 0.32689399 2.0270002
0.28571051 0.32383743 2.0270002
0.29574895 0.32509223 2.0270002
0.30308482 0.32432005 2.0270004
0.26447526 0.33783334 2.0270002
0.27219716 0.33397239 2.0270002
0.27798861 0.3590686 2.0270002
0.28184953 0.35713813 2.0270002
0.28184953 0.36292955 2.0270002
-0.19304763 0.41698289 2.0270002
-0.18661271 0.41440892 2.0270002
-0.16602097 0.41698289 2.0270002
0.1949781 0.41698289 2.0270002
0.2038583 0.4154385 2.0270002
-0.20076953 0.42084384 2.0270002
-0.1949781 0.42084384 2.0270002
-0.15829906 0.42084384 2.0270002
-0.14671621 0.42856577 2.0270002
-0.1138981 0.42856577 2.0270002
0.17631684 0.42727876 2.0270002
0.18532573 0.42213082 2.0270002
0.19304763 0.42084384 2.0270002
-0.092662863 0.43242669 2.0270002
-0.06370572 0.43435717 2.0270002
-0.057914291 0.43628767 2.0270002
0.14285526 0.43628767 2.0270002
0.15443811 0.4362877 2.0270002
0.16602097 0.43242669 2.0270002
-0.050192382 0.44014859 2.0270002
-0.044400956 0.44014859 2.0270002
-0.038609527 0.44207907 2.0270002
-0.025096193 0.44207907 2.0270002
-0.015443811 0.44014859 2.0270002
-0.0038609528 0.44014859 2.0270002
0.0038609528 0.44207907 2.0270002
0.017374288 0.44787049 2.0270002
0.025096193 0.44787049 2.0270002
0.033783339 0.44594002 2.0270002
0.050192382 0.44400957 2.0270002
0.069497153 0.44787049 2.0270002
0.073358104 0.44787049 2.0270002
0.084940962 0.44787049 2.0270002
0.092662863 0.44787049 2.0270002
0.10424572 0.44787049 2.0270002
0.11582857 0.44594002 2.0270002
0.12548096 0.44400957 2.0270002
0.1341681 0.44111383 2.0270002
0.14478573 0.44014859 2.0270002
0.15057716 0.44014859 2.0270002
0.011582858 0.59844768 2.0270002
0.0077219056 0.60423911 2.0270002
0.015443812 0.60616958 2.0270002
-0.023165716 0.61582196 2.0270002
-0.019304764 0.61389148 2.0270002
0.0077219056 0.61582196 2.0270002
0.015443812 0.61389154 2.0270002
0.025096193 0.61389154 2.0270004
-0.023165716 0.62547433 2.0270002
-0.019304764 0.62547433 2.0270002
0.0077219056 0.62354386 2.0270002
0.015443811 0.62354392 2.0270004
0.024452701 0.62290037 2.0270002
0.030887622 0.62161338 2.0270002
-0.025096193 0.63512671 2.0270002
-0.019304764 0.63512671 2.0270002
-0.026061431 0.64381385 2.0270002
-0.019304764 0.64091814 2.0270002
0.011582858 0.64091814 2.0270002
-0.025096193 0.65443146 2.0270002
-0.016730797 0.65378797 2.0270002
-0.025096193 0.66215342 2.0270002
-0.016087305 0.6640839 2.0270004
-0.025096193 0.6795277 2.0270002
-0.014340682 0.67621833 2.0270004
0.027026668 0.6795277 2.0270002
-0.024452701 0.68467563 2.0270002
-0.016409051 0.68435383 2.0270002
0.027026668 0.68338859 2.0270002
-0.023165716 0.69304103 2.0270002
-0.015443812 0.6949715 2.0270002
-0.0064349212 0.69754541 2.0270002
0.026061431 0.69497144 2.0270002
0.032818101 0.69883239 2.0270002
-0.015443811 0.70655435 2.0270002
-0.0057914294 0.70462388 2.0270002
0 0.70655435 2.0270002
0.027026668 0.70462388 2.0270002
0.032818101 0.70462388 2.0270002
-0.0054053343 0.71350408 2.0270002
0.0033783338 0.71475887 2.0270002
0.019304764 0.7181372 2.0270002
0.025482288 0.71504849 2.0270002
0.032432001 0.71350408 2.0270002
-0.0057914294 0.72585911 2.0270004
0.003860953 0.72585911 2.0270002
0.015443812 0.72585911 2.0270002
0.024710098 0.72508693 2.0270002
0.030887622 0.72392863 2.0270002
-0.0038609528 0.73551148 2.0270002
0.0038609528 0.73551148 2.0270004
-0.003860953 0.74516386 2.0270002
0.003860953 0.74516386 2.0270002
0.011582858 0.74516386 2.0270002
-0.011582858 0.75481629 2.0270002
-0.0064349212 0.7541728 2.0270002
0 0.75288582 2.0270002
-0.023165716 0.76832962 2.0270002
-0.01654694 0.76502025 2.0270004
-0.0061775241 0.76524085 2.0270002
0.003860953 0.76639915 2.0270004
0.015443809 0.76639915 2.0270004
0.025096193 0.76639915 2.0270002
-0.015443811 0.77219051 2.0270002
-0.0038609528 0.77412099 2.0270002
0.0049640825 0.77605158 2.0270004
0.014156828 0.77476454 2.0270002
0.025096193 0.77605152 2.0270002
0.0051479372 0.78506041 2.0270002
0.011582858 0.78377342 2.0270002
0.025096193 0.7857039 2.0270002
-0.011582858 0.79921722 2.0270002
-0.0038609528 0.79728675 2.0270002
0.0009652382 0.79439104 2.0270002
0.025096193 0.79149532 2.0270002
-0.0038609528 0.80500865 2.0270002
0 0.80500865 2.0270002
0.016409049 0.80404341 2.0270002
-0.0051479372 0.81208706 2.0270002
0.0038609528 0.8165915 2.0270002
0.014671621 0.81620544 2.0270002
0.0046331435 0.82469952 2.0270002
0.014671621 0.82469952 2.0270002
-0.0077219056 0.83782673 2.0270002
0.0043435721 0.83396578 2.0270002
0.015443812 0.83396578 2.0270002
-0.014156828 0.8481226 2.0270002
-0.0061775246 0.84632081 2.0270002
0.003860953 0.84554863 2.0270002
0.014340682 0.84499711 2.0270004
0.024452701 0.8481226 2.0270002
0.030887622 0.84940958 2.0270002
-0.015443811 0.85520101 2.0270002
-0.005791429 0.85520101 2.0270002
0.0030887623 0.85558712 2.0270002
0.027026668 0.85520101 2.0270002
0.03474858 0.85520113 2.0270004
-0.015443811 0.86099249 2.0270002
-0.0057914294 0.86099249 2.0270002
0.003860953 0.86099255 2.0270002
0.027026668 0.86099249 2.0270002
0.032818101 0.86099249 2.0270002
0.29905334 0.27769238 2.039
0.30487907 0.27575046 2.039
0.31458855 0.27575046 2.0389998
0.29711145 0.28546 2.039
0.30552638 0.28481272 2.039
0.31536531 0.28507161 2.039
0.28740191 0.29905334 2.039
0.29516956 0.29711145 2.039
0.30423176 0.29646415 2.039
0.31458855 0.29322761 2.039
0.28740191 0.30487907 2.039
0.29387495 0.30552638 2.039
0.30293715 0.30682096 2.039
0.27833968 0.31717777 2.039
0.28546 0.31458855 2.039
0.29387495 0.31199932 2.039
0.30487907 0.31070474 2.039
0.26409906 0.32429808 2.039
0.27575046 0.32429808 2.039
0.26604098 0.3320657 2.039
0.27186665 0.33012381 2.039
-0.20195809 0.41945145 2.039
-0.19807428 0.41945145 2.039
-0.18448095 0.4116838 2.039
0.18448095 0.41945145 2.039
0.19419049 0.41686225 2.039
0.20972572 0.41556764 2.039
-0.2058419 0.42333525 2.039
-0.11263048 0.42721906 2.039
-0.10874667 0.42721906 2.039
0.16700381 0.42721906 2.039
0.17477143 0.42527717 2.039
0.18253905 0.42333525 2.039
-0.12428191 0.43110287 2.039
-0.10292096 0.43110287 2.039
-0.097095244 0.43110287 2.039
-0.087385714 0.43498668 2.039
-0.073792383 0.43498668 2.039
-0.06796667 0.43498668 2.039
-0.054373335 0.43757588 2.039
-0.044663809 0.43887046 2.039
-0.038838092 0.43887046 2.039
0.13593334 0.43887049 2.039
0.14758477 0.43887046 2.039
0.15535238 0.43498668 2.039
0.16506191 0.43110287 2.039
0.17088762 0.43110287 2.039
-0.033012379 0.44663808 2.039
-0.027186668 0.44275427 2.039
0.0058257142 0.44275427 2.039
0.015535238 0.44663808 2.039
0.025244761 0.44663808 2.039
0.038838092 0.44663808 2.039
0.044663809 0.44663808 2.039
0.05631524 0.44663808 2.039
0.066024765 0.44663808 2.039
0.089327618 0.44663808 2.039
0.095153332 0.44663808 2.039
0.10486286 0.44663808 2.039
0.11521968 0.44534349 2.039
0.12428191 0.44275427 2.039
0.077676184 0.45052192 2.039
0.015535238 0.59810674 2.039
0.016312001 0.60432076 2.039
0.024273809 0.60684526 2.039
-0.023302857 0.61364192 2.039
-0.023302857 0.62917709 2.039
-0.024856379 0.67578292 2.039
-0.019419048 0.67578292 2.039
-0.027186668 0.69520199 2.039
-0.023302857 0.70491147 2.039
-0.015535238 0.70685333 2.039
-0.014980408 0.71462095 2.039
-0.023302857 0.72433043 2.039
-0.014758475 0.72471881 2.039
-0.0077676191 0.72238857 2.039
-0.023302859 0.73404002 2.039
-0.015535237 0.73404008 2.0389998
-0.0077676191 0.7379238 2.039
-0.015535236 0.74617684 2.0389998
-0.0077676191 0.74569148 2.039
-0.016311999 0.75501257 2.039
-0.0077676191 0.75345904 2.039
-0.023302857 0.76899433 2.039
-0.017477142 0.76122665 2.039
-0.023302857 0.77676195 2.039
-0.0077676191 0.77676195 2.039
0 0.77676195 2.039
-0.023302857 0.78064573 2.039
-0.015535237 0.78452957 2.0389998
-0.0062140953 0.78530639 2.039
0 0.78647143 2.039
-0.015535237 0.79423904 2.039
-0.0058257142 0.79423904 2.039
0 0.79229712 2.039
0.033012379 0.79423904 2.039
-0.011651428 0.80394852 2.039
-0.0077676191 0.80394852 2.039
0.023302857 0.80783236 2.039
-0.011651428 0.81365812 2.039
-0.0077676191 0.81560004 2.039
0.019419046 0.81559998 2.039
0.024273809 0.816571 2.039
0.031070476 0.81948382 2.039
-0.0058257142 0.82530951 2.039
0 0.82530951 2.039
0.019419046 0.82530951 2.039
0.025892064 0.82466221 2.039
0.031070476 0.82725143 2.039
-0.0058257142 0.83501911 2.039
0 0.83890289 2.039
0.025244763 0.83501911 2.039
-0.013593334 0.84472859 2.039
-0.0038838095 0.84472859 2.039
0.025244761 0.84472859 2.039
-0.015535237 0.85540909 2.039
0.027186668 0.85055429 2.039
0.034954283 0.85249621 2.039
-0.014240636 0.86350036 2.039
0.29690668 0.27737334 2.0510001
0.30081335 0.27346668 2.0510001
0.28909335 0.28518668 2.0510001
0.29397666 0.28421 2.0510001
0.30472001 0.28909335 2.0510001
0.31253335 0.28909335 2.0510001
0.27737334 0.29690668 2.0510001
0.28596804 0.29534402 2.0510004
0.29495335 0.29300001 2.0510001
0.30472001 0.29300004 2.0510001
0.3151378 0.29430223 2.0510001
0.26760668 0.30862668 2.0510001
0.27639669 0.30569667 2.0510001
0.28323334 0.30472001 2.0510004
0.26760668 0.31448668 2.0510001
0.27542001 0.31448668 2.0510001
0.28323334 0.31253335 2.0510001
0.26630446 0.32295114 2.0510004
0.27346668 0.32230002 2.0510001
0.27737334 0.35746002 2.0510001
0.19728667 0.40434003 2.0510001
0.20314668 0.40434003 2.0510001
0.17970668 0.41801336 2.0510001
0.18556666 0.41801336 2.0510001
0.19611469 0.41332537 2.0510004
0.2051 0.41215336 2.0510001
-0.15626667 0.42582667 2.0510001
-0.12501335 0.42973337 2.0510001
-0.1172 0.42973337 2.0510001
0.15431334 0.42973337 2.0510001
0.16408002 0.42647779 2.0510004
0.17580001 0.42322224 2.0510001
-0.13282667 0.43364 2.0510001
-0.093760006 0.43364 2.0510001
-0.05274 0.43754667 2.0510001
-0.044926669 0.43754667 2.0510001
-0.037113335 0.43754667 2.0510001
0.11524667 0.43754667 2.0510001
0.12696667 0.43754667 2.0510001
0.13478 0.43754667 2.0510001
0.14454667 0.43754667 2.0510001
0.15431334 0.43364 2.0510001
0.16017334 0.43364 2.0510001
-0.033857778 0.44405779 2.0510001
-0.027346667 0.44145337 2.0510001
-0.015626667 0.44536 2.0510001
0.015626669 0.44536003 2.0510001
0.025393333 0.44536 2.0510001
0.035160001 0.44536003 2.0510001
0.044926669 0.44536 2.0510001
0.05078667 0.44536 2.0510001
0.062506668 0.4492667 2.0510001
0.07422667 0.44926673 2.0510001
0.083993338 0.4492667 2.0510001
0.097666666 0.44536 2.0510001
0.10548 0.44536003 2.0510001
0.11459556 0.44275558 2.0510001
0.12501335 0.4414534 2.0510001
-0.027346667 0.67976004 2.0510001
-0.023440002 0.71687335 2.0510001
-0.023440002 0.72273338 2.0510001
-0.019533334 0.72468674 2.0510001
-0.027346667 0.73835999 2.0510001
-0.026044447 0.74487114 2.0510001
-0.015626667 0.74617338 2.0510001
-0.024416668 0.75301003 2.0510001
-0.023440002 0.76180005 2.0510001
-0.015626667 0.79696006 2.0510001
-0.015626667 0.80477333 2.0510001
-0.015626667 0.81454003 2.0510001
0.027346667 0.81454003 2.0510001
0.031253334 0.81258672 2.0510001
-0.013673334 0.82430667 2.0510001
0.027346667 0.82040006 2.0510001
0.032555558 0.82560891 2.0510001
-0.013282667 0.83680803 2.0510004
0.023440002 0.83212006 2.0510001
0.033597335 0.83680803 2.0510004
-0.013673333 0.84384 2.0510001
0.03437867 0.84618396 2.0510004
0.042973336 0.84774667 2.0510001
-0.019533334 0.85556006 2.0510001
0.036136668 0.85263002 2.0510001
0.042973336 0.85556006 2.0510001
0.28685525 0.28489047 2.0630002
0.29078481 0.28685525 2.0630002
0.2789962 0.29471433 2.0630002
0.28423557 0.29209465 2.0630002
0.2750667 0.30650288 2.0630002
0.15718096 0.39295241 2.0630002
0.16111049 0.39295241 2.0630002
0.19385652 0.40474099 2.0630002
0.20040573 0.40081146 2.0630002
0.18665239 0.41652957 2.0630002
0.1925467 0.41456479 2.0630002
-0.16504002 0.42438859 2.0630002
-0.13360383 0.42831814 2.0630002
-0.12378001 0.42831814 2.0630002
-0.11395621 0.42831814 2.0630002
0.15619859 0.42537099 2.0630002
0.16425411 0.4220309 2.0630002
0.17420891 0.4217689 2.0630002
-0.1453924 0.43617719 2.0630002
-0.13556859 0.43421245 2.0630002
-0.10413238 0.43224767 2.0630002
-0.098238103 0.43224767 2.0630002
-0.051083814 0.43617719 2.0630002
-0.04518953 0.43617719 2.0630002
0.11657589 0.43486735 2.0630002
0.12653069 0.43460542 2.0630002
0.13556859 0.43421242 2.0630002
0.1453924 0.43421245 2.0630002
-0.031436194 0.44403622 2.0630002
-0.023577144 0.44403622 2.0630002
-0.011788572 0.44403622 2.0630002
-0.0058942866 0.44403622 2.0630002
0.0039295247 0.44403622 2.0630002
0.015718097 0.44403622 2.0630002
0.025541907 0.44403622 2.0630002
0.031436194 0.44403622 2.0630002
0.056978099 0.44796574 2.0630002
0.06483715 0.44796574 2.0630002
0.074660957 0.44796574 2.0630002
0.084484771 0.44796574 2.0630002
0.094308585 0.44600099 2.0630002
0.10413239 0.44207147 2.0630002
0.11002668 0.44207147 2.0630002
0.12181525 0.44010672 2.0630002
0.036151621 0.8228423 2.0630002
-0.017682858 0.83502388 2.0630002
-0.023577144 0.84484768 2.0630002
-0.019647621 0.84484768 2.0630002
-0.023577144 0.85663629 2.0630002
-0.019647621 0.85467148 2.0630002
-0.023577144 0.86253059 2.0630002
0.1561943 0.39740574 2.0760002
0.16608003 0.3954286 2.0760002
0.17003429 0.3954286 2.0760002
0.19573715 0.39938289 2.0760002
0.16608001 0.40333715 2.0760002
0.18716954 0.40597337 2.0760002
0.19376002 0.40333715 2.0760002
0.16509144 0.41618866 2.0760002
0.1739886 0.41576499 2.0760002
0.18528657 0.41407028 2.0760002
-0.16212574 0.4270629 2.0760002
0.13444573 0.42706293 2.0760002
0.14433144 0.42508575 2.0760002
0.15224001 0.42508575 2.0760002
-0.15158097 0.43233532 2.0760002
-0.14393602 0.43418059 2.0760002
-0.13576382 0.43233526 2.0760002
-0.065245718 0.43892574 2.0760002
-0.05733715 0.43892574 2.0760002
-0.037565716 0.43892574 2.0760002
0.10478858 0.43892574 2.0760002
0.11388345 0.43418059 2.0760002
0.12390096 0.43233532 2.0760002
0.13444573 0.43101722 2.0760002
0.14433144 0.43101719 2.0760002
0.15026288 0.43101719 2.0760002
-0.03163429 0.44288003 2.0760002
-0.017794289 0.44683433 2.0760002
0.0059314296 0.44288003 2.0760002
0.015817145 0.44288003 2.0760002
0.02570286 0.44288003 2.0760002
0.037565716 0.44683433 2.0760002
0.045474291 0.44683433 2.0760002
0.079085723 0.44683433 2.0760002
0.085017145 0.44683433 2.0760002
0.0939143 0.44386861 2.0760002
-0.03163429 0.85808003 2.0760002
-0.02570286 0.85610294 2.0760002
-0.03163429 0.86203438 2.0760002
-0.027680002 0.86401153 2.0760002
0.27641141 0.21476573 2.0880001
0.27243429 0.23664001 2.0880001
0.27243429 0.24260572 2.0880001
0.15113144 0.39771429 2.0880001
0.15669945 0.40646401 2.0880001
0.16405714 0.40666288 2.0880001
0.1749943 0.40680492 2.0880003
0.18427429 0.40566859 2.0880001
0.19090286 0.40368003 2.0880001
0.15776001 0.41627431 2.0880001
0.16306286 0.41561145 2.0880001
0.17499429 0.41561145 2.0880001
-0.16703999 0.42555428 2.0880001
-0.15908572 0.42953146 2.0880001
0.11633143 0.42853716 2.0880001
0.12527999 0.42754287 2.0880001
0.13522288 0.42555428 2.0880001
0.14715429 0.42157716 2.0880001
0.15709715 0.42157716 2.0880001
-0.10539428 0.43350857 2.0880001
0.099428572 0.43748572 2.0880001
0.10539428 0.43549716 2.0880001
0.11136 0.43350857 2.0880001
