# .PCD v0.7 - Point Cloud Data file format
VERSION 0.7
FIELDS x y z
SIZE 4 4 4
TYPE F F F
COUNT 1 1 1
WIDTH 1485
HEIGHT 1
VIEWPOINT 0 0 0 1 0 0 0
POINTS 1485
DATA ascii
0 0.46670002 1.7950001
0.13562223 0.46385083 1.7950001
0.14018098 0.4649905 1.7950001
-0.12479524 0.4735381 1.7950001
-0.11624762 0.47182858 1.7950001
-0.10599049 0.47182858 1.7950001
-0.097442858 0.47182858 1.7950001
-0.052995242 0.47695714 1.7950001
-0.044447623 0.47524765 1.7950001
-0.03419048 0.47524759 1.7950001
-0.022565715 0.47661525 1.7950001
-0.013676192 0.47524765 1.7950001
-0.0051285713 0.47524768 1.7950001
0.0034190477 0.47482026 1.7950001
0.011111906 0.47439286 1.7950001
0.13590714 0.47524762 1.7950001
0.14018096 0.47182858 1.7950001
-0.15300238 0.48635951 1.7950001
-0.14360002 0.48892379 1.7950001
-0.13505238 0.48721427 1.7950001
-0.061542857 0.48892379 1.7950001
-0.052425399 0.48322544 1.7950001
-0.044447623 0.48550478 1.7950001
-0.034190476 0.48550478 1.7950001
-0.020514287 0.48379526 1.7950001
-0.013676191 0.48413715 1.7950001
-0.0051285718 0.48379526 1.7950001
0.0029916666 0.48507738 1.7950001
0.034190476 0.48892379 1.7950001
-0.15214762 0.49405241 1.7950001
-0.1429162 0.49507815 1.7950001
-0.13505238 0.49576196 1.7950001
-0.12992382 0.49576193 1.7950001
-0.092314295 0.49576196 1.7950001
-0.061542857 0.49234286 1.7950001
-0.045424495 0.49625039 1.7950002
-0.030771429 0.49234286 1.7950001
0.0041028573 0.49507815 1.7950001
0.027352381 0.49405241 1.7950001
0.032822859 0.49507815 1.7950001
-0.13448255 0.50373971 1.7950001
-0.12992382 0.50260001 1.7950001
-0.043592859 0.50345474 1.7950001
0.035330161 0.50487942 1.7950001
0.04513143 0.50738668 1.7950001
-0.041028574 0.58636665 1.7950001
-0.034874287 0.58602482 1.7950001
-0.025642857 0.58807623 1.7950001
-0.041028574 0.59149522 1.7950001
-0.0359 0.59149522 1.7950001
-0.25599623 0.26630479 1.8040001
-0.26115048 0.27145904 1.8040001
-0.26286858 0.28348571 1.8040001
-0.25656891 0.28634924 1.8040003
-0.24396953 0.28606287 1.8040001
-0.23709716 0.28520381 1.8040001
-0.26115048 0.2920762 1.8040001
-0.2577143 0.2920762 1.8040001
-0.2233524 0.34705526 1.8040001
-0.21819812 0.34705526 1.8040001
-0.23022479 0.35220954 1.8040001
-0.2256432 0.35163686 1.8040003
-0.19242668 0.40375239 1.8040001
-0.1855543 0.40203434 1.8040003
-0.19586289 0.41577905 1.8040003
-0.1821181 0.41577905 1.8040001
-0.17868191 0.41577905 1.8040001
-0.077314295 0.43983242 1.8040001
-0.041234292 0.43983242 1.8040001
-0.037798099 0.43983242 1.8040001
-0.013744764 0.43983242 1.8040003
-0.005154286 0.43983242 1.8040001
0.0034361908 0.43811435 1.8040001
0.013057525 0.43777069 1.8040001
0.023366097 0.43777069 1.8040001
0.03436191 0.43639621 1.8040003
0.042952385 0.43467814 1.8040001
0.054979052 0.43296003 1.8040001
0.06528762 0.43296003 1.8040003
0.075596198 0.43296003 1.8040003
0.086592004 0.43433452 1.8040001
0.096642867 0.4359667 1.804
0.10594921 0.43696892 1.8040001
0.11511239 0.43983242 1.8040001
0.12198476 0.43983242 1.8040001
-0.041234292 0.4432686 1.8040001
-0.034361906 0.44326863 1.8040003
-0.023366099 0.44533035 1.8040001
-0.013744764 0.44498667 1.8040001
-0.005154286 0.4449867 1.8040001
0 0.4432686 1.8040001
0.11683048 0.4432686 1.8040001
0.12542096 0.4432686 1.8040001
0.13401143 0.44498667 1.8040001
-0.053260956 0.45701337 1.8040001
-0.046388574 0.45529526 1.8040001
0.14174287 0.45443624 1.8040001
-0.17180952 0.46388575 1.8040001
-0.16436447 0.46445844 1.8040001
-0.092777148 0.46732193 1.8040001
-0.08590477 0.46617651 1.8040003
-0.052401908 0.46474481 1.8040001
-0.046388578 0.46388575 1.8040001
0.14517906 0.46474481 1.8040001
-0.17524572 0.47591239 1.8040001
-0.16395539 0.47370347 1.8040001
-0.15577398 0.47476706 1.8040001
-0.13057524 0.4776305 1.8040001
-0.12713906 0.47419432 1.8040001
-0.10480382 0.47075814 1.8040001
-0.097931437 0.47075814 1.8040001
-0.053260956 0.47247624 1.8040001
-0.025771432 0.47591239 1.8040001
0.14489272 0.47533971 1.8040001
0.15462859 0.47075814 1.8040001
-0.17524572 0.48106667 1.8040001
-0.16321906 0.48278478 1.8040001
-0.15462859 0.48381564 1.8040001
-0.14432001 0.48622102 1.8040001
-0.13401143 0.48335749 1.8040003
-0.056697145 0.48793909 1.8040001
-0.025771432 0.48622099 1.8040001
-0.013744763 0.48450288 1.8040001
0.0034361908 0.48106667 1.8040001
0.14260191 0.48106667 1.8040001
-0.14432001 0.49481148 1.8040003
-0.054979049 0.49481145 1.804
-0.041234292 0.49652958 1.8040001
-0.035049148 0.4968732 1.8040001
-0.024053337 0.49382973 1.8040001
-0.013744761 0.49481148 1.804
-0.0051542865 0.49481148 1.8040001
-0.054291815 0.50305837 1.8040001
-0.03436191 0.5051201 1.804
-0.027489526 0.50683814 1.8040001
-0.013744763 0.50168389 1.8040003
-0.043811433 0.58501148 1.8040001
-0.034361906 0.5841524 1.8040003
-0.025771432 0.58758861 1.8040001
-0.046388574 0.59274292 1.8040001
-0.26605335 0.27987429 1.8140001
-0.26605335 0.28678477 1.8140001
-0.2522324 0.28678477 1.8140001
-0.26432574 0.29283145 1.8140001
-0.25511175 0.29369527 1.8140001
-0.24618572 0.29196766 1.8140001
-0.26778096 0.304061 1.8140001
-0.25914285 0.30233335 1.8140001
-0.2254543 0.34466001 1.8140001
-0.22343874 0.35588953 1.8140001
-0.21768001 0.35243431 1.8140001
-0.20040382 0.3869867 1.8140001
-0.19176573 0.39389718 1.8140001
-0.18658289 0.39389715 1.8140001
-0.20040382 0.40599051 1.8140001
-0.19262953 0.4042629 1.8140001
-0.18485525 0.4042629 1.8140001
-0.20316802 0.41531965 1.8140001
-0.19299975 0.41364139 1.8140002
-0.18520078 0.41393757 1.8140001
-0.21076953 0.42153907 1.8140001
-0.20299526 0.42240286 1.8140001
-0.19349335 0.42240286 1.8140001
-0.18543112 0.42269081 1.8140001
-0.17967239 0.42153907 1.8140001
0.062194284 0.42844957 1.8140001
-0.034552384 0.4388153 1.8140001
-0.020731431 0.43881527 1.8140001
-0.013820954 0.4388153 1.8140001
-0.0051828576 0.43881527 1.8140001
0.036280006 0.43536001 1.8140001
0.044918098 0.43536001 1.8140001
0.056147624 0.43363237 1.8140001
0.065649532 0.43190479 1.8140001
0.076015249 0.43190479 1.8140001
0.082925722 0.43190479 1.8140001
0.093291439 0.43190479 1.8140001
0.10538478 0.4336324 1.8140001
0.11402287 0.43766353 1.8140001
0.12266095 0.43881527 1.8140001
-0.082925722 0.44745338 1.8140001
-0.032824762 0.44227052 1.8140001
-0.02505048 0.44313431 1.8140001
0.12784381 0.44227052 1.8140001
0.1347543 0.44227052 1.8140001
0.14166477 0.44745338 1.8140001
-0.17276192 0.45954672 1.8140001
-0.16585144 0.45954672 1.8140001
-0.085229218 0.4572432 1.8140001
0.14627177 0.45609149 1.8140001
0.1520305 0.45954672 1.8140001
-0.18312763 0.46818477 1.8140001
-0.17621717 0.4669508 1.8140002
-0.16930668 0.46645719 1.8140001
-0.15721335 0.46991241 1.8140001
-0.11229526 0.46991241 1.8140001
-0.10365716 0.46991241 1.8140001
-0.094443187 0.46645719 1.8140001
-0.087072007 0.46438405 1.8140001
0.14857525 0.46472955 1.8140001
0.15449853 0.4669508 1.8140002
0.16239619 0.46991241 1.8140001
-0.18312763 0.47336766 1.8140001
-0.17621715 0.47474977 1.8140001
-0.16930668 0.47682288 1.8140001
-0.15375811 0.47336766 1.8140001
-0.14684764 0.47682288 1.8140001
-0.13648191 0.47682288 1.8140001
-0.11402287 0.47336766 1.8140001
0.14857525 0.47336766 1.8140001
0.15548573 0.4754408 1.8140001
0.16412382 0.47509527 1.8140001
-0.1750654 0.48142987 1.8140001
-0.16930668 0.48373339 1.8140001
-0.1520305 0.48200572 1.8140001
-0.14598382 0.48286957 1.8140001
-0.13590604 0.48258162 1.8140001
0.15548573 0.4802781 1.8140001
-0.024186671 0.50388896 1.8140001
-0.036280006 0.58393526 1.8140001
-0.024186671 0.58739054 1.8140001
-0.27273142 0.28576002 1.8240001
-0.27397227 0.29432169 1.8240004
-0.26752001 0.29878861 1.8240001
-0.25188571 0.29878861 1.8240001
-0.27099428 0.30226287 1.8240001
-0.26404572 0.30712691 1.8240002
-0.25709715 0.30400002 1.8240001
-0.26520383 0.31500193 1.8240001
-0.25362286 0.31616002 1.8240001
-0.23625144 0.3178972 1.8240002
-0.22930287 0.31616002 1.8240001
-0.26057142 0.32310858 1.8240001
-0.23972574 0.32310858 1.8240001
-0.23277715 0.33526859 1.8240001
-0.22930287 0.33700573 1.8240001
-0.23451428 0.34395432 1.8240002
-0.22756572 0.34221718 1.8240001
-0.21888001 0.34742859 1.8240001
-0.22235429 0.35785145 1.8240001
-0.21888001 0.35785145 1.8240001
-0.22235429 0.36132574 1.8240001
-0.21888001 0.36132574 1.8240001
-0.20672001 0.38912001 1.8240001
-0.19629715 0.38912001 1.8240001
-0.21193144 0.39259431 1.8240001
-0.20498286 0.39606857 1.8240002
-0.19803432 0.39606863 1.8240001
-0.21193144 0.40822858 1.8240001
-0.20597552 0.40599516 1.8240004
-0.1980343 0.40475431 1.8240001
-0.21193144 0.41517717 1.8240001
-0.20729905 0.41459811 1.8240001
-0.21193144 0.42386287 1.8240001
-0.20672001 0.42733717 1.8240001
-0.19456002 0.42733717 1.8240001
-0.18413715 0.42733717 1.8240001
0.064274281 0.42733717 1.8240001
-0.21497144 0.43385142 1.8240002
-0.20498286 0.4342857 1.8240002
-0.19456001 0.43428579 1.8240002
-0.18587431 0.43428576 1.8240002
-0.038217146 0.43602288 1.8240001
0.0034742858 0.43776006 1.8240001
0.014765715 0.43689147 1.8240001
0.025014861 0.43637034 1.8240002
0.032426666 0.43544385 1.8240001
0.045165718 0.43428573 1.8240001
0.055588573 0.43196952 1.8240001
0.067748576 0.43081143 1.8240001
0.076434292 0.43081146 1.8240001
0.085120007 0.43254858 1.8240001
0.093805723 0.43220115 1.8240002
0.10336 0.43254858 1.8240001
0.11638857 0.43776003 1.8240001
0.1250743 0.43776006 1.8240001
0.13549715 0.43776003 1.8240001
0.14244573 0.43776003 1.8240001
-0.22235429 0.44470859 1.8240001
-0.21441309 0.44470862 1.8240004
-0.20498286 0.44427431 1.8240002
-0.19571811 0.44239241 1.8240001
-0.18240002 0.44818288 1.8240001
-0.17545144 0.44818288 1.8240001
-0.086857148 0.44818288 1.8240001
-0.026057143 0.44123429 1.8240001
0.12854858 0.44123429 1.8240001
0.13549715 0.44123429 1.8240001
0.14522515 0.44540343 1.8240002
0.15286858 0.44818288 1.8240001
-0.21366858 0.45165715 1.8240001
-0.20498288 0.45165715 1.8240001
-0.18240002 0.45860574 1.8240001
-0.1737143 0.45686859 1.8240001
-0.16676572 0.45860574 1.8240001
-0.092647627 0.45628959 1.8240002
-0.086857148 0.45339429 1.8240001
0.14852573 0.45426285 1.8240001
0.1542583 0.45582628 1.8240002
-0.18463348 0.46456164 1.8240004
-0.17371431 0.46208 1.8240001
-0.16329144 0.46381715 1.8240001
-0.15721144 0.46816003 1.8240001
-0.11117715 0.46902859 1.8240001
-0.10283887 0.46694404 1.8240002
-0.096411429 0.46468574 1.8240001
0.15894859 0.46468574 1.8240001
0.16329144 0.46902859 1.8240001
-0.15286858 0.47250286 1.8240001
-0.14678858 0.47597715 1.8240001
-0.13202286 0.47945148 1.8240001
-0.12437943 0.47458744 1.8240002
-0.11812571 0.47250286 1.8240001
0.16676572 0.47250286 1.8240001
-0.14418286 0.48292574 1.8240001
-0.13897143 0.48292574 1.8240001
-0.032426666 0.58483815 1.8240001
-0.027794287 0.58715433 1.8240001
-0.27698669 0.28746095 1.8330001
-0.25312859 0.3055 1.8330001
-0.24789144 0.30200857 1.8330001
-0.26418477 0.31539237 1.8330001
-0.25661999 0.31248286 1.8330001
-0.24439999 0.3159743 1.8330001
-0.26302096 0.32586667 1.8330001
-0.25537309 0.32370532 1.8330002
-0.24498191 0.32470286 1.8330001
-0.23567143 0.32470286 1.8330001
-0.26418477 0.33284956 1.8330001
-0.24439999 0.33168572 1.8330001
-0.22519715 0.34390575 1.8330001
-0.21763238 0.34681529 1.8330001
-0.21530478 0.39685905 1.8330001
-0.21507202 0.40430745 1.8330001
-0.21646857 0.41548002 1.8330001
-0.18155429 0.42944574 1.8330001
0.026185714 0.42944574 1.8330001
0.031422857 0.42944574 1.8330001
0.057608575 0.42944574 1.8330001
0.067209996 0.42682713 1.8330001
0.075065717 0.42944574 1.8330001
0.083794288 0.42944574 1.8330001
0.094268575 0.42944574 1.8330001
0.10474287 0.42944574 1.8330001
-0.18155429 0.43642861 1.8330001
-0.17806286 0.43817431 1.8330001
-0.033168569 0.43817431 1.8330001
-0.026185714 0.43992001 1.8330001
-0.013965715 0.43992004 1.8330001
-0.005237143 0.43992001 1.8330001
0.0069828574 0.43642861 1.8330001
0.013965715 0.4352648 1.8330001
0.023567144 0.43381 1.8330001
0.034914285 0.43410096 1.8330001
0.045388572 0.43293715 1.8330001
0.052371431 0.43293715 1.8330001
0.087285712 0.43293715 1.8330001
0.10823429 0.43293715 1.8330001
0.11288953 0.4352648 1.8330001
0.13616571 0.43992001 1.8330001
0.14664 0.43992001 1.8330001
0.15013143 0.43992001 1.8330001
-0.21996 0.44341144 1.8330001
-0.19435619 0.44573909 1.8330001
-0.18504572 0.44515714 1.8330001
-0.17631714 0.44515717 1.8330001
-0.085539997 0.44690287 1.8330001
0.14664 0.44341144 1.8330001
0.15362287 0.44515714 1.8330001
-0.22345144 0.45039427 1.8330001
-0.21996 0.45214 1.8330001
-0.20599429 0.45214 1.8330001
-0.19502123 0.45288816 1.8330002
-0.18554451 0.45488334 1.8330002
-0.17398953 0.45504957 1.8330001
-0.16758858 0.45737714 1.8330001
-0.10125143 0.45737714 1.8330001
-0.094966859 0.45318744 1.8330001
0.15711428 0.45214 1.8330001
0.1630996 0.45438448 1.8330002
-0.19202857 0.4626143 1.8330001
-0.18853715 0.4608686 1.8330001
-0.16060571 0.46436 1.8330001
-0.15536857 0.46785143 1.8330001
-0.11451886 0.46645483 1.8330001
-0.10574041 0.46386126 1.8330002
0.1650947 0.46386126 1.8330002
0.17224382 0.46668762 1.8330001
-0.15013143 0.47134286 1.8330001
-0.14489429 0.47483429 1.8330001
-0.13616569 0.47483429 1.8329999
-0.12656429 0.47221571 1.8330001
-0.11696286 0.47134286 1.8330001
0.16758858 0.47134286 1.8330001
0.17357388 0.47483432 1.8330002
0.18155429 0.47483429 1.8330001
-0.037241906 0.58423245 1.8330001
-0.024440002 0.58656001 1.8330001
-0.022694286 0.59005141 1.8330001
-0.017457142 0.59005141 1.8330001
-0.24573335 0.29839048 1.8430001
-0.24573337 0.30681562 1.8430001
-0.25275427 0.31418765 1.8430001
-0.24661095 0.31331 1.8430001
-0.23695715 0.31594288 1.8430001
-0.25450951 0.32998475 1.8430001
-0.2492438 0.32998475 1.8430001
-0.23871239 0.32998475 1.8430001
-0.25556269 0.33489946 1.8430001
-0.24456319 0.33466542 1.8430002
-0.23871239 0.3352505 1.8430001
-0.22291523 0.34402665 1.8430001
0.026328571 0.42827812 1.8430001
0.033349521 0.42827812 1.8430001
0.057922859 0.42827812 1.8430001
0.075475246 0.42827812 1.8430001
0.084251434 0.42827815 1.8430002
0.094782859 0.42827815 1.8430002
0.10531428 0.42827815 1.8430002
0.11233524 0.42827812 1.8430001
-0.031594284 0.43529907 1.8430001
-0.024573334 0.43880951 1.8430002
-0.012286667 0.43880951 1.8430001
-0.0052657146 0.43880951 1.8430001
0.0017552382 0.43880951 1.8430001
0.014041906 0.43412894 1.8430002
0.021062858 0.43178859 1.8430001
0.03744508 0.43295878 1.8430002
0.045636192 0.43178862 1.8430002
0.052657142 0.43178859 1.8430001
0.11701588 0.43412894 1.8430002
0.12593833 0.43573791 1.8430002
0.13515332 0.43705431 1.8430001
0.14158921 0.43763936 1.8430002
-0.17318349 0.44583052 1.8430002
-0.094782859 0.449341 1.8430002
-0.086006671 0.44583049 1.8430001
-0.021062858 0.44231999 1.8430001
0.1562162 0.44231999 1.8430001
0.16449089 0.44683352 1.8430002
-0.16850287 0.45460668 1.8430001
-0.13515332 0.45811716 1.8430001
-0.12725477 0.45899478 1.8430001
-0.11584571 0.45987242 1.8430002
-0.10443667 0.45723954 1.8430001
-0.098293334 0.45285144 1.8430001
0.16850287 0.45460668 1.8430001
0.17341754 0.457064 1.8430001
-0.16499238 0.46338284 1.8430001
-0.15797144 0.46689335 1.8430001
-0.13515332 0.46513808 1.8430001
-0.12637717 0.46513814 1.8430002
-0.11672333 0.46426046 1.8430001
0.17622592 0.46478707 1.8430001
-0.15095048 0.47040382 1.8430001
-0.14392954 0.47128144 1.8430001
-0.13515332 0.47040382 1.8430001
-0.12637715 0.47040385 1.8430002
0.17903429 0.47215906 1.8430001
0.18488508 0.47508448 1.8430002
-0.031594284 0.58624953 1.8430001
-0.014041906 0.58976007 1.8430002
-0.0052657146 0.58976007 1.8430001
-0.13690856 0.6055572 1.8430001
-0.26824382 0.27530286 1.853
-0.24353714 0.30706856 1.853
0.026471429 0.42707241 1.853
0.033530477 0.42707241 1.853
0.056472383 0.42707241 1.853
0.063531429 0.42707241 1.853
0.074120007 0.42707241 1.853
0.084708571 0.42707241 1.853
0.09529715 0.42707241 1.853
0.10588571 0.42707241 1.853
0.11470953 0.42707241 1.853
-0.026471429 0.43766096 1.853
0.0070590479 0.43766096 1.853
0.015882857 0.43236667 1.853
0.021177143 0.43060192 1.853
0.038824763 0.43060192 1.853
0.045883816 0.43060192 1.853
0.052942857 0.43060192 1.853
0.11647429 0.43060192 1.853
0.12353334 0.43060192 1.853
0.13482782 0.43271962 1.853
0.14471048 0.43589622 1.853
0.15176952 0.43766096 1.853
-0.01764762 0.44119048 1.853
0.14824 0.44119048 1.853
0.15353429 0.44119048 1.853
0.16765238 0.44472003 1.853
0.17294668 0.44824955 1.853
-0.16588762 0.45530859 1.853
-0.14426929 0.45574975 1.8529999
-0.13412192 0.45354384 1.853
-0.12470984 0.45648503 1.853
-0.11529779 0.4576616 1.853
-0.10588571 0.45530859 1.853
0.17529969 0.45295557 1.853
0.18000573 0.45883808 1.853
-0.16412285 0.46413237 1.853
-0.15479484 0.46589714 1.853
-0.1447105 0.46589714 1.853
0.18265288 0.46501479 1.853
0.18529999 0.47295618 1.853
-0.031765714 0.57884192 1.853
-0.033530477 0.58413619 1.853
-0.003529524 0.58590096 1.853
0.001764762 0.58590096 1.853
-0.14206335 0.60443091 1.853
-0.13412192 0.60413682 1.853
-0.14294572 0.61060762 1.853
-0.13235715 0.61060762 1.853
-0.29098287 0.28743428 1.863
-0.28388572 0.28743428 1.8630002
-0.29098287 0.29098287 1.863
-0.28743428 0.29098287 1.863
-0.24485143 0.29808 1.863
-0.24485143 0.30517715 1.863
-0.24130286 0.31582287 1.863
-0.23657143 0.3347486 1.8630002
0.047905713 0.42937714 1.863
0.053228572 0.42937714 1.863
0.095811442 0.42582858 1.8630002
0.10645714 0.42582858 1.863
0.11000571 0.42582858 1.863
0.12420001 0.42937717 1.8630002
0.13661999 0.42937714 1.863
-0.18097714 0.43647429 1.863
-0.026614286 0.43647429 1.863
0.010645715 0.43647429 1.863
0.13129714 0.43292573 1.863
0.14549142 0.43410859 1.8630002
0.15258858 0.43647429 1.863
-0.18097714 0.44002286 1.863
-0.17388001 0.44593716 1.8630002
-0.15377143 0.44593716 1.8630002
-0.14549142 0.4453457 1.8630002
-0.13721143 0.44593716 1.8630002
-0.021291429 0.44002286 1.863
-0.014194285 0.44002289 1.8630002
-0.0053228568 0.44002286 1.863
0.0035485714 0.44002286 1.863
0.15850286 0.44120571 1.8630002
0.16500857 0.44357142 1.863
0.17565429 0.44712001 1.863
-0.17033143 0.45066857 1.863
-0.16500857 0.45244285 1.863
-0.15613715 0.45421717 1.863
-0.14637856 0.45155573 1.863
-0.1348457 0.45066857 1.8630002
-0.12349029 0.45350742 1.8630002
-0.11284456 0.45563656 1.8630002
-0.10290857 0.45066857 1.863
-0.094037145 0.45066857 1.863
0.17742857 0.45066857 1.863
0.18275142 0.45599142 1.863
-0.16323428 0.46308857 1.863
-0.15613714 0.46220142 1.863
0.18629999 0.46486285 1.863
0.18807428 0.47196001 1.863
0.19162287 0.47373429 1.863
-0.028388571 0.58906287 1.863
-0.14371714 0.59970862 1.863
-0.1348457 0.59970868 1.8630002
-0.024840001 0.59261143 1.8630002
-0.014194285 0.59261143 1.8630002
-0.0053228568 0.59261143 1.863
-0.15613714 0.60680568 1.863
-0.14667431 0.60562283 1.8630002
-0.13307142 0.60325712 1.863
-0.12420001 0.60503143 1.8630002
-0.11532857 0.60503143 1.863
-0.15258858 0.61212862 1.863
-0.14904 0.61212862 1.863
-0.12490972 0.61177373 1.8630002
-0.11710285 0.6103543 1.863
-0.27470669 0.27649051 1.8730001
-0.29254478 0.28540954 1.8730001
-0.28451765 0.28451765 1.8730001
-0.27649051 0.28362572 1.8730001
-0.24616574 0.30324766 1.8730001
-0.24259812 0.31395048 1.8730001
-0.23546287 0.33892384 1.8730001
0.086514764 0.4272224 1.8730001
0.096325718 0.42454672 1.8730001
0.10465016 0.42573592 1.8730001
0.11594763 0.4281143 1.8730001
0.12486669 0.4281143 1.8730001
0.13556954 0.4281143 1.8730001
-0.18194859 0.43524954 1.8730001
-0.17838097 0.43881717 1.8730001
-0.15340763 0.43881717 1.8730001
-0.14984001 0.43881717 1.8730001
-0.021405715 0.43881717 1.8730001
0.014270477 0.43524954 1.8730001
0.021405715 0.43168193 1.8730001
0.03924381 0.43168193 1.8730001
0.042811431 0.43168193 1.8730001
0.13200191 0.43168193 1.8730001
0.14627241 0.4328711 1.8730001
0.15519144 0.43703336 1.8730001
0.16232666 0.43881717 1.8730001
-0.17302954 0.44595242 1.8730001
-0.16360083 0.44697174 1.8730003
-0.15578604 0.44357401 1.8730001
-0.14627241 0.44238481 1.8730001
-0.13467762 0.44595242 1.8730001
-0.12665048 0.44952002 1.8730001
-0.092758104 0.44952002 1.8730001
-0.087406673 0.44952002 1.8730001
0 0.44238478 1.8730001
0.1658943 0.44238478 1.8730001
0.17409982 0.44452533 1.8730001
0.18551621 0.44952005 1.8730001
-0.12129906 0.45308766 1.8730001
-0.11416382 0.45308766 1.8730001
-0.10702857 0.45308766 1.8730001
-0.099893339 0.45308766 1.8730001
0.1864081 0.45397958 1.8730001
0.18908381 0.46379051 1.8730001
0.19978668 0.46379051 1.8730001
0.2033543 0.46557432 1.8730001
0.19693258 0.4723528 1.8730001
-0.024973337 0.58687341 1.8730001
-0.016054288 0.58865714 1.8730001
-0.0053514289 0.58865714 1.8730001
0 0.58865714 1.8730001
-0.023189526 0.59222484 1.8730001
-0.014270477 0.59222484 1.8730001
-0.0071352385 0.59222484 1.8730001
-0.16054286 0.60649532 1.8730001
-0.15459684 0.60530609 1.8730001
-0.14984001 0.60471147 1.8730001
-0.12486669 0.60292763 1.8730001
-0.11594763 0.60292763 1.8730001
-0.16054286 0.61541432 1.8730001
-0.15697524 0.61363053 1.8730001
-0.26362002 0.26900002 1.8830001
-0.25644666 0.26900002 1.8830001
-0.29590002 0.27976 1.8830001
-0.28454226 0.27856445 1.8830001
-0.27976 0.27617335 1.8830001
-0.29500335 0.28424335 1.8830001
-0.28693336 0.28334668 1.8830001
-0.24389334 0.30845335 1.8830001
-0.24389334 0.31204003 1.8830001
-0.23313336 0.34790671 1.8830001
-0.22954668 0.34790671 1.8830001
0.086080007 0.42561781 1.8830001
0.095046669 0.42322668 1.8830001
0.10401334 0.42322668 1.8830001
0.11477335 0.42681336 1.8830001
0.12553334 0.42681336 1.8830001
0.13629335 0.42681336 1.8830001
-0.15422669 0.43757337 1.8830001
-0.14705333 0.43757334 1.8830001
-0.02152 0.43757334 1.8830001
0.017933335 0.43398669 1.8830001
0.03586667 0.43040004 1.8830001
0.046626668 0.43040004 1.8830001
0.053800002 0.43040007 1.8830001
0.060973335 0.43040004 1.8830001
0.077113338 0.43040004 1.8830001
0.14526001 0.43040004 1.8830001
0.15422668 0.43518227 1.8830001
0.16498668 0.43757337 1.8830001
-0.17574668 0.44385004 1.8830001
-0.16570401 0.44259474 1.8830003
-0.15781334 0.44116005 1.8830001
-0.14526001 0.44116005 1.8830001
-0.1374889 0.4423556 1.8830001
-0.12732667 0.44833335 1.8830001
-0.014346668 0.44116005 1.8830001
-0.0053800005 0.44116005 1.8830001
0.0035866671 0.44116005 1.8830001
0.16857335 0.44116005 1.8830001
0.17574668 0.4423556 1.8830001
0.18411557 0.4471378 1.8830001
-0.12194667 0.45192 1.8830001
-0.11477335 0.45192 1.8830001
-0.10401334 0.45192 1.8830001
-0.096840009 0.45192 1.8830001
0.19511469 0.45622402 1.8830003
0.20085335 0.45909336 1.8830001
0.19547336 0.46626672 1.8830003
0.20444003 0.46483204 1.8830003
-0.014346668 0.57745337 1.8830001
-0.022715557 0.58343112 1.8830001
-0.015371432 0.5851391 1.8830004
-0.0053800005 0.58642 1.8830001
0 0.58821332 1.8830001
-0.01076 0.59180003 1.8830001
-0.14526001 0.60256004 1.8830001
-0.11836001 0.60256004 1.8830001
-0.29582477 0.22728001 1.8940001
-0.2850019 0.22547619 1.8940001
-0.27658415 0.22607747 1.8940001
-0.29492286 0.23269142 1.8940001
-0.28545284 0.23449525 1.8940001
-0.27520981 0.2339799 1.8940002
-0.3052046 0.24459659 1.8940001
-0.2958248 0.2453181 1.8940002
-0.28545287 0.24486715 1.8940001
-0.2756221 0.24459659 1.8940001
-0.30664763 0.25794476 1.8940001
-0.29311904 0.25704286 1.8940001
-0.28860956 0.25614095 1.8940001
-0.29510325 0.26479927 1.8940001
-0.2850019 0.26516002 1.8940001
-0.27417907 0.26516002 1.8940001
-0.26516002 0.26516002 1.8940001
-0.25794476 0.26696381 1.8940001
-0.29582474 0.27417907 1.8940002
-0.28551731 0.2731483 1.8940002
-0.27417907 0.27237523 1.8940001
-0.26516002 0.27417904 1.8940001
-0.25974858 0.27417904 1.8940001
-0.29221714 0.2813943 1.8940001
-0.2453181 0.30664763 1.8940001
-0.24171048 0.31386286 1.8940001
-0.24171048 0.32107812 1.8940001
-0.23810287 0.32288194 1.8940001
-0.23449524 0.34272382 1.8940001
0.054114286 0.42930666 1.8940001
0.079367615 0.42930666 1.8940001
0.086582862 0.42569906 1.8940001
0.095601909 0.42209142 1.8940001
0.10462096 0.42209142 1.8940001
0.11544381 0.42569908 1.8940001
0.14610857 0.42930666 1.8940001
-0.18398857 0.43652192 1.8940001
-0.16234286 0.43652192 1.8940001
-0.1533238 0.43652192 1.8940001
-0.14791238 0.43652192 1.8940001
0.039683808 0.43291429 1.8940001
0.043291431 0.43291429 1.8940001
0.06854476 0.43291429 1.8940001
0.072152384 0.43291429 1.8940001
0.15512761 0.43411684 1.8940001
0.16595048 0.43652195 1.8940001
-0.18038096 0.44012955 1.8940001
-0.17436826 0.44133207 1.8940001
-0.16595048 0.44012958 1.8940001
-0.14250097 0.44012955 1.8940001
-0.1334819 0.44734475 1.8940001
-0.12987429 0.44734475 1.8940001
-0.018038096 0.44012955 1.8940001
0.0018038095 0.44012955 1.8940001
0.010822858 0.44012955 1.8940001
0.17496952 0.44012955 1.8940001
0.18489048 0.44463906 1.8940001
0.19120382 0.44734475 1.8940001
-0.12265905 0.45095238 1.8940001
-0.11544381 0.45095238 1.8940001
-0.10462096 0.45095238 1.8940001
-0.093798101 0.45095238 1.8940001
0.19481143 0.4527562 1.8940001
0.20473239 0.45726573 1.8940001
0.2074381 0.46177524 1.8940001
-0.10642476 0.5880419 1.8940001
-0.010822858 0.58623809 1.8940001
-0.0054114284 0.58443427 1.8940001
-0.15152 0.59886479 1.8940001
-0.14610857 0.59886479 1.8940001
-0.11544381 0.59886479 1.8940001
-0.10822857 0.59886479 1.8940001
-0.15152 0.60427618 1.8940001
-0.14340286 0.60337424 1.8940001
-0.13528571 0.60427618 1.8940001
-0.12626667 0.60427624 1.8940001
-0.11424127 0.60487747 1.8940001
-0.10822858 0.60608 1.8940001
-0.11183619 0.61329526 1.8940001
-0.34090665 0.15775999 1.904
-0.3360711 0.15715556 1.904
-0.32277334 0.15594667 1.904
-0.33728001 0.16501334 1.904
-0.32277334 0.16320001 1.904
-0.30343112 0.16561779 1.904
-0.29738668 0.16320001 1.904
-0.32277334 0.17408 1.904
-0.31448385 0.17408 1.9040003
-0.30464 0.17408001 1.9040002
-0.29593602 0.17480533 1.9040002
-0.3137067 0.18495999 1.9040002
-0.30464 0.18496001 1.9040002
-0.29375997 0.18495999 1.9040002
-0.33002669 0.19221334 1.904
-0.32422403 0.19511467 1.9040002
-0.3149156 0.19584 1.9040002
-0.30412191 0.19480382 1.9040003
-0.29376 0.19584002 1.9040002
-0.28529778 0.19704889 1.904
-0.31733334 0.20671999 1.904
-0.29376 0.204 1.904
-0.28469333 0.20490667 1.904
-0.31479469 0.21542402 1.9040002
-0.30412191 0.21500953 1.9040003
-0.29376 0.21397336 1.9040002
-0.28469333 0.21397334 1.9040002
-0.2761448 0.21500953 1.9040003
-0.3150019 0.22433525 1.9040003
-0.30515811 0.22485335 1.9040003
-0.29448533 0.22267735 1.9040002
-0.28469333 0.22122668 1.904
-0.27441782 0.22364447 1.9040002
-0.26837331 0.22485337 1.904
-0.3137067 0.23392001 1.904
-0.30509332 0.23618668 1.9040002
-0.2961778 0.23694222 1.904
-0.28288001 0.23573333 1.904
-0.27200001 0.23754667 1.904
-0.26656002 0.23573333 1.9040002
-0.31189334 0.2448 1.904
-0.27200001 0.2448 1.904
-0.26655999 0.24479999 1.904
-0.31189334 0.25024 1.904
-0.30403554 0.25447112 1.9040002
-0.29738668 0.25568002 1.904
-0.28433067 0.25459203 1.9040002
-0.27562666 0.25432 1.9040002
-0.26474667 0.25386667 1.9040002
-0.25749335 0.25749335 1.904
-0.30464002 0.26526475 1.9040003
-0.28469333 0.26111999 1.904
-0.27562669 0.26112002 1.904
-0.26383999 0.26202667 1.904
-0.25749335 0.26293331 1.904
-0.30645335 0.27562672 1.9040002
-0.30645335 0.28288001 1.904
-0.24298666 0.29738668 1.904
-0.23936 0.29738668 1.904
-0.24443734 0.30391464 1.9040002
-0.23936 0.30826667 1.904
-0.23754665 0.31552002 1.9040002
-0.23573333 0.32458669 1.904
-0.235008 0.34598401 1.9040002
-0.22848001 0.35178667 1.904
0.079786666 0.42794669 1.904
0.083413333 0.42794669 1.904
0.090666667 0.42432001 1.904
0.11424001 0.42432001 1.904
0.12512 0.42794669 1.904
0.13418667 0.42794669 1.904
0.14325334 0.42794669 1.904
-0.18405333 0.43610665 1.904
-0.17408 0.43701336 1.9040002
-0.16537601 0.43447468 1.9040002
-0.15866666 0.43519998 1.904
-0.14325334 0.43882668 1.904
0 0.43882668 1.904
0.014506667 0.43882668 1.904
0.032639999 0.43520001 1.904
0.054400001 0.43157333 1.904
0.063466668 0.43338668 1.904
0.074346669 0.43157333 1.904
0.15594667 0.43278226 1.904
0.16501334 0.43520001 1.904
0.17408 0.43761778 1.904
0.18314667 0.43882668 1.904
-0.13418666 0.44426668 1.904
-0.12512 0.44970667 1.904
-0.11968 0.44970667 1.904
-0.10517333 0.44970667 1.904
-0.096106663 0.44970667 1.904
-0.025386667 0.44245335 1.904
-0.014506667 0.44245335 1.904
-0.00544 0.44245335 1.904
0.0072533335 0.44245335 1.904
0.18496001 0.44245335 1.904
0.19402668 0.44789332 1.904
-0.084622227 0.45454225 1.904
-0.079786666 0.45514667 1.904
0.19765332 0.45333332 1.904
0.20671999 0.45696002 1.904
0.21216001 0.45696002 1.904
0.21397334 0.46058667 1.904
-0.11242667 0.58752 1.904
-0.10698666 0.58752 1.904
-0.01088 0.58389336 1.904
-0.0072533335 0.58389336 1.904
-0.14579201 0.5969494 1.9040002
-0.13418667 0.5984 1.904
-0.12512 0.5984 1.904
-0.11605334 0.59477335 1.9040002
-0.10698666 0.5965867 1.904
-0.14144 0.60202664 1.904
-0.13418667 0.60202664 1.904
-0.12512 0.60202664 1.904
-0.35564286 0.10760476 1.9150001
-0.3428762 0.10760476 1.9150001
-0.33558097 0.10578095 1.9150001
-0.35308954 0.11453525 1.9150002
-0.34470001 0.11490001 1.9150001
-0.33558095 0.11490002 1.9150002
-0.3246381 0.11490002 1.9150002
-0.35138732 0.12158731 1.9150002
-0.34470004 0.12401905 1.9150002
-0.33558097 0.12401906 1.9150001
-0.3246381 0.12401906 1.9150001
-0.31734288 0.12584285 1.9150001
-0.35017145 0.13678572 1.9150001
-0.34433523 0.13423239 1.9150002
-0.33558097 0.13496192 1.9150001
-0.3246381 0.13496192 1.9150001
-0.31551906 0.1349619 1.9150002
-0.34378809 0.14681667 1.9150001
-0.33558097 0.14590476 1.9150001
-0.3246381 0.14590476 1.9150001
-0.31369525 0.14590476 1.9150001
-0.30518413 0.14833651 1.9150002
-0.34530795 0.15441588 1.9150002
-0.33466908 0.15411191 1.9150001
-0.3246381 0.15465906 1.9150002
-0.31369525 0.15502381 1.9150002
-0.30457622 0.15502381 1.9150001
-0.29910478 0.15684763 1.9150001
-0.33375716 0.16414286 1.9150002
-0.32463813 0.16414286 1.9150001
-0.3141512 0.16368692 1.9150001
-0.30548811 0.16323096 1.9150001
-0.29545718 0.16466396 1.9150002
-0.33512503 0.17462976 1.9150001
-0.32515919 0.17508572 1.9150002
-0.29272145 0.17417382 1.9150001
-0.2881619 0.17690954 1.9150001
-0.33284527 0.18511668 1.9150001
-0.3246381 0.18602857 1.9150001
-0.28633809 0.18602858 1.9150002
-0.32099047 0.19514762 1.9150001
-0.28360239 0.19423571 1.9150001
-0.32099047 0.20426668 1.9150001
-0.31265306 0.2042667 1.9150002
-0.30494097 0.20499621 1.9150002
-0.29545715 0.20791429 1.9150001
-0.28177854 0.20335476 1.9150001
-0.27600318 0.20669842 1.9150002
-0.32099047 0.21156192 1.9150001
-0.31369525 0.21156192 1.9150002
-0.3064 0.21156192 1.9150001
-0.27539524 0.21156192 1.9150001
-0.26992381 0.21703334 1.9150001
-0.31734288 0.22615239 1.9150001
-0.3064 0.22250476 1.9150001
-0.26627621 0.22615239 1.9150002
-0.316127 0.24195874 1.9150002
-0.26262861 0.24439049 1.9150002
-0.25898096 0.2462143 1.9150001
-0.2567924 0.25460383 1.9150002
-0.25411746 0.26506037 1.9150002
-0.24074286 0.30457622 1.9150001
-0.23587939 0.30518413 1.9150002
-0.23435953 0.31278336 1.9150001
-0.23344763 0.32281429 1.9150001
-0.24074286 0.33740479 1.9150001
-0.23618335 0.33466905 1.9150001
-0.23344763 0.3428762 1.9150001
-0.2298 0.35017145 1.9150001
0.083895236 0.42677146 1.9150002
0.12401905 0.42677146 1.9150002
0.1349619 0.42677146 1.9150002
0.14590478 0.42677146 1.9150002
-0.18602857 0.43406671 1.9150002
-0.17508572 0.43315479 1.9150001
-0.16779049 0.43041909 1.9150001
-0.15502381 0.4358905 1.9150001
-0.14772858 0.43771428 1.9150001
0.025533333 0.43771428 1.9150001
0.043771431 0.43406671 1.9150002
0.068088889 0.43285084 1.9150002
0.074776188 0.43041909 1.9150001
0.14955239 0.43041909 1.9150001
0.15502381 0.43041909 1.9150001
0.16323096 0.43315476 1.9150001
0.17599763 0.43589047 1.9150001
0.18602857 0.43771428 1.9150002
0.19332381 0.43771428 1.9150001
-0.1349619 0.44318575 1.9150001
-0.12493096 0.44774523 1.9150001
-0.098485716 0.44865716 1.9150001
-0.023709524 0.44136193 1.9150001
-0.014590477 0.44318575 1.9150001
-0.0054714289 0.44136193 1.9150001
0.0054714289 0.44136193 1.9150001
0.010942858 0.44136193 1.9150001
0.1896762 0.44136193 1.9150001
0.19551238 0.44428006 1.9150002
0.20061906 0.44865716 1.9150001
-0.11490001 0.45230478 1.9150001
-0.09119048 0.45230478 1.9150001
-0.087542862 0.45230478 1.9150001
0.20426667 0.45473656 1.9150002
-0.10760476 0.57632381 1.9150001
-0.13313809 0.58726668 1.9150001
-0.12584285 0.58726668 1.9150001
-0.11429208 0.58605087 1.9150002
-0.10760476 0.5854429 1.9150001
-0.1446889 0.59395409 1.9150002
-0.13496192 0.59456187 1.9150001
-0.12506121 0.59404087 1.9150002
-0.11672381 0.59091431 1.9150001
-0.34100002 0.088 1.9250001
-0.34344447 0.096555561 1.9250001
-0.3355 0.097166672 1.9250001
-0.32633334 0.099000007 1.9250001
-0.35474998 0.10358334 1.9250001
-0.34711111 0.10388889 1.9250001
-0.32633334 0.1045 1.9250001
-0.31900001 0.1045 1.9250001
-0.352 0.11000001 1.9250001
-0.34833333 0.11000001 1.9250001
-0.32633334 0.11000001 1.9250001
-0.31753334 0.11440001 1.9250001
-0.31625 0.12375 1.9250001
-0.34833333 0.13933334 1.9250001
-0.31166667 0.13566668 1.9250001
-0.30708337 0.13658333 1.9250001
-0.34833333 0.14300001 1.9250001
-0.30555558 0.14422223 1.9250001
-0.30066669 0.15216668 1.9250001
-0.29699999 0.15583333 1.9250001
-0.29333332 0.16133334 1.9250001
-0.28966668 0.16683334 1.9250001
-0.2852667 0.17673333 1.9250001
-0.28233334 0.18516667 1.9250001
-0.28233334 0.19066668 1.9250001
-0.27744448 0.19677779 1.9250001
-0.27500001 0.20441666 1.9250001
-0.27133337 0.21266666 1.9250001
-0.26766667 0.21450001 1.9250001
-0.26766667 0.22000001 1.9250001
-0.264 0.23466668 1.9250001
-0.26033333 0.242 1.9250001
-0.25666666 0.24750002 1.9250001
-0.25300002 0.25666666 1.9250001
-0.25300002 0.26216668 1.9250001
-0.23833334 0.29699999 1.9250001
-0.23344445 0.30311114 1.9250001
-0.23100001 0.31533337 1.9250001
-0.23466668 0.32999998 1.9250001
-0.23222224 0.34466669 1.9250001
-0.176 0.42900002 1.9250001
-0.16866668 0.42900002 1.9250001
0.075166672 0.42900002 1.9250001
0.10266667 0.42533332 1.9250001
0.15583333 0.42900002 1.9250001
0.16408333 0.42808333 1.9250001
0.176 0.42900002 1.9250001
-0.18333334 0.43266669 1.9250001
-0.176 0.43266669 1.9250001
-0.16316667 0.43266669 1.9250001
-0.15583333 0.43450004 1.9250001
0.056833334 0.43266669 1.9250001
0.064166665 0.43266669 1.9250001
0.16683334 0.43266669 1.9250001
0.176 0.43358335 1.9250001
0.18516669 0.43450001 1.9250001
0.1936 0.43486673 1.9250001
-0.14300001 0.44000003 1.9250001
-0.13383335 0.44366667 1.9250001
-0.12283334 0.44733334 1.9250001
-0.11366667 0.44733334 1.9250001
-0.10266667 0.44733334 1.9250001
-0.095333338 0.44733334 1.9250001
-0.075166672 0.44733334 1.9250001
-0.069666669 0.44733334 1.9250001
-0.022 0.44000003 1.9250001
-0.012833334 0.44366667 1.9250001
0.014666667 0.44000003 1.9250001
0.025666667 0.44000003 1.9250001
0.19800001 0.44000003 1.9250001
0.20313334 0.44440004 1.9250001
-0.11366668 0.45100003 1.9250001
-0.1045 0.45100001 1.9250001
-0.093500003 0.45100001 1.9250001
-0.084333338 0.45191666 1.9250001
-0.074555561 0.45222223 1.9250001
-0.069666669 0.45100001 1.9250001
0.20655558 0.45344445 1.9250001
0.21450001 0.45833334 1.9250001
0.22000001 0.45833334 1.9250001
0.22000001 0.46200001 1.9250001
-0.11366667 0.57933336 1.9250001
-0.132 0.58666664 1.9250001
-0.12558334 0.58574998 1.9250001
-0.11366668 0.58422226 1.9250001
-0.10633333 0.583 1.9250001
-0.121 0.59033334 1.9250001
-0.36507434 0.04530504 1.9360001
-0.35585526 0.046095241 1.9360001
-0.38720003 0.057158098 1.9360001
-0.37508357 0.055841099 1.9360001
-0.36507434 0.055314295 1.936
-0.35506508 0.055841099 1.9360001
-0.37429336 0.064533338 1.9360001
-0.36581182 0.064164579 1.9360001
-0.35474896 0.064902104 1.9360001
-0.37613717 0.071908571 1.9360001
-0.36876193 0.070064761 1.9360001
-0.34294859 0.075596191 1.9360001
-0.33926097 0.075596191 1.9360001
-0.35401148 0.088502869 1.9360002
-0.34516117 0.084077716 1.9360001
-0.33603433 0.085276201 1.936
-0.32819813 0.086659051 1.9360001
-0.36138669 0.097721912 1.9360001
-0.35447243 0.095417157 1.936
-0.34663621 0.092190482 1.9360001
-0.33465144 0.093112387 1.9360001
-0.325248 0.095140576 1.9360001
-0.31713524 0.10509715 1.9360001
-0.31529146 0.1143162 1.9360001
-0.31344765 0.12537906 1.9360002
-0.30853081 0.12783748 1.9360002
-0.30484319 0.13521272 1.9360002
-0.30238479 0.14381716 1.9360002
-0.29869714 0.14750476 1.9360001
-0.29500952 0.15580191 1.9360001
-0.29132193 0.16225524 1.9360001
-0.28640512 0.16840129 1.9360002
-0.28394669 0.17454731 1.9360002
-0.28025907 0.18438098 1.9360002
-0.27657145 0.18622477 1.9360001
-0.28025904 0.1917562 1.9360001
-0.27472764 0.19544382 1.9360001
-0.26919618 0.19913144 1.9360001
-0.27288383 0.20466286 1.9360001
-0.26919618 0.20466286 1.9360001
-0.2673524 0.2120381 1.9360001
-0.26550859 0.22678858 1.9360001
-0.26182097 0.23785144 1.9360001
-0.25813335 0.24338287 1.9360001
-0.25444573 0.25260192 1.9360001
-0.25075811 0.26366478 1.9360001
-0.22863239 0.30607241 1.9360002
-0.22863239 0.31529146 1.9360001
-0.23232001 0.32635432 1.9360001
-0.22771049 0.32543239 1.9360001
-0.23324192 0.33649525 1.9360001
-0.22678858 0.33741716 1.9360001
-0.23232001 0.34294859 1.9360001
-0.22740319 0.34540701 1.9360002
-0.22678861 0.35401148 1.9360001
-0.22863239 0.36138669 1.9360001
-0.18069334 0.42776385 1.9360001
-0.17516191 0.42776385 1.9360001
-0.16963048 0.42776385 1.9360001
0.095878109 0.42776388 1.9360002
0.10694096 0.42776385 1.9360001
0.11431621 0.42776388 1.9360002
0.12537906 0.42776388 1.9360002
0.13459811 0.42592001 1.9360001
0.14381716 0.42592007 1.9360001
0.15395811 0.42684194 1.9360001
0.16778667 0.42776385 1.9360001
0.17516191 0.42776385 1.9360001
0.18438098 0.42776388 1.9360002
-0.1917562 0.43513906 1.9360001
-0.18530287 0.43237334 1.9360001
-0.1733181 0.43145144 1.9360001
-0.16594286 0.43145144 1.9360001
-0.15303621 0.43698287 1.9360001
-0.14566097 0.43882671 1.9360001
0.03687619 0.43882671 1.9360001
0.046095241 0.43513906 1.9360001
0.051626671 0.43513906 1.9360001
0.064533338 0.43145144 1.9360001
0.070064761 0.43145144 1.9360001
0.18622477 0.43145144 1.9360001
0.19636573 0.43237334 1.9360001
0.20281905 0.43698287 1.9360001
-0.14012952 0.4425143 1.9360001
-0.13644192 0.4425143 1.9360001
-0.12537906 0.44620192 1.9360002
-0.1143162 0.44712383 1.9360001
-0.10694096 0.44988954 1.9360001
-0.083893336 0.44896764 1.9360001
-0.075596191 0.44620192 1.9360001
-0.014750477 0.4425143 1.9360001
-0.0055314288 0.4425143 1.9360001
0.0036876192 0.4425143 1.9360002
0.20650668 0.4425143 1.9360001
0.21019429 0.44804573 1.9360001
-0.081127621 0.45726478 1.9360001
-0.077440001 0.45726478 1.9360001
0.21388191 0.45603558 1.9360002
-0.077440001 0.4609524 1.9360001
-0.12353525 0.58448768 1.9360001
-0.11800382 0.58448768 1.9360001
-0.39310861 0.029668573 1.9470001
-0.38522789 0.026423572 1.9470003
-0.37456578 0.027814288 1.9470003
-0.36714861 0.027814288 1.9470001
-0.40176195 0.035849527 1.9470003
-0.39434481 0.034613337 1.9470003
-0.38569149 0.03523143 1.9470003
-0.37456578 0.03523143 1.9470003
-0.36529434 0.03523143 1.9470001
-0.35787714 0.03523143 1.9470001
-0.40238008 0.044502862 1.9470003
-0.39496288 0.044502862 1.9470003
-0.38569143 0.044502858 1.9470003
-0.37562531 0.043973066 1.9470003
-0.36344004 0.040794287 1.9470001
-0.35453945 0.043019433 1.9470001
-0.34712231 0.045244575 1.9470001
-0.40052575 0.05192 1.9470001
-0.39496288 0.05192 1.9470001
-0.38507339 0.054392383 1.9470003
-0.35231429 0.05377429 1.9470001
-0.34675145 0.055628575 1.9470003
-0.38383719 0.064900003 1.9470001
-0.36344004 0.066754289 1.9470001
-0.35231429 0.063045718 1.9470001
-0.34563887 0.065270863 1.9470001
-0.33748004 0.066754289 1.9470001
-0.38383716 0.072317146 1.9470001
-0.37332958 0.072935246 1.9470003
-0.36492348 0.073429719 1.9470001
-0.35602286 0.074171431 1.9470003
-0.34638059 0.072688006 1.9470001
-0.33430129 0.075231031 1.9470003
-0.36436719 0.086224288 1.9470001
-0.35602289 0.083442859 1.9470003
-0.33191717 0.081588574 1.9470001
-0.32450002 0.085297152 1.9470003
-0.36591244 0.09395048 1.9470003
-0.32264572 0.09456858 1.9470001
-0.31893718 0.096422866 1.9470001
-0.36714861 0.10198572 1.9470001
-0.31646478 0.10384002 1.9470003
-0.31399241 0.11496572 1.9470003
-0.30781144 0.11867429 1.9470001
-0.31152004 0.12238287 1.9470001
-0.30558631 0.12534973 1.9470001
-0.3016305 0.13474476 1.9470003
-0.29668573 0.13721716 1.9470001
-0.30039433 0.14278001 1.9470001
-0.29668576 0.14463429 1.9470003
-0.29421338 0.15328763 1.9470003
-0.28926858 0.15946859 1.9470001
-0.28741431 0.16503143 1.9470001
-0.28185144 0.17244858 1.9470001
-0.27814287 0.17801145 1.9470001
-0.27567053 0.18542859 1.9470003
-0.27196193 0.19408193 1.9470003
-0.26701719 0.20397145 1.9470003
-0.26701716 0.21509716 1.9470001
-0.26516289 0.22622287 1.9470001
-0.26330858 0.23364002 1.9470001
-0.25960001 0.23734859 1.9470001
-0.25712764 0.24476574 1.9470003
-0.25218287 0.25774574 1.9470001
-0.25218287 0.27072573 1.9470001
-0.2484743 0.27072573 1.9470001
-0.22622287 0.32450002 1.9470001
-0.22622287 0.33500764 1.9470003
-0.21880573 0.33748004 1.9470001
-0.22344145 0.34489715 1.9470001
-0.22251432 0.35602289 1.9470003
-0.22622287 0.36529434 1.9470001
-0.22622287 0.37271145 1.9470001
-0.1965543 0.4190686 1.9470001
-0.19470002 0.42463148 1.9470001
-0.18542859 0.42648575 1.9470003
-0.17430286 0.42648575 1.9470003
0.09456858 0.42648575 1.9470001
0.10384002 0.42648575 1.9470003
0.11496572 0.42648575 1.9470003
0.12609145 0.42648575 1.9470003
0.13536286 0.42277718 1.9470001
0.14463429 0.42277718 1.9470003
0.15576002 0.42524958 1.9470003
0.16503143 0.42648575 1.9470001
-0.19284573 0.43204859 1.9470001
-0.18728286 0.43019432 1.9470001
-0.16441333 0.43143052 1.9470003
-0.15699622 0.43390292 1.9470003
0.037085716 0.43761146 1.9470001
0.044502862 0.43513906 1.9470003
0.055628575 0.43390286 1.9470003
0.085297152 0.43019432 1.9470003
0.19470002 0.43019432 1.9470001
0.20211716 0.43204859 1.9470001
-0.14092572 0.44132003 1.9470001
-0.13474478 0.44255623 1.9470003
-0.12609145 0.44502863 1.9470003
-0.11867429 0.4450286 1.9470001
-0.10384002 0.4487372 1.9470003
-0.09456858 0.44873717 1.9470001
-0.085297152 0.447501 1.9470003
-0.07788001 0.4450286 1.9470001
-0.022251431 0.44132003 1.9470001
-0.014834287 0.4450286 1.9470001
-0.0055628577 0.44132003 1.9470001
0.0055628577 0.44132003 1.9470001
0.014834288 0.44132003 1.9470003
0.025960002 0.44132003 1.9470003
0.033377144 0.44132003 1.9470001
0.20768 0.44132003 1.9470001
0.21417001 0.44595575 1.9470001
0.21695146 0.45430005 1.9470001
0.016688572 0.58224577 1.9470001
-0.39160001 -0.0037295239 1.9580001
-0.41024762 0.0074590477 1.9580001
-0.39408636 0.0043511111 1.9580001
-0.38637868 0.0044754287 1.9580001
-0.41024765 0.014918095 1.9580001
-0.40465334 0.016782857 1.9580001
-0.39532954 0.014918095 1.9579999
-0.38414097 0.014918095 1.9579999
-0.37481713 0.014918095 1.9580001
-0.36829048 0.015850477 1.9580001
-0.41173944 0.026852572 1.9580001
-0.40465337 0.026106669 1.9580001
-0.39657271 0.024863493 1.9580001
-0.38041142 0.022377143 1.9580001
-0.37481713 0.022377143 1.9580001
-0.36487174 0.026106669 1.9580001
-0.35679111 0.028593017 1.9580001
-0.41211241 0.035430476 1.9580001
-0.4065181 0.033565715 1.9580001
-0.39905906 0.037295237 1.9580001
-0.35244 0.035430476 1.9580001
-0.34498096 0.037295237 1.9580001
-0.41211241 0.042889524 1.9580001
-0.34404856 0.043821909 1.9580001
-0.34311622 0.05594286 1.9580001
-0.33938667 0.057807621 1.9580001
-0.34311619 0.0634019 1.9580001
-0.33565715 0.065266669 1.9580001
-0.37481713 0.078319997 1.9580001
-0.36922288 0.078319997 1.9580001
-0.33379239 0.070860952 1.9580001
-0.32670629 0.075336382 1.9580001
-0.37481713 0.085779056 1.9580001
-0.36922288 0.083914287 1.9580001
-0.32073903 0.085779056 1.9580001
-0.31700954 0.089508571 1.9580001
-0.32073903 0.093238093 1.9580001
-0.31700954 0.096967623 1.9580001
-0.31452319 0.10442667 1.9580001
-0.31327999 0.11375048 1.9580001
-0.30768573 0.11748 1.9580001
-0.30209145 0.1268038 1.9580001
-0.30209145 0.13053332 1.9580001
-0.29711875 0.13426286 1.9580001
-0.29370004 0.14638381 1.9580001
-0.29090285 0.15477523 1.9580001
-0.28593016 0.16409905 1.9580001
-0.27784953 0.17528762 1.9580001
-0.27412 0.18461142 1.9580001
-0.27225524 0.19020571 1.9580001
-0.26852572 0.19580001 1.9580001
-0.2647962 0.20512383 1.9580001
-0.2647962 0.21258286 1.9580001
-0.2647962 0.2256362 1.9580001
-0.26106665 0.23309524 1.9580001
-0.25733715 0.23868953 1.9580001
-0.2548508 0.24614857 1.9580001
-0.2536076 0.2536076 1.9580001
-0.24987811 0.2647962 1.9580001
-0.22750096 0.30955049 1.9580001
-0.22625779 0.31576639 1.9580001
-0.22270587 0.32393581 1.9580002
-0.21631238 0.32260382 1.9580001
-0.22190668 0.33379239 1.9580001
-0.21538001 0.33658952 1.9580001
-0.22004192 0.34498096 1.9580001
-0.21631238 0.34498096 1.9580001
-0.22004192 0.35430476 1.9580001
-0.21631238 0.35430476 1.9580001
-0.22153373 0.36623925 1.9580001
-0.21631238 0.36176383 1.9580001
-0.22190668 0.37481716 1.9580001
-0.19020571 0.42516571 1.9580001
-0.18461142 0.42516571 1.9580001
-0.17715238 0.42516571 1.9580001
-0.16596381 0.42889526 1.9580001
0.078319997 0.42889526 1.9580001
0.085779056 0.42889529 1.9580001
0.096967623 0.42516571 1.9580001
0.10442667 0.42516574 1.9580001
0.11561524 0.42516574 1.9580001
0.12493904 0.42516571 1.9580001
0.13426286 0.42267939 1.9580001
0.14545143 0.42143625 1.9580001
0.15539682 0.42267939 1.9580001
0.16335313 0.42367393 1.9580001
0.17454171 0.42740345 1.9580001
0.18461142 0.42889526 1.9580001
0.19020571 0.42889526 1.9580001
-0.15539682 0.43511114 1.9580001
0.011188571 0.43635431 1.9580001
0.029836191 0.43635431 1.9580001
0.035430476 0.43635431 1.9580001
0.065266669 0.43262476 1.9580001
0.074590474 0.43262476 1.9580001
0.20698857 0.43448955 1.9580001
-0.14731619 0.44008383 1.9580001
-0.1323981 0.44194859 1.9580001
-0.12493904 0.44381335 1.9580001
-0.11561524 0.44629973 1.9580001
-0.10629143 0.44754288 1.9580001
-0.095102862 0.44754288 1.9580001
-0.085779056 0.44629973 1.9580001
-0.078319997 0.44381335 1.9580001
-0.013985714 0.44288096 1.9580001
-0.0055942857 0.44008383 1.9580001
0.0027971428 0.44101623 1.9580001
0.014918095 0.44008383 1.9580001
0.026106669 0.44008383 1.9580001
0.033565715 0.44008383 1.9580001
0.20885333 0.44008383 1.9580001
0.21506922 0.44381338 1.9580001
0.22004192 0.44754288 1.9580001
0.22377144 0.45686668 1.9580001
0.22625779 0.46370417 1.9580001
0.014918095 0.58926481 1.9580001
0.015850475 0.59392667 1.9580001
-0.41442764 -0.013126668 1.9690001
-0.40880194 -0.013126668 1.9690001
-0.39433581 -0.013930341 1.9690001
-0.41442764 -0.0056257145 1.9690001
-0.40505144 -0.0056257145 1.9690001
-0.39380002 -0.0060007623 1.9690001
-0.38504893 -0.0050006351 1.9690002
-0.4148027 0.0030003812 1.9690001
-0.40552023 0.0037504763 1.969
-0.39755049 0 1.9690001
-0.38348621 0.0028128573 1.9690001
-0.3762978 0.0050006351 1.9690001
-0.41630286 0.011251429 1.9690001
-0.40692669 0.011251429 1.9690001
-0.3645463 0.015752001 1.9690001
-0.36192095 0.022502858 1.9690001
-0.35504508 0.025003176 1.9690002
-0.35254478 0.03000381 1.9690001
-0.34691906 0.033754285 1.9690001
-0.34129336 0.046880953 1.9690001
-0.33754286 0.048756193 1.9690001
-0.34129336 0.05250667 1.9690001
-0.33566761 0.054381907 1.9690001
-0.33304232 0.063008003 1.9690001
-0.32629144 0.067508571 1.9690001
-0.32379115 0.075009525 1.9690002
-0.31754035 0.085010812 1.9690002
-0.3162902 0.093761906 1.9690002
-0.3125397 0.10501334 1.9690002
-0.30753905 0.10876381 1.9690001
-0.31128952 0.11251429 1.9690001
-0.30753905 0.11626476 1.9690001
-0.30191335 0.12564096 1.9690001
-0.29503748 0.13501716 1.9690002
-0.29253715 0.14439334 1.9690001
-0.28878668 0.15564477 1.9690001
-0.28316095 0.16689619 1.9690001
-0.27753526 0.16877143 1.9690001
-0.27753526 0.17252192 1.9690001
-0.27378479 0.1818981 1.9690001
-0.27003428 0.1912743 1.9690001
-0.26628384 0.19877525 1.9690001
-0.26628384 0.21752763 1.9690001
-0.26378351 0.2250286 1.9690002
-0.25878286 0.22877906 1.9690001
-0.25690764 0.23440477 1.9690001
-0.25378224 0.24378097 1.9690002
-0.25128192 0.25503239 1.9690002
-0.24753144 0.25878286 1.9690001
-0.24753144 0.26440859 1.9690001
-0.25128192 0.27753526 1.9690001
-0.24603127 0.27303469 1.9690001
-0.22315335 0.31691527 1.9690001
-0.21752763 0.3187905 1.9690001
-0.21377715 0.32441622 1.9690001
-0.21471477 0.33285478 1.9690001
-0.21377715 0.34691906 1.9690001
-0.21377715 0.35442001 1.9690001
-0.21471477 0.36473382 1.9690001
-0.21431297 0.37611923 1.9690001
0.13876763 0.41630286 1.9690001
0.14626858 0.41630286 1.9690001
0.15001905 0.41630286 1.9690001
-0.1912743 0.42380384 1.9690001
