# .PCD v0.7 - Point Cloud Data file format
VERSION 0.7
FIELDS x y z
SIZE 4 4 4
TYPE F F F
COUNT 1 1 1
WIDTH 1490
HEIGHT 1
VIEWPOINT 0 0 0 1 0 0 0
POINTS 1490
DATA ascii
-0.10501362 0.49527353 1.7950002
-0.095733337 0.49576193 1.7950001
-0.087527618 0.49644575 1.7950001
-0.076358736 0.49462229 1.7950001
-0.06496191 0.49618933 1.7950001
-0.054704763 0.49576193 1.7950001
-0.044875003 0.49618927 1.7950001
-0.033213608 0.49625042 1.7950002
-0.023444898 0.49673885 1.7950002
-0.013676192 0.49576199 1.7950001
-0.0045587304 0.49348256 1.7950001
0.0034190479 0.49405238 1.7950001
0.013676192 0.49576193 1.7950001
0.022793654 0.49519205 1.7950001
0.031911112 0.49348256 1.7950001
0.073509529 0.49234286 1.7950001
0.086615883 0.49462223 1.7950001
0.092314295 0.49918097 1.7950001
-0.095733337 0.50260001 1.7950001
-0.06496191 0.50601906 1.7950001
-0.044447623 0.50260007 1.7950001
-0.035558093 0.50465149 1.7950001
-0.023933336 0.50430954 1.7950001
-0.015385714 0.50430954 1.7950001
0.076586664 0.50533527 1.7950001
0.084336512 0.50373971 1.7950001
-0.054704767 0.51456666 1.7950001
-0.14260191 0.43983242 1.8040001
-0.13401143 0.43983242 1.8040003
-0.12542096 0.43983242 1.8040001
-0.1065219 0.43983242 1.8040003
-0.099649534 0.43983242 1.8040001
-0.089340955 0.43639621 1.8040001
-0.075596198 0.43983242 1.8040003
-0.067005716 0.43983242 1.8040001
-0.054120004 0.43897337 1.8040001
-0.044670485 0.43811429 1.8040001
-0.037798099 0.43811432 1.8040001
0.0034361908 0.43983242 1.8040003
0.010308573 0.43983242 1.8040001
0.068723813 0.43983242 1.8040001
0.075596198 0.43983242 1.8040003
0.082468584 0.43983242 1.8040001
-0.1511924 0.4467048 1.8040001
-0.14432001 0.44441399 1.8040003
-0.13572952 0.4432686 1.8040001
-0.12370287 0.44326863 1.8040003
-0.11568509 0.44441399 1.8040003
-0.1065219 0.4432686 1.8040001
-0.099649534 0.4432686 1.8040001
-0.061851434 0.4432686 1.8040001
-0.058415242 0.4432686 1.8040001
-0.03264381 0.4449867 1.8040001
-0.023366097 0.44464308 1.8040001
-0.013744763 0.44498667 1.8040001
-0.005154286 0.4449867 1.8040001
0.0034361908 0.4449867 1.8040001
0.013057525 0.44533029 1.8040001
0.024053335 0.4467048 1.8040003
0.034361906 0.4467048 1.8040003
0.045357719 0.44533029 1.8040001
0.054979052 0.44498667 1.8040001
0.06528762 0.4449867 1.8040001
0.075596198 0.4449867 1.8040001
0.085904777 0.44498667 1.8040001
0.12370287 0.44584578 1.8040001
0.13401143 0.4467048 1.8040001
-0.17180952 0.45701337 1.8040001
-0.16424994 0.45563889 1.8040001
-0.15419906 0.4540067 1.804
-0.034361906 0.45014098 1.8040001
-0.022335241 0.45014098 1.8040001
-0.013744763 0.45185909 1.8040001
-0.0051542865 0.45357722 1.8040001
0.0034361908 0.45357719 1.804
0.013744762 0.45357716 1.804
0.024053335 0.45357719 1.804
0.033871025 0.45259547 1.8040001
0.045161363 0.45259541 1.8040001
0.054979049 0.45357719 1.804
0.06528762 0.45357719 1.804
0.076741599 0.4541499 1.8040001
0.08590477 0.45357719 1.804
0.095722459 0.45455897 1.8040001
0.10652191 0.454559 1.8040001
0.11545601 0.45426446 1.8040001
0.12419376 0.45259541 1.8040001
0.13444096 0.45314768 1.804
0.1422583 0.4542644 1.8040001
0.1529105 0.45701337 1.8040001
-0.17180952 0.46388575 1.8040001
-0.16536668 0.46345621 1.804
-0.15806478 0.46388575 1.8040003
0.0068723815 0.46216768 1.8040001
0.013744764 0.46216768 1.8040001
0.023366097 0.46182403 1.8040001
0.030925717 0.46044958 1.8040001
0.068723813 0.46044958 1.8040001
0.077886999 0.461595 1.8040003
0.086592011 0.46182403 1.8040001
0.096642867 0.46345621 1.804
0.10603102 0.46290401 1.8040001
0.11511239 0.46216768 1.8040001
0.13572952 0.46388575 1.8040001
0.14432001 0.46339491 1.8040001
0.15462859 0.46388572 1.804
0.16444628 0.4648675 1.8040001
0.17180952 0.46560383 1.8040001
-0.17524573 0.47419435 1.8040003
-0.15806478 0.4776305 1.8040001
0.12713906 0.4776305 1.8040001
0.13401143 0.47419429 1.8040001
0.14346096 0.47161722 1.8040001
0.15531583 0.47213265 1.8040001
0.16150098 0.47075814 1.8040001
-0.17524572 0.48278478 1.8040001
-0.16493717 0.48278475 1.8040001
-0.1534832 0.48221207 1.8040003
-0.14546542 0.48507559 1.8040001
-0.13630223 0.4867937 1.8040003
0.045357719 0.48656461 1.8040001
0.054979052 0.48793909 1.8040003
0.1099581 0.48622099 1.8040001
0.11511239 0.48622099 1.8040001
0.12413239 0.48493242 1.804
0.13057524 0.48278478 1.8040001
-0.13469867 0.49343696 1.8040001
-0.0068723815 0.49824765 1.8040001
0.025771432 0.49824765 1.8040001
0.036652703 0.49481148 1.8040003
0.043811433 0.49223429 1.8040001
0.054979052 0.4913753 1.8040003
0.065717146 0.49438193 1.804
0.07645525 0.4973886 1.8040001
0.08590477 0.4973886 1.8040001
0.096642867 0.49524099 1.804
0.10652192 0.49538416 1.8040001
0.11511239 0.49137527 1.8040001
0.12370287 0.4913753 1.8040003
-0.061851434 0.50683814 1.8040001
-0.054979049 0.5068382 1.8040001
-0.044670485 0.50855625 1.8040003
-0.03264381 0.50855625 1.8040001
-0.010308573 0.50683814 1.8040001
-0.0051542865 0.5051201 1.8040001
0.0034361908 0.50512004 1.804
0.010308573 0.50512004 1.8040001
0.027489526 0.50168389 1.8040001
0.03264381 0.50168389 1.8040001
0.067349337 0.50580734 1.8040001
0.074221723 0.50374562 1.8040001
0.084759377 0.50282931 1.8040003
0.097931437 0.50168389 1.8040001
0.10308572 0.50168389 1.8040001
-0.061851434 0.51199239 1.8040001
-0.054979052 0.51199239 1.8040003
-0.044670478 0.5137105 1.8040001
-0.03264381 0.51199239 1.8040001
0.068723813 0.51199239 1.8040001
0.072160006 0.51199239 1.8040001
-0.14339238 0.43881527 1.8140001
-0.13389048 0.43795145 1.8140001
-0.12784381 0.43881527 1.8140001
-0.11056763 0.43881527 1.8140001
-0.10250542 0.43651175 1.8140001
-0.095019065 0.43536004 1.8140001
-0.087072007 0.4360511 1.8140001
-0.079470485 0.43881527 1.8140001
-0.055283815 0.43881527 1.8140001
-0.032824762 0.43881527 1.8140001
-0.024186669 0.4388153 1.8140001
-0.013820954 0.4388153 1.8140001
-0.0051828576 0.43881527 1.8140001
0.0034552384 0.4388153 1.8140001
0.013820954 0.4388153 1.8140001
0.038007624 0.43881527 1.8140001
0.044918101 0.4388153 1.8140001
0.051828578 0.43881527 1.8140001
0.065649532 0.4388153 1.8140001
0.076015249 0.4388153 1.8140001
0.082925722 0.43881527 1.8140001
-0.17276192 0.44745338 1.8140001
-0.16535783 0.44671297 1.8140002
-0.15548572 0.44630164 1.8140001
-0.14857525 0.44399813 1.8140001
-0.12093334 0.44227052 1.8140001
-0.11575049 0.44227052 1.8140001
-0.062194284 0.44227052 1.8140001
-0.032824762 0.44227052 1.8140001
-0.024186671 0.44227052 1.8140001
-0.013820954 0.44227052 1.8140001
-0.0051828576 0.44227052 1.8140001
0.016124446 0.44342226 1.8140001
0.024186669 0.4439981 1.8140001
0.034552384 0.44399816 1.8140001
0.044054292 0.44313431 1.8140001
0.055283815 0.44227052 1.8140001
0.063921906 0.44227052 1.8140001
0.088108577 0.44227052 1.8140001
0.094443187 0.44802925 1.8140001
0.10365716 0.44918102 1.8140001
0.11488668 0.44831717 1.8140001
0.12438858 0.4436526 1.8140001
0.13544534 0.44572574 1.8140001
0.14339238 0.44745338 1.8140001
0.15894097 0.44572574 1.8140001
0.16671525 0.44658953 1.8140001
0.17621717 0.44745338 1.8140001
-0.1900381 0.45609146 1.8140001
-0.18485525 0.4578191 1.8140001
-0.17621715 0.45609149 1.8140002
-0.16671525 0.45350003 1.8140001
-0.15894097 0.45263621 1.8140001
0.096746676 0.45263621 1.8140001
0.10192954 0.45263621 1.8140001
0.11229526 0.45263621 1.8140001
0.14771144 0.45522767 1.8140001
0.15597934 0.45510426 1.8140002
0.16585143 0.45609146 1.814
0.17621715 0.45609152 1.814
-0.18399145 0.46732098 1.8140001
-0.17720439 0.46645719 1.8140002
0.14857525 0.46645716 1.8140001
0.16757905 0.46300194 1.8140001
0.17720439 0.4659636 1.8140002
0.18312763 0.46818477 1.8140001
-0.18427938 0.47451943 1.8140001
-0.17967239 0.47509527 1.8140001
0.14684764 0.47682288 1.8140001
0.1520305 0.47682288 1.8140001
0.16654249 0.4754408 1.8140001
0.17448953 0.47509527 1.8140001
0.19349335 0.47682288 1.8140001
-0.17967239 0.48200572 1.8140001
0.13648191 0.48373336 1.8140001
0.14166477 0.4802781 1.8140001
0.15721335 0.4802781 1.8140001
0.16585144 0.4802781 1.8140001
0.17483506 0.48304233 1.8140001
-0.14166477 0.49409908 1.8140001
0.046645716 0.49755427 1.8140001
0.055283815 0.49755427 1.8140001
0.11575049 0.49755427 1.8140001
0.12438858 0.49755427 1.8140001
0.13417843 0.49294734 1.8140001
0.17794478 0.49582666 1.8140001
0.038007624 0.50273716 1.8140001
0.041462861 0.50100958 1.8140001
0.057011433 0.50100958 1.8140001
0.063058093 0.50446481 1.8140001
0.11402287 0.50100958 1.8140001
0.12438857 0.50273716 1.8140001
0.13129906 0.50273716 1.8140001
0.062194284 0.51137525 1.8140001
-0.16502857 0.43776003 1.8240001
-0.15460572 0.43776003 1.8240001
-0.14661486 0.43637028 1.8240002
-0.13619201 0.43567547 1.8240002
-0.1250743 0.43602288 1.8240002
-0.11465143 0.43602294 1.8240002
-0.10509714 0.43428573 1.8240001
-0.093805723 0.43081146 1.8240001
-0.08512 0.43428573 1.8240001
-0.077302858 0.43689144 1.8240001
-0.066011429 0.43776006 1.8240001
-0.055588573 0.43602288 1.8240002
-0.045165718 0.43602288 1.8240002
-0.038217146 0.43602288 1.8240001
-0.0052114287 0.43776003 1.8240001
0.0034742858 0.43776006 1.8240001
0.012159999 0.43776003 1.8240001
0.024320001 0.43776003 1.8240001
0.045165718 0.43776003 1.8240001
0.066011429 0.43776003 1.8240001
0.076434299 0.43776006 1.8240001
0.085120007 0.43776003 1.8240001
0.090331435 0.43776003 1.8240001
0.1250743 0.43776006 1.8240001
0.16676572 0.43776003 1.8240001
0.17024001 0.43776003 1.8240001
-0.20150858 0.44644573 1.8240001
-0.19456002 0.44818291 1.8240001
-0.18370287 0.44514287 1.8240002
-0.17421064 0.44371596 1.8240004
-0.16560763 0.44239241 1.8240001
-0.15703772 0.442624 1.8240002
-0.1493943 0.44123429 1.8240001
-0.12333715 0.44123429 1.8240001
-0.11638857 0.44123429 1.8240001
-0.074697152 0.44123429 1.8240001
-0.066011429 0.44123429 1.8240001
-0.059062857 0.44123429 1.8240001
0.024320003 0.44123429 1.8240001
0.033005714 0.44123429 1.8240001
0.057325713 0.44123429 1.8240001
0.086857148 0.44123429 1.8240001
0.094500579 0.44401374 1.8240002
0.10422858 0.4464457 1.8240002
0.11465143 0.44528764 1.8240002
0.1250743 0.44123429 1.8240001
0.1348023 0.44262406 1.8240002
0.14641635 0.44371596 1.8240004
0.15590858 0.44427428 1.8240002
0.16502857 0.44297144 1.8240001
0.17284572 0.44384003 1.8240001
0.18344231 0.44540343 1.8240002
-0.20150858 0.45339429 1.8240001
-0.1949943 0.45469716 1.8240002
-0.18413717 0.45339426 1.8240002
-0.17718859 0.45165715 1.8240001
0.1493943 0.45165715 1.8240001
0.15634286 0.45165715 1.8240001
0.16502857 0.45165715 1.8240001
0.18587431 0.45513141 1.8240002
0.19456002 0.45860574 1.8240001
-0.19282287 0.4655543 1.8240002
-0.18761145 0.46729144 1.8240001
0.18622173 0.46485946 1.8240002
0.19456001 0.46598858 1.8240002
0.20150858 0.46729144 1.8240001
0.21366858 0.46902859 1.8240001
-0.19108573 0.47424001 1.8240001
-0.18761145 0.47945148 1.8240001
0.18463348 0.47696984 1.8240004
0.19406369 0.47548088 1.8240004
0.20498288 0.47945148 1.8240001
0.21366858 0.4777143 1.8240001
-0.1858743 0.48466289 1.8240001
0.14592002 0.48640004 1.8240004
0.15634286 0.48524195 1.8240001
0.16502857 0.48640004 1.8240001
0.17139813 0.48871624 1.8240001
0.18297908 0.4869791 1.8240002
0.19224381 0.48524195 1.8240001
0.20845716 0.48292574 1.8240001
0.21193144 0.48292574 1.8240001
0.13549714 0.49682292 1.8240001
0.14360383 0.49450672 1.8240001
0.1737143 0.49508578 1.8240001
0.18413717 0.49421722 1.8240001
0.19108573 0.49334863 1.8240001
0.045860574 0.50585598 1.8240002
0.054720003 0.50637716 1.8240001
0.10770286 0.50724572 1.8240001
0.11465143 0.50724572 1.8240001
0.12623239 0.50492954 1.8240001
0.13723429 0.50203431 1.8240001
0.14360383 0.50261331 1.8240001
0.16676572 0.50029713 1.8240001
0.17197716 0.50203425 1.8240001
0.057325713 0.51245713 1.8240001
-0.13441999 0.42944574 1.8330001
-0.12569144 0.42944574 1.8330001
-0.11521715 0.42944574 1.8330001
-0.10241525 0.42828196 1.8330001
-0.094268583 0.42770004 1.8330001
-0.084667146 0.42857289 1.8330001
-0.073320001 0.42944574 1.8330001
-0.064591423 0.42944574 1.8330001
-0.052371431 0.42944574 1.8330001
-0.20250286 0.43992001 1.8330001
-0.19552001 0.43992004 1.8330001
-0.18434744 0.43852344 1.8330001
-0.17457142 0.43817431 1.8330001
-0.16409716 0.43642861 1.8330001
-0.15362285 0.43468285 1.8330001
-0.14431238 0.43410096 1.8330001
-0.13616571 0.43293715 1.8330001
-0.12569144 0.43293715 1.8330001
-0.11521715 0.43293715 1.8330001
-0.10648857 0.43293715 1.8330001
-0.082048573 0.43293715 1.8330001
-0.075065717 0.43468288 1.8330001
-0.066337138 0.43468291 1.8330001
-0.055862859 0.43293715 1.8330001
-0.045388576 0.43293715 1.8330001
-0.034215998 0.43712687 1.8330001
-0.024440002 0.43817431 1.8330001
-0.013965715 0.43817431 1.8330001
-0.005237143 0.43642861 1.8330001
0.0041897143 0.43503204 1.8330001
0.014464491 0.43543103 1.8330002
0.024440002 0.43599212 1.8330001
0.034477856 0.43686497 1.8330001
0.045887347 0.43642858 1.8330002
0.055426434 0.436865 1.8330001
0.066337138 0.43543106 1.8330002
0.075065717 0.43642861 1.8330001
0.083794288 0.43642864 1.8330001
0.096014291 0.43992001 1.8330001
0.10474287 0.43992004 1.8330001
0.11521715 0.43992004 1.8330001
0.13616571 0.43992004 1.8330001
0.14489429 0.43992001 1.8330001
0.15362287 0.43992004 1.8330001
0.16409716 0.43642861 1.8330002
0.17387314 0.43712687 1.8330001
0.18417287 0.43904716 1.8330001
0.19202857 0.43992001 1.8330001
-0.2048305 0.44457525 1.8330001
-0.19552001 0.44515714 1.8330001
-0.18853715 0.44341144 1.8330001
0.097759999 0.44341144 1.8330001
0.10474287 0.44341144 1.8330001
0.11347143 0.44341144 1.8330001
0.17631714 0.44341144 1.8330001
0.18737334 0.44457528 1.8330001
0.19552 0.4455063 1.8330001
0.2048305 0.44573909 1.8330001
-0.20599429 0.45039427 1.8330001
0.19552 0.4538857 1.8329999
0.20424858 0.45388576 1.8330001
0.19552 0.4626143 1.8330001
0.2064307 0.46392357 1.8330001
0.21603215 0.46392357 1.8330001
0.19901143 0.47832572 1.8330001
0.20643072 0.47527069 1.8330001
0.21472286 0.47483429 1.8330001
0.15362285 0.48879999 1.8330001
0.18737334 0.48763618 1.8330001
0.19639286 0.48792714 1.8330001
0.20459771 0.48600683 1.8330001
0.14664 0.49927431 1.8330001
0.15362285 0.49534643 1.8330001
0.16409716 0.49578285 1.8329999
0.17108001 0.49578288 1.8330001
0.19726571 0.49229142 1.8330001
0.1222 0.50974858 1.8330001
0.14664 0.50276572 1.8330001
0.15362287 0.50451142 1.8330001
0.16339886 0.50486058 1.8330001
0.045388576 0.5149858 1.8330001
0.052371431 0.51498574 1.8330001
-0.063188568 0.41774666 1.8430001
-0.14392954 0.42827815 1.8430002
-0.13515332 0.42827812 1.8430001
-0.12637715 0.42827815 1.8430002
-0.11584571 0.42827815 1.8430002
-0.10531428 0.42710799 1.8430002
-0.094782859 0.42476761 1.8430002
-0.083549343 0.42617184 1.8430001
-0.073720008 0.4274005 1.8430001
-0.064592756 0.4254697 1.8430001
-0.05704524 0.42740047 1.8430001
-0.049146667 0.42827812 1.8430001
0.0035104763 0.42827812 1.8430001
0.014041906 0.42827815 1.8430002
0.024573334 0.42827815 1.8430002
0.031594284 0.42827812 1.8430001
0.098293334 0.42827812 1.8430001
0.11233524 0.42827812 1.8430001
-0.20243746 0.43763936 1.8430002
-0.19424635 0.43763936 1.8430002
-0.18655676 0.43429607 1.8430002
-0.17552382 0.43389487 1.8430001
-0.16499238 0.43354383 1.8430001
-0.15533859 0.43266621 1.8430001
-0.14392954 0.43178862 1.8430002
-0.10882477 0.43178859 1.8430001
-0.073720001 0.43178859 1.8430001
-0.057922859 0.43178859 1.8430001
-0.045636192 0.43178862 1.8430002
-0.035104763 0.43412894 1.8430002
-0.023695715 0.43442145 1.8430001
-0.014041906 0.43354386 1.8430002
-0.0052657146 0.43354383 1.8430001
0.0026328573 0.43266621 1.8430001
0.014041906 0.43178862 1.8430002
0.024573334 0.43178862 1.8430002
0.035982378 0.43266621 1.8430001
0.044758573 0.43266621 1.8430001
0.057045236 0.43266621 1.8430001
0.064943805 0.43178859 1.8430001
0.073720008 0.43412894 1.8430002
0.084953532 0.43389487 1.8430001
0.094782859 0.4352991 1.8430002
0.10531428 0.43529907 1.8430002
0.11584571 0.43529904 1.8430002
0.12637715 0.4352991 1.8430002
0.13515332 0.4352991 1.8430002
0.14436835 0.43573791 1.8430002
0.15446095 0.43529907 1.8430002
0.16411476 0.43266621 1.8430001
0.17669398 0.43412894 1.8430002
0.18605526 0.4352991 1.8430002
0.19483143 0.43705428 1.8430001
0.20360759 0.43573791 1.8430002
0.21296887 0.43646926 1.8430002
0.22115999 0.43880951 1.8430001
-0.20711809 0.44231999 1.8430001
0.19658667 0.44407523 1.8430001
0.20360762 0.44319761 1.8430001
0.21413906 0.44583046 1.8430002
0.22423166 0.44583049 1.8430002
0.23169142 0.44583046 1.8430001
0.21413906 0.45636192 1.8430002
0.22423168 0.45592314 1.8430002
0.23169142 0.45460668 1.8430001
0.15446095 0.5037533 1.8430001
-0.15176952 0.42707241 1.853
-0.14471048 0.42707241 1.853
-0.13412192 0.42707241 1.853
-0.12353334 0.42707241 1.853
-0.11470953 0.42707241 1.853
-0.10765047 0.42707241 1.853
-0.095297143 0.42354286 1.853
-0.084708571 0.42354286 1.853
-0.074120007 0.42495471 1.853
-0.063531429 0.42177808 1.853
-0.055295877 0.42471939 1.853
-0.049413335 0.42707241 1.853
0.014118096 0.42707241 1.853
0.098826669 0.42707241 1.853
0.10588571 0.42707241 1.853
0.11470953 0.42707241 1.853
0.16765238 0.42707241 1.853
0.1764762 0.42707241 1.853
0.18706475 0.42707241 1.853
0.19765334 0.42707241 1.853
0.20471239 0.42707241 1.853
0.21177143 0.42707241 1.853
-0.20118286 0.43766096 1.853
-0.19588858 0.43589622 1.853
-0.18529999 0.43060192 1.853
-0.17529969 0.43177843 1.853
-0.16500524 0.43148428 1.853
-0.15529905 0.43060192 1.853
-0.044119049 0.43060192 1.853
-0.035295241 0.43295497 1.853
-0.024706667 0.43295497 1.853
-0.014118096 0.43060192 1.853
-0.0052942857 0.43060192 1.853
0.003529524 0.43060192 1.853
0.03706 0.43060192 1.853
0.045883812 0.43060192 1.853
0.05470762 0.43060192 1.853
0.063531429 0.43060192 1.853
0.074120007 0.43295497 1.853
0.084708571 0.43177843 1.853
0.093532383 0.43060192 1.853
0.10588571 0.43060192 1.853
0.11647429 0.43060192 1.853
0.12353334 0.43060192 1.853
0.13412192 0.43060192 1.853
0.14382809 0.43148431 1.853
0.15529905 0.43060192 1.853
0.16588762 0.43060192 1.853
0.17471144 0.43060192 1.853
0.18353525 0.43060192 1.853
0.1941238 0.43236667 1.853
0.20471238 0.43148428 1.853
0.21600686 0.43342558 1.853
0.22412477 0.43766096 1.853
-0.20824191 0.44119048 1.853
0.22824255 0.44354352 1.853
0.23530158 0.44707307 1.853
0.24000762 0.4464848 1.853
0.23647809 0.45177907 1.853
-0.18452571 0.42937717 1.8630002
-0.17388001 0.42937717 1.8630002
-0.1656 0.42819428 1.8630002
-0.15684687 0.427248 1.8630002
-0.14549144 0.42582858 1.8630002
-0.1348457 0.42582858 1.8630002
-0.12420001 0.42582858 1.8630002
-0.11355428 0.42582858 1.8630002
-0.10468285 0.42582858 1.863
-0.085165717 0.42582858 1.863
-0.074519999 0.42228001 1.863
-0.055002857 0.42582858 1.863
-0.046131432 0.42819428 1.8630002
-0.039034285 0.42937714 1.863
-0.0035485714 0.42937714 1.863
0.0035485714 0.42937717 1.8630002
0.024840003 0.42937717 1.8630002
0.035485715 0.42937717 1.8630002
0.046131428 0.42937717 1.8630002
0.055002857 0.42937714 1.863
0.062100001 0.42937714 1.863
0.086940005 0.42937714 1.863
0.094037145 0.42937714 1.863
0.11710285 0.42582858 1.863
0.12420001 0.42937717 1.8630002
0.1348457 0.42937717 1.8630002
0.14549142 0.42937717 1.8630002
0.15613714 0.42937717 1.8630002
0.16323428 0.42937714 1.863
0.17210571 0.42760286 1.863
0.18275142 0.42937714 1.863
0.19517145 0.42819428 1.8630002
0.20581715 0.42582858 1.8630002
0.21468857 0.42760286 1.863
-0.20404285 0.43647429 1.863
-0.19517145 0.43410859 1.8630002
-0.18097714 0.43292573 1.863
-0.03371143 0.43292573 1.863
-0.026614286 0.43292573 1.863
0.076294288 0.43292573 1.863
0.081617139 0.43292573 1.863
0.22356001 0.43470001 1.863
0.23420572 0.44238859 1.8630002
0.24366859 0.4447543 1.8630002
-0.15340763 0.41741148 1.8730001
-0.14627239 0.41741148 1.8730001
-0.19265144 0.4281143 1.8730001
-0.18551621 0.4281143 1.8730001
-0.17481336 0.4281143 1.8730001
-0.16411048 0.42543861 1.8730001
-0.15519144 0.42276287 1.8730001
-0.14627241 0.42311963 1.8730001
-0.13556954 0.42454672 1.8730001
-0.12486668 0.42454672 1.8730001
-0.11416382 0.42454672 1.8730001
-0.10524476 0.42454672 1.8730001
-0.083839051 0.42454672 1.8730001
-0.074028105 0.4227629 1.8730001
-0.067784764 0.42097908 1.8730001
-0.053514287 0.42454672 1.8730001
-0.046379052 0.42692512 1.8730001
-0.03924381 0.4281143 1.8730001
0.016054288 0.4281143 1.8730001
0.021405715 0.4281143 1.8730001
0.035676192 0.4281143 1.8730001
0.046379052 0.4281143 1.8730001
0.055298097 0.4281143 1.8730001
0.089190483 0.4281143 1.8730001
0.096325725 0.4281143 1.8730001
0.10524476 0.4281143 1.8730001
0.11416382 0.42692512 1.8730001
0.12558021 0.42668724 1.8730001
0.13556953 0.42668724 1.8730001
0.1471643 0.4272224 1.8730001
0.15459684 0.42692512 1.8730001
0.16411048 0.4281143 1.8730001
0.17659715 0.4281143 1.8730001
0.18622974 0.42668724 1.8730001
0.19550553 0.42597374 1.8730001
0.20513812 0.4227629 1.8730001
0.21405715 0.42573592 1.8730001
0.22476003 0.4281143 1.8730001
0.23546287 0.4281143 1.8730001
0.24259812 0.4281143 1.8730001
-0.20513812 0.43524954 1.8730001
-0.19621906 0.4328711 1.8730001
-0.035676192 0.43168193 1.8730001
-0.021405715 0.43168193 1.8730001
-0.014270477 0.43168196 1.8730001
-0.0071352385 0.43168193 1.8730001
0.067784764 0.43168193 1.8730001
0.074920014 0.43168196 1.8730001
0.082055241 0.43168193 1.8730001
0.22565192 0.4325738 1.8730001
0.23546287 0.43569553 1.8730001
0.24616574 0.43168196 1.8730001
0.23724669 0.44238478 1.8730001
0.24438193 0.44238478 1.8730001
-0.15422668 0.41748807 1.8830003
-0.14705333 0.41605335 1.8830001
0.19368002 0.41964003 1.8830001
0.20444003 0.41964003 1.8830001
0.21520001 0.41964003 1.8830001
0.22596002 0.41874337 1.8830001
0.23492669 0.41964003 1.8830001
-0.19368002 0.42681336 1.8830001
-0.18471333 0.42681336 1.8830001
-0.17574668 0.42681336 1.8830001
-0.16319335 0.42322668 1.8830001
-0.14705333 0.42322668 1.8830001
-0.12732667 0.42502004 1.8830001
-0.10042667 0.42681336 1.8830001
-0.089666672 0.42681336 1.8830001
-0.046626668 0.42681336 1.8830001
0.044833332 0.42681336 1.8830001
0.053800002 0.42681336 1.8830001
0.089666672 0.42681336 1.8830001
0.095046669 0.42681336 1.8830001
0.10491001 0.4259167 1.8830001
0.11477335 0.42561781 1.8830001
0.12374 0.42502004 1.8830001
0.13629335 0.42681336 1.8830001
0.14526001 0.42681336 1.8830001
0.15602002 0.42502004 1.8830001
0.16498668 0.42681336 1.8830001
0.17574668 0.42681336 1.8830001
0.18471333 0.42502004 1.8830001
0.19368002 0.42322668 1.8830001
0.20085335 0.42322668 1.8830001
0.21609668 0.42412338 1.8830001
0.22596002 0.42502004 1.8830003
0.23492669 0.42502004 1.8830001
0.24150226 0.42561781 1.8830001
-0.20444001 0.43309003 1.8830001
-0.19726668 0.43040004 1.8830001
-0.034073338 0.43219337 1.8830001
-0.026900001 0.43398669 1.8830001
-0.01076 0.43040004 1.8830001
-0.0053800005 0.43040004 1.8830001
0.0035866671 0.43040007 1.8830001
0.01076 0.43040004 1.8830001
0.026900001 0.43040004 1.8830001
0.03586667 0.43040004 1.8830001
0.060973335 0.43040004 1.8830001
0.084286667 0.43040004 1.8830001
0.23672001 0.43398669 1.8830001
0.24568668 0.43757334 1.8830001
0.25106668 0.43757334 1.8830001
0.24568668 0.44116005 1.8830001
0.25106668 0.44295338 1.8830001
0.19481143 0.41848382 1.8940001
0.20563428 0.41848382 1.8940001
0.21465334 0.41848382 1.8940001
0.22186857 0.41848382 1.8940001
0.23269144 0.41848382 1.8940001
-0.20383048 0.42930666 1.8940001
-0.16595048 0.42389524 1.8940001
-0.1334819 0.42569906 1.8940001
-0.12265905 0.42569906 1.8940001
-0.043291431 0.42930666 1.8940001
-0.039683808 0.42930666 1.8940001
0.0072152382 0.42930666 1.8940001
0.014430476 0.42930669 1.8940001
0.025253333 0.42930669 1.8940001
0.03788 0.42930666 1.8940001
0.043291431 0.42569906 1.8940001
0.061329525 0.42930666 1.8940001
0.086582862 0.42930666 1.8940001
0.095601909 0.42569906 1.8940001
0.10462096 0.4244965 1.8940001
0.11544381 0.4244965 1.8940001
0.12626667 0.42569906 1.8940001
0.13528571 0.42569906 1.8940001
0.14430477 0.42569908 1.8940001
0.15512761 0.4244965 1.8940001
0.16504857 0.42479712 1.8940001
0.17496952 0.42569906 1.8940001
0.18398857 0.4244965 1.8940001
-0.2056343 0.43291429 1.8940001
-0.032468572 0.43291429 1.8940001
-0.025253337 0.43291432 1.8940001
-0.016234286 0.43291429 1.8940001
0.066740952 0.43291429 1.8940001
0.075759999 0.43291432 1.8940001
0.29557335 0.25749335 1.904
0.30101332 0.25749335 1.904
-0.16320001 0.41706666 1.904
-0.19946666 0.42794669 1.904
-0.17408 0.42794669 1.904
-0.16561779 0.42190227 1.904
-0.14144 0.42794669 1.904
-0.13781334 0.42794669 1.904
-0.12693334 0.42794669 1.904
0.056213334 0.42794669 1.904
0.08704 0.42794669 1.904
0.090666667 0.42794669 1.904
0.10336 0.42432001 1.904
0.11424001 0.42432001 1.904
0.12512 0.42432001 1.904
0.14506668 0.42432001 1.904
0.15594667 0.42432001 1.904
0.16682667 0.42432001 1.904
0.17408 0.42432004 1.904
0.18496001 0.42250666 1.904
-0.21034667 0.43157333 1.904
-0.03626667 0.43157333 1.904
-0.029013334 0.43157333 1.904
-0.01088 0.43157333 1.904
-0.00544 0.43157333 1.904
0.0018133334 0.43157333 1.904
0.032639999 0.43157333 1.904
0.067093335 0.43157333 1.904
0.076160006 0.43157333 1.904
0.083413333 0.43157333 1.904
0.29728097 0.2298 1.9150001
0.29728097 0.23344763 1.9150001
0.29728097 0.2480381 1.9150001
0.25898096 0.25350952 1.9150001
0.27721906 0.25898096 1.9150001
0.28451428 0.25898096 1.9150001
0.29618669 0.25460383 1.9150002
0.30275241 0.25350952 1.9150001
0.2881619 0.26262859 1.9150001
0.29545715 0.2644524 1.9150002
0.30275241 0.2644524 1.9150001
0.27357143 0.32828572 1.9150001
0.27357143 0.33375716 1.9150001
0.20426667 0.41947621 1.9150001
0.21885714 0.41947621 1.9150001
0.22615239 0.41947621 1.9150002
-0.20061906 0.42677143 1.9150001
-0.17265397 0.42555556 1.9150002
0.094838098 0.42677146 1.9150002
0.1349619 0.42677146 1.9150002
0.14590478 0.42677143 1.9150001
0.16414288 0.42312384 1.9150002
0.17508572 0.42312384 1.9150002
0.18238096 0.42312384 1.9150001
-0.20609048 0.43041909 1.9150001
-0.19697143 0.43041909 1.9150001
-0.18602857 0.43041909 1.9150002
-0.17873335 0.43041909 1.9150001
-0.12037143 0.43041909 1.9150001
-0.11490001 0.43041909 1.9150001
-0.032828573 0.43406668 1.9150001
-0.023709524 0.43406668 1.9150001
-0.016414287 0.43406668 1.9150001
0.0072952383 0.43041909 1.9150001
0.014590478 0.43041909 1.9150002
0.021885715 0.43041909 1.9150001
0.047419049 0.43041909 1.9150001
0.051066671 0.43041909 1.9150001
0.065657146 0.43041909 1.9150001
0.074776188 0.43041909 1.9150001
0.082071431 0.43041909 1.9150001
0.01532 0.53838861 1.9150002
0.025533333 0.53802383 1.9150002
0.034652382 0.53802383 1.9150001
0.040123809 0.53802383 1.9150001
0.0036476194 0.54531908 1.9150002
0.014590478 0.54531908 1.9150002
0.024621429 0.54440719 1.9150001
0.034652382 0.5434953 1.9150001
0.043771431 0.5434953 1.9150002
0.014590478 0.55079049 1.9150002
0.24444446 0.23711114 1.9250001
0.25666666 0.23650001 1.9250001
0.26033333 0.23650001 1.9250001
0.2464 0.24346666 1.9250001
0.25666666 0.24566668 1.9250001
0.26124999 0.24658334 1.9250001
0.27866668 0.24933335 1.9250001
0.2957778 0.24566668 1.9250001
0.30066669 0.24383333 1.9250001
0.25666666 0.25300002 1.9250001
0.26583332 0.25483334 1.9250001
0.2759167 0.25575 1.9250001
0.28600001 0.25483334 1.9250001
0.29333332 0.25483334 1.9250001
0.26445833 0.26354167 1.9250001
0.27454168 0.26445833 1.9250001
0.28538892 0.26522225 1.9250001
0.26504761 0.27500001 1.9250002
0.27500001 0.27500001 1.9250001
0.28600001 0.27500001 1.9250001
0.29516667 0.27500004 1.9250001
0.30250001 0.27500004 1.9250001
0.26546666 0.2852667 1.9250001
0.27545837 0.28554168 1.9250001
0.28477782 0.28477782 1.9250001
0.29516667 0.28416669 1.9250001
0.30213335 0.2852667 1.9250001
0.264 0.29333332 1.9250001
0.27866668 0.29516667 1.9250001
0.28233334 0.29516667 1.9250001
0.27866668 0.30066669 1.9250001
0.28233334 0.30066669 1.9250001
0.26766667 0.31900001 1.9250001
0.27500001 0.31900001 1.9250001
0.28673336 0.31753334 1.9250001
0.26583332 0.32449999 1.9250001
0.27500004 0.32450002 1.9250001
0.2852667 0.32413337 1.9250001
0.26766667 0.32999998 1.9250001
0.27500004 0.33366668 1.9250001
0.28380001 0.33293334 1.9250001
0.27866668 0.34100002 1.9250001
0.28233334 0.34100002 1.9250001
0.20533335 0.41800001 1.9250001
0.22366667 0.41800004 1.9250001
-0.17783333 0.42716667 1.9250001
0.012833334 0.42900002 1.9250001
0.022 0.42900002 1.9250001
0.058666669 0.42900002 1.9250001
0.075166672 0.42900002 1.9250001
0.08433333 0.42900002 1.9250001
0.1155 0.42533332 1.9250001
0.121 0.42533332 1.9250001
0.19800001 0.42166668 1.9250001
0.20533334 0.42166668 1.9250001
0.21450001 0.42166668 1.9250001
-0.19433333 0.43266669 1.9250001
-0.044 0.43266672 1.9250001
-0.034833334 0.43266669 1.9250001
-0.025666669 0.43266672 1.9250001
-0.014666667 0.43266672 1.9250001
-0.0055 0.43266669 1.9250001
0.0018333334 0.43266669 1.9250001
0.025666667 0.43266669 1.9250001
0.040333334 0.43266669 1.9250001
0.066 0.43266669 1.9250001
-0.0048888894 0.55244452 1.9250001
0.0036666668 0.55550003 1.9250001
0.014666667 0.55733335 1.9250001
0.026125003 0.55412501 1.9250001
0.034833334 0.55366671 1.9250001
0.044523813 0.55366671 1.9250002
0.051333334 0.55550003 1.9250001
0.0055 0.56100005 1.9250001
0.01375 0.56191671 1.9250001
0.024444446 0.56222224 1.9250001
0.034833334 0.56466675 1.9250001
0.044 0.56466669 1.9250001
0.052250002 0.56466669 1.9250001
0.042166665 0.57200003 1.9250001
0.25628954 0.21756953 1.9360001
0.25628957 0.2249448 1.9360001
0.26550859 0.2249448 1.936
0.27411306 0.22494477 1.9360002
0.24522668 0.23416382 1.9360001
0.25339216 0.23548086 1.9360001
0.26458669 0.23508573 1.9360001
0.29869714 0.23969524 1.9360001
0.3042286 0.23969524 1.9360001
0.25444573 0.24522668 1.9360001
0.2673524 0.24522668 1.9360001
0.27534226 0.24584129 1.9360002
0.28302476 0.24614859 1.9360001
0.29378033 0.24584129 1.9360002
0.30607238 0.24338287 1.9360001
0.25444573 0.25075811 1.9360001
0.26919618 0.25075811 1.9360001
0.27472764 0.25260192 1.9360001
0.2857905 0.25075811 1.9360001
0.29132193 0.25075811 1.9360001
0.26182097 0.26919618 1.9360001
0.26182097 0.27288383 1.9360001
0.26182097 0.28394669 1.9360002
0.29132193 0.28763431 1.9360001
0.26612321 0.29500955 1.9360001
0.2743589 0.29574704 1.9360001
0.28763431 0.29500955 1.9360002
0.29378033 0.29439497 1.9360001
0.2673524 0.30607238 1.9360001
0.27509642 0.30533487 1.9360001
0.28447348 0.30712599 1.9360001
0.29224384 0.30515051 1.9360001
0.26919618 0.31529146 1.9360001
0.27472764 0.31529146 1.9360001
0.28320917 0.31492269 1.9360001
0.29132193 0.31344765 1.9360001
0.26550859 0.32082286 1.9360001
0.27288383 0.32082286 1.9360001
0.28025904 0.32082286 1.9360001
0.22310096 0.41670096 1.9360001
0.097721912 0.42776385 1.9360001
0.10509715 0.42776385 1.9360001
0.11431621 0.42530543 1.9360002
0.12537906 0.42653462 1.9360002
0.15488002 0.42776388 1.9360002
0.16225524 0.4240762 1.9360001
0.18806858 0.4240762 1.9360001
0.19360001 0.4240762 1.9360001
0.20650668 0.42038858 1.9360001
0.21572572 0.42038858 1.9360001
-0.19544384 0.43145144 1.9360002
-0.18622477 0.43145144 1.9360001
-0.14750476 0.43145144 1.9360001
-0.11062858 0.43513906 1.9360001
-0.10509715 0.43513906 1.9360001
-0.096615627 0.43661413 1.9360001
-0.084815249 0.43513906 1.9360002
-0.064533338 0.43513906 1.9360001
-0.012906667 0.43145144 1.9360001
-0.0036876192 0.43145144 1.9360001
0.0036876192 0.43145144 1.9360002
0.018438095 0.43145144 1.9360001
0.027657144 0.43329525 1.9360001
0.035032384 0.43513906 1.9360001
0.064533338 0.43145144 1.9360001
0.070064761 0.43145144 1.9360001
0.042407621 0.55683053 1.9360001
-0.0049168258 0.56174731 1.9360002
0.0036876192 0.56666416 1.9360002
0.016594287 0.56789333 1.9360001
0.027042542 0.56666416 1.9360002
0.014750477 0.57158101 1.9360002
0.029500954 0.57158101 1.9360001
0.2484743 0.22993144 1.9470001
0.25218287 0.22807716 1.9470001
0.2769067 0.22622287 1.9470003
0.28463286 0.22807717 1.9470001
0.29668573 0.22993144 1.9470001
0.3022486 0.22993144 1.9470001
0.2744343 0.2354943 1.9470001
0.28432381 0.2348762 1.9470003
0.29668573 0.2354943 1.9470001
0.27443433 0.24198431 1.9470001
0.28648716 0.24291146 1.9470001
0.29421338 0.24229336 1.9470003
0.25960001 0.28741431 1.9470001
0.25960001 0.29483145 1.9470001
0.29668573 0.29668573 1.9470001
0.30039433 0.29668573 1.9470001
0.26330858 0.3041029 1.9470003
0.30039433 0.30039433 1.9470001
0.26578099 0.31522861 1.9470003
0.27443433 0.31152004 1.9470001
0.20397145 0.4190686 1.9470001
0.21138859 0.4190686 1.9470001
0.12980001 0.42648575 1.9470001
0.15576002 0.42648575 1.9470003
0.16688572 0.42648575 1.9470001
0.17430288 0.42648575 1.9470003
0.18357429 0.42648575 1.9470001
0.20026287 0.42277718 1.9470001
-0.19470002 0.43019432 1.9470001
-0.18357429 0.43019432 1.9470001
-0.14278001 0.43390286 1.9470001
-0.12980001 0.43390286 1.9470001
-0.081588574 0.43390286 1.9470001
-0.055628575 0.43761146 1.9470003
-0.0074171433 0.43390286 1.9470001
0.0037085717 0.43019432 1.9470001
0.029668573 0.43390286 1.9470001
0.03523143 0.43390286 1.9470001
0.044502862 0.43390286 1.9470003
0.05377429 0.43390286 1.9470001
0.092714287 0.43019432 1.9470001
0.13536286 0.43019432 1.9470001
0.14463429 0.43019432 1.9470001
-0.0074171433 0.56741148 1.9470001
0.0074171433 0.57482862 1.9470001
0.02596 0.57482862 1.9470001
0.24987811 0.2256362 1.9580001
0.2536076 0.22377144 1.9580001
0.28344381 0.22750096 1.9580001
0.29090285 0.2256362 1.9580001
0.30395621 0.22750096 1.9580001
0.27598476 0.23682477 1.9580001
0.28717333 0.23682477 1.9580001
0.29370001 0.23589239 1.9580001
0.28717333 0.24241905 1.9580001
0.26106665 0.305821 1.9580001
0.21258286 0.41770667 1.9580001
-0.082049526 0.42516571 1.9580001
-0.078319997 0.42516571 1.9580001
0.11188572 0.42889526 1.9580001
0.1268038 0.42889526 1.9580001
0.13612762 0.42889526 1.9580001
0.1417219 0.42889526 1.9580001
0.17528763 0.42516574 1.9580001
0.18461142 0.42516571 1.9580001
0.19393525 0.42516574 1.9580001
0.20885333 0.42143622 1.9580001
0.21631238 0.42143622 1.9580001
0.22004192 0.42143622 1.9580001
-0.20139429 0.43262476 1.9580001
-0.19020571 0.43262476 1.9580001
-0.13426286 0.43635431 1.9580001
-0.12493904 0.43635431 1.9580001
-0.095102862 0.43635431 1.9580001
-0.085779056 0.43511114 1.9580001
-0.074590474 0.43635434 1.9580001
-0.065266669 0.43635431 1.9580001
-0.044008382 0.43486246 1.9580001
-0.033565715 0.43635431 1.9580001
-0.029836191 0.43635431 1.9580001
-0.0055942857 0.43262476 1.9580001
0.0037295239 0.43262476 1.9580001
0.14545143 0.43262476 1.9580001
-0.0037295239 0.57434666 1.9580001
0 0.57434666 1.9580001
0.28878668 0.22690383 1.9690001
0.29628763 0.22877906 1.9690001
0.3000381 0.22877906 1.9690001
0.21565239 0.41630286 1.9690001
0.2212781 0.41630286 1.9690001
0.13689238 0.42755431 1.9690001
0.15564477 0.42755431 1.9690001
0.16502096 0.42755431 1.9690001
0.1912743 0.42380384 1.9690001
0.20440096 0.42192858 1.9690001
0.21377715 0.42005336 1.9690001
0.22315335 0.42005336 1.9690001
-0.20627619 0.43505526 1.9690001
-0.19502477 0.43130478 1.9690001
-0.18377334 0.43130478 1.9690002
-0.14439334 0.43505526 1.9690001
-0.13876763 0.43880573 1.9690001
-0.12001524 0.43880573 1.9690001
-0.11251429 0.43880573 1.9690001
-0.10501334 0.43880576 1.9690002
-0.091886669 0.43505526 1.9690001
-0.085010797 0.43255496 1.9690002
-0.075009525 0.43318003 1.9690001
-0.063008003 0.43505526 1.9690001
-0.054381907 0.43693048 1.9690001
-0.045005716 0.43318003 1.9690001
-0.033754289 0.4363054 1.9690002
-0.024378097 0.43880573 1.9690001
-0.015001906 0.4363054 1.9690002
-0.0037504763 0.43130478 1.9690001
0.0037504765 0.43130478 1.9690002
0.011251429 0.43505526 1.9690001
0.084385723 0.43505526 1.9690001
0.090011433 0.43505526 1.9690001
0.1031381 0.43130478 1.9690001
0.14626858 0.43130478 1.9690001
0.15001905 0.43130478 1.9690001
-0.0075009526 0.57757336 1.9690001
0.0037504763 0.5813238 1.9690001
0.20742859 0.4186286 1.9800001
0.21120001 0.4186286 1.9800001
-0.064114295 0.42994288 1.9800001
0.12445715 0.42994288 1.9800001
0.1433143 0.42994288 1.9800001
0.15085715 0.42994288 1.9800001
0.16594286 0.42994288 1.9800001
0.17537144 0.42617145 1.9800001
0.18480001 0.42617148 1.9800003
0.19800001 0.42617145 1.9800001
0.20365715 0.42240003 1.9800001
-0.20554286 0.4337143 1.9800001
-0.1961143 0.4337143 1.9800001
-0.15085715 0.43748575 1.9800001
-0.13577144 0.43748578 1.9800003
-0.10371429 0.43748575 1.9800001
-0.094285727 0.43497145 1.9800003
-0.067885719 0.4337143 1.9800001
-0.056571431 0.4337143 1.9800001
-0.045257147 0.4337143 1.9800001
-0.037714288 0.43748575 1.9800001
-0.022628574 0.43748575 1.9800001
-0.0075428574 0.4337143 1.9800001
0.026400002 0.43748575 1.9800001
0.032057144 0.43748575 1.9800001
0.043371432 0.43748575 1.9800001
0.052800003 0.43748575 1.9800001
0.066000007 0.43748575 1.9800001
0.071657151 0.43748575 1.9800001
0.10937144 0.4337143 1.9800001
-0.11691429 0.44125718 1.9800001
-0.0037714287 0.58457148 1.9800001
0 0.58457148 1.9800001
0.2997486 0.22765715 1.9920001
0.30544001 0.22765715 1.9920001
0.16315429 0.4287543 1.9920001
0.17074287 0.4287543 1.9920001
0.18781716 0.42496002 1.9920001
0.19540572 0.42496002 1.9920001
0.20299429 0.42306286 1.9920001
-0.17643431 0.4363429 1.9920001
-0.14797714 0.4363429 1.9920001
-0.11193143 0.4363429 1.9920001
-0.10434286 0.4363429 1.9920001
-0.098651432 0.4363429 1.9920001
-0.060708575 0.43254858 1.9920001
-0.049325716 0.4363429 1.9920001
0.087268576 0.4363429 1.9920001
0.094857149 0.4363429 1.9920001
0.10244572 0.43254858 1.9920001
0.11382858 0.43254858 1.9920001
0.12521143 0.43254858 1.9920001
0.1328 0.43254858 1.9920001
0.14797714 0.43254858 1.9920001
-0.12521145 0.44013715 1.9920001
-0.11382858 0.44013715 1.9920001
-0.01897143 0.44013715 1.9920001
0.015177144 0.44013715 1.9920001
0.022765715 0.44013715 1.9920001
0.03794286 0.44013715 1.9920001
0.049325716 0.44013715 1.9920001
0.077782862 0.44013715 1.9920001
-0.0075885719 0.58811432 1.9920001
0.0056914287 0.59190857 1.9920001
0.013280001 0.59190857 1.9920001
0.20793048 0.41967618 2.003
0.21365333 0.41967618 2.003
0.17550096 0.42730665 2.003
0.18313143 0.42730665 2.003
0.19457714 0.42349145 2.003
0.20220762 0.42349145 2.003
-0.20220762 0.43493712 2.003
-0.19457714 0.43493712 2.003
-0.18503904 0.43493712 2.003
-0.15260953 0.43875238 2.003
-0.14307143 0.43875238 2.003
-0.13544096 0.43875238 2.003
-0.12590286 0.43875238 2.003
-0.11827239 0.43875238 2.003
-0.091565713 0.43493712 2.003
-0.087750472 0.43493712 2.003
-0.074397147 0.43493712 2.003
-0.06104381 0.43875238 2.003
-0.055320952 0.43684477 2.003
-0.013353334 0.43875238 2.003
0.034337144 0.43875238 2.003
0.045782857 0.43875238 2.003
0.068674289 0.43875238 2.003
0.082027614 0.43875238 2.003
0.095380954 0.43493712 2.003
0.10682666 0.43493712 2.003
0.11445715 0.43493712 2.003
0.15642476 0.43112192 2.003
0.16405523 0.43112192 2.003
-0.026706666 0.44256762 2.003
0.019076191 0.44256762 2.003
0.057228573 0.44256762 2.003
0.06104381 0.44256762 2.003
-0.011445714 0.59136188 2.003
-0.0057228571 0.59517717 2.003
0.0038152381 0.59772062 2.003
0.015260953 0.59899247 2.003
0.022891428 0.59899241 2.003
0.011445714 0.60471523 2.003
0 0.61806858 2.003
0.032429524 0.61806858 2.003
-0.0038152381 0.62569904 2.003
0.0027251702 0.62569904 2.0030003
0.011445714 0.62569904 2.003
0.032429524 0.62379146 2.003
0.024799047 0.64477527 2.0030003
0.030521905 0.64286757 2.003
0.022891428 0.66003621 2.003
0.032429527 0.66385144 2.0030003
0.036244765 0.67720473 2.003
0.041967619 0.67911237 2.003
0.036880638 0.68419945 2.003
0.041967619 0.68483526 2.003
0.013353334 0.77830857 2.003
0.014307143 0.78498524 2.003
0.015260953 0.79547715 2.003
0.019076191 0.8469829 2.003
0.022891428 0.8469829 2.003
0.019076191 0.85079807 2.003
0.022891428 0.85079807 2.003
0.20533811 0.4183524 2.0150001
0.21109524 0.4183524 2.0150001
0.10746667 0.42986667 2.0150001
0.16631748 0.42858732 2.0150001
0.17463334 0.42602858 2.0150001
0.18346095 0.42449337 2.0150001
0.19574288 0.42219052 2.0150001
0.20341906 0.42219049 2.0150001
-0.20725715 0.43754286 2.0150001
-0.14776668 0.43754286 2.0150001
-0.13433333 0.43754286 2.0150001
-0.12281905 0.43754286 2.0150001
-0.11514287 0.43754286 2.0150001
-0.10554762 0.43754286 2.0150001
-0.097871438 0.43754286 2.0150001
0.086357147 0.43754286 2.0150001
0.094033331 0.43370476 2.0150001
0.10554762 0.43370476 2.0150001
0.15352382 0.43370476 2.0150001
-0.15736191 0.44138095 2.0150001
-0.023028571 0.44138095 2.0150001
-0.019190477 0.44138095 2.0150001
0.024947619 0.44138095 2.0150001
0.034542859 0.44138095 2.0150001
0.055652384 0.44138095 2.0150001
0.063328572 0.44138095 2.0150001
0.074842863 0.44138095 2.0150001
-0.015352381 0.59490478 2.0150001
-0.0057571428 0.60450006 2.0150001
0.0028785714 0.60545957 2.0150001
0.017271429 0.60641909 2.0150001
0.024947619 0.60641909 2.0150001
-0.0057571433 0.61409521 2.0150003
0.0038380953 0.61409521 2.0150001
0.015832143 0.61457503 2.0150001
0.024947617 0.61409521 2.0150003
0.030704763 0.6160143 2.0150001
-0.011514287 0.62560952 2.0150001
-0.0067166667 0.62465 2.0150001
0.0063968254 0.62305081 2.0150001
0.015832143 0.62512976 2.0150001
0.024947619 0.62560958 2.0150003
-0.023028571 0.63520479 2.0150001
-0.01535238 0.63558859 2.0150001
-0.0063968259 0.63584447 2.0150001
0.0047976188 0.63616431 2.0150001
0.015352381 0.63520479 2.0150003
0.024947619 0.63520479 2.0150001
0.032623813 0.63520479 2.0150001
-0.023028573 0.64479995 2.0150001
-0.014872619 0.64527977 2.0150001
-0.0057571433 0.64480001 2.0150003
0.0038380953 0.64480001 2.0150001
0.015352381 0.64480001 2.0150001
0.024947619 0.64096189 2.0150001
0.030704763 0.64096189 2.0150001
-0.0038380953 0.65439522 2.0150001
0.0038380953 0.65439528 2.0150003
0.015352381 0.65439528 2.0150003
0.024947619 0.65631431 2.0150001
-0.0038380953 0.66207147 2.0150001
0.0038380953 0.66399056 2.0150001
0.015352381 0.66399056 2.0150001
0.025331426 0.6639905 2.0150001
0.0043178573 0.6755048 2.0150001
0.015352381 0.6755048 2.0150001
0.024947617 0.67550486 2.0150003
0.031984132 0.67678422 2.0150001
-0.0038380953 0.68510008 2.0150001
0.0038380953 0.68510008 2.0150003
0.015352382 0.68510008 2.0150003
0.024947619 0.68510002 2.0150001
0.030704763 0.68510008 2.0150001
0.0076761907 0.69469535 2.0150001
0.015352381 0.69469529 2.0150001
0.024307936 0.69213653 2.0150001
0.03377524 0.69316 2.0150001
0.04221905 0.69469529 2.0150001
0.0038380953 0.72923809 2.0150001
0.011514286 0.72156191 2.0150001
0.0057571428 0.73499525 2.0150001
0.011514286 0.73499525 2.0150001
0.0043178573 0.74459052 2.0150001
0.011514286 0.74267149 2.0150001
-0.013433333 0.75994289 2.0150001
-0.0057571428 0.75994289 2.0150001
0.0038380953 0.75610483 2.0150001
0.012473809 0.75706428 2.0150001
-0.019190477 0.76761907 2.0150001
-0.0051174606 0.76506031 2.0150001
0.0038380953 0.76570004 2.0150003
0.013433333 0.76570004 2.0150001
-0.01688762 0.77452767 2.0150001
-0.0038380953 0.77337623 2.0150001
0.0043178573 0.7748155 2.0150001
0.015352381 0.77529526 2.0150001
0.024947619 0.77529526 2.0150003
0.033583336 0.7781738 2.0150001
0.0057571428 0.78489053 2.0150001
0.019190477 0.78489053 2.0150001
0.024947617 0.78489053 2.0150001
0.03377524 0.78450674 2.0150001
-0.0038380953 0.79832387 2.0150001
0.0043178573 0.79496551 2.0150001
0.015352381 0.79448575 2.0150003
0.026866667 0.79448581 2.0150001
0.032623813 0.79832387 2.0150001
-0.0051174606 0.80472064 2.0150001
0.0043863948 0.80490357 2.0150003
0.016120002 0.80523247 2.0150001
0.024947619 0.80216193 2.0150001
0.032623813 0.80216193 2.0150001
-0.0057571428 0.8175143 2.0150001
0.0076761907 0.81559527 2.0150001
0.01612 0.81597912 2.0150001
0.023028571 0.81367624 2.0150001
-0.0057571428 0.83670479 2.0150001
0.0019190477 0.83670479 2.0150001
0.015352381 0.83670479 2.0150001
0.023028571 0.83478576 2.0150001
0.032623813 0.83670479 2.0150001
-0.0038380953 0.8482191 2.0150001
0.0038380953 0.84438092 2.0150001
0.015352383 0.84438092 2.0150001
0.024947619 0.84438097 2.0150003
0.032623813 0.84438097 2.0150003
-0.0038380953 0.85397625 2.0150001
0.0038380953 0.85397619 2.0150003
0.013433333 0.85397625 2.0150001
0.026866667 0.85397625 2.0150001
0.032623813 0.85397625 2.0150001
0.20656097 0.41698289 2.0270002
0.16988192 0.42856577 2.0270002
0.17567335 0.42470479 2.0270002
0.1872562 0.42277431 2.0270002
0.1949781 0.42084384 2.0270002
0.20076953 0.42084384 2.0270002
-0.2123524 0.43628767 2.0270002
-0.20463049 0.4362877 2.0270002
-0.1949781 0.43628767 2.0270002
-0.1872562 0.43628767 2.0270002
-0.15636858 0.43628767 2.0270002
-0.081080012 0.43628767 2.0270002
0.088801913 0.43628767 2.0270002
0.092662863 0.43242669 2.0270002
0.10231524 0.43435717 2.0270002
0.11196762 0.43628767 2.0270002
0.12355049 0.43628767 2.0270002
0.15829906 0.43242669 2.0270002
0.16216002 0.43242669 2.0270002
-0.2123524 0.44014859 2.0270002
-0.18146478 0.44014859 2.0270002
-0.17567335 0.44014859 2.0270002
-0.16602099 0.44207907 2.0270004
-0.15636858 0.44014859 2.0270002
-0.14285526 0.44014859 2.0270002
-0.13513336 0.44014859 2.0270002
-0.12741144 0.44014859 2.0270002
-0.044400956 0.44014859 2.0270002
-0.036679052 0.44207907 2.0270002
-0.027026668 0.44400957 2.0270002
0.017374288 0.44400957 2.0270002
0.036679052 0.44014859 2.0270002
0.077219054 0.44014859 2.0270002
0.081080012 0.44014859 2.0270002
-0.012869842 0.60359561 2.0270002
-0.013513334 0.61389154 2.0270004
-0.01654694 0.62492287 2.0270004
-0.023165716 0.63319623 2.0270002
-0.016730797 0.63448322 2.0270002
-0.019304764 0.64477909 2.0270002
-0.023165716 0.65636194 2.0270002
-0.015443812 0.65636194 2.0270002
-0.0077219056 0.65636194 2.0270002
-0.023165716 0.66022289 2.0270002
-0.014340682 0.66353238 2.0270004
-0.0077219061 0.6640839 2.0270002
-0.005791429 0.67566675 2.0270004
0 0.6795277 2.0270002
-0.013513334 0.6872496 2.0270002
-0.0064349212 0.68467557 2.0270002
-0.025096193 0.69883239 2.0270002
-0.014340682 0.69552308 2.0270004
-0.0061775246 0.69574368 2.0270002
0.0019304764 0.69690192 2.0270002
0.027026668 0.69883239 2.0270002
-0.027026668 0.7026934 2.0270002
-0.012869842 0.70526737 2.0270002
-0.005791429 0.70462388 2.0270002
0.0030887623 0.70501 2.0270002
0.015443812 0.70655435 2.0270002
0.025096193 0.70462388 2.0270002
0.033976387 0.70423782 2.0270002
0.042470481 0.7026934 2.0270002
-0.023165716 0.71427625 2.0270002
-0.01544381 0.71427625 2.0270002
-0.0057914294 0.71427625 2.0270004
0.0038609526 0.71427625 2.0270002
0.015443812 0.71427625 2.0270002
0.024452701 0.71170229 2.0270002
0.032818101 0.7104153 2.0270002
-0.023165716 0.72585911 2.0270002
-0.013513334 0.72585911 2.0270004
-0.005791429 0.72585911 2.0270004
0.0043435721 0.72634172 2.0270002
0.013513334 0.72682434 2.0270002
-0.023165716 0.73358101 2.0270002
-0.014478574 0.73454624 2.0270002
-0.0064349212 0.73486799 2.0270002
0.0025739686 0.73486799 2.0270002
0.014156826 0.73486799 2.0270002
-0.023165716 0.74516386 2.0270002
-0.014340682 0.74516386 2.0270004
-0.005791429 0.74709433 2.0270002
0 0.74516386 2.0270002
0.015443812 0.74516386 2.0270002
0.023165716 0.74902481 2.0270002
-0.013513334 0.75481629 2.0270002
-0.005791429 0.75481629 2.0270002
0.015443811 0.75481629 2.0270002
0.025096193 0.75481629 2.0270002
-0.023165716 0.76832962 2.0270002
-0.014671621 0.76524085 2.0270002
-0.0057914294 0.76060766 2.0270002
0.01801778 0.76446867 2.0270002
-0.023165716 0.77219051 2.0270002
-0.012548096 0.77508622 2.0270002
-0.0077219061 0.77605152 2.0270002
0.019304764 0.77219051 2.0270002
0.025096193 0.77219051 2.0270002
0.034748577 0.777982 2.0270002
-0.0038609528 0.7857039 2.0270002
0 0.7857039 2.0270002
-0.0051479372 0.79664326 2.0270002
0 0.7934258 2.0270002
0.023165716 0.79728675 2.0270002
0.032818098 0.79728675 2.0270002
-0.011582858 0.80693913 2.0270002
-0.0077219056 0.80500865 2.0270002
0.023165716 0.80307811 2.0270002
-0.013127239 0.81466103 2.0270002
-0.005791429 0.8165915 2.0270002
0.0019304764 0.8165915 2.0270002
0.011582858 0.81466103 2.0270002
-0.013513334 0.8243134 2.0270002
-0.0057914294 0.82624388 2.0270002
0.003860953 0.82366991 2.0270002
0.015443812 0.82624388 2.0270002
-0.0061775241 0.83473796 2.0270002
0.0038609526 0.83396578 2.0270002
0.015443811 0.83396578 2.0270002
0.025096193 0.83589625 2.0270002
0.032818101 0.83782673 2.0270002
-0.011582858 0.84168768 2.0270002
-0.005791429 0.8474791 2.0270002
0.0077219056 0.84168768 2.0270002
0.015443811 0.84168768 2.0270002
0.027026668 0.84168768 2.0270002
-0.0077219056 0.85520101 2.0270002
-0.0077219056 0.86099249 2.0270002
0.16700381 0.42721906 2.039
0.17477143 0.42527717 2.039
0.18253905 0.42333525 2.039
0.19030666 0.42333525 2.039
-0.21360953 0.43498668 2.039
