# .PCD v0.7 - Point Cloud Data file format
VERSION 0.7
FIELDS x y z
SIZE 4 4 4
TYPE F F F
COUNT 1 1 1
WIDTH 1497
HEIGHT 1
VIEWPOINT 0 0 0 1 0 0 0
POINTS 1497
DATA ascii
0.098971434 0.33485335 1.7320001
0.10392001 0.33485335 1.7320001
0.1171162 0.33485335 1.7320001
0.12206478 0.33320382 1.7320001
-0.0065980954 0.46351621 1.7320001
-0.0032990477 0.47176382 1.7320001
0.11606666 0.24318731 1.7410001
0.12667847 0.24672456 1.7410001
0.13596383 0.2487143 1.7410001
0.14259619 0.24871428 1.7410001
0.097827628 0.25534666 1.7410001
0.13928001 0.25203049 1.7410001
0.1442543 0.25534666 1.7410001
0.088431746 0.26750606 1.7410001
0.095506296 0.26463205 1.7410001
0.14922857 0.26197904 1.7410001
0.15254477 0.26363713 1.7410001
0.086635478 0.27565834 1.7410001
0.092853338 0.27524382 1.7410001
0.086220957 0.2851924 1.7410001
0.092853338 0.28519237 1.7410001
0.084894478 0.29447773 1.7410001
0.097827621 0.30674762 1.7410001
0.1028019 0.30508953 1.7410001
0.1061181 0.31545264 1.7410001
0.11654041 0.31598559 1.7410002
0.12435713 0.31586716 1.7410001
0.10694714 0.32332855 1.7410001
0.11275048 0.32332858 1.7410001
0.12933142 0.32830286 1.7410001
0.13596383 0.32830286 1.7410001
0.10943429 0.33493528 1.7410001
0.11275048 0.33327717 1.7410001
0.12696272 0.33540899 1.7410002
0.13264762 0.33161905 1.7410001
0.099485718 0.34156764 1.7410001
0.1061181 0.34156764 1.7410001
0.11827746 0.34267303 1.7410001
0.12684429 0.34239668 1.7410001
0.14922857 0.38136193 1.7410001
-0.014922857 0.45597622 1.7410001
-0.0062178569 0.45473263 1.7410001
0.0016580953 0.45597622 1.7410001
-0.036478098 0.46592474 1.7410001
-0.015475555 0.46316129 1.7410001
-0.0066323811 0.46379289 1.7410002
0.0029016668 0.46468118 1.7410001
-0.036478098 0.47421527 1.7410001
-0.029845715 0.47753143 1.7410001
-0.013264762 0.47421527 1.7410001
-0.0070469044 0.47421527 1.7410001
0.0045220777 0.47391382 1.7409999
-0.0046426668 0.48416382 1.7410001
0.0039794287 0.4844954 1.7410001
0.014922857 0.48747998 1.7410001
0.0066323811 0.49079618 1.7410001
0.1273181 0.23788382 1.7590001
0.11666667 0.24000001 1.7500001
0.12365048 0.24228382 1.7545002
0.13372517 0.24404356 1.7551429
0.14370193 0.24562573 1.7545002
0.15412191 0.24626002 1.7590001
0.16082287 0.24793524 1.7590001
0.14666668 0.25000003 1.7500001
0.15403618 0.25448954 1.758
0.16375454 0.25505501 1.7589999
0.15416667 0.26083335 1.7500001
0.16350324 0.26267737 1.7590001
0.082496516 0.2865327 1.756
0.080411434 0.2931667 1.7590001
0.13555558 0.33555561 1.7500002
0.14000002 0.33333337 1.7500001
0.10368191 0.34785527 1.7560003
0.11333334 0.34466669 1.7500002
0.12500001 0.34666669 1.7500001
0.13558 0.34480476 1.7575001
0.10436165 0.35311925 1.7512859
0.11378668 0.35475048 1.757
0.1237562 0.35455048 1.756
0.13379428 0.35454285 1.756
0.14407049 0.35850102 1.7590002
0.11726667 0.36185142 1.7590001
0.12508446 0.36408508 1.7590001
0.13401906 0.36520192 1.7589999
0.14407048 0.36687717 1.7590001
0.1273181 0.3769286 1.7590001
0.13346064 0.37637019 1.7590001
0.14439501 0.37543005 1.757875
0.15038572 0.37596002 1.7545002
0.13401906 0.38530472 1.7589999
0.14357334 0.38399047 1.753
0.15000001 0.38333336 1.7500001
0.14458971 0.39294478 1.7572001
0.15000001 0.39000002 1.7500001
-0.0050257146 0.43891239 1.7590001
0.0033504765 0.43891239 1.7590002
0.013401905 0.43807477 1.7590001
0.023453336 0.43891239 1.7590002
0.030154286 0.43891239 1.7590001
-0.060308572 0.44896382 1.7590001
-0.05360762 0.44896382 1.7590002
-0.042718574 0.4481262 1.7590001
-0.034342382 0.4481262 1.7590001
-0.023034526 0.44603217 1.7589999
-0.013388572 0.44510284 1.757
-0.0050171427 0.44484764 1.756
0.0033447619 0.44484764 1.756
0.01339619 0.44535813 1.758
0.023453334 0.44561332 1.7589999
0.033085953 0.44603217 1.7589999
0.043556195 0.4472886 1.7590001
0.053607624 0.44896382 1.7590002
-0.070360005 0.45901525 1.7590001
-0.06365905 0.45566478 1.7589999
-0.053607624 0.45566484 1.7589999
-0.043407619 0.45410481 1.753
-0.034332246 0.45351842 1.7525716
-0.024557924 0.45384678 1.7508183
-0.013333334 0.45166668 1.7500002
-0.0049999999 0.45000002 1.7500001
0.003809524 0.45238099 1.7500002
0.013367619 0.45436573 1.7540001
0.023438098 0.45540386 1.758
0.033375241 0.45384952 1.7520001
0.043434285 0.45436382 1.7540001
0.053579051 0.45540386 1.758
-0.082086667 0.46739143 1.7590001
-0.073710479 0.46571621 1.7589999
-0.06365905 0.46571621 1.7589999
-0.053521909 0.46492189 1.756
-0.04333334 0.46333334 1.7500001
-0.034666669 0.46266672 1.7500002
-0.025454549 0.46333331 1.7500002
0.0066666668 0.4616667 1.7500001
0.013361905 0.46412766 1.753
0.02342286 0.46518856 1.757
0.033411428 0.46439806 1.7540001
0.043462861 0.46465907 1.755
0.05193238 0.46404096 1.7590001
-0.080411434 0.47241718 1.7590001
-0.073040389 0.47509751 1.7590001
-0.06365905 0.47576761 1.7589999
-0.053460963 0.47441339 1.7540001
-0.04333334 0.47333336 1.7500001
-0.033333339 0.47333336 1.7500002
-0.025010003 0.47353768 1.7507503
-0.015833333 0.47416669 1.7500001
0.014322449 0.47390044 1.7538573
0.023453334 0.47576761 1.7589999
0.033485718 0.47549906 1.758
0.043137386 0.47618642 1.7589999
-0.063240238 0.48540026 1.7589999
-0.053550478 0.48526859 1.757
-0.043407623 0.48416764 1.753
-0.034738671 0.48500115 1.7536001
-0.024467302 0.48351729 1.7520001
-0.01384381 0.48535594 1.7538573
-0.0066666668 0.48666668 1.7500001
0.013390477 0.48526478 1.757
0.022974696 0.48486179 1.7590001
0.033026125 0.48486179 1.7590001
0.042997785 0.48581907 1.7590001
-0.05193238 0.49252 1.7590001
-0.042886097 0.49386021 1.7590001
-0.035180002 0.49419525 1.7590001
-0.01291592 0.49455324 1.7577144
-0.0050171427 0.49627289 1.7545002
0.0026666669 0.4953334 1.7500002
0.013361907 0.49584866 1.7530001
0.023034524 0.49628925 1.7589999
-0.0050171427 0.50128579 1.7545002
0.020102859 0.50257146 1.7590001
0.12392839 0.23708038 1.768
0.13470477 0.23741715 1.768
0.14144 0.23741716 1.7680001
0.15659431 0.23573336 1.768
0.16366629 0.23438631 1.768
0.17174858 0.23236573 1.7680001
0.19532192 0.23236573 1.7680001
0.20205715 0.23236573 1.7680001
0.13807239 0.24246858 1.7680001
0.14480762 0.24246858 1.7680001
0.15491049 0.24246858 1.7680001
0.16501334 0.24639748 1.768
0.17444268 0.24785678 1.768
0.18185145 0.24920383 1.7680001
0.16838096 0.25257143 1.7680001
0.1751162 0.25593907 1.7679999
0.18297398 0.25481653 1.7680001
0.19532192 0.25818416 1.7680001
0.17343238 0.2626743 1.7680001
0.14384547 0.34397829 1.768
0.15154287 0.34686479 1.7680001
0.14480764 0.35360003 1.7679999
0.15154287 0.35023239 1.7680001
0.10608 0.36538672 1.7680001
0.11382554 0.36572349 1.768
0.12123429 0.36707053 1.7680001
0.14480762 0.36370289 1.7680001
0.11517258 0.3724587 1.768
0.12392839 0.37245867 1.768
0.1358273 0.3749283 1.7680001
0.14144 0.37380573 1.7680001
0.12418097 0.38432953 1.7679999
0.12418097 0.39359054 1.7679999
0.13386287 0.39485338 1.7680001
0.14144 0.39737907 1.7680001
0.12460192 0.40074667 1.7680001
0.14649144 0.40074667 1.7680001
0.15154287 0.40074667 1.7680001
0.15659429 0.42432004 1.7680001
-0.023573335 0.43779048 1.7680001
-0.013470477 0.43779048 1.7680001
-0.0050514289 0.43779048 1.7680001
0.0033676194 0.43610674 1.768
0.013470477 0.43576995 1.768
0.023573335 0.43610668 1.768
0.031431116 0.43666798 1.7680001
-0.063984767 0.44705144 1.7680001
-0.05388191 0.44789335 1.7680001
-0.043779049 0.44620955 1.7680001
-0.032714017 0.44452575 1.768
-0.02441524 0.44200003 1.7680001
-0.013470477 0.44115815 1.7680001
0.035921272 0.44228065 1.7680001
0.043779053 0.44284195 1.768
0.053208388 0.44654632 1.768
0.060617145 0.44789335 1.7680001
-0.080822863 0.45799622 1.7680001
-0.072965086 0.45575115 1.768
-0.065668575 0.45126098 1.7680001
0.063022591 0.45510972 1.768
-0.084671579 0.46376929 1.768
-0.075771436 0.46136385 1.7680001
0.057249527 0.46641526 1.7680001
0.061964195 0.46540499 1.768
-0.084864005 0.47550783 1.768
-0.074087627 0.47820196 1.7680001
0.047146671 0.47483432 1.7680001
0.053881902 0.47483435 1.7679999
0.060617145 0.47146669 1.7680001
-0.082506672 0.48493719 1.768
-0.074568719 0.48589939 1.768
0.047146671 0.48662096 1.7680001
0.052919734 0.48445612 1.768
-0.080822863 0.49167243 1.7680001
-0.073245719 0.49251434 1.7680001
-0.064658292 0.49504003 1.768
-0.053881906 0.49672386 1.7680001
-0.047146671 0.49840766 1.7680001
0.025818415 0.49279496 1.7680001
0.033676192 0.49504006 1.768
0.040411431 0.49335623 1.7680001
0.05388191 0.49167246 1.7680001
0.14723715 0.23693335 1.7770001
0.15231429 0.23524097 1.7770001
0.16810986 0.23467684 1.7770002
0.17533068 0.23490249 1.7770001
0.18616192 0.23467684 1.7770002
0.19293143 0.23693335 1.7770001
0.14723715 0.2403181 1.7770001
0.15231429 0.2403181 1.7770001
0.16754572 0.24201049 1.7770001
0.17649117 0.2427358 1.7770002
0.18362334 0.24454907 1.7770001
0.19970095 0.2403181 1.7770001
0.18819275 0.25318024 1.7770001
0.19631618 0.25470334 1.7770001
0.20647049 0.26062667 1.7770002
0.21324001 0.26062667 1.7770001
0.10831238 0.37232381 1.7770001
0.11169714 0.37232381 1.7770001
0.12354381 0.37909332 1.7770001
0.12862095 0.3994019 1.7770001
0.13708286 0.3994019 1.7770001
0.13539049 0.40278667 1.7770002
0.14554477 0.40447906 1.7770001
0.15231429 0.40617144 1.7770001
0.14385238 0.41632575 1.7770001
0.15569906 0.41971049 1.7770002
0.14892954 0.42648003 1.7770001
0.15485287 0.42394143 1.7770001
-0.023693334 0.43663427 1.7770002
-0.013539049 0.43663427 1.7770002
-0.004513016 0.43550605 1.7770002
0.0033847622 0.43324956 1.7770002
0.013539049 0.43324956 1.7770002
0.023693334 0.43324956 1.7770002
0.033847623 0.43550605 1.7770002
0.042309526 0.43663427 1.7770001
-0.072208256 0.44566032 1.7770002
-0.064310484 0.44340381 1.7770002
-0.054156192 0.44509619 1.7770002
-0.044001907 0.44340381 1.7770001
-0.034693811 0.44086528 1.7770001
0.037232384 0.44001907 1.7770001
0.044001907 0.44001907 1.7770002
0.054156195 0.44340381 1.7770001
0.062618099 0.44509619 1.7770001
-0.084619045 0.4552505 1.7770002
-0.075593024 0.45242986 1.7770002
0.066566989 0.45355809 1.7770002
0.071079999 0.45694286 1.7770001
-0.092742465 0.46438932 1.7770001
-0.08631143 0.46032763 1.7770001
0.064310476 0.46371239 1.7770001
-0.093806274 0.47338319 1.7770002
0.063182227 0.47612318 1.7770002
-0.093080953 0.48402101 1.7770002
-0.088003814 0.48402101 1.7770002
0.057540953 0.48740575 1.7770001
0.063343406 0.48450455 1.7770002
-0.088003814 0.49079049 1.7770001
0.057540953 0.49079049 1.7770001
0.062618099 0.49248287 1.7770001
-0.054156195 0.50207305 1.7770002
-0.047386665 0.50432956 1.7770001
0.18370287 0.23586541 1.7860001
0.19390857 0.23813336 1.7860001
0.2041143 0.2364324 1.7860001
0.21261907 0.23473144 1.7860001
0.18710478 0.24493717 1.7860001
0.19390857 0.2453624 1.7860001
0.2007124 0.24663812 1.7860001
0.19560954 0.25344193 1.7860001
0.20343392 0.2551429 1.7860001
0.21205209 0.25627685 1.7860001
0.13777715 0.40822861 1.7860001
0.14458096 0.40822861 1.7860001
0.14628193 0.41163051 1.7860001
0.15308572 0.41333145 1.7860001
0.1394781 0.42864001 1.7860001
0.14628191 0.42693907 1.7860001
-0.062935241 0.43884572 1.7860001
-0.054430481 0.43884572 1.7860001
-0.043544386 0.43748498 1.7860001
-0.034699433 0.43748498 1.7860001
-0.023813335 0.43544385 1.7860001
-0.013607619 0.43459338 1.7860001
-0.0051028575 0.43374288 1.7860001
0.0034019051 0.43204197 1.7860001
0.01360762 0.43204197 1.7860001
0.023813335 0.43204197 1.7860001
0.034699433 0.43340275 1.7860001
0.045075241 0.43629432 1.7860001
0.053580005 0.43799525 1.7860001
0.061234292 0.43884572 1.7860001
0.14854985 0.43317592 1.7860001
0.15691286 0.43501857 1.7860001
0.16329144 0.43544385 1.7860001
-0.085047625 0.44564956 1.7860001
-0.07597588 0.44451559 1.7860001
-0.064636193 0.44224766 1.7860001
-0.054430481 0.44224769 1.7860001
-0.045925718 0.44224766 1.7860001
0.05613143 0.44224766 1.7860001
0.06599696 0.44428879 1.7860001
0.074416675 0.44522431 1.7860001
-0.094281368 0.4563413 1.7860003
-0.085047625 0.45245337 1.7860001
0.068038099 0.45245337 1.7860001
0.074841909 0.45585525 1.7860003
-0.10205715 0.46776193 1.7860001
-0.09780477 0.4652105 1.7860001
0.068038099 0.46776193 1.7860001
0.073140956 0.46606097 1.7860001
-0.10205715 0.47456574 1.7860001
-0.098655239 0.47796768 1.7860001
0.068038099 0.47626671 1.7860001
0.074841909 0.47626671 1.7860001
-0.098655239 0.48477146 1.7860001
0.068038099 0.48477146 1.7860001
0.074841909 0.4864724 1.7860001
0.08164572 0.48987433 1.7860001
0.08164572 0.49327624 1.7860001
-0.061234292 0.50518292 1.7860001
-0.05613143 0.50688386 1.7860001
-0.054430477 0.51028574 1.7860001
-0.04762667 0.51028574 1.7860001
0.16753334 0.23249525 1.7950001
0.18804763 0.24275239 1.7950001
0.19488572 0.24275239 1.7950001
0.20685241 0.24617144 1.7950001
0.21198097 0.24788097 1.7950001
0.20742224 0.2552889 1.7950001
0.21608381 0.25574479 1.7950001
0.12992382 0.40686667 1.7950001
0.12992382 0.41028574 1.7950001
0.13562223 0.41370481 1.7950001
0.14274524 0.41626906 1.7950001
0.1504381 0.41712382 1.7950001
0.14246033 0.42453179 1.7950001
0.15157779 0.42168257 1.7950001
-0.08547619 0.43763813 1.7950001
-0.07521905 0.43763813 1.7950001
-0.06496191 0.43763813 1.7950001
-0.054020952 0.43627053 1.7950001
-0.045302384 0.43507385 1.7950001
-0.033335716 0.43507385 1.7950001
-0.023933336 0.43421906 1.7950001
-0.013676191 0.43421906 1.7950001
-0.0068380954 0.43421906 1.7950001
0.044447623 0.43421906 1.7950001
0.054704763 0.43592858 1.7950001
0.06496191 0.43763813 1.7950001
0.075219058 0.43763813 1.7950001
0.1367619 0.43421906 1.7950001
0.14291619 0.43627053 1.7950001
-0.094023816 0.44618571 1.7950001
-0.08547619 0.44105715 1.7950001
-0.07521905 0.44105715 1.7950001
-0.068380952 0.44105715 1.7950001
0.066671431 0.44105715 1.7950001
0.07521905 0.44105715 1.7950001
0.084499329 0.44496465 1.7950002
0.1436 0.44447619 1.7950001
0.15342975 0.44490355 1.7950001
0.16069524 0.44618571 1.7950001
-0.10257144 0.45815241 1.7950001
-0.096588098 0.45387861 1.7950001
0.078638099 0.45302385 1.7950001
0.084499329 0.4552218 1.7950002
0.14457688 0.45424497 1.7950002
0.15385714 0.45473337 1.7950001
0.16183493 0.45245403 1.7950001
-0.1141962 0.46567431 1.7950001
-0.10641786 0.46456313 1.7950001
0.07607381 0.46755478 1.7950001
0.084336512 0.46385083 1.7950001
0.14402738 0.4645631 1.7950001
0.15342976 0.46541786 1.7950001
-0.11624763 0.47524759 1.7950001
-0.10770001 0.47524762 1.7950001
0.078638099 0.47182858 1.7950001
0.084108576 0.47661525 1.7950001
0.092314295 0.47182858 1.7950001
0.1461643 0.47439286 1.7950001
0.15288028 0.47475925 1.7950002
-0.11556382 0.48345336 1.7950001
-0.10599048 0.48550478 1.7950001
0.08547619 0.48550478 1.7950001
0.094878577 0.48806903 1.7950001
0.15271747 0.48322544 1.7950001
0.068380952 0.49576196 1.7950001
0.073509529 0.49576196 1.7950001
0.087185711 0.49234286 1.7950001
-0.052995238 0.51627618 1.7950001
-0.047866669 0.5179857 1.7950001
0.21991621 0.23709716 1.8040001
0.20788953 0.24053334 1.8040001
0.21510553 0.2432823 1.8040001
0.21819812 0.25427812 1.8040001
0.22507051 0.2577143 1.8040001
0.22507051 0.26115048 1.8040001
0.13401143 0.41749716 1.8040001
0.13515684 0.4266603 1.8040001
-0.094495244 0.43983242 1.8040001
-0.058415242 0.43639621 1.8040001
-0.041234292 0.43296003 1.8040001
-0.036080003 0.43296003 1.8040001
-0.024053335 0.43296003 1.8040003
-0.013744764 0.43296003 1.8040003
-0.005154286 0.43296003 1.8040001
0.0034361908 0.43296003 1.8040003
0.036080003 0.43296003 1.8040001
0.044670485 0.43296003 1.8040003
0.054979052 0.43410546 1.8040003
0.06528762 0.43467814 1.8040001
0.075596198 0.43639621 1.8040003
0.08590477 0.43983242 1.8040003
0.13229334 0.43639621 1.8040001
-0.096213341 0.44441399 1.8040003
0.089340955 0.4449867 1.8040001
0.092777148 0.4449867 1.8040001
0.13469867 0.44464308 1.8040001
0.16493717 0.4449867 1.8040001
-0.10423112 0.45586798 1.8040003
-0.099649534 0.45185909 1.8040001
0.089340955 0.45529526 1.8040001
0.096213341 0.45357716 1.804
0.13658857 0.45271811 1.8040001
0.14088382 0.45701337 1.8040001
0.16665526 0.45443621 1.8040001
0.17180952 0.45701337 1.8040001
-0.13057524 0.46732193 1.8040001
-0.12284382 0.46646285 1.8040001
-0.11511239 0.46216768 1.8040001
-0.10824001 0.46044958 1.8040001
0.089340955 0.46732193 1.8040001
0.096213341 0.46388572 1.804
0.10308572 0.46732193 1.8040001
0.13744763 0.46388575 1.8040003
0.14088382 0.46044958 1.8040001
0.15806478 0.46388575 1.8040001
0.16450763 0.46388578 1.804
0.17524573 0.46732196 1.8040003
-0.12468465 0.47370347 1.8040001
0.087622866 0.47419438 1.8040001
0.096642867 0.47419432 1.804
0.10789639 0.47488156 1.8040001
0.1133943 0.47591239 1.8040001
0.13744763 0.47419429 1.8040003
0.14174287 0.47505337 1.8040001
0.15806478 0.4776305 1.8040001
0.16493715 0.47419432 1.804
0.17426397 0.47419435 1.8040001
-0.12468465 0.48499376 1.8040001
0.096642867 0.48407337 1.804
0.10308572 0.48622099 1.8040001
0.1133943 0.48106667 1.8040001
0.13744763 0.48450288 1.8040003
0.14389049 0.48493239 1.804
0.15634668 0.48536193 1.8040001
0.16493715 0.48450291 1.804
0.17352763 0.48450288 1.8040001
-0.11511239 0.49309337 1.8040001
0.10308572 0.49137527 1.8040001
0.14432001 0.4913753 1.8040003
0.1511924 0.49137527 1.8040001
0.22631812 0.23841144 1.8140001
0.22320838 0.24393983 1.8140001
0.22459051 0.25453588 1.8140001
0.23150097 0.25568762 1.8140001
0.13302667 0.42672193 1.8140001
-0.086380959 0.43881527 1.8140001
-0.072560005 0.43881527 1.8140001
-0.065649532 0.4388153 1.8140001
-0.055283815 0.43536004 1.8140001
-0.04578191 0.4336324 1.8140001
-0.034552384 0.43305653 1.8140001
-0.024186669 0.43190479 1.8140001
-0.013820954 0.43190479 1.8140001
-0.0069104768 0.43190479 1.8140001
0.013820954 0.43536004 1.8140001
0.024186669 0.43536004 1.8140001
0.034552384 0.4336324 1.8140001
0.043190479 0.43190479 1.8140001
0.056147624 0.43276858 1.8140001
0.065649532 0.43190479 1.8140001
0.073711753 0.43420827 1.8140001
0.08465334 0.43881527 1.8140001
0.12784381 0.43708766 1.8140001
-0.10192954 0.44745338 1.8140001
0.095594935 0.44572577 1.8140001
0.10135367 0.44802925 1.8140001
0.12784381 0.44399813 1.8140001
0.13129906 0.44918099 1.8140001
0.16930668 0.44918099 1.8140001
-0.13129906 0.45954672 1.8140001
-0.12438858 0.45954674 1.8140001
-0.11402287 0.4578191 1.8140001
-0.10596065 0.45378798 1.8140001
0.10452097 0.45695525 1.8140001
0.13268116 0.45678255 1.8140001
0.16930668 0.45263621 1.8140001
0.17276192 0.45609146 1.8140001
-0.1333722 0.46576616 1.8140001
-0.12507962 0.46438405 1.8140001
-0.1174781 0.46300194 1.8140001
0.1057303 0.46576616 1.8140001
0.11264078 0.46783924 1.8140001
0.1333722 0.46576616 1.8140001
0.16930668 0.46645716 1.8140001
0.17276192 0.46472955 1.8140001
-0.1324508 0.47451943 1.8140001
0.10596065 0.47451943 1.8140001
0.11632636 0.47451943 1.8140001
0.13475429 0.47336766 1.8140001
-0.13129906 0.48718861 1.8140001
0.10538477 0.48373339 1.8140001
0.11056763 0.485461 1.8140001
-0.13129906 0.49064383 1.8140001
-0.12266095 0.49409905 1.8140001
0.22756572 0.24667431 1.8240001
0.22756572 0.25188571 1.8240001
0.23277715 0.25188571 1.8240001
-0.10075429 0.43776003 1.8240001
-0.093805723 0.43602285 1.8240002
-0.085120007 0.43776003 1.8240001
-0.072960004 0.43776003 1.8240001
-0.066011429 0.43776006 1.8240001
-0.054720003 0.43341714 1.8240001
-0.045165718 0.43168002 1.8240001
-0.034742858 0.43196952 1.8240001
-0.017371429 0.43081143 1.8240001
-0.0034742858 0.43428573 1.8240001
0.0034742858 0.43428573 1.8240001
0.013897143 0.43428573 1.8240001
0.024320003 0.43428573 1.8240001
0.033005714 0.43428573 1.8240001
0.048640002 0.43428573 1.8240001
0.078171432 0.43602288 1.8240001
0.085120007 0.43776003 1.8240001
0.12854858 0.43428573 1.8240001
0.13202286 0.43081143 1.8240001
-0.13202286 0.44818288 1.8240001
-0.12681143 0.44818288 1.8240001
-0.11465143 0.44644576 1.8240002
-0.10422858 0.44470862 1.8240004
-0.095542863 0.44123429 1.8240001
-0.086857148 0.44123429 1.8240001
-0.078171432 0.44123429 1.8240001
0.093805723 0.44239241 1.8240001
0.10492344 0.44609833 1.8240002
0.11117715 0.44818288 1.8240001
0.12368458 0.44540343 1.8240002
-0.1345045 0.45562777 1.8240004
-0.1250743 0.45513144 1.8240002
-0.11465143 0.45339429 1.8240002
-0.10770286 0.45165715 1.8240001
0.10770287 0.45513147 1.8240001
0.11421714 0.45469713 1.8240002
0.1250743 0.45469719 1.8240002
0.1760305 0.45628953 1.8240001
-0.14492735 0.46555433 1.8240004
-0.13810286 0.46468571 1.8240001
0.11564408 0.465058 1.8240004
0.1250743 0.4655543 1.8240002
0.17718861 0.46555433 1.8240001
0.1820526 0.4662492 1.8240002
-0.14418286 0.47250286 1.8240001
-0.13781333 0.47597718 1.8240001
0.1250743 0.47424003 1.8240002
0.13202286 0.47424001 1.8240001
-0.13202286 0.48466289 1.8240001
-0.13202286 0.49682292 1.8240001
-0.12854858 0.49682292 1.8240001
-0.13202286 0.50029713 1.8240001
-0.1250743 0.50203431 1.8240002
0.23479857 0.24352714 1.8330001
0.23741715 0.25312859 1.8330001
-0.096014291 0.42944574 1.8330001
-0.062845714 0.42944574 1.8330001
-0.054990001 0.42857289 1.8330001
-0.045388576 0.42944574 1.8330001
-0.036660001 0.42944574 1.8330001
-0.017457142 0.42944574 1.8330001
0.024440002 0.42944574 1.8330001
0.12801906 0.42828196 1.8330001
0.13267428 0.42595428 1.8330001
-0.11451886 0.43852344 1.8330001
-0.10474285 0.4370105 1.8330001
-0.094268575 0.43293715 1.8330001
-0.083794288 0.43642861 1.8330001
-0.075065717 0.43642861 1.8330001
-0.066337138 0.43468285 1.8330001
-0.057608575 0.43293715 1.8330001
-0.031422857 0.43293715 1.8330001
-0.024440002 0.43293715 1.8330001
-0.012220001 0.43293715 1.8330001
-0.005237143 0.43293715 1.8330001
0.0034914287 0.43293715 1.8330001
0.013965715 0.43293715 1.8330001
0.024440002 0.43293715 1.8330001
0.034914285 0.43293715 1.8330001
0.041897144 0.43293715 1.8330001
0.055862859 0.43293715 1.8330001
0.066337138 0.43293715 1.8330001
0.073320001 0.43293715 1.8330001
0.082048573 0.43642861 1.8330001
0.094268583 0.43992004 1.8330001
0.10474287 0.43992004 1.8330001
0.12569143 0.43730146 1.8330001
-0.13529286 0.44603002 1.8330001
-0.12569144 0.44515714 1.8330001
-0.11521715 0.44341144 1.8330001
-0.10823429 0.44341144 1.8330001
0.097759999 0.44341144 1.8330001
0.10474287 0.44341144 1.8330001
0.11521715 0.4455063 1.8330001
0.1222 0.44341144 1.8330001
-0.15013143 0.45737714 1.8330001
-0.14489429 0.45388576 1.8330001
-0.13878429 0.45301285 1.8330001
-0.1222 0.45039427 1.8330001
0.11696286 0.45039427 1.8330001
0.17631714 0.45388573 1.8330001
0.18155429 0.45737714 1.8330001
-0.15292457 0.4650583 1.8330001
-0.14489429 0.4608686 1.8330001
0.11870857 0.4608686 1.8330001
0.12569144 0.46436 1.8330001
0.18620953 0.46319622 1.8330001
0.19552001 0.46645483 1.8330001
0.20250286 0.46785143 1.8330001
-0.15312408 0.47383675 1.8330002
-0.14489429 0.47832572 1.8330001
0.12569143 0.47134286 1.8330001
0.18620953 0.47599813 1.8330001
0.19508357 0.4743979 1.8330001
0.20424858 0.47134286 1.8330001
0.21472286 0.47832572 1.8330001
-0.14314857 0.48181716 1.8330001
-0.13826057 0.48600689 1.8330001
0.18548214 0.48574501 1.8330001
0.19508357 0.48487216 1.8330001
0.20250286 0.48530856 1.8330001
0.21530478 0.48298097 1.8330001
-0.13732952 0.49345526 1.8330001
0.18155429 0.49229142 1.8330001
0.19202857 0.49229142 1.8330001
0.23871239 0.23871239 1.8430001
0.24573335 0.2387124 1.8430002
0.25626478 0.23695715 1.8430001
0.23871239 0.24748857 1.8430001
0.24573334 0.24573334 1.8430002
0.25526178 0.24523188 1.8430002
0.26328573 0.2492438 1.8430001
0.23871239 0.25977525 1.8430001
0.24573337 0.25626475 1.8430002
0.25275427 0.25626478 1.8430002
-0.10180381 0.42827812 1.8430001
-0.094782859 0.42827815 1.8430002
-0.087761909 0.42827812 1.8430001
-0.063188568 0.42652285 1.8430001
-0.05666912 0.42476758 1.8430002
-0.046338286 0.42687392 1.8430001
-0.03686 0.42827812 1.8430001
0.017552381 0.42827812 1.8430001
0.026328571 0.42827812 1.8430001
0.06669905 0.42827812 1.8430001
-0.13515332 0.43880951 1.8430001
-0.12725477 0.4379319 1.8430001
-0.11672333 0.43617666 1.8430001
-0.10601639 0.43319279 1.8430001
-0.091272384 0.43178859 1.8430001
-0.083549343 0.43319279 1.8430001
-0.074597619 0.43266621 1.8430001
-0.06669905 0.43178859 1.8430001
-0.031594284 0.43178859 1.8430001
-0.024573334 0.43178862 1.8430002
-0.012286667 0.43178859 1.8430001
-0.0070209526 0.43178859 1.8430001
0.0070209526 0.43178859 1.8430001
0.014041906 0.43178862 1.8430002
0.033349521 0.43178859 1.8430001
0.04739143 0.43529907 1.8430001
0.056167617 0.43529907 1.8430001
0.06669905 0.43178859 1.8430001
0.073720001 0.43354383 1.8430001
0.085129052 0.43617669 1.8430001
0.094782859 0.43880951 1.8430002
0.1237443 0.43529907 1.8430001
-0.15095048 0.44934097 1.8430001
-0.14322744 0.44653258 1.8430001
-0.1357384 0.44349015 1.8430002
-0.12637715 0.44231999 1.8430002
0.11584571 0.44319761 1.8430001
-0.15270571 0.45636192 1.8430001
0.18605524 0.45811716 1.8430001
0.19307619 0.45987239 1.8430001
-0.15680128 0.464553 1.8430002
0.19541651 0.464553 1.8430002
0.2043097 0.46478707 1.8430001
0.21413907 0.46513814 1.8430002
-0.1628861 0.47461638 1.8430001
0.20594794 0.47508448 1.8430002
0.21413906 0.4739143 1.8430002
-0.16499238 0.48269051 1.8430001
-0.15496248 0.48444575 1.8430002
-0.14568478 0.48620099 1.8430001
0.20477776 0.48327562 1.8430002
0.21150619 0.48532334 1.8430001
-0.14568478 0.49322194 1.8430001
0.20360762 0.4914667 1.8430002
0.21062857 0.4914667 1.8430001
0.26294953 0.24706668 1.853
0.25765523 0.25589049 1.853
0.26206717 0.25412571 1.853
-0.10235619 0.42707241 1.853
-0.095297143 0.42707241 1.853
-0.084708571 0.42707241 1.853
-0.074120007 0.42707241 1.853
-0.063531429 0.42266047 1.853
-0.056472383 0.42177808 1.853
-0.045883812 0.42530763 1.853
-0.03706 0.42707241 1.853
0.015294604 0.4258959 1.853
0.024706667 0.42530769 1.853
-0.13412191 0.43589619 1.853
-0.12353334 0.43648446 1.853
-0.11470953 0.43236667 1.853
-0.10765047 0.43060192 1.853
-0.082943812 0.43060192 1.853
-0.07412 0.43060192 1.853
-0.067060955 0.43060192 1.853
-0.031765714 0.43060192 1.853
-0.024706667 0.43060192 1.853
-0.01764762 0.43060192 1.853
-0.003529524 0.43413144 1.853
0.001764762 0.43413144 1.853
0.012353334 0.43060192 1.853
0.021177143 0.43060192 1.853
0.035295241 0.43177843 1.853
0.063531429 0.43413144 1.853
0.077649526 0.43413144 1.853
0.084708571 0.43413147 1.853
0.094414763 0.43677858 1.853
0.10588571 0.43766099 1.853
0.12000381 0.43589622 1.853
-0.15176952 0.4464848 1.853
-0.145887 0.44354352 1.853
0.10588571 0.44119048 1.853
0.11470953 0.44119048 1.853
0.12000381 0.44119048 1.853
-0.15647557 0.45530856 1.853
0.17471144 0.45530856 1.853
0.18353525 0.45530856 1.853
0.19235905 0.45883808 1.853
-0.16518171 0.46801487 1.853
-0.15882857 0.46236762 1.853
0.19765334 0.46236762 1.853
0.20294762 0.46236762 1.853
0.2135362 0.46236762 1.853
-0.17294668 0.4764857 1.853
-0.16824064 0.47413272 1.853
-0.17294668 0.48177999 1.853
-0.16706413 0.48236823 1.853
-0.15600495 0.49413338 1.853
-0.14824 0.49060383 1.853
0.26436859 0.23775429 1.863
0.26685259 0.24414173 1.8630002
0.28743428 0.24485143 1.863
0.29098287 0.24485143 1.863
0.26969141 0.25194857 1.863
-0.12065143 0.42937714 1.863
-0.11355428 0.42937717 1.8630002
-0.10468285 0.42760286 1.863
-0.095811442 0.42582858 1.8630002
-0.085165724 0.42582858 1.8630002
-0.074519999 0.42582858 1.8630002
-0.067422852 0.42405429 1.863
-0.053228572 0.42228001 1.863
-0.044357143 0.42582858 1.863
0.013011429 0.42701143 1.8630002
0.03371143 0.42937714 1.863
0.21646287 0.42937714 1.863
-0.14549144 0.43647429 1.8630002
-0.13573284 0.43381289 1.863
-0.12490971 0.43434516 1.8630002
-0.024840001 0.43292573 1.863
-0.01242 0.43292573 1.863
-0.0053228568 0.43292573 1.863
0.0017742857 0.43292573 1.863
0.046131432 0.43647429 1.8630002
0.055002857 0.43647429 1.863
0.060325716 0.43647429 1.863
0.074519999 0.43647429 1.863
0.097585723 0.43647429 1.863
0.10468285 0.43647429 1.863
0.11177999 0.43647429 1.863
0.22001143 0.43292573 1.863
-0.15542744 0.44428116 1.8630002
-0.14549144 0.44002289 1.8630002
0.11532857 0.44002286 1.863
-0.17033143 0.45599145 1.863
-0.16500857 0.45599142 1.863
-0.15879858 0.45333001 1.863
0.17565429 0.45421714 1.863
0.18334286 0.45539999 1.8630002
0.19517143 0.4568786 1.863
0.20404285 0.45776573 1.863
0.21291429 0.45776573 1.863
-0.17210571 0.46486288 1.8630002
-0.16500857 0.46308857 1.863
0.19872001 0.46131429 1.863
0.20670429 0.46220145 1.863
0.21468857 0.46131429 1.863
0.22001143 0.46308857 1.863
-0.17600916 0.47479889 1.8630002
-0.17742857 0.48438001 1.863
-0.16323428 0.48970285 1.863
-0.16323428 0.49325141 1.863
-0.15436286 0.50212288 1.863
0.28362572 0.2390305 1.8730001
0.27589592 0.24735495 1.8730001
0.28540954 0.2466754 1.8730003
0.29254478 0.24259812 1.8730001
0.27470669 0.25508481 1.8730001
0.28451765 0.25419292 1.8730001
0.26757145 0.26043621 1.8730001
-0.13200191 0.4281143 1.8730001
-0.12486669 0.4281143 1.8730001
-0.11416382 0.4281143 1.8730001
-0.10702857 0.4281143 1.8730001
-0.098109528 0.42454672 1.8730001
-0.085622862 0.42454672 1.8730001
-0.074920006 0.42454672 1.8730001
-0.037459999 0.4281143 1.8730001
0.22119239 0.4281143 1.8730001
-0.15459684 0.43762797 1.8730001
-0.14555886 0.43382248 1.8730001
-0.13556954 0.43168196 1.8730001
-0.12665048 0.43168193 1.8730001
-0.021405715 0.43168193 1.8730001
-0.017838096 0.43168193 1.8730001
0.0035676192 0.4328711 1.8730001
0.03924381 0.43524954 1.8730001
0.046379052 0.43524954 1.8730001
0.082055241 0.43524954 1.8730001
0.11773144 0.43881717 1.8730001
0.21762477 0.43703336 1.8730001
0.22238159 0.43524957 1.8730001
-0.17392144 0.44862813 1.8730001
-0.16411048 0.446547 1.8730001
-0.15697524 0.44238478 1.8730001
0.21584097 0.44952002 1.8730001
0.2238681 0.4477362 1.8730001
0.24616575 0.44952005 1.8730001
-0.1848027 0.45522824 1.8730001
-0.17552687 0.45451471 1.8730001
-0.1658943 0.45308766 1.8730001
0.18551621 0.45487148 1.8730001
0.19621906 0.45546609 1.8730001
0.20513812 0.45487148 1.8730001
0.21405715 0.45487148 1.8730001
0.22476003 0.45487148 1.8730001
0.23546289 0.45487148 1.8730001
0.24527383 0.45397955 1.8730001
-0.18507025 0.46334457 1.8730001
-0.17748906 0.46289861 1.8730001
0.21405715 0.4602229 1.8730001
0.22547355 0.46164995 1.8730001
-0.18507025 0.47404742 1.8730001
-0.17838097 0.47092575 1.8730001
-0.18373239 0.48341244 1.8730001
0.28334668 0.24389334 1.8830001
0.29769337 0.24748001 1.8830001
0.30128002 0.24748001 1.8830001
0.27976 0.25465333 1.8830001
0.28693336 0.25824001 1.8830001
0.29470447 0.25465333 1.8830003
0.30128002 0.25286001 1.8830001
0.27617335 0.26182669 1.8830001
0.28334668 0.26182669 1.8830001
0.27617335 0.33356002 1.8830001
0.27796668 0.34073335 1.8830001
0.28334668 0.34252667 1.8830001
0.25824001 0.38736004 1.8830001
0.26810336 0.38467002 1.8830001
0.2725867 0.38377339 1.8830001
0.24628446 0.39692447 1.8830001
0.25510168 0.39498168 1.8830003
0.26541334 0.39572892 1.8830001
0.24568668 0.40529341 1.8830003
0.25465333 0.40529338 1.8830003
0.26272336 0.40439668 1.8830001
0.23672001 0.41964003 1.8830001
0.24389336 0.41605335 1.8830003
0.25321868 0.4146187 1.8830003
-0.13629335 0.42681336 1.8830001
-0.12553334 0.42681336 1.8830001
-0.11477335 0.42681336 1.8830001
-0.10580668 0.42681336 1.8830001
-0.093253337 0.42681336 1.8830001
-0.08608 0.42681336 1.8830001
-0.066353336 0.42322668 1.8830001
-0.050213337 0.42681336 1.8830001
-0.046626668 0.42681336 1.8830001
0.21878667 0.42681336 1.8830001
0.22237335 0.42681336 1.8830001
0.23672001 0.42681336 1.8830001
0.24389336 0.42561781 1.8830001
-0.16140002 0.43757334 1.8830001
-0.15333001 0.43398669 1.8830001
-0.14526001 0.43040004 1.8830001
-0.13808668 0.43040004 1.8830001
-0.032280002 0.43398669 1.8830001
-0.026900001 0.43398669 1.8830001
-0.012553334 0.43398669 1.8830001
-0.0053800005 0.43398669 1.8830001
0.0053800005 0.43219337 1.8830001
0.037660003 0.43219337 1.8830001
0.045431115 0.43518227 1.8830001
0.055593338 0.43757334 1.8830001
0.075320005 0.43757337 1.8830001
0.082493335 0.43398669 1.8830001
0.11656667 0.43757334 1.8830001
0.12194667 0.43757334 1.8830001
0.21639559 0.43398672 1.8830001
0.22835112 0.43518227 1.8830001
0.23528536 0.43470404 1.8830003
0.24210003 0.43398672 1.8830003
-0.18471335 0.44654003 1.8830001
-0.17646401 0.44618136 1.8830003
-0.16498668 0.44355115 1.8830001
0.21663468 0.44546404 1.8830003
0.22698478 0.44525909 1.8830004
0.23492669 0.4447467 1.8830003
0.24389336 0.4447467 1.8830003
0.25106668 0.44654003 1.8830001
-0.19188669 0.45550668 1.8830001
-0.18471333 0.45192 1.8830001
0.17574668 0.45371339 1.8830003
0.18531112 0.45311558 1.8830001
0.19278336 0.45371336 1.8830001
0.20354334 0.45281669 1.8830001
0.21161334 0.45192 1.8830001
0.23492669 0.45192 1.8830001
0.24030669 0.45192 1.8830001
-0.19278334 0.46716338 1.8830001
-0.19368002 0.47523335 1.8830001
-0.19009334 0.48240671 1.8830001
0.27598286 0.2435143 1.8940001
0.2813943 0.2435143 1.8940001
0.2994324 0.25974858 1.8940001
0.27417904 0.26335621 1.8940001
0.28500193 0.26335621 1.8940001
0.29582477 0.26335621 1.8940001
0.27598286 0.33641049 1.8940001
0.28319812 0.3373124 1.8940001
0.27478033 0.34693271 1.8940001
0.2813943 0.34813523 1.8940001
0.26696381 0.3788 1.8940001
0.27463001 0.37564334 1.8940001
0.2453181 0.38781905 1.8940001
0.25541943 0.38745829 1.8940001
0.26516002 0.38601524 1.8940001
0.23810287 0.39503428 1.8940001
0.24459659 0.39467353 1.8940001
0.25253335 0.39323047 1.8940001
0.26516002 0.3968381 1.8940001
0.27057144 0.3968381 1.8940001
0.23690033 0.40164825 1.8940001
0.24171048 0.40405333 1.8940001
0.25614095 0.40766096 1.8940001
0.27057144 0.40044573 1.8940001
0.23569779 0.41607875 1.8940001
0.24171048 0.41126856 1.8940001
0.25614095 0.41848382 1.8940001
-0.15152 0.42930666 1.8940001
-0.14610857 0.42930666 1.8940001
-0.12626669 0.42569908 1.8940001
-0.11544381 0.42569908 1.8940001
-0.10462096 0.42569908 1.8940001
-0.097405717 0.42569906 1.8940001
-0.084779054 0.42569906 1.8940001
-0.075759999 0.42569908 1.8940001
-0.061329525 0.42569906 1.8940001
-0.055918097 0.42569906 1.8940001
0.22439392 0.42497754 1.8940001
0.23389399 0.42569906 1.8940001
0.2435143 0.42569906 1.8940001
-0.16234286 0.43652192 1.8940001
-0.15693143 0.4347181 1.8940001
-0.032468572 0.43291429 1.8940001
-0.025253333 0.43291429 1.8940001
-0.014430476 0.43291429 1.8940001
-0.0054114284 0.43291429 1.8940001
0.0036076191 0.43291429 1.8940001
0.032468572 0.43291429 1.8940001
0.050506666 0.43652192 1.8940001
0.075759999 0.43652195 1.8940001
0.21645714 0.43291429 1.8940001
0.22728001 0.43291429 1.8940001
0.23269144 0.43291429 1.8940001
-0.19120382 0.44734475 1.8940001
-0.18398857 0.44373715 1.8940001
-0.17496952 0.44193336 1.8940001
-0.16775429 0.44193336 1.8940001
0.063133337 0.44012955 1.8940001
0.10101333 0.44012955 1.8940001
0.11183619 0.44012955 1.8940001
0.21284954 0.44373715 1.8940001
-0.20202667 0.45816764 1.8940001
-0.19571334 0.45456001 1.8940001
0.17677332 0.45095238 1.8940001
0.18398857 0.45095238 1.8940001
0.19481143 0.45456001 1.8940001
0.2074381 0.45095238 1.8940001
0.21284953 0.45095238 1.8940001
-0.20383047 0.46357906 1.8940001
-0.19841906 0.4653829 1.8940001
-0.20202667 0.47800952 1.8940001
-0.19841906 0.47620571 1.8940001
0.27925333 0.26837331 1.904
0.28469333 0.26837331 1.904
0.29376003 0.26837331 1.904
0.30101332 0.26837331 1.904
0.27925333 0.27200001 1.904
0.28650665 0.27200001 1.904
0.2961778 0.27320892 1.904
0.30101332 0.27381337 1.904
0.30464002 0.28288001 1.904
0.31431115 0.28408891 1.904
0.27925333 0.32640001 1.904
0.26547199 0.33582935 1.9040002
0.27441782 0.33244449 1.9040002
0.28469333 0.33184001 1.904
0.29013336 0.33365333 1.904
0.26692268 0.34525868 1.9040002
0.27200001 0.34271997 1.904
0.25749335 0.35178667 1.904
0.26474667 0.3517867 1.904
0.27635202 0.35613868 1.9040002
0.28288001 0.35722667 1.904
0.26565331 0.36901334 1.904
0.27562669 0.36810669 1.9040002
0.28288001 0.36266667 1.904
0.26655999 0.37536001 1.904
0.27200001 0.37354666 1.904
0.24661332 0.38442668 1.904
0.25477335 0.38352001 1.904
0.26293331 0.38261333 1.904
0.23694222 0.39530668 1.904
0.26655999 0.39530668 1.904
0.23573333 0.40890667 1.904
0.23392001 0.41525334 1.904
-0.15413333 0.42794669 1.904
-0.14506668 0.42794669 1.904
-0.13600001 0.42794669 1.904
-0.12693334 0.42432001 1.904
-0.092480004 0.42794669 1.904
0.22848001 0.42432001 1.904
0.23210667 0.42794669 1.904
-0.18496001 0.43882668 1.904
-0.17335467 0.43737602 1.9040002
-0.16537601 0.43447468 1.9040002
-0.15836444 0.43278223 1.904
-0.04352 0.43157333 1.904
-0.038079999 0.43157333 1.904
-0.025386667 0.43520001 1.904
-0.014506667 0.43520001 1.904
0.054400001 0.43882668 1.904
0.11786667 0.43882668 1.904
0.12330666 0.43882668 1.904
0.21216001 0.43882668 1.904
-0.21034667 0.44970667 1.904
-0.20490667 0.44789332 1.904
-0.19629334 0.44562668 1.9040002
-0.18496001 0.44245335 1.904
0.08704 0.44245335 1.904
0.094293334 0.44245335 1.904
0.10698666 0.44245335 1.904
0.17649779 0.44849777 1.904
0.18496001 0.44789332 1.9040002
0.19221334 0.44970667 1.904
0.20581333 0.44698668 1.904
0.21034667 0.44608003 1.904
-0.21155557 0.45575112 1.904
-0.20490667 0.45514667 1.904
-0.19765332 0.45333332 1.904
0.17408 0.45333332 1.904
0.19584 0.45333332 1.904
0.20309334 0.45333332 1.904
-0.21293716 0.46473145 1.9040003
-0.20671999 0.46058667 1.904
-0.22122668 0.47328001 1.904
-0.21397334 0.47328001 1.9040002
-0.20526934 0.47436801 1.9040002
0.26810002 0.26992381 1.9150001
0.27539524 0.26992381 1.9150001
0.3064 0.26627621 1.9150002
0.31187147 0.26627621 1.9150002
0.26810002 0.27357143 1.9150001
0.27721906 0.27539524 1.9150001
0.28451428 0.27630717 1.9150001
0.29302543 0.27600318 1.9150002
0.3064 0.27539524 1.9150001
0.31296572 0.27576002 1.9150002
0.27721906 0.28086665 1.9150001
0.28451431 0.28086668 1.9150002
0.29649934 0.28399318 1.9150002
0.30457622 0.28451428 1.9150001
0.31296572 0.28378475 1.9150002
0.29728097 0.29545718 1.9150002
0.30457622 0.29545718 1.9150002
0.31187144 0.29363334 1.9150001
0.29788893 0.30396828 1.9150002
0.30457622 0.30457622 1.9150001
0.27721906 0.31734288 1.9150001
0.28633809 0.31734288 1.9150001
0.29545718 0.31588385 1.9150002
0.30275241 0.31551906 1.9150001
0.26810002 0.32828572 1.9150001
0.27539524 0.3246381 1.9150002
0.28497022 0.32418215 1.9150001
0.29441497 0.32411703 1.9150002
0.26536429 0.33284524 1.9150001
0.26384446 0.34409207 1.9150002
0.25654921 0.35625082 1.9150002
0.26536429 0.35564288 1.9150001
0.27357143 0.3574667 1.9150001
0.25715715 0.36476192 1.9150002
0.26582026 0.36430594 1.9150001
0.27478731 0.36354607 1.9150002
0.28086665 0.36476192 1.9150001
0.2480381 0.37752858 1.9150001
0.25533333 0.37570477 1.9150001
0.26262859 0.37752858 1.9150001
0.2480381 0.38300002 1.9150001
0.25350952 0.38300002 1.9150001
0.2298 0.41582859 1.9150001
0.23344763 0.41582859 1.9150001
-0.15502381 0.42677143 1.9150001
-0.14590478 0.42494762 1.9150002
-0.1349619 0.42494762 1.9150002
-0.12328953 0.42458287 1.9150002
-0.11490001 0.42677143 1.9150001
-0.10578096 0.42677146 1.9150002
-0.098485716 0.42677143 1.9150001
-0.083895236 0.42677146 1.9150002
-0.0766 0.42677143 1.9150001
-0.21338573 0.43771428 1.9150001
-0.2042667 0.43589053 1.9150002
-0.19514762 0.4358905 1.9150001
-0.18529904 0.43625528 1.9150002
-0.17599763 0.4349786 1.9150001
-0.16414288 0.43041909 1.9150002
-0.051066671 0.43041909 1.9150001
-0.047419049 0.43041909 1.9150001
-0.032828573 0.43406668 1.9150001
-0.025533333 0.43406671 1.9150002
-0.014590478 0.43406671 1.9150002
-0.0054714289 0.43406668 1.9150001
0.043771431 0.43771428 1.9150002
0.21520953 0.4364984 1.9150002
-0.21416737 0.44553065 1.9150002
-0.20499621 0.442821 1.9150002
-0.19514762 0.44136193 1.9150001
0.058361907 0.44136193 1.9150001
0.094838098 0.44500953 1.9150001
0.1130762 0.44136193 1.9150001
0.17690954 0.44683334 1.9150001
0.18602857 0.44318575 1.9150002
0.19514762 0.44500956 1.9150002
0.2032245 0.44448847 1.9150002
-0.22250478 0.45595241 1.9150002
-0.21739812 0.4552229 1.9150002
0.19697143 0.45230478 1.9150001
0.20061906 0.45230478 1.9150001
-0.22250476 0.46507144 1.9150001
-0.21885714 0.46507144 1.9150001
-0.22250476 0.47054285 1.9150001
0.27500001 0.27683336 1.9250001
0.27683336 0.28416669 1.9250001
0.28600001 0.28600001 1.9250001
0.29333332 0.28783333 1.9250001
0.27866668 0.29699999 1.9250001
0.2852667 0.29553333 1.9250001
0.29333332 0.29516667 1.9250001
0.27866668 0.30433339 1.9250001
0.28645834 0.30387506 1.9250001
0.29424998 0.30525002 1.9250001
0.26766667 0.31900001 1.9250001
0.27561113 0.31533337 1.9250001
0.28547621 0.31428573 1.9250002
0.2957778 0.31288889 1.9250001
0.30250001 0.31166667 1.9250001
0.26583332 0.32450002 1.9250001
0.27133337 0.32450002 1.9250001
0.264 0.32999998 1.9250001
0.25300002 0.36483335 1.9250001
0.25300002 0.37033334 1.9250001
-0.132 0.41800001 1.9250001
-0.12833333 0.41800001 1.9250001
-0.16500001 0.42900002 1.9250001
-0.15216668 0.4235 1.9250001
-0.14483333 0.42166668 1.9250001
-0.13566668 0.42166671 1.9250001
-0.12650001 0.42166668 1.9250001
-0.11366668 0.42533335 1.9250001
-0.10633333 0.42533332 1.9250001
-0.093500003 0.42900002 1.9250001
-0.084333338 0.42533332 1.9250001
-0.07333333 0.42900002 1.9250001
-0.069666669 0.42900002 1.9250001
-0.21450001 0.43633336 1.9250001
-0.19066668 0.43450004 1.9250001
-0.18516667 0.43266669 1.9250001
-0.176 0.43266672 1.9250001
-0.042166665 0.43266669 1.9250001
-0.036666665 0.43266669 1.9250001
-0.022 0.43266669 1.9250001
-0.014666667 0.43266669 1.9250001
0 0.43633336 1.9250001
0.17966667 0.43633336 1.9250001
0.18516667 0.43633336 1.9250001
0.19433334 0.43450007 1.9250001
0.20460002 0.43486673 1.9250001
0.21388888 0.43511114 1.9250001
0.22000001 0.43266669 1.9250001
-0.22146669 0.44440004 1.9250001
0.053166669 0.44000003 1.9250001
0.095333338 0.44366667 1.9250001
0.10633333 0.44366667 1.9250001
0.11366668 0.44122225 1.9250001
0.121 0.44000003 1.9250001
0.16866668 0.44550002 1.9250001
0.176 0.44427776 1.9250001
0.18516667 0.44000003 1.9250001
0.19433334 0.44000003 1.9250001
0.20533334 0.44000003 1.9250001
-0.22366667 0.45100001 1.9250001
-0.22733334 0.46750003 1.9250001
0.26919618 0.28025904 1.9360001
0.27288383 0.28025904 1.9360001
0.27657145 0.29869714 1.9360001
0.28302476 0.29224384 1.9360001
0.29132193 0.29316574 1.9360001
0.27657145 0.30607241 1.9360002
0.28394666 0.30976 1.9360001
0.26919618 0.31713524 1.9360001
0.27288383 0.31529146 1.9360001
-0.1917562 0.42776385 1.9360001
-0.18438098 0.42776388 1.9360002
-0.17516191 0.42776385 1.9360001
-0.16594288 0.42776388 1.9360002
-0.15672381 0.42592001 1.9360001
-0.14381714 0.42038858 1.9360001
-0.13644192 0.42038858 1.9360001
-0.12353525 0.42223239 1.9360001
-0.11431621 0.4240762 1.9360002
-0.10448255 0.42530543 1.9360002
-0.096800007 0.42684194 1.9360001
-0.084815241 0.42555124 1.9360001
-0.074674286 0.42684194 1.9360001
0.18622477 0.42776385 1.9360001
0.19544384 0.42776388 1.9360002
0.20281905 0.42776385 1.9360001
0.22863239 0.42776385 1.9360001
-0.22310096 0.43882671 1.9360001
-0.21019429 0.43513906 1.9360001
-0.20466286 0.43513906 1.9360001
-0.19618134 0.43292648 1.9360001
-0.18438098 0.43145144 1.9360002
-0.17516191 0.43145144 1.9360001
-0.16594286 0.43145144 1.9360001
-0.064533338 0.43145144 1.9360001
-0.033188574 0.43513906 1.9360001
-0.027657144 0.43513906 1.9360001
-0.011062858 0.43513906 1.9360001
0.0073752385 0.43882671 1.9360001
0.012906667 0.43882671 1.9360001
0.16963048 0.43882671 1.9360001
0.17516191 0.43882671 1.9360001
0.18438098 0.43329525 1.9360001
0.19544384 0.43145144 1.9360002
0.20466286 0.43145144 1.9360001
0.21388191 0.43513906 1.9360001
0.22310096 0.43145144 1.9360001
-0.23232001 0.44620192 1.9360001
-0.22740319 0.44620192 1.9360002
0.059001908 0.4425143 1.9360001
0.062689528 0.44620192 1.9360001
0.088502862 0.44620192 1.9360001
0.10325334 0.44620192 1.9360001
0.11062858 0.4425143 1.9360001
0.16963048 0.4425143 1.9360001
0.17516191 0.4425143 1.9360001
-0.23354922 0.45603558 1.9360002
-0.22863239 0.45542097 1.9360001
-0.23416385 0.46463999 1.9360001
-0.22863239 0.46279621 1.9360001
-0.23354922 0.47324449 1.9360002
-0.22863239 0.47754669 1.9360001
0.2762886 0.28741431 1.9470001
0.27814287 0.29668573 1.9470001
0.27258003 0.30595717 1.9470001
0.26701716 0.31893718 1.9470001
0.27258003 0.31337431 1.9470001
0.26701716 0.32264572 1.9470001
-0.13536286 0.4190686 1.9470001
-0.12980001 0.4190686 1.9470001
-0.20026287 0.42648575 1.9470001
-0.19470002 0.42648575 1.9470001
-0.18542859 0.42648575 1.9470003
-0.17430288 0.42648575 1.9470003
-0.16503143 0.42648575 1.9470001
-0.15576002 0.42401338 1.9470003
-0.14463429 0.42277718 1.9470001
-0.12238287 0.42277718 1.9470001
-0.11496572 0.42277718 1.9470003
-0.10384002 0.42277718 1.9470003
-0.09456858 0.42648575 1.9470001
-0.087151438 0.42277718 1.9470001
-0.072317146 0.42648575 1.9470001
-0.22622287 0.43761146 1.9470003
-0.21509716 0.43452096 1.9470003
-0.20471315 0.43167779 1.9470001
-0.1965543 0.43019432 1.9470001
-0.064900003 0.43019432 1.9470001
-0.056555718 0.43297574 1.9470001
-0.048211433 0.43390286 1.9470001
-0.018542858 0.43761146 1.9470001
-0.0055628577 0.43761146 1.9470001
0.16688572 0.43761146 1.9470001
0.17430286 0.43575716 1.9470003
0.18172002 0.43019432 1.9470001
0.20768 0.43019432 1.9470001
0.21417001 0.43297574 1.9470001
0.22436859 0.43019432 1.9470001
-0.24105716 0.44873717 1.9470001
-0.23549429 0.4450286 1.9470001
-0.22993144 0.4431743 1.9470001
0.0037085717 0.44132003 1.9470001
0.042648576 0.44132003 1.9470001
0.064900003 0.4468829 1.9470001
0.07046286 0.44873717 1.9470001
0.09456858 0.4450286 1.9470001
0.10384002 0.44502863 1.9470003
0.11496572 0.44132003 1.9470003
0.12238287 0.44132003 1.9470001
-0.24370615 0.45668414 1.9470003
-0.2361124 0.45368195 1.9470003
-0.24476574 0.46542573 1.9470003
-0.24229336 0.4722248 1.9470003
0.27225524 0.28717333 1.9580001
0.27598476 0.29556477 1.9580001
0.26852572 0.30955049 1.9580001
0.27412 0.30209145 1.9580001
0.26852572 0.31514478 1.9580001
0.27225524 0.31327999 1.9580001
0.18647619 0.37295237 1.9580001
0.19020571 0.37295237 1.9580001
-0.15291047 0.41770667 1.9580001
-0.22190668 0.42889526 1.9580001
-0.21444762 0.4270305 1.9580001
-0.20512383 0.42516574 1.9580002
-0.19393525 0.42330098 1.9580001
-0.18523303 0.42392254 1.9580001
-0.17528763 0.42516574 1.9580001
-0.16409904 0.42516574 1.9580001
-0.15291047 0.42143622 1.9580001
-0.14545143 0.42143625 1.9580001
-0.1268038 0.42143622 1.9580001
-0.11561524 0.42143625 1.9580001
-0.10815619 0.42143622 1.9580001
-0.095102862 0.42516571 1.9580001
-0.082049526 0.42330098 1.9580001
-0.074590474 0.42330098 1.9580001
-0.065888256 0.42640895 1.9580001
-0.05594286 0.42889529 1.9580001
0.18523303 0.42765209 1.9580001
0.19393525 0.4270305 1.9580001
0.20437792 0.42740345 1.9580001
0.22750096 0.42889526 1.9580001
0.23247366 0.42765209 1.9580001
-0.23247366 0.43511114 1.9580001
-0.22451735 0.43411657 1.9580001
-0.21631238 0.43262476 1.9580001
-0.054078095 0.43262476 1.9580001
-0.044754285 0.43448952 1.9580001
-0.037295237 0.43635431 1.9580001
-0.013053333 0.43635431 1.9580001
0.17528763 0.43262476 1.9580001
0.21631238 0.43262476 1.9580001
0.22004192 0.43262476 1.9580001
-0.265329 0.44487897 1.9580002
-0.25547236 0.44567811 1.9580001
-0.24614856 0.44381332 1.9579999
-0.23744635 0.44132704 1.9580001
0.0037295239 0.44008383 1.9580001
0.014918095 0.44194859 1.9580001
0.024241906 0.44381335 1.9580001
0.033565715 0.44381335 1.9580001
0.048483811 0.44381335 1.9580001
0.05594286 0.44381338 1.9580001
0.065266669 0.44567811 1.9580001
0.076455235 0.44754288 1.9580001
0.085779056 0.44754288 1.9580001
0.096967623 0.44381335 1.9580001
0.10629143 0.44381335 1.9580001
0.11748 0.44008383 1.9580001
0.12307428 0.44008383 1.9580001
-0.2647962 0.4512724 1.9580001
-0.25454 0.45593429 1.9580001
-0.24894573 0.45406953 1.9580001
-0.25547236 0.46246096 1.9580001
0.27503496 0.29503748 1.9690002
0.26628384 0.30753905 1.9690001
0.27003428 0.3037886 1.9690002
0.26628384 0.31504005 1.9690002
0.26628384 0.32441622 1.9690001
0.26628384 0.33004192 1.9690001
0.18377334 0.37504762 1.9690001
0.20627619 0.40130097 1.9690001
0.21002668 0.40130097 1.9690001
-0.15376952 0.41630286 1.9690001
0.19690001 0.41630286 1.9690001
0.20502603 0.41505274 1.9690002
0.21190192 0.41630286 1.9690001
0.22877906 0.41630286 1.9690001
0.23252952 0.41630286 1.9690001
-0.22502859 0.42661673 1.9690001
-0.21283954 0.4228662 1.9690001
-0.20440096 0.42005336 1.9690001
-0.19877525 0.42005336 1.9690001
-0.18377334 0.42255366 1.9690002
-0.17439716 0.42380384 1.9690001
-0.16408335 0.42286623 1.9690001
-0.15501969 0.42130351 1.9690002
-0.14439334 0.42005336 1.9690001
-0.13689238 0.42005336 1.9690001
-0.12376572 0.42380384 1.9690001
-0.1031381 0.42380384 1.9690001
-0.093761906 0.42380387 1.9690002
