# .PCD v0.7 - Point Cloud Data file format
VERSION 0.7
FIELDS x y z
SIZE 4 4 4
TYPE F F F
COUNT 1 1 1
WIDTH 1502
HEIGHT 1
VIEWPOINT 0 0 0 1 0 0 0
POINTS 1502
DATA ascii
0.31765714 0.12706286 1.853
0.32542211 0.12565105 1.853
0.33295178 0.12353334 1.853
0.33177525 0.13059239 1.853
0.31236285 0.14824 1.853
0.31295115 0.15294604 1.853
0.30442142 0.20559475 1.853
0.30706856 0.21177143 1.853
0.20118286 0.24706668 1.853
0.26824382 0.25765523 1.853
0.18706475 0.26824382 1.853
0.19235905 0.26824382 1.853
0.26647907 0.2647143 1.853
0.27177334 0.26647907 1.853
0.18706475 0.27177334 1.853
0.19059429 0.27177334 1.853
0.26824382 0.27177334 1.853
0.27671468 0.27389106 1.853
0.27353811 0.28942096 1.853
0.26824382 0.29471523 1.853
0.27353811 0.29471526 1.853
0.26647905 0.30177426 1.853
0.27353811 0.30000952 1.853
0.25765523 0.31412765 1.853
0.26206717 0.31324524 1.853
0.24353714 0.34942287 1.853
0.24471366 0.36471748 1.853
0.24530192 0.37236476 1.853
-0.15353429 0.42707241 1.853
-0.14118096 0.42707241 1.853
-0.13412192 0.42707241 1.853
-0.12353334 0.42707241 1.853
-0.11470953 0.42707241 1.853
-0.10588571 0.42707241 1.853
-0.095297143 0.42707241 1.853
0.13765143 0.42707241 1.853
-0.19235905 0.43766096 1.853
-0.18353526 0.43413147 1.853
-0.17471144 0.43060192 1.853
-0.16588762 0.43060192 1.853
-0.15882857 0.43060192 1.853
-0.086473331 0.43060192 1.853
0.13765143 0.43060192 1.853
0.14294572 0.43413147 1.853
-0.21177143 0.44824955 1.853
-0.20471239 0.44589657 1.853
-0.1941238 0.44119048 1.853
-0.014118096 0.44472003 1.853
-0.0052942857 0.44472003 1.853
0.014118096 0.44824955 1.853
0.031765714 0.44824955 1.853
0.060001906 0.44824955 1.853
0.075884759 0.44472003 1.853
0.081179045 0.44472003 1.853
0.14824 0.44824955 1.853
0.15412255 0.4453083 1.853
0.16765238 0.4464848 1.853
0.1741232 0.44472003 1.853
0.18000573 0.44295526 1.853
-0.22236001 0.45530856 1.853
-0.21765397 0.45295557 1.853
0.045883812 0.45177907 1.853
0.15529905 0.45177907 1.853
0.16235809 0.45354381 1.853
0.15176952 0.46589714 1.853
0.35840574 -0.031937145 1.863
0.36550289 -0.031937145 1.8630002
0.37614855 -0.033120003 1.8630002
0.35698628 -0.024130285 1.8630002
0.36337373 -0.025549715 1.8630002
0.37969714 -0.028388571 1.863
0.38502002 -0.024840001 1.863
0.39744002 -0.021291429 1.863
0.40364999 -0.023952857 1.863
0.34539425 -0.013011429 1.8630002
0.35485715 -0.014194285 1.863
0.36195427 -0.014194285 1.863
0.33445287 -0.0044357143 1.863
0.34350172 -0.0056777145 1.8630002
0.35604 -0.0059142858 1.8630002
0.36195427 -0.0070971427 1.863
0.32646856 0.0053228568 1.863
0.33179146 0.0017742857 1.863
0.35485715 0.0035485714 1.863
0.31671 0.014194285 1.863
0.32469428 0.010645715 1.863
0.30872571 0.021291429 1.863
0.31227428 0.021291429 1.863
0.38442859 0.026022857 1.8630002
0.37969714 0.03726 1.863
0.38502002 0.031937145 1.863
0.39034286 0.031937145 1.863
0.30162856 0.049680002 1.863
0.25786287 0.12656572 1.8630002
0.31937143 0.13129714 1.863
0.32469428 0.13129714 1.863
0.33001715 0.13307142 1.863
0.27501428 0.25904572 1.863
0.28033715 0.25904572 1.863
0.27590144 0.26525572 1.863
0.28337878 0.26715675 1.8630002
0.28388572 0.27324 1.863
0.24698058 0.35556689 1.8630002
0.25194857 0.35485715 1.8630002
0.24721715 0.36432001 1.8630002
0.25372288 0.36550283 1.8630002
0.2484 0.37969714 1.863
0.25283572 0.37703574 1.863
0.2484 0.38324574 1.863
0.25194857 0.38324574 1.863
-0.18097714 0.42937714 1.863
-0.17388001 0.42937717 1.8630002
-0.16441715 0.42819428 1.8630002
-0.15702428 0.42671573 1.863
-0.14726572 0.42937714 1.863
-0.085165724 0.42937717 1.8630002
-0.19280574 0.43529147 1.8630002
-0.18452571 0.43292576 1.8630002
-0.081617139 0.43292573 1.863
-0.074520007 0.43292576 1.8630002
0.14785716 0.43410859 1.8630002
0.15258858 0.43647429 1.863
-0.21291429 0.44712001 1.863
-0.20581715 0.44357142 1.8630002
-0.19872001 0.44179714 1.863
-0.023065716 0.44712001 1.863
-0.014194285 0.44357142 1.8630002
-0.0070971427 0.44357142 1.863
0.0035485714 0.44712004 1.8630002
0.010645715 0.44712001 1.863
0.067422852 0.44712001 1.863
0.074519999 0.4453457 1.863
0.14904 0.44179714 1.863
0.15613714 0.44179714 1.863
0.16441715 0.4447543 1.8630002
-0.22474286 0.45303434 1.8630002
-0.21646287 0.45066857 1.863
0.017742857 0.45066857 1.863
0.024840003 0.45066857 1.8630002
0.03726 0.45066857 1.863
0.046131432 0.45066857 1.8630002
0.055002857 0.45066857 1.863
0.15968572 0.45066857 1.863
0.16323428 0.45066857 1.863
0.36211336 -0.042811431 1.8730001
0.37460002 -0.042811435 1.8730001
0.38173527 -0.042811431 1.8730001
0.34962669 -0.032108575 1.8730001
0.35497814 -0.035676192 1.8730001
0.36389717 -0.037460003 1.8730001
0.3738865 -0.037816763 1.8730001
0.38458937 -0.034962669 1.8730001
0.39600575 -0.032108575 1.8730001
0.33892384 -0.021405715 1.8730001
0.34724826 -0.023784129 1.8730001
0.35408625 -0.025865238 1.8730001
0.38708669 -0.028540954 1.8730001
0.39671928 -0.027113905 1.8730001
0.32822096 -0.010702858 1.8730001
0.3358022 -0.013824525 1.8730001
0.34368068 -0.016648892 1.8730001
0.32554525 -0.0044595241 1.8730001
0.33357239 -0.0071352385 1.8730001
0.31751812 0.0071352385 1.8730001
0.32363403 0.0030579595 1.8730003
0.31395048 0.013378572 1.8730001
0.38887051 0.028540954 1.8730001
0.30562609 0.035676192 1.8730001
0.38708669 0.037459999 1.8730001
0.39243811 0.037459999 1.8730001
0.29968002 0.049946669 1.8730001
0.30324766 0.044595242 1.8730001
0.38530287 0.042811431 1.8730001
0.2943286 0.055298097 1.8730001
0.35497814 0.089190483 1.8730001
0.35497814 0.092758104 1.8730001
0.36032957 0.094541907 1.8730001
0.26043621 0.12129906 1.8730001
0.28719336 0.26222003 1.8730001
0.29254478 0.26400384 1.8730001
0.2568686 0.36032957 1.8730001
0.26400384 0.3638972 1.8730003
0.27113909 0.36389717 1.8730001
0.2568686 0.37638384 1.8730001
0.26043621 0.37103242 1.8730001
-0.18373239 0.4281143 1.8730001
-0.17481336 0.4281143 1.8730001
-0.16500239 0.42543861 1.8730001
-0.15519144 0.42454672 1.8730001
-0.14627239 0.4281143 1.8730001
-0.13556953 0.4281143 1.8730001
-0.12486668 0.4281143 1.8730001
-0.11416382 0.4281143 1.8730001
-0.10524476 0.4281143 1.8730001
-0.096325725 0.4281143 1.8730001
-0.085622869 0.4281143 1.8730001
-0.076703817 0.4281143 1.8730001
0.15340763 0.4281143 1.8730001
-0.20513812 0.43881717 1.8730001
-0.19711097 0.43524957 1.8730001
-0.18730001 0.43168193 1.8730001
-0.074920014 0.43168196 1.8730001
0.14627239 0.43168196 1.8730001
0.1555482 0.43453604 1.8730001
0.16411048 0.43739015 1.8730001
0.17838097 0.43703336 1.8730001
0.18551621 0.4352496 1.8730003
-0.2240465 0.448093 1.8730001
-0.21477067 0.44523889 1.8730001
-0.20692192 0.44238478 1.8730001
-0.023189526 0.44595242 1.8730001
-0.0035676192 0.44595242 1.8730001
0.014270477 0.44952002 1.8730001
0.06421715 0.44833082 1.8730001
0.073136196 0.44595242 1.8730001
0.083839051 0.4477362 1.8730001
0.16411048 0.44238481 1.8730001
0.17481335 0.44523889 1.8730001
0.18373239 0.44238478 1.8730001
0.17838097 0.45308766 1.8730001
0.36673671 -0.051110003 1.8830001
0.3748067 -0.052006669 1.8830001
0.38274863 -0.053287622 1.8830004
0.39094669 -0.050213337 1.8830001
0.35597667 -0.043936666 1.8830001
0.36673671 -0.045730002 1.8830001
0.3748067 -0.046626668 1.8830001
0.38467002 -0.045730002 1.8830001
0.39381602 -0.044474669 1.8830003
0.34647202 -0.035149336 1.8830003
0.35149336 -0.037660003 1.8830001
0.38736004 -0.039453335 1.8830001
0.39453337 -0.037660003 1.8830003
0.40529338 -0.03586667 1.8830004
0.41605338 -0.032280006 1.8830001
0.32997334 -0.02152 1.8830001
0.33595115 -0.022715557 1.8830001
0.34360266 -0.027258668 1.8830003
0.4070867 -0.028693335 1.8830001
0.41665113 -0.026302224 1.8830003
0.32710403 -0.013629335 1.8830003
0.33356002 -0.017933335 1.8830001
0.31921333 -0.0035866669 1.8830001
0.32459337 -0.0071733338 1.8830001
0.31622446 0.0035866671 1.8830003
0.31204003 0.012553334 1.8830001
0.39812002 0.016140001 1.8830001
0.40290225 0.01673778 1.8830001
0.30845338 0.025106668 1.8830001
0.39632672 0.025106668 1.8830003
0.40350005 0.025106668 1.8830003
0.30486667 0.03586667 1.8830001
0.39812002 0.032280002 1.8830001
0.4017067 0.032280002 1.8830001
0.29769337 0.050213337 1.8830001
0.28693336 0.064560004 1.8830001
0.29052001 0.060973335 1.8830001
0.26613069 0.37516537 1.8830003
0.2725867 0.3748067 1.8830001
0.26541334 0.38018668 1.8830001
0.2725867 0.38018668 1.8830001
-0.18292001 0.42681336 1.8830001
-0.17574668 0.42681336 1.8830001
-0.16140002 0.42322668 1.8830001
-0.15064001 0.42681336 1.8830001
-0.14526001 0.42681336 1.8830001
-0.13629335 0.42681336 1.8830001
-0.12553334 0.42681336 1.8830001
-0.11477335 0.42681336 1.8830001
-0.10401335 0.42681336 1.8830001
-0.07890667 0.42681336 1.8830001
0.14526001 0.42681336 1.8830001
0.15243334 0.42681336 1.8830001
-0.20444001 0.43578002 1.8830001
-0.19457668 0.43129671 1.8830001
0.14526001 0.43040004 1.8830001
0.15422668 0.43040004 1.8830001
0.16498668 0.43338892 1.8830003
0.17502935 0.43542138 1.8830003
0.18292001 0.43398669 1.8830001
-0.22416668 0.4447467 1.8830001
-0.21520001 0.4423556 1.8830001
-0.032280002 0.44833335 1.8830001
-0.025106668 0.44594225 1.8830001
-0.014346668 0.4447467 1.8830001
-0.0071733338 0.4447467 1.8830001
0.0035866671 0.44833335 1.8830001
0.01076 0.44833335 1.8830001
0.062766671 0.44833335 1.8830001
0.077113338 0.4447467 1.8830001
0.17455113 0.4423556 1.8830001
-0.032280002 0.45192 1.8830001
-0.028693335 0.45192 1.8830001
0.017933335 0.45192 1.8830001
0.025106668 0.45192 1.8830001
0.03586667 0.45192 1.8830001
0.044833332 0.45192 1.8830001
0.053800002 0.45192 1.8830001
0.35715431 -0.050506666 1.8940001
0.36436951 -0.052911744 1.8940001
0.37699622 -0.057721905 1.8940001
0.38962287 -0.055918097 1.8940001
0.39539504 -0.054835808 1.8940001
0.40405336 -0.05411429 1.8940002
0.34993905 -0.043291431 1.8940001
0.35535049 -0.04689905 1.8940001
0.40477487 -0.045456003 1.8940001
0.41307241 -0.045095243 1.8940001
0.33911622 -0.032468572 1.8940001
0.34392637 -0.036076192 1.8940001
0.41559774 -0.038240761 1.8940001
0.42209142 -0.03788 1.8940001
0.33550858 -0.026455875 1.8940001
0.32468575 -0.014430476 1.8940001
0.31747046 -0.0054114284 1.8940001
0.32107812 -0.0072152382 1.8940001
0.31386286 0.0036076191 1.8940001
0.31025523 0.014430476 1.8940001
0.30664763 0.027057143 1.8940001
0.30484381 0.036076188 1.8940001
0.30304 0.045095243 1.8940001
0.26696381 0.38601524 1.8940001
-0.20202667 0.42930666 1.8940001
-0.19481145 0.42930669 1.8940001
-0.1875962 0.42930666 1.8940001
-0.16595048 0.42569906 1.8940001
-0.15512761 0.42569908 1.8940001
-0.12626669 0.42569908 1.8940001
-0.11905143 0.42569906 1.8940001
-0.093798101 0.42930669 1.8940001
-0.084779054 0.42930666 1.8940001
0.15512761 0.42690158 1.8940001
0.16595048 0.42930666 1.8940001
0.17316572 0.42930666 1.8940001
0.18038096 0.42930666 1.8940001
-0.2056343 0.43411684 1.8940001
0.16595048 0.43291429 1.8940001
0.17496952 0.43291429 1.8940001
0.18398857 0.43291432 1.8940001
-0.23088762 0.44734475 1.8940001
-0.22186857 0.44373715 1.8940001
-0.21465334 0.44012955 1.8940001
-0.032468572 0.44734475 1.8940001
-0.025253333 0.44554096 1.8940001
-0.014430476 0.44373715 1.8940001
-0.0036076191 0.44734475 1.8940001
0.0036076191 0.44734475 1.8940001
0.012626667 0.44734475 1.8940001
0.023449525 0.44734475 1.8940001
0.06854476 0.44734475 1.8940001
0.075759999 0.44554096 1.8940001
0.084779054 0.44734475 1.8940001
-0.23088762 0.45095238 1.8940001
0.016234286 0.45095238 1.8940001
0.025253337 0.45095238 1.8940001
0.032468572 0.45095238 1.8940001
0.043291431 0.45095238 1.8940001
0.057721905 0.45095238 1.8940001
0.086582862 0.45095238 1.8940001
0.091994286 0.45095238 1.8940001
0.37717333 -0.061653331 1.904
0.38624001 -0.061653331 1.904
0.39168 -0.061653331 1.904
0.35541335 -0.050773334 1.904
0.36629337 -0.056817781 1.904
0.37354666 -0.058026668 1.904
0.34816 -0.04352 1.904
0.35178667 -0.047146667 1.904
0.34271997 -0.038079999 1.904
0.33365333 -0.025386667 1.904
0.32458669 -0.016320001 1.904
0.3137067 0.0036266667 1.904
0.30826667 0.018133335 1.904
0.30826667 0.02176 1.904
0.30464 0.03626667 1.904
0.29557335 0.056213334 1.904
0.28650665 0.068906672 1.904
-0.18314667 0.42794669 1.904
-0.17408 0.42794669 1.904
-0.15232 0.42432001 1.904
-0.14506668 0.42794669 1.904
-0.13600001 0.42794669 1.904
-0.11424001 0.42794669 1.904
-0.10517333 0.42794669 1.904
-0.094293341 0.42794669 1.904
-0.08704 0.42794669 1.904
0.14869334 0.42794669 1.904
0.15685333 0.42522669 1.904
0.16501334 0.42794669 1.904
0.17408 0.42794669 1.904
0.18314667 0.42794669 1.904
-0.22304001 0.43882668 1.904
-0.21397334 0.43580446 1.9040002
-0.20671999 0.43157333 1.904
0.16682667 0.43157333 1.904
0.17770667 0.43157333 1.904
0.18677333 0.43157333 1.904
-0.22485334 0.44366226 1.904
-0.035057779 0.44487113 1.904
-0.0272 0.44608 1.904
-0.00544 0.44608 1.904
0 0.44608 1.904
0.018133335 0.44970667 1.904
0.029013334 0.44970667 1.904
0.032639999 0.44970667 1.904
0.063466668 0.44970667 1.904
0.076159999 0.44608 1.904
0.094293341 0.44970667 1.904
0.038079999 0.45333332 1.904
0.047146667 0.45333332 1.904
0.052586667 0.45333332 1.904
0.36840954 -0.062009525 1.9150001
0.37388095 -0.062009525 1.9150001
0.38300002 -0.062009525 1.9150001
0.39515877 -0.066265084 1.9150002
0.40123814 -0.065657146 1.9150002
0.35381904 -0.051066671 1.9150001
0.36293811 -0.056538098 1.9150001
0.34470001 -0.041947618 1.9150001
0.35017145 -0.047419049 1.9150001
0.33922857 -0.032828573 1.9150001
0.33375716 -0.027357144 1.9150001
0.31734288 -0.0036476192 1.9150001
0.31369525 0.0036476192 1.9150001
0.31004763 0.012766667 1.9150001
0.3064 0.025533333 1.9150002
0.3064 0.032828573 1.9150001
0.30275241 0.04559524 1.9150001
0.29910478 0.051066671 1.9150001
0.29180953 0.062009525 1.9150001
0.26262859 0.12766667 1.9150001
0.26627621 0.39029527 1.9150001
-0.16414288 0.42677146 1.9150002
-0.15502381 0.42494762 1.9150001
-0.1466343 0.42531243 1.9150002
-0.1349619 0.42677146 1.9150002
-0.12401905 0.42677146 1.9150002
-0.087542862 0.42677143 1.9150001
0.16487239 0.42458287 1.9150002
0.17508572 0.42494762 1.9150002
0.18420476 0.42494762 1.9150001
-0.22524047 0.43680236 1.9150001
-0.21703334 0.43406668 1.9150001
-0.1896762 0.43041909 1.9150001
-0.043771431 0.43771428 1.9150001
-0.23344763 0.44683334 1.9150001
-0.2298 0.44318575 1.9150001
-0.041947618 0.44318575 1.9150001
-0.032828573 0.44500953 1.9150001
-0.025533333 0.44500956 1.9150002
-0.014590478 0.44500956 1.9150002
-0.0054714289 0.44500953 1.9150001
0.0036476194 0.44744128 1.9150002
0.014590478 0.44865716 1.9150002
0.023709524 0.44865716 1.9150001
0.083895251 0.44744128 1.9150002
0.094838098 0.44865716 1.9150002
0.036476191 0.45230478 1.9150001
0.043771431 0.45230478 1.9150002
0.056538098 0.45230478 1.9150001
0.36666667 -0.064166665 1.9250001
0.37400004 -0.066 1.9250001
0.38499999 -0.066 1.9250001
0.39233333 -0.069666669 1.9250001
0.35566667 -0.053166669 1.9250001
0.36300001 -0.058666669 1.9250001
0.34100002 -0.036666665 1.9250001
0.32999998 -0.022 1.9250001
0.32450002 -0.014666666 1.9250001
0.31900001 -0.0073333336 1.9250001
0.31349999 0.0036666668 1.9250001
0.30800003 0.018333333 1.9250001
0.30433336 0.034833334 1.9250001
0.30188891 0.044 1.9250001
0.29699999 0.055000003 1.9250001
0.264 0.12466668 1.9250001
-0.19066668 0.42900002 1.9250001
-0.18516667 0.42900002 1.9250001
-0.176 0.42900002 1.9250001
-0.15766667 0.42533332 1.9250001
-0.14300001 0.42533332 1.9250001
-0.13566667 0.42441666 1.9250001
-0.12650001 0.42533332 1.9250001
-0.11733334 0.42900002 1.9250001
-0.093500003 0.42900002 1.9250001
0.16500001 0.42166671 1.9250001
0.17416668 0.42166668 1.9250001
-0.22366667 0.43266669 1.9250001
-0.21266666 0.43266669 1.9250001
-0.20533335 0.43266672 1.9250001
-0.19616666 0.43266669 1.9250001
-0.036666665 0.44366667 1.9250001
-0.025666667 0.44366667 1.9250001
-0.014666667 0.44366667 1.9250001
-0.0055 0.44366667 1.9250001
0.0055 0.44733334 1.9250001
0.014666666 0.44733334 1.9250001
0.088 0.44733334 1.9250001
0.091666669 0.44733334 1.9250001
0.029333334 0.45100001 1.9250001
0.034833334 0.45100001 1.9250001
0.051333334 0.45466667 1.9250001
0.067833334 0.45100001 1.9250001
0.07333333 0.45100001 1.9250001
0.36876193 -0.070064761 1.9360001
0.37613714 -0.070064768 1.9360002
0.38351241 -0.070064761 1.9360001
0.39457524 -0.072523177 1.9360002
0.40195051 -0.073752381 1.9360001
0.36507431 -0.062689528 1.9360001
0.35585526 -0.055314288 1.9360001
0.36138669 -0.059001908 1.9360001
0.35032383 -0.047939051 1.9360001
0.33926097 -0.033188574 1.9360001
0.33557335 -0.029500954 1.9360001
0.32451048 -0.014750477 1.9360001
0.31344765 0.0036876192 1.9360001
0.30515048 0.026735239 1.9360001
0.30238479 0.035032384 1.9360001
0.29869714 0.047939051 1.9360001
0.30238479 0.040563811 1.9360001
0.29685333 0.055314288 1.9360001
0.20466286 0.26366478 1.9360001
-0.1917562 0.42776385 1.9360001
-0.18438098 0.42776388 1.9360002
-0.17516191 0.42776385 1.9360001
-0.16594288 0.42776388 1.9360002
-0.15303621 0.4240762 1.9360001
-0.14381716 0.4240762 1.9360002
-0.1327543 0.4240762 1.9360001
-0.12537906 0.42530543 1.9360002
-0.11800382 0.42776385 1.9360001
-0.094034292 0.42776385 1.9360001
-0.22125715 0.43513906 1.9360001
-0.21756953 0.43513906 1.9360001
-0.20281905 0.43145144 1.9360001
-0.19728763 0.43145144 1.9360001
-0.11247239 0.43145144 1.9360001
-0.10509715 0.43145144 1.9360001
-0.099565722 0.43145144 1.9360001
-0.046709847 0.43759748 1.9360002
-0.040563811 0.4425143 1.9360001
-0.035032384 0.44435811 1.9360001
-0.023969525 0.4425143 1.9360001
0.0018438096 0.44620192 1.9360001
0.014750477 0.44743115 1.9360002
0.022125715 0.44988954 1.9360001
0.094034292 0.44620192 1.9360001
0.044251435 0.45357716 1.9360002
0.055314288 0.45357716 1.9360002
0.062689528 0.45357716 1.9360001
0.39681715 -0.081588574 1.9470001
0.40238005 -0.081588574 1.9470001
0.38940004 -0.07046286 1.9470001
0.39681715 -0.07788001 1.9470001
0.40238005 -0.07788001 1.9470001
0.36529434 -0.064900003 1.9470001
0.35231429 -0.05192 1.9470001
0.34489718 -0.040794287 1.9470001
0.33748004 -0.033377144 1.9470001
0.34118858 -0.037085716 1.9470001
0.33377144 -0.02596 1.9470001
0.32450002 -0.014834287 1.9470001
0.31893718 -0.0037085717 1.9470001
0.31522858 0 1.9470001
0.30781144 0.018542858 1.9470001
0.31152004 0.014834287 1.9470001
0.3028667 0.025960004 1.9470003
0.30039433 0.03523143 1.9470001
0.29668573 0.048211433 1.9470001
0.30039433 0.042648576 1.9470001
0.29668573 0.05377429 1.9470001
0.29297718 0.064900003 1.9470001
0.28926858 0.074171431 1.9470001
0.28185144 0.089005724 1.9470001
0.27814287 0.096422866 1.9470001
0.28185144 0.09456858 1.9470001
0.27814287 0.10384 1.9470001
0.28185144 0.10384 1.9470001
0.26330858 0.12794572 1.9470001
0.2484743 0.15946859 1.9470001
0.24476574 0.16317715 1.9470001
0.20582572 0.25960001 1.9470001
-0.19284573 0.42648575 1.9470001
-0.18542859 0.42648575 1.9470003
-0.17430288 0.42648575 1.9470003
-0.16503143 0.42648575 1.9470001
-0.15576002 0.42463148 1.9470001
-0.14463429 0.42277718 1.9470003
-0.13536286 0.42277718 1.9470001
-0.12609145 0.42401338 1.9470003
-0.11867429 0.42648575 1.9470001
-0.09456858 0.42648575 1.9470001
-0.22622287 0.43390286 1.9470001
-0.21509716 0.43390286 1.9470001
-0.20397145 0.43143052 1.9470003
-0.1965543 0.43019432 1.9470001
-0.11311144 0.43019432 1.9470001
-0.10384002 0.43019432 1.9470003
-0.042648576 0.43761146 1.9470001
-0.040794287 0.44132003 1.9470001
-0.03523143 0.4431743 1.9470001
-0.029668573 0.4450286 1.9470001
-0.014834288 0.44502863 1.9470003
-0.0055628577 0.4450286 1.9470001
0.0074171433 0.44873717 1.9470001
0.014834287 0.44873717 1.9470001
0.022251431 0.44873717 1.9470001
0.089005724 0.44873717 1.9470001
0.096422866 0.4450286 1.9470001
0.10105859 0.44410145 1.9470001
0.027814288 0.45244575 1.9470001
0.03523143 0.45244575 1.9470001
0.044502866 0.45244575 1.9470003
0.055628579 0.45244575 1.9470003
0.064900003 0.45244575 1.9470001
0.074171439 0.45244575 1.9470003
0.085297145 0.45244575 1.9470001
0.096422866 0.45244575 1.9470001
0.10013144 0.45244575 1.9470001
0.36735809 -0.070860952 1.9580001
0.37668192 -0.074590474 1.9580001
0.38414097 -0.074590474 1.9580001
0.39408636 -0.075833648 1.9580001
0.36549333 -0.06713143 1.9580001
0.35057524 -0.052213334 1.9580001
0.36176383 -0.059672382 1.9580001
0.35057524 -0.048483811 1.9580001
0.33938667 -0.037295237 1.9580001
0.33192763 -0.022377143 1.9580001
0.32446858 -0.014918095 1.9580001
0.31700954 -0.0037295239 1.9580001
0.32073903 -0.0074590477 1.9580001
0.31327999 0.0074590477 1.9580001
0.30768573 0.016782857 1.9580001
0.31327999 0.011188571 1.9580001
0.30209145 0.026106667 1.9580001
0.29649717 0.04661905 1.9580001
0.29276764 0.05594286 1.9580001
0.28717333 0.06713143 1.9580001
0.29090285 0.065266669 1.9580001
0.2853086 0.074590474 1.9580001
0.29090285 0.070860952 1.9580001
0.27971429 0.089508571 1.9580001
0.28530857 0.083914287 1.9580001
0.27784953 0.095102862 1.9580001
0.27971429 0.10069714 1.9580001
0.26852572 0.11934476 1.9580001
0.27349842 0.11685842 1.9580001
0.26666096 0.12307428 1.9580001
0.27225524 0.12307428 1.9580001
0.26293141 0.1323981 1.9580001
0.26106665 0.14358667 1.9580001
0.24863493 0.15539682 1.9580001
0.2536076 0.15291047 1.9580001
0.23868953 0.16596381 1.9580001
0.24391086 0.16409905 1.9580001
0.23868953 0.17342286 1.9580001
0.24366222 0.17280129 1.9580001
0.23123048 0.20139429 1.9580001
0.20885333 0.25733715 1.9580001
0.21258286 0.25733715 1.9580001
0.19766477 0.27784953 1.9580001
0.20325905 0.27598476 1.9580001
-0.20139429 0.42889526 1.9580001
-0.19393525 0.4270305 1.9580001
-0.18461142 0.42516571 1.9580001
-0.17528763 0.42516574 1.9580001
-0.16409904 0.42516574 1.9580001
-0.15663999 0.42516571 1.9580001
-0.14545143 0.42143625 1.9580001
-0.13426286 0.42143625 1.9580001
-0.12307428 0.42516571 1.9580001
-0.11486933 0.42665753 1.9580001
-0.10389388 0.42623129 1.9580002
-0.096967623 0.42330098 1.9580001
-0.22377144 0.43635431 1.9580001
-0.21631238 0.43635431 1.9580001
-0.20885333 0.43262476 1.9580001
-0.034808889 0.44132704 1.9580001
-0.026106667 0.44381338 1.9580001
-0.018647619 0.44381335 1.9580001
0.0037295239 0.44754288 1.9580001
0.011188571 0.44754288 1.9580001
0.089508571 0.44754288 1.9580001
0.095102862 0.44567811 1.9580001
0.10442667 0.44754288 1.9580001
0.027971428 0.4512724 1.9580001
0.035430476 0.4512724 1.9580001
0.044754289 0.45127243 1.9580001
0.05594286 0.45127243 1.9580001
0.085779049 0.4512724 1.9580001
0.10442667 0.4512724 1.9580001
0.39755049 -0.084385723 1.9690001
0.40317619 -0.08626096 1.9690001
0.3637962 -0.071259052 1.9690001
0.38629904 -0.078760006 1.9690001
0.3919248 -0.078760006 1.9690001
0.36192095 -0.063758098 1.9690001
0.35629526 -0.056257147 1.9690001
0.34691906 -0.04313048 1.9690001
0.35254478 -0.045005716 1.9690001
0.33754286 -0.03000381 1.9690001
0.33379239 -0.026253335 1.9690001
0.32441622 -0.015001905 1.9690001
0.3187905 -0.0075009526 1.9690001
0.31504002 0.0018752381 1.9690001
0.31128952 0.011251429 1.9690001
0.3037886 0.022502858 1.9690001
0.29628763 0.037504762 1.9690001
0.3000381 0.035629526 1.9690001
0.29441237 0.04500572 1.9690001
0.3000381 0.041255239 1.9690001
0.2875365 0.055006988 1.9690002
0.27753526 0.067508571 1.9690001
0.28503621 0.063758105 1.9690001
0.27753526 0.075009525 1.9690002
0.2812857 0.075009525 1.9690002
0.27566004 0.084385723 1.9690001
0.2812857 0.084385723 1.9690001
0.27528498 0.093011819 1.9690001
0.27566001 0.10501333 1.9690001
0.2812857 0.10876381 1.9690001
0.27566004 0.11251429 1.9690001
0.26253334 0.12564096 1.9690001
0.25753272 0.13376699 1.9690002
0.26253334 0.13689238 1.9690001
0.25503239 0.14439334 1.9690001
0.23628001 0.15752001 1.9690001
0.24453107 0.15451962 1.9690001
0.25503239 0.15001905 1.9690002
0.23477983 0.16577105 1.9690001
0.24003048 0.16127048 1.9690001
0.23628001 0.17439716 1.9690001
0.23628001 0.18377334 1.9690002
0.24190572 0.1818981 1.9690001
0.2337797 0.19627494 1.9690002
0.22877906 0.20440096 1.9690001
0.22690383 0.21377715 1.9690001
0.22315335 0.22315335 1.9690001
0.21190192 0.25503239 1.9690001
0.20252572 0.26440859 1.9690001
0.20252572 0.27003428 1.9690001
-0.20252572 0.42755431 1.9690001
-0.19502477 0.42630419 1.9690002
-0.18377334 0.42380387 1.9690002
-0.17439716 0.42380384 1.9690001
-0.16502097 0.42380387 1.9690002
-0.15376952 0.42192858 1.9690001
-0.14439334 0.42005336 1.9690001
-0.13876763 0.42005336 1.9690001
-0.12376573 0.42380387 1.9690002
-0.11251429 0.42380384 1.9690001
-0.10688858 0.42380384 1.9690001
-0.21377715 0.43505526 1.9690001
-0.20627619 0.43130478 1.9690001
-0.037504762 0.43880573 1.9690001
-0.03000381 0.4425562 1.9690001
-0.024378097 0.4425562 1.9690001
-0.015001906 0.44505653 1.9690002
-0.0075009526 0.44630668 1.9690001
0.093761906 0.44630668 1.9690001
0.016877143 0.45005718 1.9690001
0.022502858 0.45005718 1.9690001
0.046880953 0.45005718 1.9690001
0.054381907 0.45005718 1.9690001
0.063758098 0.4525575 1.9690002
0.078760006 0.45380762 1.9690001
0.084385723 0.4519324 1.9690001
0.18502352 0.50506413 1.9690002
0.18752381 0.51006478 1.9690001
0.18377334 0.58507431 1.9690002
0.39411432 -0.082971431 1.9800001
0.35828573 -0.060342859 1.9800001
0.36205718 -0.067885719 1.9800001
0.35262859 -0.054685719 1.9800001
0.34508574 -0.043371432 1.9800001
0.35074288 -0.049028575 1.9800001
0.33754289 -0.032057144 1.9800001
0.33188573 -0.022628574 1.9800001
0.32245716 -0.013200001 1.9800001
0.3168 -0.0037714287 1.9800001
0.3130286 0.0075428574 1.9800001
0.30925718 0.015085715 1.9800001
0.3017143 0.026400002 1.9800001
0.29794288 0.03394286 1.9800001
0.3017143 0.03017143 1.9800001
0.2866286 0.049028575 1.9800001
0.29228574 0.045257144 1.9800001
0.28411433 0.054057147 1.9800003
0.27782857 0.064114295 1.9800003
0.28285718 0.060342859 1.9800001
0.2753143 0.075428575 1.9800003
0.27154288 0.082971431 1.9800001
0.27154288 0.094285727 1.9800003
0.27154288 0.10560001 1.9800003
0.26777145 0.11502858 1.9800001
0.27154288 0.11502858 1.9800001
0.25645718 0.12822859 1.9800001
0.26274288 0.12445717 1.9800003
0.25419432 0.13577144 1.9800001
0.26022857 0.13954286 1.9800001
0.24765716 0.14582859 1.9800003
0.24325716 0.15274286 1.9800001
0.23382857 0.1961143 1.9800001
0.2250286 0.20617144 1.9800003
0.21874288 0.21685717 1.9800001
0.22345716 0.21402858 1.9800001
0.21591431 0.22534287 1.9800001
0.21497144 0.23100002 1.9800001
0.21308573 0.24514288 1.9800001
0.20554286 0.26022857 1.9800001
-0.17348573 0.4186286 1.9800001
-0.16594288 0.41862863 1.9800003
-0.15462857 0.41862863 1.9800003
-0.1433143 0.4186286 1.9800001
-0.10560001 0.4186286 1.9800001
-0.20554286 0.42805716 1.9800001
-0.19800001 0.42617145 1.9800001
-0.18480001 0.42240006 1.9800003
-0.17537144 0.42240003 1.9800001
-0.16594288 0.42240006 1.9800003
-0.1584 0.42240003 1.9800001
-0.13388571 0.42240003 1.9800001
-0.12822859 0.42240003 1.9800001
-0.11502858 0.42428574 1.9800001
-0.10748573 0.42240003 1.9800001
-0.22440001 0.43748575 1.9800001
-0.21497145 0.43497145 1.9800003
-0.043371432 0.44125718 1.9800001
-0.032057144 0.44125718 1.9800001
-0.013200001 0.4450286 1.9800001
-0.005657143 0.44691432 1.9800001
0.0037714287 0.44880003 1.9800003
0.013200001 0.44880003 1.9800001
0.094285727 0.44628572 1.9800003
0.10182858 0.4450286 1.9800001
0.026400002 0.45257145 1.9800001
0.03394286 0.45257148 1.9800003
0.041485716 0.45257145 1.9800001
0.064114295 0.45257145 1.9800001
0.073542863 0.45634288 1.9800001
0.18857144 0.50537145 1.9800001
0.19422859 0.50725716 1.9800001
0.17537144 0.58834291 1.9800001
0.19422859 0.58834291 1.9800001
0.39650285 -0.087268576 1.9920001
0.3566629 -0.060708575 1.9920001
0.36045715 -0.066400006 1.9920001
0.3490743 -0.053120002 1.9920001
0.33769146 -0.034148574 1.9920001
0.33200002 -0.024662858 1.9920001
0.31872001 -0.0075885719 1.9920001
0.31302857 0.0056914287 1.9920001
0.30733714 0.01897143 1.9920001
0.31113145 0.011382857 1.9920001
0.2997486 0.026560001 1.9920001
0.30354288 0.022765715 1.9920001
0.29721907 0.034148574 1.9920001
0.29216 0.043634288 1.9920001
0.28077716 0.056914289 1.9920001
0.27698284 0.064502858 1.9920001
0.27318859 0.087268576 1.9920001
0.26939431 0.098651432 1.9920001
0.26939431 0.10434286 1.9920001
0.26484117 0.11458743 1.9920002
0.25548193 0.1264762 1.9920001
0.26370287 0.12141715 1.9920001
0.25042287 0.13469714 1.9920001
0.24473144 0.14608002 1.9920001
0.25042287 0.14038858 1.9920001
0.23714286 0.15746287 1.9920001
0.2428343 0.15177144 1.9920001
0.2327162 0.16441905 1.9920001
0.23296915 0.17529601 1.9920002
0.23372801 0.18516114 1.9920002
0.22765715 0.19730286 1.9920001
0.2327162 0.19477335 1.9920001
0.22386287 0.20489144 1.9920001
0.21627429 0.21627429 1.9920001
0.22006857 0.21248001 1.9920001
0.21500954 0.22259812 1.9920001
0.21248001 0.23714286 1.9920001
0.20868573 0.24662858 1.9920001
0.21248001 0.24473144 1.9920001
0.20773715 0.25516573 1.9920001
0.21248001 0.25421715 1.9920001
0.20109715 0.27698284 1.9920001
-0.17358857 0.41642284 1.9920001
-0.16505143 0.4154743 1.9920001
-0.15556572 0.41737145 1.9920001
-0.11193143 0.41737145 1.9920001
-0.10624 0.41737145 1.9920001
-0.21248001 0.4287543 1.9920001
-0.20489144 0.4262248 1.9920001
-0.19540572 0.42496002 1.9920001
-0.18592 0.42116576 1.9920001
-0.17833145 0.42116573 1.9920001
-0.14418286 0.42116573 1.9920001
-0.13469714 0.42116573 1.9920001
-0.12426285 0.42306289 1.9920001
-0.11477714 0.42211431 1.9920001
0.22006857 0.4287543 1.9920001
-0.22196573 0.4363429 1.9920001
-0.21437715 0.43254858 1.9920001
-0.041737143 0.44013715 1.9920001
-0.03794286 0.44013715 1.9920001
-0.024662858 0.44393143 1.9920001
-0.015177144 0.44393143 1.9920001
-0.0050590481 0.44519621 1.9920001
0.0037942859 0.44772574 1.9920001
0.013280001 0.44772574 1.9920001
0.094857149 0.44519621 1.9920001
0.10497525 0.44519621 1.9920001
0.01897143 0.45152003 1.9920001
0.024662858 0.45152003 1.9920001
0.034148574 0.45152006 1.9920001
0.045531433 0.45152006 1.9920001
0.055017143 0.45152003 1.9920001
0.064502865 0.45278478 1.9920001
0.076834291 0.45436573 1.9920001
0.084739052 0.45278478 1.9920001
0.10624 0.46290287 1.9920001
0.24473144 0.47808003 1.9920001
0.25042287 0.47808003 1.9920001
0.22386287 0.48756576 1.9920003
0.23429716 0.4885143 1.9920001
0.25042287 0.48187429 1.9920001
0.22386286 0.49705148 1.9920001
0.23145144 0.49705148 1.9920001
0.1897143 0.50463998 1.9920001
0.19540572 0.50463998 1.9920001
0.20489144 0.5084343 1.9920001
0.21627429 0.5084343 1.9920001
0.22512762 0.50211048 1.9920001
0.23145144 0.50274289 1.9920001
0.19477335 0.51728767 1.9920001
0.20299429 0.51222861 1.9920001
0.1897143 0.52550864 1.9920001
0.19350858 0.52550864 1.9920001
0.1897143 0.58811432 1.9920001
0.19540572 0.58811432 1.9920001
0.20489144 0.58811438 1.9920001
0.17074287 0.59190857 1.9920001
0.39296952 -0.085842855 2.003
0.36435524 -0.074397147 2.003
0.37007809 -0.076304764 2.003
0.32811046 -0.06104381 2.003
0.33497792 -0.066385143 2.003
0.35608888 -0.067402542 2.003
0.35481715 -0.057228573 2.003
0.35100189 -0.049598094 2.003
0.33574095 -0.030521905 2.003
0.34337142 -0.038152382 2.003
0.32429525 -0.015260953 2.003
0.31666479 -0.0038152381 2.003
0.31666479 0 2.003
0.30521905 0.019076191 2.003
0.29758859 0.026706666 2.003
0.30140379 0.022891428 2.003
0.29504508 0.034337144 2.003
0.28995809 0.04387524 2.003
0.28232762 0.053413332 2.003
0.27851236 0.06104381 2.003
0.27469715 0.076304764 2.003
0.27469715 0.080119997 2.003
0.26706669 0.097288571 2.003
0.27088189 0.09347333 2.003
0.26515907 0.10491905 2.003
0.25943619 0.11636477 2.003
0.26515907 0.1106419 2.003
0.25466716 0.12494905 2.003
0.24799049 0.13544096 2.003
0.24417526 0.14402524 2.003
0.24036001 0.15260953 2.003
0.23272952 0.16023999 2.003
0.22891431 0.17550096 2.003
0.22891429 0.18503904 2.003
0.22764254 0.19457714 2.003
0.23272952 0.19076191 2.003
0.22255556 0.20347938 2.003
0.21556094 0.21556094 2.003
0.20983809 0.22891429 2.003
0.21365333 0.22128381 2.003
0.20983809 0.23463714 2.003
0.20754896 0.24341221 2.003
0.20475112 0.25562096 2.003
0.20220762 0.26515907 2.003
0.19839238 0.27851236 2.003
0.20220762 0.27278954 2.003
0.19839238 0.28232762 2.003
-0.19076191 0.41967618 2.003
-0.18503906 0.41776857 2.003
-0.17550094 0.4139533 2.003
-0.16405523 0.41331744 2.003
-0.15451714 0.41586095 2.003
-0.14497906 0.41776857 2.0030003
-0.13544096 0.41776857 2.003
-0.12590286 0.4181501 2.003
-0.11541096 0.41681477 2.003
-0.10491905 0.41586095 2.003
0.24799049 0.41776857 2.003
0.25562096 0.41776857 2.0030003
0.26325142 0.41967618 2.003
-0.21556094 0.42730665 2.003
-0.20793048 0.42539907 2.003
-0.19648476 0.42349145 2.003
-0.12590286 0.42349145 2.003
0.22764254 0.42603493 2.003
0.24799049 0.42349145 2.003
0.25562096 0.42539907 2.0030003
0.26325142 0.42539907 2.003
-0.22433601 0.43417412 2.003
-0.21746856 0.43112192 2.003
-0.038152382 0.43875238 2.003
0.22557595 0.43541408 2.003
0.24036001 0.43493712 2.003
0.25671101 0.43439209 2.0030003
0.26325142 0.43112192 2.003
-0.032429524 0.44256762 2.003
-0.024799047 0.44256762 2.003
-0.015260953 0.44256765 2.003
-0.0076304763 0.44256762 2.003
0.0038152381 0.44638285 2.003
0.015260953 0.44638285 2.003
0.024799047 0.44638285 2.003
0.087750472 0.44638285 2.003
0.091565713 0.44638285 2.003
0.22605285 0.44352141 2.003
0.23654477 0.44638285 2.003
0.24226762 0.44638285 2.003
0.019076191 0.45019808 2.003
0.024799047 0.45019808 2.003
0.034337148 0.45019811 2.003
0.045782857 0.45019811 2.003
0.055320952 0.45019808 2.003
0.064859048 0.45146984 2.003
0.074397147 0.4521057 2.003
0.083935246 0.45019811 2.003
0.22891429 0.45782858 2.003
0.23501866 0.45477638 2.003
0.2429035 0.45528507 2.0030003
0.25638399 0.45630246 2.003
0.22618914 0.46600413 2.0030003
0.23463714 0.46545908 2.0030003
0.24417526 0.46545902 2.003
0.25453091 0.46491402 2.0030003
0.22509906 0.47499713 2.0030003
0.23463716 0.47499716 2.003
0.24417526 0.47499713 2.0030003
0.25371334 0.47499713 2.003
0.20983809 0.48835048 2.003
0.21556094 0.48644286 2.003
0.22509906 0.48262763 2.0030003
0.23501869 0.48377219 2.003
0.24363022 0.4856253 2.0030003
0.25562096 0.48072001 2.003
0.19839238 0.49788857 2.003
0.20220762 0.49979618 2.003
0.21556096 0.49598095 2.0030003
0.22509904 0.49693477 2.003
0.23527303 0.4972527 2.003
0.24163175 0.49598095 2.003
0.19457714 0.50361145 2.003
0.20602286 0.50590062 2.003
0.21556094 0.50551903 2.003
0.2238273 0.50615495 2.003
0.20697667 0.51791859 2.003
0.21517943 0.51582021 2.003
0.22357295 0.51353109 2.003
0.23272952 0.51124191 2.003
0.19839238 0.52459526 2.003
0.20602286 0.52459526 2.0030003
0.21619682 0.5239594 2.003
0.22891429 0.52268761 2.003
0.19553095 0.53317952 2.003
0.2052598 0.5318442 2.003
0.21365333 0.53031808 2.003
0.17931619 0.54939431 2.003
0.18567494 0.54685086 2.003
0.19394128 0.5468508 2.0030003
0.17740856 0.55511713 2.003
0.18503904 0.55511713 2.003
0.19362333 0.55416328 2.003
0.21556094 0.55702472 2.003
0.17702703 0.56389219 2.003
0.18694668 0.56084001 2.003
0.20983809 0.56465524 2.003
0.21556096 0.56465524 2.0030003
0.22128381 0.56465524 2.003
-0.019076191 0.57610095 2.003
0.17263952 0.57514715 2.003
0.20888428 0.57610095 2.003
0.21556096 0.57610101 2.0030003
0.22128382 0.57610095 2.003
0.17168571 0.58563906 2.003
0.19457714 0.58754671 2.003
0.20602286 0.58627498 2.003
0.21556094 0.58373147 2.003
0.22128381 0.58373147 2.003
0.17550096 0.59136188 2.003
0.18503904 0.59136188 2.003
-0.022891428 0.64095998 2.003
-0.019076191 0.64095998 2.003
0.025180573 0.66461456 2.003
0.032429524 0.66385144 2.0030003
0.022891428 0.67148191 2.003
0.032429524 0.67338955 2.003
0.022891428 0.68292767 2.003
0.019076191 0.72871047 2.003
0.024799047 0.72871047 2.003
0.019076191 0.73634094 2.003
0.024799047 0.73634094 2.003
0.3550238 -0.074842863 2.0150001
0.36078095 -0.074842863 2.0150001
0.33583337 -0.061409526 2.0150001
0.35540763 -0.064480007 2.0150001
0.34798729 -0.046057146 2.0150001
0.34159049 -0.038380954 2.0150001
0.33199525 -0.024947619 2.0150001
0.31856191 -0.0076761907 2.0150001
0.30320954 0.019190477 2.0150001
0.31088573 0.015352381 2.0150001
0.29297465 0.034542859 2.0150001
0.28689766 0.047016665 2.0150001
0.28018096 0.057571433 2.0150001
0.27634287 0.072923817 2.0150001
0.27250478 0.086357147 2.0150001
0.26610792 0.095952392 2.0150001
0.26099047 0.10554762 2.0150001
0.25715238 0.11514287 2.0150001
0.26099047 0.11130476 2.0150001
0.24947619 0.12665714 2.0150001
0.25331429 0.12281905 2.0150001
0.24691747 0.13433334 2.0150001
0.23028573 0.1688762 2.0150001
0.22644764 0.17655239 2.0150001
0.22548811 0.18326905 2.0150001
0.22452858 0.19574288 2.0150001
0.21877143 0.20533811 2.0150001
0.21685238 0.21301429 2.0150001
0.21109524 0.22452858 2.0150001
0.20341906 0.24947619 2.0150001
0.20341906 0.25523335 2.0150001
0.19958097 0.26482856 2.0150001
0.19958097 0.27442384 2.0150001
0.19766192 0.28785717 2.0150001
-0.18039048 0.4145143 2.0150001
-0.17463334 0.41067621 2.0150001
-0.16503811 0.4119556 2.0150001
-0.15544286 0.4145143 2.0150001
-0.14968573 0.4145143 2.0150001
-0.12665714 0.4183524 2.0150001
0.2456381 0.4183524 2.0150001
-0.22452858 0.42986667 2.0150001
-0.21493334 0.42602858 2.0150001
-0.20341906 0.42602858 2.0150001
-0.19766192 0.42219049 2.0150001
0.2364267 0.4267962 2.0150001
0.24454153 0.42657691 2.0150003
-0.038380954 0.43754286 2.0150001
0.23604286 0.43562382 2.0150001
0.24640572 0.43524003 2.0150001
0.25331429 0.43754286 2.0150001
-0.032623813 0.44138095 2.0150001
-0.024947619 0.44138095 2.0150001
-0.015352381 0.44138095 2.0150001
-0.0051174606 0.44266033 2.0150001
0.0038380953 0.44521904 2.0150001
0.034542859 0.44905719 2.0150001
0.046057146 0.44905719 2.0150001
0.055652384 0.44905716 2.0150001
0.065247625 0.44905719 2.0150001
0.074842863 0.44905716 2.0150001
0.082519054 0.44905716 2.0150001
0.095952392 0.44521904 2.0150001
0.10554762 0.44521904 2.0150001
0.11322381 0.44905716 2.0150001
0.21877143 0.44330001 2.0150001
0.22452858 0.44905716 2.0150001
0.23565908 0.44445142 2.0150001
0.24618641 0.44412246 2.0150003
0.25484952 0.44598666 2.0150001
0.26099047 0.4471381 2.0150001
0.069085717 0.45289528 2.0150001
0.22452858 0.45481431 2.0150001
0.2315651 0.45417464 2.0150001
0.24819684 0.45417464 2.0150001
0.25459367 0.45417464 2.0150001
0.26099047 0.45289528 2.0150001
0.22356905 0.46345007 2.0150001
0.21877143 0.48360002 2.0150001
0.19382381 0.49895239 2.0150001
0.20572193 0.49588194 2.0150001
0.21109524 0.49703336 2.0150001
0.19382381 0.50279051 2.0150001
0.20725715 0.50470954 2.0150001
0.21109524 0.50279051 2.0150001
0.22644764 0.51814288 2.0150001
0.23220478 0.51814288 2.0150001
0.21493334 0.52965713 2.0150001
0.22491241 0.52658671 2.0150001
0.23460358 0.52581906 2.0150001
0.24180001 0.52581906 2.0150001
0.18806668 0.53733331 2.0150001
0.21589285 0.53637379 2.0150001
0.2238889 0.53477466 2.0150001
0.23412383 0.53349531 2.0150001
0.24180001 0.53541428 2.0150001
0.17655239 0.54884768 2.0150001
0.18422857 0.54436994 2.0150003
0.19638255 0.54373026 2.0150003
0.20533812 0.54500961 2.0150003
0.21493335 0.54500961 2.0150001
0.22260952 0.54692864 2.0150001
0.23604287 0.54500955 2.0150001
0.24180001 0.54692864 2.0150001
0.17655239 0.55268574 2.0150001
0.18422857 0.55268574 2.0150001
0.20533811 0.55460477 2.0150001
0.21493334 0.55460477 2.0150003
0.18550794 0.56675875 2.0150001
0.19622263 0.56467974 2.0150001
0.20533812 0.56420004 2.0150003
0.21109524 0.56036192 2.0150001
0.22491241 0.5634324 2.0150001
0.23220478 0.56420004 2.0150003
-0.015352381 0.57955241 2.0150001
0.17655239 0.57955241 2.0150001
0.18422858 0.57379532 2.0150003
0.19574288 0.57571435 2.0150001
0.20495431 0.57494676 2.0150001
0.22548811 0.57475483 2.0150001
0.23182097 0.576482 2.0150001
-0.017911112 0.58466995 2.0150001
0.17655239 0.58530957 2.0150001
0.18346095 0.58569336 2.0150001
0.19574289 0.58530957 2.0150003
0.20533812 0.58530957 2.0150001
0.22644764 0.58339053 2.0150001
0.23220478 0.58339053 2.0150001
-0.023988094 0.5958643 2.0150001
-0.019190477 0.59106672 2.0150001
-0.0038380953 0.59298575 2.0150001
0.17655239 0.59298575 2.0150001
0.18422858 0.59106672 2.0150001
-0.024947619 0.60258096 2.0150001
-0.0038380953 0.60450006 2.0150001
0.017271429 0.60450006 2.0150001
0.023028571 0.60641909 2.0150001
-0.0047976193 0.61409521 2.0150001
0 0.6160143 2.0150001
0.01644898 0.61354697 2.0150003
0.024563808 0.61486286 2.0150001
-0.0038380953 0.62560952 2.0150001
0.0038380951 0.62714475 2.0150001
0.01644898 0.62560958 2.0150003
0.024947619 0.62560952 2.0150003
0.030704763 0.62560952 2.0150001
-0.030704763 0.63712382 2.0150001
-0.024947619 0.63712382 2.0150001
-0.0038380953 0.63520479 2.0150001
0 0.63520479 2.0150001
0.019190477 0.6332857 2.0150001
0.024947617 0.63520479 2.0150001
0.030704763 0.63520479 2.0150001
-0.025331426 0.64479995 2.0150001
-0.014872619 0.64480001 2.0150001
-0.0053733336 0.6455676 2.0150001
0.0019190477 0.64480001 2.0150001
0.024947617 0.64288092 2.0150001
0.030704763 0.64288092 2.0150001
-0.023028571 0.65439522 2.0150001
-0.015352381 0.65439528 2.0150003
-0.0057571428 0.65439522 2.0150001
0.0038380953 0.65439528 2.0150003
0.013433333 0.65631431 2.0150001
0.024947619 0.65631431 2.0150001
-0.014255783 0.66344225 2.0150003
-0.0057571433 0.6639905 2.0150003
0.0038380953 0.6639905 2.0150001
0.015352381 0.66399056 2.0150001
0.024307936 0.66143179 2.0150001
-0.0047976193 0.67454529 2.0150001
0.0038380953 0.67550474 2.0150001
0.015352381 0.67550474 2.0150001
0.025587302 0.67806357 2.0150001
-0.0038380953 0.68510008 2.0150001
0.0038380951 0.68471622 2.0150001
0.015352381 0.68510008 2.0150003
0.025587302 0.6844604 2.0150001
0.031984132 0.6844604 2.0150001
-0.019190477 0.69853336 2.0150001
-0.0047976193 0.69565481 2.0150001
0.0038380953 0.6952436 2.0150003
0.01535238 0.69469529 2.0150001
0.024563808 0.69469523 2.0150001
0.032623813 0.69469523 2.0150003
-0.017271429 0.70237148 2.0150001
-0.0051174606 0.70365083 2.0150001
0.0038380953 0.70237148 2.0150001
0.01612 0.70390671 2.0150001
0.023028571 0.70237148 2.0150001
-0.015352381 0.71004766 2.0150001
-0.0061409525 0.71311814 2.0150001
0.016631749 0.71132702 2.0150001
0.024947619 0.71004766 2.0150001
0.030704763 0.71004766 2.0150001
-0.0038380953 0.72156191 2.0150001
0.0038380953 0.72923815 2.0150001
0.01644898 0.72594839 2.0150003
0.024947619 0.72539997 2.0150001
0.030704763 0.72348094 2.0150001
0.0057571433 0.73499525 2.0150001
0.014584762 0.73537904 2.0150001
0.024947619 0.73691428 2.0150001
-0.015832143 0.74459052 2.0150001
-0.0057571428 0.7407524 2.0150001
0.0032897959 0.74349391 2.0150003
0.017271429 0.74459052 2.0150001
0.024947617 0.74650955 2.0150001
-0.030704763 0.75802386 2.0150001
-0.024947619 0.75610483 2.0150003
-0.014804082 0.75555652 2.0150003
-0.0057571428 0.75706428 2.0150001
0.0025587303 0.75546515 2.0150003
0.016311906 0.75418574 2.0150001
0.024947617 0.75418574 2.0150001
-0.024947619 0.76378095 2.0150001
-0.0051174606 0.76506037 2.0150001
0.0012793652 0.76506037 2.0150001
0 0.77145714 2.0150001
0 0.83670479 2.0150001
0.019190477 0.83670479 2.0150001
-0.0057571428 0.8482191 2.0150001
0 0.84630001 2.0150001
-0.0057571428 0.85397619 2.0150001
0.0019190477 0.85397625 2.0150001
0.35520765 -0.057914291 2.0270002
0.34555528 -0.044400956 2.0270002
0.33976385 -0.034748577 2.0270002
0.32432002 -0.015443812 2.0270002
0.31659812 0.0038609528 2.0270002
0.30887622 0.015443811 2.0270002
0.31273717 0.011582858 2.0270002
0.29729334 0.027026668 2.0270002
0.30115432 0.023165716 2.0270002
0.28957143 0.038609527 2.0270002
0.29343241 0.030887622 2.0270002
0.28571051 0.044400956 2.0270002
0.27798861 0.069497153 2.0270002
0.2715537 0.084940962 2.0270002
0.26640573 0.092662863 2.0270002
0.25868383 0.10810667 2.0270002
0.26254478 0.10038476 2.0270002
0.25482288 0.11775906 2.0270002
0.24710098 0.12741144 2.0270002
0.2509619 0.12355049 2.0270002
0.24710098 0.13127239 2.0270002
0.24324001 0.14671621 2.0270002
0.23937906 0.15829906 2.0270002
0.23165716 0.16602097 2.0270002
0.22779621 0.17374288 2.0270002
0.22393525 0.1872562 2.0270002
0.22200477 0.1949781 2.0270002
0.21621335 0.20849144 2.0270002
0.2200743 0.20076953 2.0270002
0.21621335 0.2123524 2.0270002
0.2123524 0.2200743 2.0270002
0.20849144 0.23937906 2.0270002
0.20463049 0.2451705 2.0270002
0.20076953 0.25675336 2.0270002
0.19690858 0.28378004 2.0270002
0.18918668 0.29729334 2.0270002
-0.17374288 0.40926099 2.0270002
-0.16988192 0.40926099 2.0270002
-0.18532573 0.41698289 2.0270002
-0.16216002 0.41312194 2.0270002
-0.15829906 0.41312194 2.0270002
-0.14671621 0.41698289 2.0270002
-0.11582857 0.41698289 2.0270002
-0.1061762 0.41698289 2.0270002
-0.22586572 0.42856577 2.0270002
-0.21428287 0.42470479 2.0270002
-0.20656097 0.42470479 2.0270002
-0.19304763 0.42084384 2.0270002
-0.038609527 0.43628767 2.0270002
-0.043757465 0.44143558 2.0270002
-0.032818101 0.44014859 2.0270002
-0.025096193 0.44014859 2.0270002
-0.015443812 0.44014859 2.0270002
-0.0077219056 0.44014859 2.0270002
0.0038609528 0.44497481 2.0270002
0.014671621 0.44632611 2.0270002
0.025096193 0.44787049 2.0270002
0.032818101 0.44787049 2.0270002
0.084940962 0.44787049 2.0270002
0.094593339 0.44400957 2.0270002
0.10424572 0.4440096 2.0270002
0.11325461 0.44658351 2.0270002
0.22683097 0.54439437 2.0270002
0.23496656 0.54329127 2.0270004
0.22650921 0.55469024 2.0270002
0.23606969 0.55487418 2.0270004
-0.011582858 0.58493435 2.0270002
-0.0077219056 0.58493435 2.0270002
0.18629096 0.58396912 2.0270002
-0.016409049 0.59555197 2.0270002
-0.0067566675 0.59362149 2.0270002
0.0025739686 0.59587371 2.0270002
0.015443812 0.59844768 2.0270002
-0.016216002 0.60462523 2.0270002
-0.0064349212 0.60359561 2.0270002
0.003860953 0.60616958 2.0270002
0.015443812 0.60359561 2.0270002
0.025096193 0.60616958 2.0270002
-0.023165716 0.61775243 2.0270002
-0.01544381 0.6167872 2.0270002
-0.0077219056 0.61196101 2.0270002
0.0043435721 0.61340892 2.0270002
0.011582858 0.61389148 2.0270002
0.027026668 0.61003053 2.0270002
-0.024710098 0.62624657 2.0270002
-0.01592643 0.62547439 2.0270002
-0.006756667 0.62547433 2.0270002
0.0046331435 0.62392998 2.0270002
0.011582858 0.62354386 2.0270002
-0.025096193 0.63512671 2.0270002
-0.015443811 0.63705719 2.0270002
-0.0064349212 0.63448322 2.0270002
0.0051479372 0.6357702 2.0270002
0.012869842 0.6357702 2.0270002
-0.015443812 0.64091814 2.0270002
-0.0077219056 0.64284861 2.0270002
0.0061775246 0.64400691 2.0270002
0.016730797 0.64542264 2.0270004
-0.027026668 0.65636194 2.0270002
0.0038609528 0.65250099 2.0270002
0.015443812 0.65443152 2.0270004
0.025096193 0.65443146 2.0270002
-0.024452701 0.66408384 2.0270002
-0.019304764 0.66794479 2.0270002
0.019304764 0.66022289 2.0270002
-0.014478574 0.67566675 2.0270002
-0.0077219056 0.6795277 2.0270002
-0.012869842 0.68467563 2.0270002
-0.0077219056 0.68531907 2.0270002
-0.023165716 0.69690192 2.0270002
-0.014892247 0.69607466 2.0270004
-0.0077219061 0.6949715 2.0270002
0.003860953 0.6949715 2.0270002
0.027026668 0.69883239 2.0270002
-0.025096193 0.70462388 2.0270002
-0.012869842 0.70398039 2.0270002
0.0038609528 0.70655435 2.0270002
0.027026668 0.70655435 2.0270002
0.032818101 0.70655435 2.0270002
-0.024710098 0.71350408 2.0270002
-0.015443809 0.71427625 2.0270002
-0.0077219056 0.7104153 2.0270002
0.003860953 0.71427625 2.0270002
0.013513334 0.71524149 2.0270002
0.025096193 0.7104153 2.0270002
0.030887622 0.7104153 2.0270002
-0.014800319 0.72457212 2.0270004
-0.0057914294 0.72682434 2.0270002
0.0038609528 0.72634172 2.0270002
0.01389943 0.72431475 2.0270002
0.025096193 0.72585911 2.0270002
-0.014671621 0.7358976 2.0270002
-0.0057914294 0.73551148 2.0270002
0 0.73744196 2.0270002
-0.030887622 0.74709433 2.0270002
-0.024710098 0.7459361 2.0270002
-0.014478574 0.74323338 2.0270002
-0.0057914294 0.74516386 2.0270002
0 0.74130291 2.0270002
0.011582858 0.74709433 2.0270002
-0.030887622 0.75288582 2.0270002
-0.025096193 0.75288582 2.0270002
-0.0064349212 0.7541728 2.0270002
0.0057914294 0.75288582 2.0270002
0.012869842 0.7541728 2.0270002
-0.016216002 0.76601309 2.0270002
-0.0038609528 0.76060766 2.0270002
0.0067566675 0.76350343 2.0270002
0.014800318 0.7651121 2.0270004
0.023165716 0.76446861 2.0270002
-0.023165716 0.77412099 2.0270002
-0.014800319 0.77476448 2.0270004
-0.0057914294 0.77605152 2.0270002
0.004504445 0.77605146 2.0270004
0.012869842 0.77347749 2.0270002
0.0038609528 0.78377342 2.0270002
0.019304764 0.82624388 2.0270002
0.025096193 0.82624388 2.0270002
-0.0051479372 0.83525276 2.0270002
0.0038609528 0.83551019 2.0270002
0.015995378 0.83506894 2.0270004
0.024710098 0.83396578 2.0270002
0.030887622 0.83782673 2.0270002
-0.011582858 0.84940958 2.0270002
