# .PCD v0.7 - Point Cloud Data file format
VERSION 0.7
FIELDS x y z
SIZE 4 4 4
TYPE F F F
COUNT 1 1 1
WIDTH 1503
HEIGHT 1
VIEWPOINT 0 0 0 1 0 0 0
POINTS 1503
DATA ascii
-0.015933335 0.24856 1.6730001
-0.005098667 0.246648 1.6730002
0.0047800001 0.24537331 1.6730002
0.015933333 0.24537332 1.6730002
0.026768003 0.24537335 1.6730002
0.035053335 0.2421867 1.6730001
0.044613339 0.24378002 1.6730002
0.054173335 0.24537337 1.6730002
0.062140003 0.24537335 1.6730001
-0.03186667 0.25174668 1.6730001
-0.017526668 0.25174668 1.6730001
-0.0057360004 0.25302133 1.6730002
0.0047800001 0.25334001 1.6730002
0.015933335 0.25334001 1.6730002
0.022306668 0.25174668 1.6730001
0.057360005 0.25174668 1.6730001
-0.1953162 0.10886477 1.6810001
-0.1953162 0.11366763 1.6810001
-0.18571049 0.11580223 1.6810001
-0.1942489 0.1270089 1.6810001
-0.1857105 0.1248743 1.6810001
-0.1931816 0.13234541 1.6810001
-0.18662532 0.13493742 1.6810001
-0.1835759 0.14195113 1.6810001
-0.17656222 0.14408572 1.6810001
-0.16863367 0.14622033 1.6810001
-0.17450383 0.15209049 1.6810001
-0.16533473 0.15398255 1.681
-0.15689334 0.15689334 1.6810001
0.16970095 0.15689334 1.6810001
0.17450383 0.15689334 1.6810001
-0.17290287 0.16329715 1.6810001
-0.16329715 0.16329715 1.681
-0.15561259 0.16649905 1.6810001
0.15529239 0.16970095 1.6810001
0.1651268 0.16421197 1.6810001
0.17450383 0.16009524 1.6810001
-0.15241067 0.17482403 1.6810001
-0.14728762 0.17930669 1.6810001
0.13768192 0.17610478 1.6810001
0.14248477 0.17770573 1.6810001
0.15561259 0.17546441 1.6810001
0.16009524 0.17290287 1.6810001
-0.14408572 0.18571049 1.681
-0.13768193 0.18571049 1.6810001
-0.12487429 0.18891239 1.6810001
0.12615506 0.18699126 1.6810001
0.13448 0.18410954 1.6810001
0.14368547 0.18611073 1.681
0.15155683 0.1835759 1.6810001
-0.14368547 0.19491597 1.681
-0.13493744 0.19623105 1.6810001
-0.12487429 0.19595657 1.6810001
0.11686952 0.19691716 1.6810001
0.12434065 0.19531623 1.6810001
0.1312781 0.19211429 1.6810001
-0.14368547 0.20532216 1.681
-0.13501365 0.20385462 1.6810001
-0.12359353 0.20364116 1.6810001
-0.11718972 0.20556231 1.6810001
0.10566286 0.20492192 1.6810001
0.11473493 0.20492193 1.6810001
0.12327334 0.20172001 1.6810001
-0.11618342 0.21498506 1.6810001
0.099259056 0.21772954 1.6810001
0.10566287 0.21612859 1.6810001
0.1144681 0.2121262 1.6810001
0.12167239 0.21132572 1.6810001
-0.11366763 0.22413334 1.6810001
-0.10726382 0.22413334 1.6810001
-0.09819176 0.22520065 1.6810001
0.086451434 0.22626793 1.6810001
0.096857622 0.22333288 1.6810001
0.10246096 0.22413334 1.6810001
-0.10352826 0.23160446 1.6810001
-0.096057147 0.23213808 1.6810001
-0.084530279 0.23373905 1.681
-0.075244769 0.23694097 1.6810001
0.074711114 0.23480636 1.6810001
0.082609139 0.23181792 1.6810001
-0.082849286 0.24294454 1.681
-0.074284188 0.24558614 1.681
-0.064038098 0.24846783 1.6810001
-0.053151619 0.24782744 1.6810001
-0.045226909 0.24694692 1.681
-0.036821909 0.24814764 1.6810001
0.024014289 0.24654669 1.6810001
0.035220958 0.24814764 1.6810001
0.044826668 0.24974859 1.6810001
0.051230479 0.24974859 1.6810001
0.066439524 0.24734716 1.6810001
0.072576508 0.24441208 1.681
-0.072728984 0.25569499 1.6810001
-0.064038098 0.25615236 1.681
-0.054432385 0.25615239 1.681
-0.043911841 0.25569499 1.6810001
-0.035621192 0.25655264 1.681
-0.02561524 0.25423127 1.6810001
-0.015209048 0.2553519 1.6810001
-0.0072042863 0.2585538 1.6810001
0.0048028575 0.25935429 1.6810001
0.016009524 0.25935429 1.6810001
0.026015479 0.25655264 1.681
0.035220958 0.25295049 1.6810001
0.045467053 0.25423127 1.6810001
0.054432392 0.25615239 1.6810001
0.063123271 0.25569499 1.6810001
0.073003434 0.25423127 1.6810001
-0.070441909 0.26415715 1.6810001
-0.064038098 0.2657581 1.681
-0.054432385 0.2657581 1.681
-0.044826668 0.2657581 1.681
-0.035220951 0.2657581 1.681
-0.0056033339 0.26335669 1.6810001
0.0048028575 0.26362354 1.6810001
0.016009524 0.26415715 1.6810001
0.024974858 0.26383695 1.6810001
0.046961274 0.26362351 1.6810001
0.054432385 0.2657581 1.681
0.061636671 0.2657581 1.6810001
-0.063123271 0.27490646 1.6810001
-0.054432385 0.27536383 1.681
-0.044826668 0.27536383 1.681
-0.035220955 0.27536383 1.681
0.060836196 0.27216193 1.6810001
-0.061903499 0.28283495 1.6810001
-0.054432385 0.28336859 1.6810001
-0.045467049 0.28304839 1.6810001
-0.034820717 0.28456929 1.681
-0.028817143 0.28496954 1.6810001
-0.051230479 0.29457524 1.6810001
-0.048028573 0.29457524 1.6810001
-0.033299811 0.29521561 1.6810001
-0.20280001 0.11749525 1.6900001
-0.19636193 0.11910477 1.6900001
-0.18992382 0.11910477 1.6900001
-0.20408764 0.12618668 1.6900002
-0.19689843 0.12446986 1.6900003
-0.18992382 0.12232381 1.6900001
-0.20457208 0.13530922 1.6913335
-0.19743493 0.13627303 1.6900003
-0.20214286 0.14392573 1.6980001
-0.1955962 0.14401525 1.6926668
-0.1877778 0.14593017 1.6900003
-0.19082288 0.15524572 1.6980002
-0.18368211 0.15467852 1.6917779
-0.17543811 0.15773334 1.6900001
-0.19082287 0.16171429 1.6980001
-0.18373668 0.16475619 1.6960001
-0.17428845 0.16417143 1.6900003
-0.16739048 0.16417143 1.6900001
0.16739048 0.16739048 1.6900001
0.17447239 0.16610287 1.6900002
-0.18219809 0.17357334 1.6980002
-0.17382856 0.17382857 1.6900003
-0.16417143 0.17382856 1.6900003
-0.15612382 0.17704763 1.6900001
0.16509116 0.17428844 1.6900003
0.17419599 0.17419767 1.6935558
0.18171525 0.17525429 1.6960001
-0.17419598 0.18387683 1.6935558
-0.16424207 0.18473662 1.6907276
-0.15480693 0.18553419 1.6900004
0.13520002 0.18992382 1.6900001
0.15515809 0.18734859 1.6900002
0.16460487 0.18397334 1.6944447
0.17465143 0.18435429 1.6980001
0.18192858 0.18354572 1.6980001
-0.17372735 0.19359511 1.6980002
-0.16424915 0.19580801 1.6908003
-0.15451428 0.19595954 1.6900003
-0.14807621 0.19958097 1.6900001
0.12876192 0.19797143 1.6900001
0.13560238 0.19676429 1.6900003
0.1443973 0.19544221 1.6900003
0.15539429 0.19458941 1.6945717
0.16486391 0.19395556 1.6971111
0.1751135 0.19498123 1.6980002
0.18112001 0.19405715 1.6980002
-0.17303428 0.20052572 1.6980001
-0.16399696 0.20466666 1.6948003
-0.15438809 0.20476954 1.6930001
-0.14807621 0.20280001 1.6900001
-0.13412699 0.20816509 1.6900001
-0.12715238 0.20762859 1.6900001
0.11910477 0.20762858 1.6900001
0.12600273 0.20693879 1.6900003
0.13501878 0.20551294 1.6934286
0.1460049 0.20376001 1.6980002
0.15524572 0.20181945 1.6980002
0.16494858 0.20052573 1.6980002
0.1752983 0.20246629 1.6980002
0.18112001 0.20376001 1.6980002
-0.16171429 0.21508001 1.6980001
-0.15488635 0.21561906 1.6980001
-0.14485715 0.21567619 1.6900003
-0.13520002 0.21567619 1.6900003
-0.12554285 0.21567616 1.6900003
0.11652952 0.21760765 1.6900002
0.12594524 0.21607855 1.6900003
0.13566998 0.21477717 1.6921821
0.14230858 0.21669716 1.6980001
-0.16171429 0.22316572 1.6980001
-0.15362857 0.22478287 1.6980001
-0.14496905 0.22573288 1.6960001
-0.13535762 0.22586431 1.697
-0.12561058 0.22545354 1.6908891
-0.11910477 0.22533333 1.6900001
0.094961911 0.22855239 1.6900001
0.10669572 0.22546858 1.6910002
0.11588571 0.22533332 1.6900003
0.12581037 0.22581083 1.6935556
0.13555725 0.225931 1.6944444
0.14461879 0.22593799 1.6980002
-0.14230858 0.23286858 1.6980001
-0.13454629 0.23545602 1.6980002
-0.12581208 0.23548657 1.6935558
-0.11588572 0.23499049 1.6900003
-0.10730159 0.23606351 1.6900003
-0.094961911 0.23820953 1.6900001
0.0845 0.23740478 1.6900001
0.094522953 0.23469786 1.6900004
0.10588496 0.23598592 1.6948
0.11625145 0.23573714 1.6953335
0.12521307 0.23564082 1.6980002
0.13630204 0.2351788 1.6980002
0.14392573 0.23448573 1.6980001
-0.13530096 0.24688384 1.6980002
-0.12521307 0.2462678 1.6980002
-0.11601101 0.24490669 1.6917779
-0.10622857 0.24464764 1.6900003
-0.094961911 0.24464762 1.6900004
-0.086914286 0.24786668 1.6900001
0.077257141 0.24625716 1.6900001
0.08369524 0.24464764 1.6900003
0.09364868 0.24542308 1.6953332
0.10467326 0.24551171 1.6980002
-0.13584 0.25227427 1.6980001
-0.12452 0.25227427 1.6980001
-0.11603001 0.25510427 1.6980001
-0.10598705 0.25559276 1.6964
-0.094725214 0.25456348 1.6936367
-0.08369524 0.2543048 1.6900003
-0.077257141 0.25752383 1.6900001
-0.048285715 0.25752383 1.6900001
-0.025752382 0.25752383 1.6900001
0.035409525 0.25752383 1.6900001
0.04184762 0.25752383 1.6900001
0.067600004 0.25752383 1.6900001
0.077257141 0.25430477 1.6900001
0.083695233 0.2543048 1.6900003
0.094643466 0.25492159 1.6921821
0.10598706 0.25494286 1.6964
0.11320001 0.25712574 1.6980001
-0.15201142 0.26197717 1.6980001
-0.14877714 0.26197717 1.6980001
-0.10026287 0.26521146 1.6980002
-0.093743488 0.26507092 1.6971111
-0.083786659 0.26423788 1.6917779
-0.075969532 0.26460573 1.6900002
-0.048285715 0.26074284 1.6900001
-0.02575238 0.26396191 1.6900003
-0.01609524 0.26396191 1.6900003
-0.0080476189 0.26718095 1.6900001
0.0048285718 0.26718095 1.6900001
0.02897143 0.26718095 1.6900001
0.035409529 0.26396191 1.6900003
0.043993652 0.26342541 1.6900003
0.051504765 0.26074284 1.6900001
0.066795245 0.26396191 1.6900001
0.074038103 0.26396191 1.6900003
0.083695233 0.26396191 1.6900003
0.094522953 0.26366925 1.6900004
0.10559916 0.26507431 1.6971111
-0.10107142 0.27572286 1.6980001
-0.093692705 0.27462476 1.6962223
-0.08374095 0.27376127 1.6908891
-0.074038096 0.27361909 1.6900003
-0.067600004 0.27683812 1.6900001
-0.02575238 0.27361909 1.6900003
-0.016103705 0.27376467 1.6908891
-0.0064380956 0.27361909 1.6900003
0.0048285718 0.27361906 1.6900004
0.016095238 0.27361909 1.6900003
0.025752382 0.27361909 1.6900003
0.035429843 0.27376297 1.6908891
0.045066666 0.27361909 1.6900003
0.05472381 0.27522859 1.6900003
0.065300688 0.27407894 1.6900003
0.074198946 0.27419642 1.6935556
0.084045708 0.27477208 1.6971111
0.093646981 0.27448764 1.6953334
0.10303511 0.27491426 1.6980002
-0.10026287 0.28461719 1.6980002
-0.093692705 0.28432089 1.6962223
-0.083291978 0.28254804 1.6911432
-0.073558092 0.28452787 1.6953335
-0.065760553 0.28649527 1.6900003
-0.05472381 0.28778288 1.6900002
-0.044261903 0.28890952 1.6900001
-0.038628571 0.28971431 1.6900001
-0.02575238 0.28424191 1.6900004
-0.016151112 0.28432089 1.6962223
-0.0064584129 0.28417525 1.6953335
0.0052023451 0.28418636 1.6924618
0.01609524 0.28488576 1.6900004
0.02575238 0.2832762 1.6900003
0.035470475 0.28372321 1.6926668
0.045066666 0.2832762 1.6900003
0.054783069 0.28357759 1.6917779
0.064482547 0.28372827 1.6926668
0.073942378 0.28404528 1.697
0.083013341 0.28353912 1.6980002
0.094256327 0.2836931 1.6980002
0.10026286 0.28300002 1.6980001
-0.081808254 0.29546985 1.6953335
-0.074492827 0.29561213 1.6936365
-0.064380951 0.29615238 1.6900003
-0.05512619 0.29615241 1.6900003
-0.044664286 0.29615241 1.6900003
-0.037823811 0.29534763 1.6900001
-0.025412248 0.2952441 1.6980002
-0.016171429 0.29432002 1.6980001
-0.0064685717 0.29270288 1.6980002
0.0045234286 0.29418135 1.6972001
0.016133334 0.2952438 1.694
0.025874287 0.29432002 1.6980001
0.035577144 0.29432002 1.6980001
0.045533858 0.29523844 1.6965456
0.05498286 0.29432002 1.6980001
0.064281434 0.29391572 1.6980001
0.071154289 0.29108572 1.6980001
-0.074038088 0.30580953 1.6900003
-0.064380959 0.3058095 1.6900003
-0.05472381 0.30580953 1.6900003
-0.045469046 0.30540714 1.6900003
-0.035409529 0.3058095 1.6900003
-0.026336329 0.3030988 1.6980002
-0.015767142 0.30361861 1.6980001
-0.0064685717 0.30402288 1.6980001
0.0048501594 0.30390227 1.6973333
0.015093334 0.30186668 1.6980002
0.028300002 0.30321431 1.6980001
0.035577148 0.30402285 1.6980001
0.044817965 0.30494699 1.6980002
0.05498286 0.30402288 1.6980001
0.063607626 0.30294478 1.6980002
-0.084091432 0.31049144 1.6980001
-0.074099056 0.31410605 1.6913335
-0.064380966 0.31385714 1.6900003
-0.05472381 0.3154667 1.6900003
-0.04511619 0.31422669 1.6920002
-0.035462856 0.31435493 1.6926668
-0.012937143 0.31210858 1.6980001
-0.0040428573 0.31291714 1.6980001
0.0037720639 0.31401336 1.6966667
0.012937143 0.31210858 1.6980001
0.029108573 0.31049144 1.6980001
0.036116194 0.31264764 1.6980002
0.045280002 0.31372574 1.6980001
0.05498286 0.31372574 1.6980001
0.061451431 0.31372574 1.6980002
-0.071962863 0.32262 1.6980001
-0.064038865 0.32439888 1.6980002
-0.05498286 0.32666287 1.6980001
-0.046088573 0.32504573 1.6980001
-0.037194289 0.3201943 1.6980001
-0.0058217146 0.32148799 1.6980002
0.0043123811 0.32396764 1.6980002
-0.061451431 0.33313146 1.6980001
-0.054058779 0.33590373 1.6980002
-0.047705717 0.33555716 1.6980001
-0.05498286 0.34283429 1.6980001
-0.20553239 0.14622858 1.7060001
-0.19822095 0.14947811 1.7060001
-0.19627126 0.15597716 1.7060002
-0.19432154 0.16572572 1.7060002
-0.18847239 0.16572572 1.7060001
-0.19172192 0.17222477 1.7060001
-0.18630604 0.17601588 1.7060002
-0.1835981 0.18522286 1.7060002
-0.18278572 0.19415906 1.7060001
-0.17872381 0.19659621 1.7060001
0.17384954 0.19172192 1.7060001
-0.18197334 0.20147048 1.7060001
-0.1746619 0.20472001 1.7060001
-0.16897525 0.20796953 1.7060001
0.14622858 0.20796953 1.7060001
0.15597716 0.20715715 1.7060001
0.16572572 0.20634477 1.7060002
0.17466192 0.20634477 1.7060001
-0.1673505 0.21446858 1.7060002
-0.15922667 0.21609335 1.7060001
0.14663476 0.21446858 1.7060002
0.15551293 0.21354015 1.7060002
0.16410096 0.21121906 1.7060001
0.17872381 0.21121906 1.7060001
-0.16491334 0.22502953 1.7060001
-0.15922667 0.22584191 1.7060001
0.14839494 0.22313397 1.7060001
0.15354002 0.22421715 1.7060001
-0.1624762 0.2307162 1.7060001
-0.15532725 0.23201601 1.7060002
-0.14704096 0.23396572 1.7060001
-0.13972953 0.23396572 1.7060001
0.12998097 0.23721525 1.7060001
0.14947811 0.23396572 1.7060001
0.1543524 0.23396574 1.7060002
-0.14297906 0.24696381 1.7060001
-0.13712993 0.24306439 1.7060002
-0.12998097 0.24533905 1.7060001
0.1153581 0.24533905 1.7060001
0.12564826 0.24479747 1.7060002
0.13607381 0.24412049 1.7060002
0.1451454 0.24263112 1.7060002
0.15272763 0.24046476 1.7060001
-0.15381081 0.25887877 1.7060001
-0.14541619 0.25671241 1.7060002
-0.13694423 0.25671241 1.7060002
-0.12564828 0.257254 1.7060002
0.115126 0.25346288 1.7060002
0.12521498 0.25476271 1.706
0.13648 0.25102571 1.7060001
0.14297906 0.25021333 1.7060001
-0.1543524 0.26483619 1.7060001
-0.14406224 0.26429462 1.7060001
-0.13972953 0.26321143 1.7060001
-0.11243353 0.26516116 1.7060002
-0.10560954 0.26646098 1.7060002
0.11373334 0.26564857 1.7060001
0.12998097 0.26483619 1.7060001
-0.11048381 0.27620953 1.7060001
-0.10593449 0.27555963 1.7060002
0.10560954 0.27620953 1.7060001
0.11048381 0.27296001 1.7060001
-0.11048381 0.28595811 1.7060001
-0.10398477 0.28595811 1.7060001
-0.086112387 0.28920764 1.7060001
-0.077988572 0.28920764 1.7060001
0.077988572 0.28920764 1.7060001
0.086653978 0.28812447 1.7060001
0.092611432 0.28920764 1.7060001
0.10491321 0.28642234 1.7060002
-0.11048381 0.29245716 1.7060001
-0.10398477 0.29245716 1.7060001
-0.097485721 0.29245716 1.7060001
-0.086112387 0.29245716 1.7060001
-0.0064990479 0.29895622 1.7060001
0.0032495239 0.29895622 1.7060001
0.068240002 0.29895622 1.7060001
0.075145237 0.29611284 1.7060002
0.084487624 0.29570669 1.7060002
0.094236195 0.29570666 1.7060002
0.10333487 0.29375693 1.7060002
-0.084487632 0.30708003 1.7060002
-0.02437143 0.30870476 1.7060001
-0.019497143 0.30870476 1.7060001
0.016897526 0.30610514 1.7060002
0.024046479 0.30610517 1.7060002
0.067156836 0.3076216 1.7060001
0.074739046 0.30545524 1.7060002
0.083675243 0.30301809 1.7060001
0.090986669 0.30220571 1.7060001
-0.092069849 0.31303748 1.7060001
-0.084023409 0.31520382 1.7060002
-0.026460411 0.31427538 1.7060002
-0.017176056 0.31566805 1.7060002
-0.0084487619 0.31585371 1.7060002
0.0081238095 0.31845334 1.7060001
0.016897526 0.31585371 1.7060002
0.025590003 0.31560999 1.7060002
0.034661591 0.31737018 1.7060001
0.066615246 0.31520382 1.7060002
0.074739046 0.31520382 1.7060002
0.081238098 0.31845334 1.7060001
-0.084487624 0.32170287 1.7060001
-0.076688766 0.32560229 1.7060002
-0.068240002 0.32820192 1.7060001
-0.042243812 0.32657716 1.7060001
-0.035744764 0.32603556 1.7060002
-0.029245716 0.32170287 1.7060001
-0.014622858 0.32170287 1.7060001
-0.0073114289 0.32738954 1.7060001
0.0073114289 0.32576478 1.7060001
0.016247621 0.32495242 1.7060002
0.025067758 0.32448816 1.7060002
0.036150955 0.32454622 1.7060002
0.043868572 0.32495239 1.7060002
0.054835718 0.32495239 1.7060002
0.064990491 0.32495242 1.7060002
0.074332856 0.32454622 1.7060002
-0.072301909 0.33388859 1.7060001
-0.066073656 0.33578414 1.7060002
-0.058491431 0.3379505 1.7060001
-0.043326985 0.334701 1.7060001
-0.038994286 0.33145145 1.7060001
0.0048742858 0.33145145 1.7060001
0.019497143 0.33307618 1.7060001
0.022746667 0.33145145 1.7060001
0.055241913 0.33377254 1.7060002
0.063040771 0.33405104 1.7060002
0.074739054 0.33145145 1.7060001
-0.081238098 0.34607428 1.7060001
-0.077988572 0.34444955 1.7060001
-0.064062051 0.34444955 1.7060002
-0.055241909 0.34509942 1.7060002
-0.046576511 0.34336635 1.7060001
-0.0032495239 0.34119999 1.7060001
0.0045493334 0.34184989 1.7060002
0.017872382 0.34282479 1.7060001
0.036827937 0.36178035 1.7060001
-0.043543618 0.37434515 1.7060002
-0.03769448 0.37304536 1.7060002
-0.043868572 0.38181907 1.7060001
-0.20620835 0.15394168 1.715
-0.19926667 0.1568 1.715
-0.20550306 0.1648182 1.715
-0.19817778 0.16768889 1.715
-0.20580003 0.17476669 1.715
-0.19640833 0.17680833 1.715
-0.19436668 0.18620001 1.715
-0.18946669 0.18620001 1.715
-0.19382223 0.19382223 1.715
-0.18816 0.19665334 1.715
-0.18456668 0.20416668 1.715
-0.17857778 0.2079778 1.715
-0.18293333 0.21233332 1.715
-0.17531112 0.21451113 1.715
0.1568 0.21886666 1.715
0.16619167 0.21682501 1.715
0.17476669 0.21396667 1.715
-0.17313334 0.22540002 1.715
-0.16986667 0.22540002 1.715
0.1568 0.2254 1.715
0.16224445 0.22431111 1.715
-0.16514815 0.23556297 1.715
-0.15353334 0.23846667 1.715
-0.147 0.23846667 1.715
0.16006669 0.23520002 1.715
-0.16170001 0.24173334 1.715
-0.15353334 0.24499999 1.715
-0.14569335 0.24434666 1.715
0.147 0.24826665 1.715
0.15271667 0.245 1.715
0.16006668 0.24173334 1.715
-0.16088334 0.25561666 1.715
-0.15400001 0.25386667 1.7150002
-0.147 0.25316668 1.715
0.13502222 0.25697777 1.715
0.14308001 0.25545332 1.715
0.15026666 0.25153336 1.715
-0.16137335 0.26394668 1.715
-0.15353334 0.26786667 1.715
-0.14373334 0.26786667 1.715
-0.13346669 0.26460001 1.7150002
-0.1246 0.26553333 1.7150002
-0.11596666 0.26786667 1.715
0.1176 0.26786667 1.715
0.12413333 0.26553333 1.7150002
0.13556668 0.26460001 1.715
0.14264445 0.26514447 1.715
-0.153125 0.2744 1.715
-0.143325 0.2744 1.715
-0.13393334 0.27486667 1.7150002
-0.12413333 0.27440003 1.715
-0.11596667 0.2744 1.715
0.11433333 0.2744 1.715
0.12413333 0.27113333 1.715
0.13434167 0.27399164 1.715
0.14177334 0.2744 1.715
-0.15353334 0.28256667 1.715
-0.143325 0.28379169 1.715
-0.13393334 0.28420001 1.715
-0.12413333 0.28420001 1.715
-0.11596667 0.28420001 1.715
-0.1078 0.28583333 1.715
0.11270001 0.28420001 1.715
0.13556667 0.28093335 1.715
0.14210001 0.28093335 1.715
-0.15244445 0.29508889 1.715
-0.14177334 0.29334667 1.715
-0.13393334 0.29236668 1.715
-0.12413333 0.29306668 1.7150002
-0.11526667 0.2944667 1.7150002
-0.10535 0.29563332 1.715
-0.096366666 0.29726666 1.715
0.1078 0.29726666 1.715
0.11106667 0.294 1.715
-0.15353334 0.30053332 1.715
-0.11188333 0.30298331 1.715
-0.10453334 0.30380002 1.715
-0.09582223 0.30434445 1.715
0.086566672 0.30706668 1.715
0.095386669 0.30576 1.715
0.10453334 0.30380002 1.715
0.11106667 0.30379999 1.715
-0.11106667 0.3136 1.715
-0.10453334 0.3136 1.715
-0.09582223 0.31305557 1.715
0.016333332 0.31196666 1.715
0.084933326 0.3136 1.715
0.09364444 0.31251115 1.715
-0.11215556 0.32122225 1.715
-0.10453333 0.32503337 1.715
-0.095386669 0.32438001 1.715
-0.085296288 0.32630366 1.715
-0.032666665 0.32666665 1.715
-0.024500001 0.32013336 1.715
-0.016800001 0.32759997 1.7150002
0.0196 0.32013336 1.715
0.0294 0.3283 1.715
0.032666665 0.32993332 1.715
0.049000002 0.32666665 1.715
0.058800001 0.32666665 1.715
0.065333329 0.32666665 1.715
0.078400001 0.32993332 1.715
0.084388897 0.32394445 1.715
0.092773333 0.32339999 1.715
-0.1127 0.33646667 1.715
-0.10562222 0.33537778 1.715
-0.083299994 0.33646667 1.715
-0.07709334 0.33712003 1.715
-0.042466667 0.33973333 1.715
-0.035933334 0.3364667 1.7150002
-0.015244445 0.33537778 1.715
-0.006533334 0.3364667 1.715
0.0049000001 0.33712003 1.715
0.0154 0.33693334 1.7150002
0.026541667 0.33687502 1.715
0.035933334 0.33553335 1.7150002
0.045733333 0.33646667 1.715
0.055533335 0.33973333 1.715
0.067783333 0.33728334 1.715
0.075133339 0.33687502 1.715
0.083844446 0.33537778 1.715
0.093800001 0.3364667 1.7150002
-0.10126667 0.34953335 1.715
-0.095141672 0.34667501 1.715
-0.085477784 0.34626669 1.715
-0.074724995 0.34626666 1.715
-0.068599999 0.34626669 1.715
-0.058800001 0.34953335 1.715
-0.044426665 0.34757334 1.715
-0.037566666 0.34463334 1.715
-0.0059888894 0.34626669 1.715
0.0051333336 0.34813339 1.7150002
0.015026666 0.34757334 1.715
0.026133334 0.34585834 1.715
0.035524998 0.34667504 1.715
0.045733333 0.34667501 1.715
0.055124998 0.34585834 1.715
0.064516664 0.3438167 1.715
0.075133331 0.34299999 1.715
0.095277779 0.34517777 1.715
-0.10126667 0.35280001 1.715
-0.094324991 0.35565835 1.715
-0.084933333 0.35606667 1.715
-0.076066665 0.35560003 1.7150002
-0.065333337 0.35606664 1.715
-0.055533335 0.35606664 1.715
-0.045733333 0.35606664 1.715
-0.035933331 0.35606664 1.715
-0.0294 0.35280001 1.715
-0.0049000005 0.35606667 1.715
0.0044545457 0.35576969 1.715
0.016986668 0.35410666 1.715
0.026600005 0.35700002 1.7150002
0.035933334 0.35606664 1.715
0.042466667 0.35280001 1.715
-0.063699998 0.36423331 1.715
-0.056466669 0.36539999 1.7150002
-0.045733333 0.36586666 1.715
-0.035933334 0.36586663 1.715
-0.026133334 0.36913332 1.715
-0.0049000001 0.3626 1.715
0.0032666668 0.36260003 1.715
0.026133334 0.36423334 1.715
0.0392 0.36913332 1.715
0.042466667 0.36423331 1.715
-0.063373335 0.37501335 1.715
-0.055533331 0.37566668 1.715
-0.048183329 0.37485003 1.715
-0.03348333 0.37648332 1.715
-0.027766667 0.37240002 1.715
0.0392 0.37403333 1.715
-0.062066663 0.3822 1.715
-0.055533331 0.38383335 1.715
-0.046549998 0.38628334 1.715
-0.035933334 0.38546669 1.715
-0.0294 0.38546669 1.715
-0.042466667 0.39199999 1.715
-0.035466667 0.39433333 1.7150002
-0.21004191 0.16737714 1.723
-0.21004193 0.18378668 1.723
-0.20388834 0.1841969 1.7229998
-0.21004191 0.19035049 1.723
-0.20306785 0.19322217 1.7229998
-0.1969143 0.1969143 1.723
-0.21168286 0.20511904 1.723
-0.20129018 0.20129018 1.723
-0.19404264 0.20388834 1.7229998
-0.18706858 0.20676 1.723
-0.1903505 0.21332382 1.723
-0.184516 0.21587642 1.7229998
-0.17722285 0.21988761 1.723
0.1755819 0.21988761 1.723
0.18050475 0.21988761 1.723
-0.18269271 0.22699842 1.7229999
-0.17722285 0.22645144 1.723
0.16628318 0.22863936 1.723
0.172847 0.22535746 1.7229999
0.18214571 0.22316952 1.723
-0.17312048 0.23711762 1.723
0.1657362 0.23629716 1.7229999
0.17065905 0.23301524 1.723
-0.17230003 0.24614286 1.7229999
-0.16456407 0.24708056 1.7229999
0.15643746 0.2483308 1.723
0.1619073 0.24614286 1.723
-0.17147954 0.25680906 1.723
-0.16606438 0.2553322 1.7229999
0.14768572 0.25762951 1.723
0.15424953 0.2559886 1.7229999
0.16081333 0.25434762 1.723
0.18050475 0.25927049 1.723
-0.17065905 0.2658343 1.723
-0.16655667 0.26665479 1.723
-0.13455811 0.26911622 1.723
0.14659175 0.26474035 1.723
0.15315557 0.26692829 1.7229999
0.16456409 0.266772 1.7229999
0.17435119 0.26624453 1.7229998
-0.16278248 0.27436724 1.7229999
-0.15753143 0.27568001 1.723
-0.14768572 0.27568001 1.723
-0.13455811 0.27403903 1.723
0.11814857 0.27732095 1.723
0.12471238 0.27609026 1.7229998
0.13127619 0.2789619 1.723
0.14686523 0.27568001 1.723
0.15260857 0.27568001 1.7229999
0.16354826 0.27458605 1.7229999
0.17459734 0.27371088 1.7229999
0.18050475 0.27403903 1.723
-0.16081333 0.28388476 1.723
-0.15424953 0.28880763 1.723
-0.14768572 0.28880763 1.723
0.11814858 0.28552574 1.723
0.12471239 0.28552571 1.7229998
0.13401112 0.2860727 1.7229999
0.14487265 0.28646341 1.7229999
0.15378068 0.28458804 1.7229999
0.16081333 0.28224382 1.723
-0.16327477 0.2961919 1.723
-0.15479653 0.29482445 1.7229999
-0.14686523 0.2961919 1.723
-0.13455811 0.29865333 1.723
-0.12471238 0.29865333 1.723
0.11650762 0.29537144 1.7229999
0.12424356 0.29584032 1.7229999
-0.16081333 0.3035762 1.723
-0.15424953 0.30562741 1.7229998
-0.14522429 0.30275571 1.723
-0.13455811 0.30193526 1.723
-0.12430213 0.30480689 1.7229998
-0.11683581 0.30587354 1.7229999
0.11617943 0.30456075 1.7229999
0.1238919 0.30275571 1.723
-0.15359317 0.31309372 1.7229999
-0.14495081 0.31615686 1.7229999
-0.13784 0.31834477 1.723
-0.12252446 0.3139689 1.723
-0.11580436 0.31506288 1.7229999
0.097363189 0.31725079 1.723
0.10502096 0.31506288 1.7229998
0.11158477 0.31506285 1.723
-0.14440382 0.3253774 1.7229999
-0.13619906 0.32819048 1.723
-0.12252446 0.32272065 1.723
-0.11596064 0.32600254 1.7229999
-0.091893338 0.32819048 1.723
-0.025598858 0.32687771 1.7229999
0.086423501 0.32709652 1.723
0.096488006 0.32622132 1.7229999
0.10502096 0.32490855 1.7229998
0.11267873 0.32272065 1.723
-0.13784 0.3314724 1.723
-0.12361842 0.33694226 1.723
-0.11533551 0.33381662 1.7229999
-0.10392699 0.33584827 1.723
-0.094706401 0.33569202 1.7229999
-0.088611424 0.33639526 1.723
-0.026255237 0.33475432 1.7229998
-0.019691428 0.33803621 1.723
0.086642288 0.33409792 1.7229999
0.097363189 0.33256638 1.723
0.10502096 0.33475435 1.7229998
-0.12339962 0.34394363 1.7229999
-0.11486668 0.34459999 1.7229998
-0.10502095 0.34460002 1.7229998
-0.094354771 0.34213859 1.723
-0.088611424 0.34295905 1.723
-0.032819048 0.34460002 1.723
-0.024286097 0.34525642 1.7229999
-0.016819762 0.34501025 1.7229998
-0.0098457141 0.34788191 1.723
0.037194923 0.34241208 1.723
0.045946669 0.34460002 1.723
0.067279048 0.34788191 1.723
0.076577783 0.34569401 1.723
0.085329525 0.34459999 1.7229998
0.095175244 0.34460002 1.723
0.10502096 0.34459999 1.7229998
-0.13127619 0.3544457 1.723
-0.12471238 0.3544457 1.723
-0.11486667 0.35280478 1.7229999
-0.10556795 0.35444576 1.7229999
-0.072201908 0.35772762 1.723
-0.036100954 0.35116383 1.723
-0.025844999 0.35444573 1.7229998
-0.016409526 0.3544457 1.7229998
-0.0098457141 0.3544457 1.723
0.013127619 0.35772762 1.723
0.025161272 0.35335177 1.723
0.04660305 0.35641488 1.7229999
0.055792388 0.35499269 1.7229999
0.065638095 0.35116383 1.723
0.087517463 0.35225782 1.723
0.095722228 0.35389873 1.7229999
0.10502096 0.35116383 1.723
0.11158476 0.35116383 1.723
-0.10173905 0.36429143 1.723
-0.095644094 0.36522916 1.7229999
-0.085329525 0.3659324 1.7229999
-0.075014971 0.3652291 1.7229999
-0.068920001 0.3659324 1.723
-0.052510478 0.36757335 1.723
-0.026255237 0.3642914 1.7229998
-0.016409524 0.3642914 1.7229998
-0.0078765713 0.36560422 1.7229999
0.0065638097 0.3659324 1.7229999
0.016409526 0.36429143 1.7229998
0.035006985 0.3664794 1.723
0.046884354 0.36382261 1.7229999
-0.10338001 0.37085524 1.723
-0.094354764 0.3716757 1.723
-0.084509045 0.37249619 1.723
-0.075483806 0.37413719 1.7229998
-0.066950858 0.3728244 1.7229999
-0.052510478 0.37085524 1.723
-0.025708256 0.37468415 1.7229999
-0.016409526 0.37413713 1.7229998
-0.0065638097 0.37413713 1.7229998
0.0049228575 0.37413716 1.7229998
0.016409526 0.37413713 1.7229998
0.026255237 0.37413713 1.7229998
0.034460001 0.37413713 1.7229999
0.045946673 0.37413713 1.7229998
0.066294484 0.37610626 1.7229999
0.078765713 0.37577811 1.723
-0.091893338 0.3839829 1.723
-0.085985906 0.38595206 1.7229999
-0.075483806 0.38398287 1.7229998
-0.066575788 0.38445175 1.7229999
-0.025845001 0.38357264 1.7229998
-0.016409526 0.38398287 1.7229998
-0.0065638097 0.38398287 1.7229998
0.0049228575 0.3839829 1.7229998
0.015940681 0.38304523 1.7229999
0.026255239 0.38234192 1.7229999
0.036511194 0.38357264 1.7229998
0.045946669 0.38398287 1.7229998
0.05382324 0.38463926 1.7229999
0.066575788 0.38351405 1.7229999
0.075952664 0.38492063 1.7229999
0.084673144 0.38529563 1.7229999
-0.093534291 0.39382857 1.723
-0.084919289 0.3938286 1.7229998
-0.076421499 0.39335975 1.7229999
-0.064817622 0.39136717 1.723
-0.055792384 0.39054668 1.723
-0.047040638 0.39492255 1.7229999
-0.026255237 0.3938286 1.7229998
-0.016819762 0.39423883 1.7229998
-0.0065638097 0.39423883 1.7229998
0.0049228575 0.3938286 1.7229998
0.013127619 0.39546955 1.723
0.039382856 0.3938286 1.723
0.045536429 0.39341834 1.7229998
0.054151431 0.39054668 1.723
0.067279048 0.39218763 1.723
0.075483814 0.3938286 1.7229998
0.083688572 0.3938286 1.7229999
-0.11158476 0.40367427 1.723
-0.10830286 0.40367427 1.723
-0.091893338 0.4036743 1.723
-0.084919289 0.40326408 1.7229998
-0.077945232 0.40285382 1.723
-0.042664763 0.4036743 1.723
-0.03651119 0.40408456 1.7229998
-0.022973334 0.4036743 1.723
-0.015999286 0.40367427 1.7229998
-0.0065638102 0.4036743 1.7229998
0.0049228575 0.4036743 1.7229998
0.013948096 0.40449476 1.723
0.07745295 0.40301791 1.7229999
0.083688579 0.4036743 1.7229999
-0.042664763 0.41023809 1.723
-0.03610095 0.41352001 1.7229998
-0.022973334 0.41352004 1.723
-0.016409524 0.41352001 1.7229998
-0.0065638097 0.41352004 1.7229998
0.0044753249 0.41322169 1.7229998
0.014221588 0.41133207 1.723
-0.0098457141 0.42008382 1.723
0.0049228575 0.42008382 1.723
-0.21223876 0.19684319 1.7320001
-0.20784001 0.19794287 1.7320001
-0.21278858 0.20124193 1.7320001
-0.2058606 0.20520078 1.7320002
-0.19629334 0.21443811 1.7320002
-0.19216955 0.22351049 1.7320001
-0.18694603 0.22653463 1.7320001
0.17814858 0.22763431 1.7320001
0.18309715 0.22763431 1.7320001
-0.18392192 0.23505715 1.7320001
-0.17814858 0.23588192 1.7320001
0.17539936 0.23533207 1.7320002
0.1863962 0.23588192 1.7320001
-0.18144764 0.24248001 1.7320001
-0.17814858 0.24083048 1.7320001
0.16715178 0.24632892 1.7320001
0.17484954 0.24412952 1.7320002
0.18515904 0.24371715 1.7320002
0.19134478 0.24412954 1.7320001
-0.17484953 0.25567621 1.7320001
0.16660193 0.25402671 1.7320002
0.17484954 0.25402668 1.7320002
0.18474668 0.25402668 1.7320002
0.19134478 0.25402671 1.7320001
-0.17484953 0.26557335 1.7320001
0.15752953 0.26392382 1.7320001
0.16429259 0.26194438 1.7320002
0.17402476 0.26144952 1.7320001
0.18474668 0.26392382 1.7320004
0.19134478 0.26062477 1.7320001
-0.17155048 0.2754705 1.7320001
-0.16660193 0.27712002 1.7320001
0.15835428 0.2754705 1.7320001
0.1649524 0.27712002 1.7320001
0.17155048 0.27712002 1.7320001
0.18364701 0.27162158 1.7320001
-0.17155048 0.28041908 1.7320001
-0.16605209 0.28151879 1.7320001
0.15835428 0.28041908 1.7320001
0.16589499 0.2841894 1.7320004
0.17484954 0.28173873 1.7320002
0.18144764 0.28206861 1.7320001
-0.16165334 0.29196572 1.7320001
0.12701334 0.29526478 1.7320001
0.13526097 0.29455787 1.7320004
0.14515811 0.29526478 1.7320002
0.15505525 0.29361525 1.7320004
0.16165334 0.29031622 1.7320001
-0.17155048 0.30021337 1.7320001
-0.16660193 0.30351242 1.7320002
-0.14350858 0.30681142 1.7320001
-0.13856001 0.30681142 1.7320001
0.12701334 0.30681142 1.7320001
0.13526097 0.3018629 1.7320002
0.14405842 0.30241272 1.7320002
0.1517562 0.30021337 1.7320001
-0.16412763 0.31093526 1.7320001
-0.15835428 0.31670856 1.7320001
-0.14460827 0.31230986 1.7320002
-0.13526095 0.31382191 1.7320002
-0.12668346 0.31472915 1.7320002
0.1174461 0.31406936 1.7320002
0.1240442 0.31208992 1.7320002
-0.15411267 0.32283539 1.7320004
-0.14515811 0.32495621 1.7320001
-0.13452785 0.32440639 1.7320002
-0.12660097 0.32578096 1.7320002
0.11546667 0.32528612 1.7320002
0.12206478 0.32000765 1.7320001
-0.14433333 0.33402857 1.7320001
-0.13484858 0.33691528 1.7320002
-0.12591368 0.3354032 1.7320002
0.11452409 0.33650288 1.7320004
0.1237143 0.33650288 1.7320001
0.13592076 0.33848232 1.7320002
-0.13526097 0.34640002 1.7320002
-0.12701336 0.34722477 1.7320001
-0.028866667 0.34557524 1.7320001
0.074228577 0.34969905 1.7320001
0.11499538 0.34640005 1.7320004
0.12489254 0.34734261 1.7320004
0.13526097 0.34734261 1.7320004
0.14185905 0.34969905 1.7320001
-0.13361143 0.35547239 1.7320001
-0.12536383 0.35629719 1.7320002
-0.11546668 0.35959619 1.7320001
-0.10886858 0.35959619 1.7320001
0.05938286 0.35959619 1.7320001
0.065980963 0.35794669 1.7320002
0.075878106 0.35629717 1.7320002
0.084675565 0.35739684 1.7320002
0.094022863 0.35959619 1.7320001
0.10556953 0.35794672 1.7320002
0.11546667 0.35299811 1.7320001
0.13691048 0.35299811 1.7320001
0.14185905 0.35299811 1.7320001
-0.11216763 0.36619431 1.7320001
-0.10688915 0.36685413 1.7320002
0.056083813 0.36619431 1.7320002
0.065980956 0.36619431 1.7320002
0.075878091 0.36619428 1.7320002
0.084832661 0.36572301 1.7320004
0.096222237 0.36564451 1.7320002
0.10666922 0.36509463 1.7320002
-0.10392 0.37774098 1.7320001
-0.0963322 0.37807089 1.7320002
-0.086435057 0.3774111 1.7320002
0.056083806 0.37609145 1.7320002
0.065156192 0.37361717 1.7320001
0.074935518 0.37562019 1.7320004
0.084832661 0.37609145 1.7320004
-0.10227048 0.38598859 1.7320001
-0.096614979 0.38598859 1.7320004
-0.084950477 0.38351431 1.7320001
0.018144762 0.38928762 1.7320001
0.026392384 0.38928765 1.7320001
0.032990478 0.38928762 1.7320001
0.058558095 0.38516381 1.7320001
0.062681906 0.38763809 1.7320001
0.074228577 0.38268957 1.7320001
0.086600006 0.38433906 1.7320001
0.093692958 0.38664839 1.7320002
-0.10886858 0.39918476 1.7320001
-0.096992008 0.39588574 1.7320002
-0.089074291 0.39588574 1.7320001
-0.072579056 0.39753526 1.7320001
-0.066640772 0.39786515 1.7320002
-0.05608381 0.39720535 1.7320002
-0.013196191 0.39258671 1.7320001
-0.0065980954 0.39258671 1.7320001
0.017437825 0.39541444 1.7320004
0.026392382 0.39588574 1.7320002
0.034640003 0.39588571 1.7320002
0.049485717 0.39918476 1.7320001
0.056555111 0.39682832 1.7320004
0.064661331 0.39720535 1.7320002
0.089074299 0.39588577 1.7320001
0.094022863 0.39588577 1.7320002
-0.10446985 0.40468323 1.7320002
-0.097321913 0.40578291 1.7320002
-0.089074291 0.40908194 1.7320001
-0.073898673 0.4064427 1.7320002
-0.064331427 0.40578288 1.7320001
-0.052784763 0.40578288 1.7320001
-0.047836196 0.40578291 1.7320002
-0.027334968 0.40578291 1.7320004
-0.019794285 0.40578288 1.7320001
0.018474666 0.40512305 1.7320002
0.02639238 0.40578291 1.7320002
0.036701906 0.4053705 1.7320002
0.046186667 0.40578291 1.7320002
0.056083813 0.40578291 1.7320002
0.065980956 0.40578288 1.7320002
0.07340382 0.40660763 1.7320001
0.089074291 0.40413338 1.7320001
0.094022863 0.40578288 1.7320001
-0.08412572 0.41238096 1.7320001
-0.075878099 0.41238099 1.7320001
-0.046186667 0.41348064 1.7320001
-0.028041905 0.41568005 1.7320002
0.0098971426 0.41897908 1.7320001
0.017155049 0.41633984 1.7320002
0.025567621 0.41485524 1.7320001
0.047836192 0.41238096 1.7320001
0.056083813 0.41238099 1.7320001
0.065980963 0.41238099 1.7320001
0.075878099 0.41238099 1.7320001
-0.036289528 0.42557716 1.7320002
-0.024412952 0.42623696 1.7320002
-0.016907619 0.42516479 1.7320002
-0.0049485723 0.42557716 1.7320002
0.0032990477 0.42337781 1.7320001
0.013196191 0.42227811 1.7320001
-0.034640003 0.43217525 1.7320001
-0.20228764 0.21555237 1.7410001
-0.20228764 0.22550097 1.7410001
-0.19764496 0.22616421 1.7410001
-0.20228763 0.23379144 1.7410001
-0.19470777 0.23497583 1.7410002
-0.18736476 0.23876572 1.7410001
0.17907429 0.23213333 1.7410001
0.18321952 0.23462048 1.7410001
-0.19233905 0.24705619 1.7410001
-0.18665417 0.24587186 1.7410002
-0.17907429 0.24705619 1.7410001
0.18239048 0.24871428 1.7410001
-0.18321952 0.25451761 1.7410001
-0.17907429 0.25534666 1.7410001
-0.1823905 0.26529524 1.7410001
-0.17907429 0.26529527 1.7410001
-0.17741621 0.27524382 1.7410001
-0.17492905 0.28436333 1.7410001
-0.16802034 0.2874032 1.7410001
0.17410001 0.28685048 1.7410001
-0.17244193 0.29514098 1.7410001
-0.16746762 0.29348287 1.7410001
0.15917714 0.29845715 1.7410001
0.16580954 0.29293019 1.7410001
-0.17410001 0.30343145 1.7410001
0.13596383 0.30840573 1.7410001
0.14812319 0.30730033 1.7410001
0.15586096 0.30343145 1.7410001
-0.16580953 0.3166962 1.7410001
0.13596381 0.31172192 1.7410001
0.1442543 0.31338 1.7410001
-0.16249335 0.32167047 1.7410001
-0.15917714 0.32664478 1.7410001
0.11938286 0.32664478 1.7410001
0.12269904 0.32664478 1.7410001
-0.15519772 0.33294556 1.7410001
-0.14757049 0.33825141 1.7410001
0.11938286 0.33327717 1.7410001
0.12601523 0.33493525 1.7410001
0.13513477 0.33576429 1.7410001
0.1437016 0.33714604 1.7410001
-0.1437016 0.34377846 1.7410001
0.11938286 0.34322572 1.7410001
0.12667847 0.34289411 1.7410001
0.13596381 0.34488383 1.7410001
0.1442543 0.34488386 1.7410001
0.17907429 0.34820002 1.7410001
0.18239048 0.34820002 1.7410001
-0.14259619 0.35483241 1.7410001
-0.13928001 0.35649049 1.7410001
0.11606666 0.35483238 1.7410001
0.12601525 0.35483238 1.7410001
0.13430572 0.35649049 1.7410001
0.14701781 0.35262161 1.7410001
0.15917714 0.35483238 1.7410001
0.18239048 0.35151619 1.7410001
-0.14259619 0.36146477 1.7410001
-0.13513477 0.36395192 1.7410001
-0.12601525 0.36643907 1.7410001
-0.11772476 0.36643907 1.7410001
-0.10943429 0.36478096 1.7410001
0.089537144 0.36809716 1.7410001
0.094511434 0.36809716 1.7410001
0.1028019 0.36809716 1.7410001
0.11275048 0.36809716 1.7410001
-0.12546253 0.37417683 1.7410001
-0.11648118 0.37514406 1.7410001
-0.10943429 0.3763876 1.7410001
0.089537144 0.37307143 1.7410001
0.096169539 0.37567699 1.7410002
0.10446 0.37141335 1.7410001
0.11275048 0.37141335 1.7410001
-0.11407695 0.3840149 1.7410001
-0.10810782 0.38534138 1.7410001
0.089537144 0.38136193 1.7410001
0.096169531 0.38384905 1.7410001
0.10446 0.38799429 1.7410001
-0.11275048 0.39462668 1.7410001
-0.10659185 0.39510044 1.7410002
0.099485718 0.3929686 1.7410001
-0.11523762 0.40374622 1.7410001
-0.10446 0.40125906 1.7410001
-0.067152858 0.4054043 1.7410001
-0.057701714 0.40523848 1.7410001
0.094511434 0.40457526 1.7410001
-0.076272383 0.41784006 1.7410001
-0.066323817 0.41319734 1.7410001
-0.056375235 0.41397116 1.7410001
-0.048084766 0.41784003 1.7410001
0.026529524 0.41452381 1.7410001
0.036478095 0.41452384 1.7410001
0.04559762 0.41701099 1.7410001
0.056375243 0.41784006 1.7410001
0.06466572 0.41784003 1.7410001
-0.046426669 0.4211562 1.7410001
-0.028740317 0.42557782 1.7410001
-0.029845715 0.43110475 1.7410001
-0.024871429 0.45431811 1.7410001
0.046426669 0.48748001 1.7410001
0.039794285 0.49411237 1.7410001
0.04690041 0.49316493 1.7410002
-0.20666668 0.21333334 1.7500002
-0.20666668 0.22333334 1.7500002
-0.20500001 0.23416668 1.7500001
-0.2046421 0.24314408 1.7508183
-0.19555557 0.24444446 1.7500002
-0.21108 0.25296098 1.7590001
-0.20380385 0.2539143 1.7540001
-0.19380955 0.25428575 1.7500002
-0.18666668 0.25666669 1.7500001
-0.21108 0.26133716 1.7590001
-0.20283313 0.26308003 1.7572001
-0.19333336 0.26333335 1.7500001
-0.1866667 0.26333338 1.7500002
-0.20102857 0.27306384 1.7590001
-0.19389144 0.27411619 1.755
-0.18533336 0.27400002 1.7500002
-0.19354239 0.28382525 1.755625
-0.18500003 0.28333336 1.7500002
-0.17833334 0.28666669 1.7500001
-0.19192648 0.29357186 1.7554001
-0.18532002 0.29383907 1.7530001
-0.17833334 0.29333335 1.7500002
0.16666669 0.29666668 1.7500001
0.1750416 0.29545876 1.756
0.18374169 0.29423669 1.757875
-0.19097714 0.30321813 1.7590001
-0.18482696 0.30470586 1.7551429
-0.17833334 0.30250004 1.7500001
0.16440818 0.30403486 1.7512859
0.17422476 0.30489334 1.7589999
0.18427621 0.30489331 1.7589999
0.19097714 0.30489337 1.7590002
-0.18331891 0.31446615 1.7590001
-0.17545144 0.31414479 1.7545002
-0.13555558 0.31111115 1.7500002
0.12666668 0.31666669 1.7500001
0.13416667 0.31583336 1.7500001
0.14000002 0.31666669 1.7500001
0.15375 0.31375003 1.7500001
0.16389905 0.31440762 1.756
0.17422475 0.31494477 1.7589999
0.18260096 0.31494477 1.7590001
-0.18260096 0.3249962 1.7590001
-0.17442501 0.32416382 1.75675
-0.16584128 0.32611558 1.7530001
0.12666669 0.32333335 1.7500002
0.13341144 0.32351622 1.751
0.14341715 0.32352 1.751
0.15368381 0.32407808 1.7540001
0.16399048 0.32462859 1.757
0.17374614 0.32403892 1.7590001
0.18427619 0.32164574 1.7590002
-0.18427621 0.33504766 1.7589999
-0.17412382 0.33485529 1.758
-0.16428573 0.33380958 1.7500002
0.12666668 0.33166671 1.7500001
0.13333336 0.33166671 1.7500002
0.14391729 0.33262342 1.7512859
0.15395047 0.33466482 1.757
0.16417333 0.33504766 1.7589999
-0.18226591 0.34442899 1.7590001
-0.17402476 0.3447105 1.757
-0.16408192 0.34490475 1.758
-0.15404786 0.34441644 1.7533751
-0.14500001 0.34666669 1.7500001
0.15386476 0.34451047 1.756
0.16417333 0.345099 1.7589999
0.17489485 0.34710932 1.7590001
0.18260096 0.34677431 1.7590001
-0.18092571 0.35180002 1.7590001
-0.17326747 0.35467187 1.7590001
-0.16389525 0.3545467 1.756
-0.15333334 0.35333332 1.7500001
-0.14666668 0.35333335 1.7500002
0.15394929 0.35378334 1.7522501
0.1642793 0.35404807 1.755625
0.17382477 0.35434288 1.755
0.18092571 0.35515049 1.7590001
-0.17422476 0.36185142 1.7590001
-0.16389905 0.36457911 1.756
-0.15333335 0.36333337 1.7500001
-0.14466667 0.36466667 1.7500002
-0.13666669 0.3666667 1.7500001
0.11533333 0.36400002 1.7500002
0.12361906 0.36416769 1.7540001
0.13334738 0.36492431 1.755625
0.14382859 0.36458293 1.756
0.15364328 0.36424464 1.7590001
0.16305652 0.36408508 1.7590001
0.17355466 0.36453182 1.7590001
-0.16389714 0.37461534 1.756
-0.15342286 0.37354866 1.751
-0.14365526 0.37418863 1.7540001
-0.1345616 0.37476736 1.7515001
-0.12666668 0.37666669 1.7500001
0.10526572 0.37763527 1.7545002
0.11466666 0.37466669 1.7500002
0.12383047 0.37482864 1.757
0.13401905 0.37525338 1.7589999
0.14311321 0.37573203 1.7590001
0.15412191 0.37525338 1.7589999
0.16417335 0.37525338 1.7589999
0.17087428 0.37525338 1.7590002
-0.16417333 0.38530475 1.7589999
-0.15360191 0.38399053 1.753
-0.14381905 0.38464764 1.756
-0.13392572 0.38424501 1.7522501
-0.12533335 0.38400003 1.7500002
-0.12 0.38500002 1.7500001
0.10381644 0.38399431 1.7511251
0.11353334 0.3839905 1.753
0.12396763 0.38530475 1.7589999
0.13401906 0.38530475 1.7589999
0.14407049 0.38530475 1.7589999
0.15316463 0.38482612 1.7590001
0.16082287 0.38195428 1.7590001
-0.16297852 0.39477336 1.7564287
-0.15333334 0.39333338 1.7500001
-0.14349525 0.3937791 1.7520001
-0.13348953 0.39378482 1.7520001
-0.12510572 0.39367336 1.7515001
-0.11761905 0.39380962 1.7500002
-0.10666667 0.39666671 1.7500001
0.105 0.39500004 1.7500001
0.11340001 0.39356005 1.751
0.12389905 0.39513338 1.758
0.13360023 0.3949374 1.7589999
0.14407048 0.39368099 1.7590001
0.15077144 0.39200574 1.7590001
-0.15244667 0.40205714 1.7590001
-0.14742096 0.40205714 1.7590001
-0.13234381 0.40205714 1.7590001
-0.12532143 0.40269524 1.7545002
-0.11833333 0.4016667 1.7500001
0.10351335 0.40235814 1.7530001
0.11168253 0.40317398 1.7590002
-0.070000008 0.41666669 1.7500001
-0.06666667 0.41666669 1.7500001
0.030000001 0.41666669 1.7500001
-0.073710486 0.4255105 1.7590002
-0.063491911 0.42275527 1.7545002
-0.055443048 0.42354098 1.7536001
-0.045635562 0.42628703 1.7530001
0.035090003 0.42275527 1.7545002
0.043556195 0.4255105 1.7590002
-0.045120001 0.43110573 1.7545002
-0.020000001 0.45666668 1.7500001
-0.015000001 0.45666668 1.7500001
-0.032538574 0.46392909 1.7522501
-0.024598444 0.4644196 1.754091
-0.013392381 0.4654533 1.758
-0.006700953 0.46571621 1.7590002
-0.033333335 0.47000003 1.7500001
-0.024522541 0.47421545 1.756
-0.013401906 0.47241721 1.7590002
-0.035000004 0.48500001 1.7500001
-0.024271667 0.48467073 1.757875
-0.011726667 0.48414382 1.7590001
-0.0067009525 0.48749429 1.7590001
0.035180002 0.48916951 1.7590001
0.044133719 0.48682818 1.7554001
0.050000004 0.48666668 1.7500001
-0.036017619 0.49503285 1.7590001
-0.023453334 0.49252 1.7590001
-0.010051429 0.49922097 1.7590001
0.02680381 0.49754572 1.7590001
0.033424761 0.49473906 1.755
0.040102862 0.49292672 1.7545002
-0.010051429 0.50424671 1.7590001
-0.0067009525 0.50424671 1.7590001
0.0016752381 0.50759715 1.7590001
0.02680381 0.50759715 1.7590001
0.03346286 0.50534856 1.757
0.04333334 0.50333339 1.7500001
-0.010051429 0.51597333 1.7590002
-0.0050257146 0.51597333 1.7590001
0.0013401905 0.51664346 1.7590001
0.02680381 0.51262289 1.7590001
0.033504765 0.51262295 1.7590002
-0.010051429 0.52267432 1.7590001
-0.0050257146 0.52267432 1.7590001
0 0.52267432 1.7590001
-0.21216002 0.2593067 1.7680001
-0.21216002 0.26604193 1.7680001
-0.20710859 0.26772574 1.7680001
-0.21216002 0.27446097 1.7680001
-0.20626667 0.27530286 1.7680001
-0.21216002 0.28288001 1.7680001
-0.20289907 0.2854057 1.7680001
-0.19868954 0.28961524 1.7680001
-0.20374095 0.29298288 1.7680001
-0.19700572 0.29635048 1.7680001
0.18858668 0.29971811 1.7680001
0.1919543 0.29971811 1.7680001
-0.19588318 0.30757588 1.768
-0.19532192 0.31655619 1.7679999
-0.18858668 0.31824002 1.7680001
0.18858668 0.31655622 1.7680001
0.1919543 0.31655622 1.7680001
-0.19532192 0.32497525 1.768
-0.18858668 0.32497525 1.7680001
0.18521905 0.32665908 1.7680001
0.1919543 0.32497525 1.7680001
-0.19435975 0.33291322 1.768
-0.18858668 0.33002669 1.7680001
-0.17174858 0.33002669 1.7680001
0.17553715 0.33381525 1.7679999
0.18479812 0.33297333 1.7679999
0.1919543 0.33002669 1.7680001
-0.18858668 0.34518099 1.7680001
0.17463513 0.34253496 1.768
0.18185145 0.34181333 1.7680001
-0.18589258 0.35292649 1.768
-0.17848383 0.35696766 1.7680001
-0.17399368 0.36370289 1.7680001
0.16838096 0.36707053 1.7680001
0.17343238 0.36707053 1.7680001
-0.17174858 0.37548953 1.7680001
0.14817525 0.37548953 1.7680001
0.15659429 0.3704381 1.7680001
0.16669714 0.3704381 1.7680001
-0.17174858 0.3839086 1.7680001
0.15827811 0.3872762 1.7680001
-0.14312381 0.40411431 1.7680001
-0.13807239 0.40411431 1.7680001
0.11786667 0.40411431 1.7680001
0.12460192 0.40411434 1.7680001
0.10271238 0.41084954 1.7680001
-0.067352384 0.42768764 1.7680001
-0.057249527 0.43105528 1.7680001
-0.015154287 0.47820193 1.7680001
-0.020205716 0.48156956 1.7680001
-0.015996192 0.48409528 1.7680001
0.035023239 0.48561072 1.768
0.040411431 0.48830479 1.7680001
-0.031150477 0.49588197 1.7680001
-0.023012068 0.49504006 1.768
-0.013470477 0.49504006 1.7679999
-0.0056126988 0.49728513 1.7680001
0 0.49840766 1.7680001
0.025257144 0.49672386 1.7680001
0.030308573 0.49167243 1.7680001
-0.033255238 0.50556386 1.7679999
-0.021889526 0.50514293 1.768
-0.015154287 0.50514293 1.768
-0.004209524 0.50430101 1.7680001
0.0011225399 0.50402039 1.7680001
0.024695873 0.50514293 1.7680001
-0.040411431 0.51524574 1.7680001
-0.037043814 0.51187813 1.7680001
-0.020205716 0.5186134 1.7680001
-0.014031747 0.5152458 1.768
-0.0050514289 0.51187813 1.7680001
0.0056126988 0.51636833 1.7680001
0.023573335 0.51187813 1.7680001
-0.015154287 0.52198094 1.7680001
-0.21662478 0.26401144 1.7770002
-0.20647047 0.27755049 1.7770001
-0.21436827 0.28432006 1.7770002
-0.20850134 0.28432006 1.7770001
-0.21324001 0.29616666 1.7770001
-0.20534223 0.29560256 1.7770002
-0.19970095 0.29785907 1.7770001
-0.19970095 0.3029362 1.7770001
-0.20308572 0.31816763 1.7770001
-0.20443963 0.32426021 1.7770001
-0.20308572 0.33339906 1.7770001
-0.19970095 0.33678383 1.7770001
-0.19428533 0.34524569 1.7770001
-0.19293143 0.35370761 1.7770001
-0.18785429 0.35878479 1.7770001
-0.18446952 0.36386192 1.7770001
-0.13369811 0.40955621 1.7770001
0.033847623 0.48571336 1.7770001
0.042309526 0.48740575 1.7770001
-0.003384762 0.49756005 1.7770001
0 0.49756005 1.7770001
0.025949841 0.49417529 1.7770002
0.030462859 0.49079049 1.7770001
-0.027078098 0.50432956 1.7770002
0.004513016 0.50207305 1.7770002
0.021154761 0.50517571 1.7770001
-0.033170667 0.51651472 1.7770001
-0.024176871 0.51545095 1.7770002
-0.016923809 0.51448381 1.7770001
-0.040617146 0.52125335 1.7770001
-0.033847623 0.52125335 1.7770002
-0.025385715 0.52125335 1.7770001
-0.21772192 0.25854477 1.7860001
-0.22112384 0.26534861 1.7860001
-0.21687146 0.27470383 1.7860001
-0.21772192 0.28576002 1.7860001
-0.21432002 0.29547977 1.7860003
-0.20547508 0.30549106 1.7860001
-0.21205208 0.31864509 1.7860001
-0.20615545 0.31569681 1.7860001
-0.22112383 0.32828385 1.7860001
-0.21432 0.32658285 1.7860001
-0.20751621 0.32998478 1.7860001
-0.21432 0.33508766 1.7860001
-0.20751621 0.33508766 1.7860001
-0.21091811 0.34019047 1.7860001
-0.20326383 0.34274191 1.7860001
-0.19731048 0.34699431 1.7860001
-0.21261907 0.35549909 1.7860001
-0.20275354 0.3551589 1.7860001
-0.19731048 0.35549909 1.7860001
-0.21091811 0.36060193 1.7860001
-0.20298034 0.36286986 1.7860001
-0.19433381 0.36442909 1.7860001
-0.19560954 0.37080765 1.7860001
0.10886096 0.41503242 1.7860001
