# .PCD v0.7 - Point Cloud Data file format
VERSION 0.7
FIELDS x y z
SIZE 4 4 4
TYPE F F F
COUNT 1 1 1
WIDTH 1511
HEIGHT 1
VIEWPOINT 0 0 0 1 0 0 0
POINTS 1511
DATA ascii
0.046131432 0.42937717 1.8630002
0.055002857 0.42937714 1.863
0.063874289 0.42937717 1.8630002
0.074519999 0.42937717 1.8630002
0.085165724 0.42937717 1.8630002
0.095811427 0.42937717 1.8630002
0.10468285 0.42937714 1.863
-0.22355999 0.43470001 1.863
-0.21646287 0.43470001 1.863
-0.15613714 0.43470001 1.863
-0.14904 0.43292573 1.863
0.042582858 0.43292573 1.863
0.053228572 0.43292573 1.863
0.060325716 0.43292573 1.863
0.097585723 0.43292573 1.863
0.10468285 0.43292573 1.863
0.11355428 0.43410859 1.8630002
0.12420001 0.43647429 1.8630002
0.13484572 0.43647429 1.8630002
-0.22356001 0.4417972 1.8630002
-0.21646287 0.44002286 1.863
-0.18097714 0.44712001 1.863
-0.17317028 0.44428116 1.8630002
-0.16500857 0.44002286 1.863
0.12508714 0.44090998 1.863
0.13484572 0.44179714 1.8630002
0.14478171 0.44215202 1.8630002
0.15613714 0.44357142 1.8630002
0.1656 0.44593716 1.8630002
0.17388001 0.44712004 1.8630002
0.18097714 0.44712001 1.863
-0.18216 0.45421717 1.8630002
-0.17742857 0.45244285 1.863
0.16323428 0.45066857 1.863
0.17565428 0.45244285 1.863
0.18496928 0.45377359 1.863
0.19466451 0.45523104 1.8630002
0.20510744 0.45634633 1.8630002
0.21291429 0.45776573 1.863
-0.18186426 0.46575001 1.863
-0.17742857 0.46486288 1.8630002
0.18452571 0.46131429 1.863
0.19472787 0.46441928 1.863
0.20581715 0.46441928 1.863
0.21291429 0.46663713 1.863
0.22001143 0.46486288 1.863
-0.18275142 0.47196001 1.863
0.18807428 0.47550857 1.8630002
0.19517143 0.4755086 1.863
0.20404288 0.47550857 1.8630002
0.18807428 0.48438001 1.863
0.19162287 0.48260573 1.863
-0.22476003 0.41741151 1.8730001
-0.21762477 0.41741148 1.8730001
-0.23189525 0.4227629 1.8730001
-0.21405715 0.42454669 1.8730001
-0.03924381 0.4281143 1.8730001
0.03924381 0.4281143 1.8730001
0.046379052 0.4281143 1.8730001
0.055298097 0.4281143 1.8730001
0.06421715 0.4281143 1.8730001
0.074919999 0.4281143 1.8730001
0.085622869 0.4281143 1.8730001
0.096325718 0.4281143 1.8730001
0.10524476 0.4281143 1.8730001
0.11238001 0.4281143 1.8730001
-0.23332229 0.43453604 1.8730001
-0.21405715 0.43524954 1.8730001
-0.17392144 0.43792525 1.8730001
-0.16482401 0.43667659 1.8730001
-0.15519144 0.43346572 1.8730001
-0.14448857 0.43168193 1.8730001
-0.13378572 0.43168193 1.8730001
-0.1284343 0.43168193 1.8730001
-0.032108575 0.43168193 1.8730001
0.023189526 0.43168193 1.8730001
0.11505572 0.4325738 1.8730001
0.12486669 0.43346578 1.8730001
0.13556953 0.43346572 1.8730001
0.14627239 0.43703339 1.8730001
0.15459684 0.43762797 1.8730001
0.16411048 0.43881717 1.8730001
0.17481335 0.43792528 1.8730001
0.18373239 0.43881717 1.8730001
-0.23189525 0.44238478 1.8730001
-0.22476003 0.44952005 1.8730001
-0.21584097 0.4477362 1.8730001
-0.1831378 0.44595242 1.8730001
-0.17719176 0.44357401 1.8730001
0.14984001 0.44238478 1.8730001
0.15519144 0.44238478 1.8730001
0.16411048 0.4432767 1.8730001
0.17481336 0.44416863 1.8730001
0.18596216 0.44550645 1.8730001
0.19577311 0.44639835 1.8730001
0.20549488 0.44666591 1.8730001
0.21405715 0.44952005 1.8730001
0.22297621 0.44952002 1.8730001
-0.22297621 0.45487148 1.8730001
-0.21584097 0.45308766 1.8730001
-0.18730001 0.45487148 1.8730001
0.19800287 0.45308766 1.8730001
0.20513812 0.45308766 1.8730001
0.21405715 0.45487148 1.8730001
0.22238159 0.45546609 1.8730001
0.2390305 0.45665526 1.8730001
0.24438193 0.45665526 1.8730001
-0.22238159 0.46141213 1.8730001
-0.18765679 0.46450406 1.8730001
0.21673286 0.46379051 1.8730001
0.22520597 0.46334454 1.8730001
0.23590882 0.46334457 1.8730001
0.24438193 0.4602229 1.8730001
-0.18908381 0.47270957 1.8730001
0.21405715 0.47508797 1.8730001
0.22476003 0.4727096 1.8730001
0.19800287 0.48519623 1.8730001
0.20513812 0.48519623 1.8730001
0.21048954 0.48162863 1.8730001
-0.21340668 0.41964003 1.8830001
-0.12194667 0.42681336 1.8830001
-0.11836001 0.42681336 1.8830001
0.044833332 0.42681336 1.8830001
0.053800002 0.42681336 1.8830001
0.060973335 0.42681336 1.8830001
0.08608 0.42681336 1.8830001
0.095644459 0.42561781 1.8830001
0.10311668 0.4259167 1.8830001
0.11477335 0.42681336 1.8830001
0.12553334 0.42681336 1.8830001
0.13629335 0.42681336 1.8830001
-0.21161334 0.43398669 1.8830001
-0.18292001 0.43757334 1.8830001
-0.17574668 0.43578002 1.8830001
-0.16498668 0.43398672 1.8830001
-0.15422668 0.43398669 1.8830001
-0.12194667 0.43040004 1.8830001
-0.11836001 0.43040004 1.8830001
-0.03586667 0.43040004 1.8830001
-0.026900001 0.43398669 1.8830001
-0.01076 0.43040004 1.8830001
-0.0053800005 0.43040004 1.8830001
0.0017933334 0.43040004 1.8830001
0.016140001 0.43040004 1.8830001
0.025106668 0.43040007 1.8830001
0.034073338 0.43040004 1.8830001
0.075320005 0.43040004 1.8830001
0.11836001 0.43040004 1.8830001
0.12553334 0.43040007 1.8830001
0.13629335 0.43040007 1.8830001
0.14526001 0.43219337 1.8830001
0.15422668 0.43398672 1.8830003
0.16498667 0.43578005 1.8830003
0.17574666 0.43542138 1.8830003
0.18507202 0.43470404 1.8830003
0.19368002 0.43578002 1.8830003
0.20444003 0.43578002 1.8830003
0.21280891 0.43637782 1.8830001
-0.21161334 0.44116005 1.8830001
-0.18531112 0.4447467 1.8830001
0.16498667 0.44116005 1.8830001
0.19368002 0.44116005 1.8830001
0.20372267 0.44259474 1.8830003
0.21520002 0.44474664 1.8830003
0.22506335 0.44743669 1.8830001
-0.23313336 0.45730004 1.8830001
-0.22954668 0.45730004 1.8830001
-0.19009334 0.45192 1.8830001
0.22865 0.45550668 1.8830001
0.23492669 0.45550674 1.8830003
0.24389336 0.45371339 1.8830003
0.25250134 0.45478937 1.8830003
-0.22954668 0.46268001 1.8830001
0.21759114 0.48300451 1.8830001
0.22524269 0.48204803 1.8830003
0.03788 0.42930666 1.8940001
0.066740952 0.42930666 1.8940001
0.075759999 0.42930669 1.8940001
0.086582862 0.42569906 1.8940001
0.091994286 0.42569906 1.8940001
0.10642476 0.42569906 1.8940001
0.11544381 0.42569908 1.8940001
0.12536477 0.42479712 1.8940001
0.13528571 0.42569906 1.8940001
0.14430478 0.42810413 1.8940001
0.1533238 0.42930666 1.8940001
0.17677332 0.42930666 1.8940001
0.18579239 0.42930666 1.8940001
0.19481143 0.42786366 1.8940001
0.20443174 0.42810413 1.8940001
-0.21284953 0.43652192 1.8940001
-0.18218476 0.43652192 1.8940001
-0.16234286 0.43291429 1.8940001
-0.15512761 0.43291429 1.8940001
-0.14430478 0.43291432 1.8940001
-0.1334819 0.43291429 1.8940001
-0.032468572 0.43291429 1.8940001
-0.021645715 0.43291429 1.8940001
-0.018038096 0.43291429 1.8940001
0.0072152382 0.43291429 1.8940001
0.010822858 0.43291429 1.8940001
0.15693143 0.43291429 1.8940001
0.16595048 0.43291432 1.8940001
0.17496952 0.43291429 1.8940001
0.18218476 0.43291429 1.8940001
0.19481143 0.43291432 1.8940001
0.2056343 0.43291432 1.8940001
0.2152546 0.43411684 1.8940001
0.22186857 0.43652192 1.8940001
-0.21645714 0.44734475 1.8940001
-0.19120382 0.44734475 1.8940001
-0.1875962 0.44373715 1.8940001
0.22487494 0.44253463 1.8940001
0.23359333 0.44644284 1.8940001
-0.19120382 0.45095238 1.8940001
0.23629905 0.45095238 1.8940001
0.2453181 0.45095238 1.8940001
-0.2453181 0.4689905 1.8940001
-0.23569779 0.4665854 1.8940001
-0.22728001 0.46899047 1.8940001
-0.25253335 0.47440192 1.8940001
-0.24591935 0.47740826 1.8940001
-0.23593831 0.47764874 1.8940001
-0.22547619 0.47620571 1.8940001
-0.22728001 0.48342097 1.8940001
0.045333333 0.42794669 1.904
0.054400004 0.42794669 1.904
0.065280005 0.42794669 1.904
0.076160006 0.42794669 1.904
0.083413333 0.42794669 1.904
0.096106663 0.42432001 1.904
0.10517333 0.42432004 1.904
0.11605334 0.42432004 1.904
0.12693334 0.42432001 1.904
0.14688 0.42794669 1.904
0.15957333 0.42794669 1.904
0.17589334 0.42794669 1.904
0.18496001 0.42794669 1.904
0.19584 0.42522666 1.904
0.20430224 0.42552888 1.904
0.21306667 0.42704001 1.904
0.22304001 0.42794669 1.904
-0.17408 0.43520004 1.904
-0.16682667 0.43520001 1.904
-0.15594667 0.43520001 1.904
-0.14688 0.43157333 1.904
-0.13418667 0.43520001 1.904
-0.12693334 0.43520001 1.904
-0.0272 0.43520001 1.904
-0.014506667 0.43520001 1.904
0.15957333 0.43157333 1.904
0.16501334 0.43157333 1.904
0.17226666 0.43157333 1.904
0.18133333 0.43157333 1.904
0.21397334 0.43157333 1.904
0.22537144 0.43416384 1.9040003
0.23210667 0.43882668 1.904
-0.21155557 0.44608003 1.904
-0.18858667 0.44245335 1.904
0.23645869 0.44390401 1.9040002
0.24443734 0.44680533 1.9040002
0.25024 0.44970667 1.904
-0.21397334 0.45514667 1.904
-0.19584 0.45696002 1.904
0.25568002 0.45333332 1.904
0.26111999 0.45514667 1.904
-0.25265777 0.46663111 1.904
-0.2448 0.46602666 1.904
-0.21397334 0.46240002 1.904
-0.19674666 0.46421334 1.904
-0.25386667 0.47146666 1.904
-0.24540445 0.47630224 1.904
-0.23392001 0.47690666 1.904
-0.19584 0.47509333 1.904
0.054714289 0.42677146 1.9150002
0.065657154 0.42677146 1.9150002
0.074776188 0.42677143 1.9150001
0.083895236 0.42677146 1.9150002
0.09119048 0.42677143 1.9150001
0.1349619 0.42677146 1.9150002
0.14408097 0.42677143 1.9150001
0.15684763 0.42677143 1.9150001
0.16505477 0.42585951 1.9150001
0.17508572 0.42494768 1.9150002
0.18602857 0.42494762 1.9150002
0.19514762 0.42312384 1.9150001
0.20426667 0.42312384 1.9150002
0.21593907 0.42458287 1.9150002
0.22615241 0.42494762 1.9150002
0.23466352 0.42555556 1.9150002
-0.21156192 0.4358905 1.9150001
-0.18420476 0.43771428 1.9150001
-0.16231905 0.43406668 1.9150001
-0.15502381 0.43406668 1.9150001
-0.14225715 0.43406668 1.9150001
-0.1349619 0.43406671 1.9150002
-0.051066671 0.43406668 1.9150001
-0.043771431 0.43406668 1.9150001
-0.034652382 0.43406668 1.9150001
-0.023709524 0.43406668 1.9150001
-0.014590478 0.43406671 1.9150002
-0.0054714289 0.43406668 1.9150001
0.0072952383 0.43406668 1.9150001
0.014590478 0.43406671 1.9150002
0.025533333 0.43406671 1.9150002
0.032828573 0.43406668 1.9150001
0.040123809 0.43041909 1.9150001
0.15502381 0.43041909 1.9150001
0.16596667 0.43041909 1.9150001
0.1714381 0.43041909 1.9150001
0.2298 0.43041909 1.9150001
0.23527144 0.43406671 1.9150002
0.2431746 0.43528256 1.9150002
-0.21156192 0.44136193 1.9150001
-0.20478778 0.44605172 1.9150002
-0.19514762 0.44683331 1.9150001
-0.1896762 0.44136193 1.9150001
0.23709525 0.44136193 1.9150001
0.24530239 0.44227383 1.9150001
0.25481227 0.44605172 1.9150002
0.2644524 0.44500953 1.9150001
-0.21156192 0.45595241 1.9150002
-0.20426667 0.45595244 1.9150001
-0.19697143 0.45412859 1.9150001
0.25715715 0.45230478 1.9150001
0.26506037 0.45352066 1.9150002
-0.25168574 0.46507144 1.9150001
-0.2480381 0.46324766 1.9150001
-0.21156192 0.46507144 1.9150001
-0.20499621 0.46470672 1.9150002
-0.21156192 0.47236669 1.9150001
-0.20381074 0.47373453 1.9150001
0.045833334 0.42900002 1.9250001
0.1155 0.42533332 1.9250001
0.121 0.42533332 1.9250001
0.15400001 0.42777777 1.9250001
0.16316667 0.42533332 1.9250001
0.19800001 0.42166668 1.9250001
0.20533335 0.42166671 1.9250001
0.21450001 0.42166668 1.9250001
0.22183335 0.42166668 1.9250001
0.23833334 0.42533332 1.9250001
0.24566668 0.42716667 1.9250001
0.25300002 0.42900002 1.9250001
-0.20900001 0.43633336 1.9250001
-0.16866668 0.43633336 1.9250001
-0.15400001 0.43266669 1.9250001
-0.12833333 0.43633336 1.9250001
-0.034833334 0.43266669 1.9250001
-0.025666667 0.43450004 1.9250001
-0.0165 0.43266669 1.9250001
0.0018333334 0.43633336 1.9250001
0.022 0.43266669 1.9250001
0.034833334 0.43266669 1.9250001
0.24811113 0.43388891 1.9250001
0.25422224 0.43511114 1.9250001
-0.20900001 0.44000003 1.9250001
-0.19433334 0.44244444 1.9250001
0.25544447 0.44122225 1.9250001
0.26326665 0.44220001 1.9250001
0.27133337 0.44550002 1.9250001
0.26583332 0.45100001 1.9250001
0.071908571 0.42776385 1.9360001
0.095878109 0.42776388 1.9360002
0.10509715 0.42776385 1.9360001
0.11062858 0.42776385 1.9360001
0.12722287 0.42776385 1.9360001
0.13644192 0.42776385 1.9360001
0.14566097 0.42776385 1.9360001
0.15414248 0.42555127 1.9360001
0.16594288 0.4240762 1.9360002
0.17454731 0.422847 1.9360002
0.18438098 0.4240762 1.9360002
0.19360001 0.4240762 1.9360001
0.20466286 0.42038858 1.9360001
0.21388191 0.42038858 1.9360002
0.22586668 0.42131048 1.9360001
0.23508573 0.42315429 1.9360001
0.24338287 0.4240762 1.9360001
0.25628954 0.42776385 1.9360001
0.26550859 0.42776388 1.9360002
-0.18253715 0.43882671 1.9360001
-0.17516191 0.43882671 1.9360001
-0.15488002 0.43513906 1.9360001
-0.044251431 0.43606097 1.9360001
-0.027657144 0.43513906 1.9360001
-0.012906667 0.43329525 1.9360001
-0.0073752385 0.43513906 1.9360001
0.0073752385 0.43513906 1.9360001
0.012906667 0.43513906 1.9360001
0.027657144 0.43513906 1.9360001
0.03687619 0.43145144 1.9360001
0.040563811 0.43145144 1.9360001
0.25813335 0.43329525 1.9360001
0.26550859 0.43513903 1.936
0.27288383 0.43698287 1.9360001
-0.20466286 0.44435811 1.9360001
-0.19728763 0.4425143 1.9360001
0.26919618 0.4425143 1.9360001
0.27288383 0.4425143 1.9360001
0.17059429 0.4190686 1.9470001
0.21880573 0.4190686 1.9470001
0.22622287 0.41906863 1.9470003
0.23364002 0.4190686 1.9470001
0.10198572 0.42648575 1.9470001
0.11496572 0.42648575 1.9470003
0.12609144 0.42648575 1.9470001
0.13721716 0.42648575 1.9470001
0.14463429 0.42648575 1.9470003
0.15761431 0.42277718 1.9470001
0.16503143 0.42277718 1.9470001
0.17430288 0.42277718 1.9470001
0.18542859 0.42277718 1.9470003
0.19470002 0.42277718 1.9470001
0.20026287 0.42277718 1.9470001
0.23734859 0.42277718 1.9470001
0.24476574 0.42401338 1.9470003
0.25218287 0.42648575 1.9470001
-0.16503143 0.43761146 1.9470001
-0.014834287 0.43390286 1.9470001
-0.0037085717 0.43761146 1.9470001
0.0018542858 0.43761146 1.9470001
0.018542858 0.43761146 1.9470001
0.025960004 0.43390286 1.9470003
0.033377144 0.43390286 1.9470001
0.059337147 0.43019432 1.9470001
0.064900003 0.43019432 1.9470001
0.085297152 0.43019432 1.9470003
0.13350858 0.43019432 1.9470001
0.14092572 0.43019432 1.9470001
-0.20397145 0.44132003 1.9470003
-0.19470002 0.44132003 1.9470001
-0.18913715 0.44132003 1.9470001
0.17528762 0.41770667 1.9580001
0.19393525 0.41770667 1.9580001
0.22470382 0.41677427 1.9580001
0.23496 0.41677427 1.9580001
0.24241905 0.41770667 1.9580001
0.095102862 0.42889526 1.9580001
0.10629143 0.4270305 1.9580001
0.11934476 0.42516571 1.9580001
0.12493904 0.4270305 1.9580001
0.13612762 0.4270305 1.9580001
0.14731619 0.42516571 1.9580001
0.15415365 0.42267939 1.9580001
0.16409904 0.42143625 1.9580001
0.17715238 0.42143622 1.9580001
0.18461142 0.42143622 1.9580001
0.19393525 0.42143625 1.9580001
0.20512383 0.42143625 1.9580001
0.21444762 0.42143622 1.9580001
0.23868953 0.42143622 1.9580001
0.24614859 0.42330098 1.9580001
0.25609398 0.42640895 1.9580001
0.2638638 0.4279629 1.9580001
-0.16036952 0.43635431 1.9580001
-0.042889524 0.43635431 1.9580001
-0.033565715 0.43635431 1.9580001
-0.0055942857 0.43635431 1.9580001
0.0037295239 0.43635434 1.9580001
0.014918095 0.43635434 1.9580001
0.054078095 0.43262476 1.9580001
0.078319997 0.43262476 1.9580001
-0.20885333 0.44008383 1.9580001
-0.1715581 0.44008383 1.9580001
0.18377334 0.41630286 1.9690001
0.19502477 0.41630286 1.9690002
0.20627619 0.41630286 1.9690001
0.21377715 0.41630286 1.9690002
0.2250286 0.41505274 1.9690002
0.2337797 0.41380256 1.9690002
0.24303089 0.41480264 1.9690001
0.097512387 0.42755431 1.9690001
0.10501333 0.42755431 1.9690001
0.11438952 0.42755431 1.9690001
0.1275162 0.42755431 1.9690001
0.13314191 0.42755431 1.9690001
0.1425181 0.42755431 1.9690001
0.15001905 0.42380384 1.9690001
0.16502097 0.42005336 1.9690002
0.17252192 0.42005336 1.9690001
0.18377334 0.42005336 1.9690002
0.20440096 0.42005336 1.9690001
0.21377715 0.42005336 1.9690002
0.24753144 0.42192858 1.9690001
0.25578249 0.42230368 1.9690001
0.26253334 0.42380384 1.9690001
-0.16689619 0.43880573 1.9690001
-0.05250667 0.43880573 1.9690001
-0.045943338 0.43599287 1.9690001
-0.033754289 0.43755555 1.9690002
0.037504762 0.43505526 1.9690001
0.045005716 0.43411765 1.9690001
0.05250667 0.43130478 1.9690001
0.090011433 0.43130478 1.9690001
-0.20440096 0.4425562 1.9690001
-0.19502477 0.44255623 1.9690002
-0.18377334 0.44255623 1.9690002
-0.17627239 0.4425562 1.9690001
-0.13126667 0.4425562 1.9690001
0 0.57382292 1.9690001
0.24325716 0.4073143 1.9800001
0.1697143 0.4186286 1.9800001
0.17537144 0.4186286 1.9800001
0.1848 0.41580003 1.9800001
0.1961143 0.41334864 1.9800001
0.2049143 0.41611433 1.9800003
0.21497145 0.41485721 1.9800003
0.22440001 0.41485718 1.9800001
0.23382859 0.41108578 1.9800003
0.24608573 0.41202861 1.9800001
0.25362858 0.41580003 1.9800001
0.092400007 0.42994288 1.9800001
0.10371429 0.42617145 1.9800001
0.12634286 0.42617145 1.9800001
0.13577144 0.42617148 1.9800003
0.14520001 0.42617145 1.9800001
0.15651429 0.42240003 1.9800001
0.25268573 0.42240003 1.9800001
-0.037714288 0.43748575 1.9800001
-0.005657143 0.43748575 1.9800001
0.0028285715 0.43654287 1.9800001
0.026400002 0.43748575 1.9800001
0.033942863 0.4362286 1.9800003
0.045257144 0.4337143 1.9800001
0.056571431 0.4337143 1.9800001
0.066000007 0.4337143 1.9800001
0.084857151 0.4337143 1.9800001
-0.21120001 0.44125718 1.9800001
-0.1961143 0.44125718 1.9800001
-0.18480001 0.44125718 1.9800003
-0.17537144 0.44125718 1.9800001
-0.15462857 0.44314289 1.9800001
-0.13577144 0.4450286 1.9800001
-0.12445715 0.44502863 1.9800003
-0.30354288 0.26939431 1.9920001
-0.2997486 0.26939431 1.9920001
-0.2997486 0.27318859 1.9920001
-0.29785144 0.3566629 1.9920001
-0.29848385 0.36172193 1.9920001
-0.29216 0.37753144 1.9920001
0.20109715 0.40978289 1.9920001
0.17643431 0.41737145 1.9920001
0.18592 0.41357717 1.9920001
0.19730286 0.41357714 1.9920001
0.20678858 0.41357714 1.9920001
0.21437715 0.41357714 1.9920001
0.22386287 0.41357717 1.9920001
-0.28741717 0.42401147 1.9920001
0.09296 0.4287543 1.9920001
0.10434286 0.42496002 1.9920001
0.14797714 0.42496002 1.9920001
0.15556572 0.42306286 1.9920001
0.16505143 0.42116573 1.9920001
-0.0056914287 0.4363429 1.9920001
0.0056914287 0.4363429 1.9920001
0.032251433 0.4363429 1.9920001
0.060708575 0.4363429 1.9920001
0.075885728 0.4363429 1.9920001
0.085371435 0.43254858 1.9920001
-0.20489144 0.4420343 1.9920001
-0.19603811 0.44140193 1.9920001
-0.18592 0.44013715 1.9920001
-0.17453715 0.44013715 1.9920001
-0.16694857 0.44013715 1.9920001
-0.15556572 0.44393143 1.9920001
-0.14608002 0.44772574 1.9920001
-0.09296 0.44772574 1.9920001
-0.062605716 0.44393143 1.9920001
-0.055017143 0.4420343 1.9920001
-0.024662858 0.44393143 1.9920001
-0.013280001 0.44013715 1.9920001
0.015177144 0.44013715 1.9920001
0.022765715 0.44013715 1.9920001
0.024662858 0.66399997 1.9920001
0.024662858 0.67538291 1.9920001
-0.045531429 0.68297148 1.9920001
0.022765715 0.75506288 1.9920001
0.25943619 0.22128381 2.003
0.26325142 0.22128381 2.003
0.29758859 0.22891429 2.003
0.30331141 0.22891429 2.003
0.30331141 0.23272952 2.003
-0.30521905 0.27469715 2.003
-0.30140379 0.35290951 2.003
-0.29529941 0.35405409 2.003
-0.28614286 0.35529405 2.003
-0.27578723 0.35536221 2.0030003
-0.29504508 0.36499113 2.003
-0.28614289 0.36435527 2.0030003
-0.27469715 0.36435527 2.0030003
-0.30140379 0.37198573 2.003
-0.29568094 0.37198573 2.003
-0.28614286 0.37389332 2.003
-0.27469715 0.37389332 2.003
-0.2655406 0.37465641 2.003
-0.28423524 0.38724667 2.003
-0.27469715 0.38470322 2.0030003
-0.26452321 0.38279557 2.003
-0.2848711 0.39424127 2.003
-0.27469715 0.39296955 2.003
-0.28614289 0.40550533 2.0030003
-0.27660477 0.40632287 2.003
0.19839238 0.40823048 2.003
0.20220762 0.40823048 2.003
-0.28723294 0.41640598 2.0030003
-0.27546021 0.41509792 2.003
-0.26579496 0.41713271 2.003
0.16596285 0.41967618 2.003
0.17550096 0.41776857 2.003
0.19457714 0.41204572 2.003
0.20793048 0.41204572 2.003
0.21556094 0.41204572 2.003
0.22509906 0.41204572 2.003
0.23272952 0.41204572 2.003
-0.28359938 0.42603493 2.003
-0.27660477 0.42539907 2.003
-0.26579496 0.42603493 2.003
0.1106419 0.42539907 2.003
0.12590286 0.42730665 2.003
0.13734858 0.42730665 2.003
0.14497906 0.42603493 2.003
0.15451714 0.42349145 2.003
-0.28614286 0.43302953 2.003
-0.26325142 0.43112192 2.003
-0.20220762 0.43875238 2.003
-0.19457714 0.43875238 2.003
-0.18503904 0.43875238 2.003
-0.06104381 0.43875238 2.003
-0.04387524 0.43875238 2.003
-0.011445714 0.43875238 2.003
0.015260953 0.43875238 2.003
0.025434922 0.43748066 2.003
0.034337144 0.43493712 2.003
0.045782857 0.43493712 2.003
0.055320952 0.43493712 2.003
0.064859055 0.43493712 2.003
0.074397147 0.43493712 2.003
0.083935231 0.43239367 2.003
0.099196188 0.43112192 2.003
0.11445715 0.43112192 2.003
0.12208762 0.43112192 2.003
-0.21556094 0.44256762 2.003
-0.20983809 0.44256762 2.003
-0.17550096 0.44256762 2.003
-0.16405523 0.44256762 2.003
-0.15260953 0.44638285 2.003
-0.14497906 0.44638285 2.003
-0.13353334 0.44638285 2.003
-0.095380954 0.44638285 2.003
-0.082981423 0.44542906 2.003
-0.073761269 0.44511113 2.003
-0.065812856 0.44352141 2.003
-0.057228573 0.44256762 2.003
-0.030521905 0.44256762 2.003
-0.024799047 0.44256762 2.003
-0.019076191 0.44256762 2.003
-0.14116381 0.45019808 2.003
-0.1106419 0.45019808 2.003
-0.10491905 0.45019808 2.003
-0.099196188 0.45019808 2.003
-0.034337144 0.58563906 2.003
-0.0038152381 0.58563906 2.003
0.0045782859 0.58602059 2.003
0.013353334 0.58754665 2.003
0.017168572 0.66575909 2.003
0.024799049 0.66194379 2.003
0.015737856 0.67577404 2.003
0.024799047 0.67338949 2.003
0.030521905 0.67720473 2.003
-0.04578286 0.68445373 2.003
-0.038152382 0.68674284 2.003
0.0076304763 0.68292767 2.003
0.014497906 0.68445373 2.003
0.024799047 0.68292767 2.003
0.030521905 0.68292767 2.003
-0.045782857 0.69055814 2.003
-0.038152382 0.69055808 2.003
0.019076191 0.72871047 2.003
0.019076191 0.7477867 2.003
0.024799049 0.74587905 2.003
0.032429524 0.7477867 2.003
0.019076191 0.75541723 2.003
0.026706666 0.7592324 2.003
0.032429524 0.75541717 2.003
0.019076191 0.76495528 2.003
0.022891428 0.76686287 2.003
-0.038152382 0.83553714 2.003
0.26428029 0.21602994 2.0150003
0.25715238 0.22452858 2.0150001
0.26578808 0.22548811 2.0150001
0.29745239 0.22644764 2.0150001
0.25715238 0.23220478 2.0150001
0.26482856 0.23412384 2.0150001
0.27378416 0.23668256 2.0150001
0.28210002 0.23796192 2.0150001
0.29553336 0.23028573 2.0150001
0.25715238 0.24755715 2.0150001
0.26482859 0.2456381 2.0150001
0.27442384 0.24563812 2.0150003
0.28401905 0.2456381 2.0150001
0.25715238 0.25523335 2.0150001
0.26482856 0.25523335 2.0150003
0.27442384 0.25523332 2.0150001
0.28401905 0.25523335 2.0150003
0.25523335 0.26482856 2.0150003
0.26482859 0.26482859 2.0150001
0.27442384 0.26482856 2.0150003
0.28449884 0.2643488 2.0150001
0.29169527 0.26674759 2.0150001
-0.31472382 0.27634287 2.0150001
0.25715238 0.27442384 2.0150001
0.26482856 0.27250478 2.0150001
0.27442384 0.27250478 2.0150001
0.28497857 0.27346432 2.0150001
0.29553339 0.27442384 2.0150003
0.25484952 0.2847867 2.0150001
-0.28210002 0.29553336 2.0150001
0.25331429 0.29745239 2.0150001
0.25331429 0.30320954 2.0150001
-0.28210002 0.31280476 2.0150001
-0.27634287 0.31280476 2.0150001
-0.30608812 0.3463881 2.0150001
-0.29608166 0.34652522 2.0150003
-0.2849786 0.34830713 2.0150001
-0.30704764 0.35310477 2.0150001
-0.28785717 0.35310477 2.0150001
-0.29169527 0.3857286 2.0150001
-0.28401908 0.38380954 2.0150001
-0.26866665 0.38764763 2.0150001
-0.28210002 0.39916193 2.0150001
-0.27442384 0.39532384 2.0150001
-0.26866665 0.39148575 2.0150001
-0.28210002 0.40300003 2.0150001
-0.27378416 0.40427941 2.0150001
-0.26866665 0.40491909 2.0150001
-0.2827397 0.41707301 2.0150001
-0.27378416 0.41579366 2.0150001
-0.2673873 0.41579366 2.0150001
0.17655239 0.4183524 2.0150001
0.18499619 0.4129791 2.0150001
0.19382381 0.41067621 2.0150001
0.22452858 0.41067621 2.0150001
0.23796192 0.41259527 2.0150001
0.24307939 0.4119556 2.0150001
-0.27250478 0.42602858 2.0150001
-0.26226985 0.42730793 2.0150001
0.088276193 0.42986667 2.0150001
0.095952384 0.42986667 2.0150001
0.11706191 0.42986667 2.0150001
0.12409842 0.42730793 2.0150001
0.13241428 0.42986667 2.0150001
0.14392859 0.42602858 2.0150001
0.15736191 0.42219049 2.0150001
0.1612 0.42219049 2.0150001
-0.28210002 0.43562382 2.0150001
-0.27442384 0.43562379 2.0150001
-0.26866665 0.43562382 2.0150001
-0.19574288 0.43754286 2.0150001
-0.18806668 0.43754286 2.0150001
-0.061409526 0.43754286 2.0150001
-0.0038380953 0.43754286 2.0150001
0.0038380953 0.43754286 2.0150001
0.016311906 0.43658334 2.0150001
0.024947619 0.43562382 2.0150001
0.069085717 0.43370476 2.0150001
0.076761909 0.43370476 2.0150001
0.080600001 0.43370476 2.0150001
-0.27442384 0.44138095 2.0150001
-0.21493334 0.44138095 2.0150001
-0.20725715 0.44138095 2.0150001
-0.15544286 0.44521904 2.0150001
-0.14584765 0.44521904 2.0150001
-0.13433334 0.44777781 2.0150001
-0.11130476 0.44905716 2.0150001
-0.10516381 0.44598666 2.0150001
-0.095952384 0.44330001 2.0150003
-0.0844381 0.44393969 2.0150001
-0.076761909 0.44330001 2.0150001
-0.067166671 0.44138095 2.0150001
-0.055652384 0.44138095 2.0150001
-0.023028571 0.44138095 2.0150001
-0.017271429 0.44138095 2.0150001
-0.030704763 0.5872286 2.0150001
-0.024947619 0.58530957 2.0150001
-0.015352381 0.58530957 2.0150003
-0.0076761907 0.5872286 2.0150001
-0.034542859 0.59682381 2.0150001
-0.012793651 0.59234607 2.0150001
-0.0061409525 0.59567243 2.0150001
0.0038380953 0.59682387 2.0150003
-0.0057571428 0.60450006 2.0150001
0.0030704762 0.60488385 2.0150001
0.011514286 0.60641909 2.0150001
-0.011514286 0.6160143 2.0150001
-0.0057571433 0.61409521 2.0150003
0.0038380953 0.61409521 2.0150001
0.013817144 0.61255997 2.0150001
0.023028571 0.61025715 2.0150001
-0.011514286 0.62177145 2.0150001
-0.0057571433 0.62560952 2.0150003
0.0038380953 0.62560946 2.0150001
0.015352381 0.62560952 2.0150001
0.02456381 0.62637717 2.0150001
-0.0057571428 0.63520479 2.0150001
0.0028785714 0.63424522 2.0150001
0.015352381 0.6332857 2.0150001
0.023028571 0.6332857 2.0150001
-0.0057571428 0.64863807 2.0150001
0.0038380953 0.64863813 2.0150001
0.01612 0.64710283 2.0150001
0.023028571 0.64671904 2.0150001
-0.03377524 0.65401143 2.0150001
-0.024947617 0.65439522 2.0150001
-0.015352381 0.65439528 2.0150003
-0.0057571428 0.65439528 2.0150001
0.0038380953 0.65439528 2.0150003
0.015352381 0.65439528 2.0150003
0.024307936 0.65503496 2.0150001
-0.032240003 0.66475815 2.0150001
-0.01487262 0.66351074 2.0150001
-0.0057571433 0.6639905 2.0150003
0.0038380953 0.6639905 2.0150001
0.014804082 0.66289395 2.0150003
0.024947619 0.66015244 2.0150001
-0.0057571433 0.6755048 2.0150003
0.0038380953 0.6755048 2.0150001
0.011514286 0.67358577 2.0150001
-0.036461905 0.68701911 2.0150001
-0.0038380953 0.68510008 2.0150001
0.0030704762 0.68471622 2.0150001
-0.035502382 0.69565481 2.0150001
-0.0038380953 0.69853336 2.0150001
0.0049346942 0.69414699 2.0150003
0.015900683 0.6957919 2.0150003
0.0076761907 0.70237148 2.0150001
0.015352381 0.70333099 2.0150001
0.023028571 0.70237148 2.0150001
-0.0038380953 0.72156191 2.0150001
0.0038380953 0.72252142 2.0150001
0.015352381 0.72540009 2.0150003
0.024947619 0.72923809 2.0150001
0.015352381 0.73595476 2.0150001
0.024947617 0.73499525 2.0150001
0.030704763 0.73499525 2.0150001
0.015832143 0.7441107 2.0150001
0.024947619 0.74267149 2.0150001
0.030704763 0.74459052 2.0150001
-0.011514286 0.75802386 2.0150001
-0.0051174606 0.75866354 2.0150001
0.0038380953 0.75610483 2.0150001
0.013433333 0.75610483 2.0150003
0.024947617 0.7580238 2.0150001
0.032623813 0.75994289 2.0150001
-0.011514286 0.76378095 2.0150001
-0.0051174606 0.76506031 2.0150001
0.0038380953 0.76570004 2.0150003
0.013433333 0.76569998 2.0150001
0.024947619 0.76761907 2.0150001
0.032623813 0.76761907 2.0150001
-0.0038380953 0.77145714 2.0150001
0.0043178573 0.7748155 2.0150001
0.014872619 0.77577502 2.0150001
0.025331426 0.77606291 2.0150001
0.031984132 0.77273655 2.0150001
0.017271429 0.7829715 2.0150001
0.023028571 0.7829715 2.0150001
-0.044138096 0.84630001 2.0150001
-0.038380954 0.84630001 2.0150001
0.024947619 0.84438097 2.0150001
-0.044138096 0.85397625 2.0150001
-0.038380954 0.85397625 2.0150001
0.019190477 0.85397625 2.0150001
0.023028571 0.85397625 2.0150001
0.26640573 0.2123524 2.0270002
0.27412766 0.21331763 2.0270002
0.27509287 0.22393525 2.0270002
0.27670163 0.23294416 2.0270002
0.28626209 0.23441499 2.0270004
0.2949768 0.23629032 2.0270002
0.30405003 0.23841383 2.0270002
0.29343241 0.2451705 2.0270002
0.2949768 0.25559506 2.0270002
0.29600638 0.26383179 2.0270002
0.30115432 0.26640573 2.0270002
0.26447526 0.27798861 2.0270002
0.27412766 0.27798861 2.0270002
0.28313655 0.27541465 2.0270002
0.29729334 0.27026668 2.0270002
0.30115432 0.27026668 2.0270002
0.25868383 0.28184953 2.0270002
0.26408917 0.28493831 2.0270002
0.27461028 0.28522786 2.0270002
0.28184956 0.28571051 2.0270002
0.29536289 0.28571048 2.0270004
0.25868383 0.29536289 2.0270002
0.26254478 0.29536289 2.0270002
0.27412766 0.29536289 2.0270004
0.28474525 0.29439765 2.0270002
0.29600638 0.2947194 2.0270002
-0.28378004 0.30115432 2.0270002
0.25868383 0.30115432 2.0270002
0.26254478 0.30115432 2.0270002
0.27541465 0.30372828 2.0270002
0.28493831 0.30347091 2.0270002
-0.30115432 0.31659812 2.0270002
-0.29729334 0.31659812 2.0270002
-0.28957143 0.31466764 2.0270002
-0.30115432 0.32045907 2.0270002
-0.28571051 0.32045907 2.0270002
-0.27541465 0.32174605 2.0270002
-0.30501527 0.33976385 2.0270002
-0.29729334 0.33976385 2.0270002
-0.30501527 0.34555528 2.0270002
-0.29536289 0.3436248 2.0270002
-0.28493831 0.34516919 2.0270002
0.17760383 0.41698289 2.0270002
0.23358764 0.41312194 2.0270002
0.092662863 0.42856577 2.0270002
0.1061762 0.42856577 2.0270002
0.13513336 0.4285658 2.0270002
0.14671621 0.42470479 2.0270002
0.15250763 0.42470479 2.0270002
0.16795145 0.42084384 2.0270002
0.17374288 0.42084384 2.0270002
-0.2200743 0.43628767 2.0270002
-0.21363938 0.43500066 2.0270002
-0.20463049 0.43435723 2.0270004
-0.19562159 0.43500066 2.0270002
-0.1872562 0.43628767 2.0270002
0.0077219056 0.43628767 2.0270002
0.014156826 0.43500066 2.0270002
0.023165716 0.43628767 2.0270002
0.032818101 0.43628767 2.0270002
0.054053336 0.43628767 2.0270002
0.06370572 0.43628767 2.0270002
0.073358104 0.43628767 2.0270002
0.084940962 0.43242669 2.0270002
-0.2200743 0.44014859 2.0270002
-0.21428287 0.44014859 2.0270002
-0.20656097 0.44014859 2.0270002
-0.18275176 0.44143558 2.0270002
-0.17567335 0.44207907 2.0270002
-0.16602097 0.44529653 2.0270002
-0.15443811 0.4440096 2.0270002
-0.14478573 0.44400957 2.0270002
-0.13513336 0.44658351 2.0270002
-0.12548096 0.44787049 2.0270002
-0.1138981 0.44594002 2.0270002
-0.10810667 0.44400957 2.0270002
-0.086871438 0.44400957 2.0270002
-0.073358104 0.44400957 2.0270002
-0.065636195 0.44014859 2.0270002
-0.050192382 0.44400957 2.0270002
-0.036679052 0.44400957 2.0270002
-0.027026668 0.44400957 2.0270002
-0.015443811 0.44014859 2.0270002
-0.12548096 0.45173147 2.0270002
-0.11775906 0.45173147 2.0270002
-0.030887622 0.59651721 2.0270002
-0.025096193 0.59651721 2.0270002
-0.01801778 0.5971607 2.0270002
0.013513334 0.59844768 2.0270002
-0.030887622 0.60230863 2.0270002
-0.023165716 0.60230863 2.0270002
-0.014478573 0.60327387 2.0270002
0.0077219056 0.60616958 2.0270002
0.012869842 0.60359561 2.0270002
-0.011582858 0.61196101 2.0270002
0.017374288 0.61389148 2.0270002
0.023165716 0.61389148 2.0270002
-0.014156826 0.62547433 2.0270002
0.017374288 0.62161338 2.0270002
0.023165716 0.62161338 2.0270002
-0.023165716 0.63319623 2.0270002
-0.013513334 0.63512671 2.0270002
-0.024130953 0.64477909 2.0270002
-0.014961192 0.64526176 2.0270002
-0.005791429 0.64670956 2.0270002
0.0043435716 0.64526176 2.0270002
0.014892248 0.64367604 2.0270004
-0.030887622 0.65250099 2.0270002
-0.025096193 0.65250099 2.0270002
-0.015443811 0.65250099 2.0270002
-0.025096193 0.66601431 2.0270002
-0.034748577 0.67759722 2.0270004
-0.024452701 0.67309272 2.0270002
-0.015443811 0.67631024 2.0270004
-0.03474858 0.68493301 2.0270002
-0.011582858 0.68338859 2.0270002
-0.0077219056 0.6872496 2.0270002
-0.030887624 0.6949715 2.0270002
-0.027026668 0.69497144 2.0270002
-0.0051479372 0.69754547 2.0270002
0 0.69883239 2.0270002
0.024452701 0.69625849 2.0270002
0.030887622 0.6949715 2.0270002
-0.033783339 0.70558912 2.0270002
-0.024452701 0.70526737 2.0270002
-0.015443812 0.70462388 2.0270004
-0.0064349212 0.70526737 2.0270002
0.0012869843 0.70526737 2.0270002
0.025739685 0.70398039 2.0270002
-0.034748577 0.7104153 2.0270002
-0.024452701 0.71170229 2.0270002
-0.015443811 0.7127319 2.0270002
-0.0048261909 0.71331102 2.0270002
0.004964082 0.71482784 2.0270004
0.014800319 0.71363276 2.0270004
0.023165716 0.71234578 2.0270002
-0.014156828 0.72457212 2.0270002
-0.0051479372 0.72585911 2.0270002
0.0038609528 0.72508693 2.0270002
0.015443811 0.72392863 2.0270002
0.025096193 0.72972006 2.0270002
0.030887622 0.72972006 2.0270002
-0.0038609528 0.73358101 2.0270002
0.003860953 0.73551148 2.0270004
0.011582858 0.73551148 2.0270002
0.030887622 0.73358101 2.0270002
-0.0048261909 0.7461291 2.0270002
0.003860953 0.74516386 2.0270002
-0.011582858 0.75481629 2.0270002
-0.0057914294 0.75481629 2.0270002
0.003860953 0.75288582 2.0270002
0.011582858 0.75288582 2.0270002
-0.030887622 0.76832962 2.0270002
-0.024452701 0.76704264 2.0270002
-0.016988194 0.76524085 2.0270002
-0.0077219056 0.76060766 2.0270002
-0.030887622 0.77219051 2.0270002
-0.025482288 0.77527934 2.0270002
-0.015443812 0.77494836 2.0270004
-0.006756667 0.77701676 2.0270002
-0.0038609528 0.78377342 2.0270002
0.0028957147 0.78666908 2.0270002
0.011582858 0.78763431 2.0270002
-0.0038609528 0.79921722 2.0270002
0.004964082 0.79590786 2.0270004
0.014961192 0.79487365 2.0270002
0.023165716 0.79149532 2.0270002
0.003860953 0.80307811 2.0270002
0.012869842 0.80565214 2.0270002
-0.011582858 0.81852198 2.0270002
-0.0051479372 0.81723499 2.0270002
0.003860953 0.81576419 2.0270004
-0.014478573 0.82527864 2.0270002
-0.0064349212 0.82366991 2.0270002
0.003860953 0.82238293 2.0270002
0.016409049 0.82334816 2.0270002
0.025096193 0.8243134 2.0270002
-0.015443811 0.83242142 2.0270002
-0.0061775246 0.8331936 2.0270002
0.0012869843 0.83267879 2.0270002
0.019304764 0.83010483 2.0270002
-0.015443811 0.84940958 2.0270002
-0.0057914294 0.84940958 2.0270002
0.003860953 0.84940958 2.0270002
0.016216001 0.84786522 2.0270002
0.025096193 0.84361815 2.0270002
-0.046331432 0.85327053 2.0270002
-0.013513335 0.85520101 2.0270002
-0.005791429 0.85520101 2.0270002
0.003860953 0.85520101 2.0270004
0.014671621 0.85481495 2.0270002
0.025739685 0.85455751 2.0270002
-0.013513334 0.86099249 2.0270002
-0.0057914294 0.86099249 2.0270002
0.003860953 0.86099255 2.0270002
0.013513334 0.86099249 2.0270002
0.27963427 0.21749334 2.039
0.28546 0.21555144 2.039
0.29128572 0.21749334 2.039
0.27963427 0.22526094 2.039
0.28546 0.22526096 2.039
0.29283926 0.22526096 2.039
0.29905334 0.25244763 2.039
0.30487907 0.25633144 2.039
0.31070474 0.25633144 2.039
0.30526742 0.26332232 2.039
0.31070474 0.26215714 2.039
-0.30293715 0.27963427 2.039
-0.29905334 0.27963427 2.039
0.30682096 0.27186665 2.039
-0.30293715 0.28351811 2.039
0.28740191 0.28546 2.039
0.29128572 0.28546 2.039
-0.32235619 0.29905334 2.039
-0.31847239 0.29905334 2.039
-0.30293715 0.29905334 2.039
-0.29322761 0.29516953 2.039
0.2679829 0.29516956 2.039
0.27186665 0.29128572 2.039
0.28740191 0.29516953 2.039
0.29258034 0.29646415 2.039
-0.32235619 0.30293715 2.039
-0.30293715 0.30293715 2.039
-0.29128572 0.30487907 2.039
-0.28546 0.30682096 2.039
0.26507002 0.30585003 2.039
0.27477953 0.30585 2.039
0.29387492 0.30423176 2.039
-0.31458855 0.31691885 2.039
-0.30526745 0.31381178 2.039
-0.29581684 0.31329393 2.039
-0.28546 0.31070474 2.039
0.26409906 0.31070477 2.039
0.27497372 0.31381178 2.039
0.28546 0.31070474 2.039
0.29128572 0.31070474 2.039
-0.31199935 0.32365081 2.039
-0.30552638 0.32494539 2.039
-0.29516956 0.32429811 2.039
-0.28481269 0.32494542 2.039
-0.27963427 0.32624 2.039
-0.31070477 0.33400762 2.039
-0.30487907 0.33400762 2.039
-0.29516953 0.33400765 2.0389998
-0.28546 0.33400762 2.039
-0.27769238 0.33400762 2.039
-0.30682096 0.34177524 2.039
-0.29322761 0.34177524 2.039
-0.28546 0.34177524 2.039
-0.27963427 0.34371716 2.039
0.16700381 0.41945145 2.039
0.17477143 0.41815686 2.039
0.18253905 0.41556764 2.039
0.25244763 0.41556764 2.039
-0.22137713 0.42721906 2.039
-0.21555144 0.42721906 2.039
-0.2058419 0.42721906 2.039
-0.19613239 0.42721906 2.039
0.13787523 0.42721906 2.039
0.14370096 0.42721906 2.039
0.15535238 0.42333525 2.039
0.16312 0.42333525 2.039
-0.22331905 0.43304476 2.039
-0.21619874 0.43239748 2.039
-0.2058419 0.43110287 2.039
-0.19341372 0.43265638 2.039
-0.18409257 0.43420991 2.039
-0.17477143 0.43692857 2.039
-0.16570921 0.43757588 2.039
-0.15632333 0.4378995 2.039
-0.14758477 0.43887046 2.039
0.0019419048 0.43887046 2.039
0.015535237 0.43498668 2.039
0.023302857 0.43498668 2.039
0.038838092 0.43887046 2.039
0.044663809 0.43887046 2.039
0.054373331 0.43887046 2.039
0.069908567 0.43498668 2.039
0.075734288 0.43498668 2.039
0.08544381 0.43304479 2.039
0.097095244 0.43110287 2.039
0.10097905 0.43110287 2.039
0.11651429 0.43110287 2.039
0.1203981 0.43110287 2.039
-0.17088762 0.44275427 2.039
-0.16441461 0.44404888 2.039
-0.15535238 0.44275427 2.039
-0.14564286 0.44275427 2.039
-0.13690428 0.44469619 2.039
-0.12331096 0.44566715 2.039
-0.11457238 0.44275427 2.039
-0.10486286 0.44275427 2.039
-0.095153332 0.44275427 2.039
-0.085443817 0.44275427 2.039
-0.075734288 0.44275427 2.039
-0.069908567 0.44275427 2.039
-0.058257144 0.44275427 2.039
-0.031070476 0.44663808 2.039
-0.025244761 0.44275427 2.039
-0.015535238 0.44275427 2.039
-0.0077676191 0.44275427 2.039
-0.1203981 0.45052192 2.039
-0.031070476 0.60975814 2.039
-0.025892064 0.60846353 2.039
-0.017477142 0.60975814 2.039
0.017477142 0.60975814 2.039
0.023302857 0.60975814 2.039
-0.031070476 0.61364192 2.039
-0.023302857 0.61558384 2.039
-0.017477142 0.61558384 2.039
-0.025244763 0.62529325 2.039
-0.018448094 0.62432235 2.039
-0.025892064 0.63435555 2.039
-0.018124444 0.63435555 2.039
-0.031070476 0.64665425 2.039
-0.025892064 0.64212316 2.039
-0.019419046 0.64277047 2.039
-0.031070476 0.65248001 2.039
-0.027186668 0.65248001 2.039
-0.027186668 0.6796667 2.039
-0.025244763 0.6854924 2.039
-0.018124444 0.68613976 2.039
-0.034954283 0.69131809 2.039
-0.024856383 0.69520193 2.039
-0.015535237 0.69520193 2.0389998
-0.0077676191 0.69714385 2.039
-0.025244761 0.70491147 2.039
-0.015535238 0.70296955 2.039
0.027186668 0.70296955 2.039
0.031070476 0.70491147 2.039
-0.031070476 0.71850473 2.039
-0.027186668 0.71850473 2.039
-0.015535237 0.71850473 2.039
-0.0077676191 0.71850473 2.039
0 0.71656287 2.039
-0.031070476 0.72238857 2.039
-0.024597462 0.72368324 2.039
-0.015535237 0.72433048 2.039
-0.0077676191 0.72433043 2.039
0.015535238 0.72433043 2.039
-0.014758477 0.73481679 2.039
-0.0077676191 0.73598194 2.039
-0.012622381 0.74666244 2.039
-0.0067966669 0.74472052 2.039
-0.014240636 0.75475371 2.039
-0.027186668 0.76899433 2.039
-0.017477142 0.76316857 2.039
-0.024597462 0.78711879 2.039
-0.015535237 0.78685981 2.039
-0.0077676191 0.78841329 2.039
-0.025244761 0.79229712 2.039
-0.0038838095 0.79423904 2.039
0 0.79618096 2.039
-0.012946032 0.80653781 2.039
-0.0058257142 0.80491954 2.039
0 0.80006474 2.039
0.018124444 0.80653781 2.039
-0.013593333 0.8175419 2.039
-0.0062140953 0.81482327 2.039
0.0038838095 0.81326973 2.039
0.016090069 0.8167097 2.039
0.023302857 0.8117162 2.039
-0.015535238 0.82530951 2.039
0.015535238 0.8233676 2.039
0.023302857 0.8233676 2.039
-0.015535237 0.83890289 2.039
-0.0038838095 0.83113527 2.039
0.0051784129 0.8337245 2.039
0.014425579 0.83557397 2.039
0.025244761 0.83696097 2.039
-0.035731044 0.84434026 2.039
-0.014564285 0.84472859 2.039
-0.0051784129 0.8453759 2.039
0.0038838095 0.84472865 2.039
0.015535237 0.84472865 2.039
0.025244761 0.84278667 2.039
0.031070476 0.84472859 2.039
-0.042721905 0.85055429 2.039
-0.033012379 0.85443819 2.039
-0.023302857 0.85443807 2.039
-0.016182538 0.85314357 2.039
-0.0058257142 0.85055429 2.039
0.0038838095 0.85055435 2.039
0.011651428 0.85055429 2.039
-0.033012379 0.86414766 2.039
-0.023302857 0.86414766 2.039
-0.019419046 0.86414766 2.039
0.29690668 0.22658668 2.0510001
0.30081335 0.22658668 2.0510001
0.30550134 0.25158936 2.0510004
0.31487736 0.25315201 2.0510004
-0.32034668 0.28714001 2.0510001
-0.3151378 0.28388447 2.0510001
-0.30374333 0.28714001 2.0510001
-0.29690668 0.28518668 2.0510001
-0.32230002 0.29495335 2.0510001
-0.31448668 0.29495335 2.0510001
-0.30472001 0.29495335 2.0510004
-0.29495335 0.29690668 2.0510001
-0.28909335 0.29690668 2.0510001
-0.32034668 0.30667335 2.0510001
-0.31448668 0.30472001 2.0510004
-0.30472001 0.30527812 2.0510004
-0.29690668 0.30667335 2.0510001
-0.32034668 0.31253335 2.0510001
-0.3151378 0.31383559 2.0510001
0.26565334 0.31644005 2.0510001
0.28518671 0.31644005 2.0510001
0.29300001 0.31644002 2.0510001
0.26676953 0.3236953 2.0510004
0.27346668 0.32034668 2.0510001
0.28518671 0.32034668 2.0510001
0.29300001 0.32034668 2.0510001
0.26760668 0.33597335 2.0510001
0.25588667 0.34769335 2.0510001
0.26304889 0.34508893 2.0510001
0.25393337 0.35550669 2.0510004
0.26174667 0.35160002 2.0510001
0.25132892 0.36462224 2.0510001
0.16798668 0.41801336 2.0510001
0.17384668 0.41801336 2.0510001
-0.22398221 0.42582673 2.0510001
-0.21486668 0.42582667 2.0510001
-0.20549066 0.42504534 2.0510004
-0.19533335 0.42517561 2.0510004
-0.18556666 0.42778003 2.0510001
-0.17580001 0.42778 2.0510004
-0.16408001 0.42973337 2.0510001
0.1172 0.42973337 2.0510001
0.12501334 0.42973337 2.0510001
0.13282667 0.42973337 2.0510001
0.14845334 0.42582667 2.0510001
0.15626667 0.42582667 2.0510001
0.16212668 0.42192 2.0510001
-0.17580001 0.43364 2.0510001
-0.16408001 0.43461668 2.0510001
-0.15431334 0.43559337 2.0510001
-0.14650001 0.43754667 2.0510001
0.0058599999 0.43754667 2.0510001
0.015626669 0.43364 2.0510001
0.026044443 0.43494225 2.0510001
0.032555558 0.43624446 2.0510001
0.064460002 0.43754667 2.0510001
0.078133337 0.43364 2.0510001
0.083993338 0.43364 2.0510001
-0.14259334 0.44145337 2.0510001
-0.1341289 0.44275558 2.0510001
-0.12761778 0.44405779 2.0510001
-0.11524667 0.44145337 2.0510001
-0.10548 0.4414534 2.0510001
-0.095713332 0.44145337 2.0510001
-0.082040004 0.44145337 2.0510001
-0.076180004 0.44145337 2.0510001
-0.064460002 0.44145337 2.0510001
-0.05078667 0.44536 2.0510001
-0.044926669 0.44536 2.0510001
-0.035160001 0.44536003 2.0510001
-0.0039066668 0.44145337 2.0510001
-0.027346667 0.61725336 2.0510001
0.027346667 0.61530006 2.0510001
-0.027346667 0.62116003 2.0510001
0.019533334 0.72664005 2.0510001
-0.031253334 0.73640668 2.0510001
-0.025393335 0.73445332 2.0510001
-0.019533334 0.73835999 2.0510001
0.019533334 0.73054671 2.0510001
0.025393333 0.73445332 2.0510001
-0.023440002 0.74226671 2.0510001
-0.018231113 0.74487114 2.0510001
-0.023440002 0.75594002 2.0510001
-0.018556667 0.75301003 2.0510001
-0.023440002 0.76570672 2.0510001
-0.019533334 0.76375341 2.0510001
-0.015626667 0.79696006 2.0510001
-0.0078133335 0.79696006 2.0510001
-0.016115 0.80428499 2.0510004
-0.0078133335 0.80281997 2.0510001
0.025393335 0.80672669 2.0510001
0.031253334 0.80868006 2.0510001
-0.013673333 0.81649339 2.0510001
0.026044443 0.81388897 2.0510001
0.031253334 0.81454003 2.0510001
0.025784001 0.82352537 2.0510004
0.031253334 0.82430667 2.0510001
-0.023440002 0.8399334 2.0510001
0.031253334 0.83212006 2.0510001
-0.042973336 0.84774667 2.0510001
-0.025393333 0.84579331 2.0510001
-0.042973336 0.85556006 2.0510001
-0.031253334 0.85165334 2.0510001
-0.025784001 0.85556 2.0510004
-0.019533334 0.85165334 2.0510001
-0.027346667 0.8653267 2.0510001
-0.027346667 0.87118667 2.0510001
0.30453813 0.24756001 2.0630002
0.31239718 0.24756001 2.0630002
-0.32615051 0.28685525 2.0630002
-0.32615051 0.29078481 2.0630002
-0.31436193 0.29078481 2.0630002
-0.29667908 0.29078481 2.0630002
0.27703145 0.32615051 2.0630002
0.28489047 0.32615051 2.0630002
0.29078481 0.32615051 2.0630002
0.26720765 0.33793908 2.0630002
0.27618942 0.33457097 2.0630002
0.28489047 0.33400959 2.0630002
0.29078481 0.33008003 2.0630002
0.26720765 0.34972766 2.0630002
0.27555788 0.34628934 2.063
0.2839081 0.34481576 2.0630002
0.26589781 0.35627684 2.0630002
0.2750667 0.35562193 2.0630002
0.25836623 0.36642811 2.0630002
0.26524287 0.36348099 2.0630002
0.27244702 0.36282608 2.0630002
0.25148955 0.37330478 2.0630002
0.18272287 0.40670574 2.0630002
-0.20433526 0.41652957 2.0630002
-0.19451144 0.41652957 2.0630002
-0.18665239 0.41652957 2.0630002
0.17682858 0.41652957 2.0630002
0.18468764 0.4165296 2.0630002
0.23970097 0.41652957 2.0630002
0.24559525 0.41652957 2.0630002
0.25345433 0.41652957 2.0630002
-0.22005336 0.42438859 2.0630002
-0.21481399 0.42307878 2.0630002
-0.20433526 0.42045912 2.0630002
-0.19385652 0.4217689 2.0630002
-0.18468764 0.42242384 2.0630002
-0.17486382 0.42438859 2.0630002
-0.16602239 0.42733577 2.0630002
-0.15718096 0.42831814 2.0630002
0.11788572 0.42831814 2.0630002
0.12574479 0.42831814 2.0630002
0.13556859 0.42831814 2.0630002
0.14342764 0.42831814 2.0630002
0.15718096 0.42438859 2.0630002
0.16307525 0.42045909 2.0630002
-0.16504002 0.43224767 2.0630002
-0.1552162 0.43224767 2.0630002
-0.14735717 0.43617719 2.0630002
0.0078590484 0.43617719 2.0630002
0.017682858 0.43224767 2.0630002
0.025541907 0.43224767 2.0630002
0.033400953 0.43421245 2.0630002
0.066801913 0.43617719 2.0630002
0.072696194 0.43617719 2.0630002
0.094308585 0.43224767 2.0630002
0.10413238 0.43224767 2.0630002
0.11199145 0.43224767 2.0630002
-0.14146286 0.44010672 2.0630002
-0.13556859 0.44010672 2.0630002
-0.12574479 0.44272637 2.0630002
-0.11395621 0.44010672 2.0630002
-0.094308585 0.44207147 2.0630002
-0.086449534 0.44403622 2.0630002
-0.073678575 0.44108909 2.0630002
-0.056978099 0.44600099 2.0630002
-0.031436194 0.44403622 2.0630002
-0.025541907 0.44403622 2.0630002
-0.011788572 0.44403622 2.0630002
-0.0078590484 0.44403622 2.0630002
0.039295241 0.44010672 2.0630002
0.047154289 0.44010672 2.0630002
0.056978099 0.44010672 2.0630002
0.025541907 0.73285627 2.0630002
-0.02750667 0.74464482 2.0630002
-0.024886986 0.75446862 2.0630002
-0.02750667 0.76429248 2.0630002
0.25505146 0.37763432 2.0760002
0.25307432 0.38356575 2.0760002
0.24714287 0.39938289 2.0760002
0.25307432 0.39938289 2.0760002
-0.20562288 0.40729147 2.0760002
0.24714287 0.40333715 2.0760002
0.25307432 0.40333715 2.0760002
-0.22144002 0.41915435 2.0760002
-0.21550858 0.41915435 2.0760002
-0.20505801 0.41520008 2.0760002
-0.19573717 0.41322291 2.0760002
-0.18664232 0.41440916 2.0760002
0.17201144 0.41915435 2.0760002
0.24912001 0.41520005 2.0760002
0.25505146 0.41520005 2.0760002
-0.22144002 0.42310861 2.0760002
-0.21353145 0.42310861 2.0760002
-0.17398858 0.42310864 2.0760002
-0.16410288 0.4270629 2.0760002
0.11862858 0.4270629 2.0760002
0.12258286 0.4270629 2.0760002
0.14630859 0.4270629 2.0760002
0.15553525 0.42442673 2.0760002
-0.15158097 0.43233526 2.0760002
-0.14499049 0.43497145 2.0760002
-0.13444573 0.43892574 2.0760002
-0.12456001 0.43892574 2.0760002
-0.11467429 0.43694863 2.0760002
-0.10478858 0.43892574 2.0760002
-0.098857149 0.43892574 2.0760002
0.0059314296 0.4369486 2.0760002
0.011862858 0.43497145 2.0760002
0.059314292 0.43892574 2.0760002
0.06326858 0.43892574 2.0760002
0.079085723 0.43497145 2.0760002
0.085017145 0.43497145 2.0760002
0.096880004 0.43299431 2.0760002
0.10478858 0.43101719 2.0760002
0.11269715 0.43101719 2.0760002
-0.12456001 0.44288003 2.0760002
-0.10478858 0.44288003 2.0760002
-0.092925727 0.44288003 2.0760002
-0.085017145 0.44288003 2.0760002
-0.065245718 0.44288003 2.0760002
-0.054371435 0.44485718 2.0760002
-0.046133339 0.44551623 2.0760002
-0.036906671 0.44551623 2.0760002
-0.017794289 0.44683433 2.0760002
0 0.44288003 2.0760002
0.043497145 0.44288003 2.0760002
0.05140572 0.44288003 2.0760002
-0.027680002 0.75724578 2.0760002
-0.21874286 0.32612571 2.0880001
-0.21874286 0.33209142 2.0880001
0.26514286 0.37650287 2.0880001
0.25851429 0.38379431 2.0880001
-0.21277715 0.40964574 2.0880001
-0.20283429 0.40964574 2.0880001
-0.19408457 0.40805489 2.0880001
-0.18692571 0.40964574 2.0880001
-0.22272 0.41760001 2.0880001
-0.21556115 0.41521373 2.0880001
-0.18294857 0.41561145 2.0880001
-0.17897142 0.41760001 2.0880001
0.17300573 0.41561145 2.0880001
-0.17499429 0.42157716 2.0880001
-0.16571429 0.42422861 2.0880001
