# .PCD v0.7 - Point Cloud Data file format
VERSION 0.7
FIELDS x y z
SIZE 4 4 4
TYPE F F F
COUNT 1 1 1
WIDTH 1493
HEIGHT 1
VIEWPOINT 0 0 0 1 0 0 0
POINTS 1493
DATA ascii
0.61537147 -0.17528762 1.9580001
0.59672385 -0.16036953 1.9580001
0.60045338 -0.16596381 1.9580001
0.58740008 -0.15291049 1.9580001
0.56688762 -0.1417219 1.9580001
0.57434672 -0.14793779 1.9580001
0.58180571 -0.14918096 1.9580001
0.5581854 -0.12431747 1.9580001
0.54824001 -0.11188572 1.9580001
0.55445588 -0.11685842 1.9580001
0.53705144 -0.10069714 1.9580001
0.54264569 -0.10442667 1.9580001
0.52959239 -0.0932381 1.9580001
0.53705144 -0.096967623 1.9580001
0.52586287 -0.074590482 1.9580001
0.52213335 -0.065266669 1.9580001
0.52213335 -0.059672382 1.9580001
0.51840383 -0.044754285 1.9580001
0.5165391 -0.035430476 1.9580001
0.51218796 -0.026106669 1.9580001
0.49975622 -0.011188572 1.9580001
0.50572342 -0.014172192 1.9579999
0.51094478 -0.01864762 1.9580001
0.49975622 -0.0055942857 1.9580001
0.50535047 -0.0055942857 1.9580001
0.49975622 0.0037295239 1.9580001
0.50348574 0 1.9580001
0.49726987 0.014918096 1.9580001
0.49416193 0.024241906 1.9580001
-0.027971428 0.19207048 1.9580001
-0.037295241 0.20885333 1.9580001
-0.04661905 0.21444763 1.9580001
-0.054078095 0.2256362 1.9580001
-0.026106667 0.44381335 1.9580001
-0.026106665 0.45500192 1.9580001
-0.024241906 0.46992001 1.9580001
-0.01864762 0.46992001 1.9580001
-0.029836191 0.47737905 1.9580001
-0.044754293 0.48377249 1.9580001
-0.036052063 0.48359492 1.9580001
-0.029836191 0.48297334 1.9580001
-0.041024763 0.49416193 1.9580001
-0.036052067 0.49602666 1.9580001
-0.029836191 0.49789146 1.9580001
0.59632576 -0.1725219 1.9690001
0.60195148 -0.1725219 1.9690001
0.59482557 -0.16502097 1.9690001
0.6000762 -0.16689619 1.9690001
0.58507431 -0.15564477 1.9690001
0.59257525 -0.15752001 1.9690001
0.56632191 -0.1425181 1.9690001
0.57007241 -0.14626858 1.9690001
0.55882096 -0.13126667 1.9690001
0.56350905 -0.13595477 1.9690001
0.55444545 -0.12376571 1.969
0.54631943 -0.11376444 1.9690002
0.55132002 -0.11626477 1.9690001
0.53506798 -0.10251302 1.9690002
0.54131871 -0.10751364 1.9690002
0.52881718 -0.090011433 1.9690001
0.5344429 -0.097512387 1.9690001
0.52756697 -0.083760642 1.9690002
0.52506667 -0.075009525 1.9690002
0.52131623 -0.05250667 1.9690001
0.51756573 -0.04500572 1.9690002
0.51506543 -0.033754285 1.9690002
0.50631428 -0.022502858 1.9690001
0.51006478 -0.024378097 1.9690001
0.49881336 -0.011251429 1.9690001
0.50381398 -0.017502222 1.9690002
0.49756321 -0.0062507936 1.9690002
0.49693811 0.0037504763 1.969
0.49600047 0.014064286 1.9690001
0.49318764 0.024378097 1.9690001
0.49131238 0.03000381 1.9690001
-0.022502858 0.18752381 1.9690001
-0.015001905 0.1875238 1.9690002
-0.035629526 0.20440096 1.9690001
-0.05250667 0.21752763 1.9690001
-0.045005716 0.21190192 1.9690001
-0.05250667 0.2212781 1.9690001
-0.031879049 0.44630668 1.9690001
-0.045005716 0.45193237 1.9690001
-0.03328548 0.4533388 1.969
-0.041255239 0.46880955 1.9690001
-0.033285476 0.46552789 1.969
-0.04313048 0.47631049 1.9690001
-0.033004191 0.4748103 1.9690001
-0.04313048 0.48006096 1.9690001
-0.035004448 0.48131111 1.9690002
-0.041255239 0.49131238 1.9690001
-0.033129208 0.49381271 1.969
0.58834291 -0.16594286 1.9800001
0.59305716 -0.16594286 1.9800001
0.57702857 -0.15085715 1.9800001
0.58268571 -0.15651429 1.9800001
0.5657143 -0.14520001 1.9800001
0.55691433 -0.13325714 1.9800001
0.56194288 -0.13765715 1.9800001
0.54591429 -0.12351429 1.9800001
0.55157149 -0.12540001 1.9800001
0.53931433 -0.11314286 1.9800001
0.54434294 -0.11565715 1.9800001
0.53680009 -0.10811429 1.9800001
0.53177142 -0.096171431 1.9800001
0.528 -0.086742863 1.9800001
0.52422857 -0.071657144 1.9800001
0.52271998 -0.063359998 1.9800001
0.52171427 -0.055314291 1.9800001
0.51668572 -0.045257147 1.9800001
0.50788575 -0.031428572 1.9800001
0.51385713 -0.034885716 1.9800001
0.50537145 -0.024514286 1.9800001
0.4978286 -0.0132 1.9800001
0.50160003 -0.01697143 1.9800001
0.49531427 -0.0050285715 1.9800001
0.49254856 0.0045257146 1.9800001
0.49217141 0.015085715 1.9800001
0.49154285 0.023885714 1.9800001
0.49028572 0.03017143 1.9800001
-0.026400002 0.18857144 1.9800001
-0.03394286 0.19988573 1.9800001
-0.041485716 0.20742857 1.9800001
-0.037714288 0.20365715 1.9800001
-0.045257144 0.21120001 1.9800001
-0.056571431 0.22440001 1.9800001
-0.060342859 0.23760001 1.9800001
-0.064114287 0.24514286 1.9800001
-0.041485716 0.44880003 1.9800001
-0.03394286 0.4450286 1.9800001
-0.041485716 0.45445716 1.9800001
-0.041485716 0.46200001 1.9800001
-0.037714288 0.46200001 1.9800001
-0.037714288 0.47520003 1.9800001
0.58811432 -0.16505143 1.9920001
0.57483435 -0.15177144 1.9920001
0.58242285 -0.15746287 1.9920001
0.55776 -0.14038858 1.9920001
0.56281906 -0.14418286 1.9920001
0.55396575 -0.13469714 1.9920001
0.54511243 -0.12521143 1.9920001
0.53878862 -0.11572572 1.9920001
0.54258287 -0.11762286 1.9920001
0.5349943 -0.10434286 1.9920001
0.53119999 -0.09296 1.9920001
0.52740574 -0.085371435 1.9920001
0.52512914 -0.076644577 1.9920002
0.51855236 -0.061973333 1.9920001
0.52361143 -0.068297148 1.9920001
0.51792002 -0.055017143 1.9920001
0.5084343 -0.041737143 1.9920001
0.51450515 -0.044772573 1.9920002
0.5065372 -0.034148574 1.9920001
0.51222861 -0.03794286 1.9920001
0.50211048 -0.025295237 1.9920001
0.49705145 -0.015177143 1.9920001
0.50084573 -0.01897143 1.9920001
0.49325716 -0.0056914287 1.9920001
0.49325716 0 1.9920001
0.0045531429 0.17681374 1.9920002
-0.022765715 0.18592 1.9920001
-0.015177143 0.18592 1.9920001
-0.0056914287 0.18592 1.9920001
0.0037942857 0.18402284 1.9920002
-0.032251433 0.19540572 1.9920001
-0.043634288 0.20678858 1.9920001
-0.03794286 0.20109715 1.9920001
-0.053120002 0.21627429 1.9920001
-0.049325716 0.21248001 1.9920001
-0.056914289 0.22006857 1.9920001
-0.060708575 0.23334858 1.9920001
-0.064502858 0.2428343 1.9920001
0.58754671 -0.17168573 2.003
0.59517717 -0.17422922 2.003
0.58627498 -0.16405524 2.003
0.56847048 -0.15260953 2.003
0.57610095 -0.15515302 2.003
0.55702478 -0.14116381 2.003
0.5627476 -0.14688668 2.003
0.54939431 -0.13353334 2.003
0.55320954 -0.13734858 2.003
0.54367149 -0.12590286 2.003
0.53794861 -0.11254953 2.003
0.53222573 -0.095380962 2.003
0.52523112 -0.083935238 2.003
0.51887238 -0.074397147 2.003
0.52268761 -0.074397147 2.003
0.51887238 -0.066766664 2.003
0.52268761 -0.068674289 2.003
0.51505715 -0.055320956 2.003
0.50742668 -0.04387524 2.003
0.5131495 -0.047690481 2.003
0.50488317 -0.034337144 2.003
0.49979621 -0.024799049 2.003
0.49598098 -0.011445715 2.003
0.49216574 0.0057228571 2.003
0.48835048 0.011445715 2.003
0.49216571 0.015260953 2.003
0.49216574 0.024799049 2.003
0.49216574 0.030521905 2.003
-0.011445715 0.17931619 2.003
-0.005086984 0.17804444 2.003
0 0.17550096 2.003
-0.026706668 0.18694668 2.003
-0.015260953 0.18313144 2.003
-0.0057228571 0.18313144 2.003
-0.034337144 0.19457716 2.003
-0.04578286 0.20602286 2.003
-0.055320956 0.21556096 2.003
-0.06104381 0.22509904 2.003
-0.064859048 0.23654477 2.003
-0.064859048 0.24036001 2.003
0.57763338 -0.1612 2.0150001
0.58530951 -0.16311905 2.0150001
0.56803811 -0.15352382 2.0150001
0.57379526 -0.15736191 2.0150001
0.55524445 -0.1432889 2.0150001
0.56164128 -0.14840637 2.0150001
0.54692858 -0.13433334 2.0150001
0.55268574 -0.13817143 2.0150001
0.53733337 -0.10554762 2.0150001
0.52965719 -0.092114292 2.0150001
0.53349525 -0.09787143 2.0150001
0.52326035 -0.083158731 2.0150001
0.51814288 -0.074842855 2.0150001
0.51718336 -0.064288102 2.0150001
0.5130254 -0.055012699 2.0150001
0.50662857 -0.044138096 2.0150001
0.51238573 -0.049895238 2.0150001
0.50375003 -0.035502382 2.0150001
0.49895239 -0.017271429 2.0150001
0.4951143 -0.0038380953 2.0150001
0.49255553 0.0038380951 2.0150001
0.48743811 0.015352382 2.0150001
0.4912762 0.017271429 2.0150001
0.48743811 0.024947621 2.0150001
0.4912762 0.024947621 2.0150001
0.48743811 0.032623813 2.0150001
0.4912762 0.032623813 2.0150001
-0.0076761907 0.17655239 2.0150001
-0.015352381 0.18230954 2.0150001
-0.04221905 0.19766191 2.0150001
-0.036461905 0.19382381 2.0150001
-0.053733334 0.20725715 2.0150001
-0.047976192 0.20533811 2.0150001
-0.061409526 0.21877144 2.0150001
-0.056292068 0.21237461 2.0150001
-0.069085717 0.25715238 2.0150001
-0.069085717 0.26290953 2.0150001
0.57528192 -0.16409048 2.0270002
0.58557779 -0.16730793 2.0270002
0.59072572 -0.16988191 2.0270002
0.55983812 -0.15057714 2.0270002
0.56627303 -0.15572509 2.0270002
0.57142097 -0.15829906 2.0270002
0.55404669 -0.14478572 2.0270002
0.54439431 -0.12548096 2.0270002
0.53667241 -0.11196762 2.0270002
0.5414986 -0.11679381 2.0270002
0.53538543 -0.10424571 2.0270002
0.52766353 -0.093949847 2.0270002
0.53281146 -0.096523814 2.0270002
0.52412432 -0.085906193 2.0270002
0.51736766 -0.075288579 2.0270002
0.51505107 -0.066408381 2.0270002
0.50964576 -0.052122861 2.0270002
0.51350671 -0.057914287 2.0270002
0.50578481 -0.044400953 2.0270002
0.5019238 -0.030887621 2.0270002
0.49806288 -0.023165716 2.0270002
0.5019238 -0.025096193 2.0270002
0.49806288 -0.01544381 2.0270002
0.49420193 -0.005791429 2.0270002
0.48648003 0.0038609526 2.0270002
0.49130622 0.0028957145 2.0270002
0.48454955 0.01544381 2.0270002
0.48519304 0.024452701 2.0270002
0.48454955 0.032818098 2.0270002
-0.011582858 0.17760381 2.0270002
-0.032818098 0.18918668 2.0270002
-0.025096193 0.18532573 2.0270002
-0.019304764 0.18146476 2.0270002
-0.044400953 0.1949781 2.0270002
-0.038609527 0.19304763 2.0270002
-0.053088099 0.20463048 2.0270002
-0.046331432 0.20076953 2.0270002
-0.061775241 0.21428287 2.0270002
-0.065636195 0.2277962 2.0270002
-0.065636195 0.23358762 2.0270002
-0.073358096 0.25868383 2.0270002
-0.069497146 0.25289237 2.0270002
-0.073358096 0.26447526 2.0270002
0.58645529 -0.17088762 2.039
0.57286191 -0.16506191 2.039
0.55926859 -0.15146858 2.039
0.56509429 -0.15729429 2.039
0.55538476 -0.14758477 2.039
0.54567528 -0.13204953 2.039
0.53984952 -0.12234001 2.039
0.54373336 -0.12622382 2.039
0.5379076 -0.11457238 2.039
0.52819812 -0.10097905 2.039
0.53402382 -0.10486286 2.039
0.5262562 -0.095153339 2.039
0.51654667 -0.081560001 2.039
0.52172512 -0.085443817 2.039
0.51654667 -0.075734288 2.039
0.50877905 -0.062140957 2.039
0.51266289 -0.066024765 2.039
0.50877905 -0.054373335 2.039
0.51266289 -0.058257144 2.039
0.50360066 -0.04401651 2.039
0.49712765 -0.031070478 2.039
0.50256497 -0.035731047 2.039
0.49583304 -0.02459746 2.039
0.50101143 -0.027186668 2.039
0.48936 -0.013593335 2.039
0.4951857 -0.015535238 2.0389998
0.48806539 -0.0051784129 2.039
0.49324381 -0.0077676196 2.039
0.48353431 0.0038838098 2.0389998
0.47770858 0.017477144 2.039
0.48159239 0.015535239 2.039
0.47770858 0.023302859 2.039
0.482887 0.025892064 2.039
0.47770858 0.034954287 2.039
0.48159239 0.033012383 2.039
-0.033012383 0.18642287 2.039
-0.051784128 0.19677968 2.039
-0.044663809 0.19224858 2.039
-0.038838096 0.19030668 2.039
-0.062140957 0.20972572 2.039
-0.05631524 0.20390001 2.039
-0.067319371 0.22526096 2.039
-0.069908574 0.23691238 2.039
-0.069908574 0.24468 2.039
-0.077676192 0.26604098 2.039
0.57818669 -0.17189334 2.0510001
0.58404672 -0.17189334 2.0510001
0.56646669 -0.16017334 2.0510001
0.57232666 -0.16603334 2.0510001
0.55474669 -0.14259334 2.0510001
0.54693335 -0.13673334 2.0510001
0.55084002 -0.13673334 2.0510001
0.53912002 -0.12110667 2.0510001
0.54302669 -0.12892 2.0510001
0.53716671 -0.11524667 2.0510001
0.53325999 -0.10743333 2.0510001
0.52544665 -0.09571334 2.0510001
0.5182845 -0.085946672 2.0510001
0.52349335 -0.089853339 2.0510001
0.51437783 -0.07422667 2.0510001
0.50786668 -0.062506668 2.0510001
0.51177335 -0.066413336 2.0510001
0.50689 -0.053716667 2.0510001
0.50200665 -0.044926669 2.0510001
0.49614668 -0.031253334 2.0510001
0.50005335 -0.037113335 2.0510001
0.49419335 -0.025393333 2.0510001
0.48833334 -0.013673333 2.0510001
0.49224001 -0.019533334 2.0510001
0.48572889 -0.0065111108 2.0510001
0.48052001 0.0039066668 2.0510001
0.48052001 0.011720001 2.0510001
0.47661334 0.023440002 2.0510001
0.48052001 0.027346667 2.0510001
0.47661337 0.035160001 2.0510001
-0.015626667 0.17970668 2.0510001
-0.042973336 0.18752001 2.0510001
-0.039066669 0.18752001 2.0510001
-0.025393333 0.18361335 2.0510001
-0.062506668 0.19924001 2.0510001
-0.054693338 0.19533335 2.0510001
-0.046880003 0.19142668 2.0510001
-0.062506668 0.20314668 2.0510001
-0.058600001 0.20314668 2.0510001
-0.070320003 0.22658667 2.0510001
-0.072273336 0.23635334 2.0510001
-0.07422667 0.24416667 2.0510001
-0.07422667 0.25393334 2.0510001
0.57764 -0.17289905 2.0630002
0.58549905 -0.17682858 2.0630002
0.56978095 -0.16504 2.0630002
0.5737105 -0.16896953 2.0630002
0.56585145 -0.15718096 2.0630002
0.55275303 -0.1427727 2.0630002
0.54620385 -0.13360381 2.0630002
0.5383448 -0.12181524 2.0630002
0.5422743 -0.12770952 2.0630002
0.53572512 -0.11395619 2.0630002
0.53048575 -0.10413238 2.0630002
0.51869714 -0.090379052 2.0630002
0.52459145 -0.096273333 2.0630002
0.51869714 -0.086449526 2.0630002
0.51280284 -0.072696194 2.0630002
0.5069086 -0.06287238 2.0630002
0.51083809 -0.066801906 2.0630002
0.50494385 -0.055013336 2.0630002
0.49904954 -0.043224763 2.0630002
0.50297904 -0.047154289 2.0630002
0.4977397 -0.035365716 2.0630002
0.49250031 -0.026196828 2.0630002
0.48726097 -0.015718097 2.0630002
0.49119049 -0.019647621 2.0630002
0.48333144 -0.0039295238 2.0630002
0.47940192 0.0058942856 2.0630002
0.47940192 0.015718097 2.0630002
0.47743714 0.025541905 2.0630002
-0.011788572 0.17682858 2.0630002
-0.0058942856 0.17682858 2.0630002
-0.053048573 0.18861715 2.0630002
-0.047154289 0.18861715 2.0630002
-0.033400953 0.18468763 2.0630002
-0.056978099 0.19451144 2.0630002
-0.06287238 0.20826477 2.0630002
-0.066801906 0.21415906 2.0630002
-0.072696194 0.22594763 2.0630002
-0.066801906 0.22005334 2.0630002
-0.074660957 0.23577143 2.0630002
-0.082520001 0.25934857 2.0630002
-0.078590482 0.25934857 2.0630002
-0.082520001 0.26524287 2.0630002
-0.078590482 0.2632781 2.0630002
0.58523428 -0.18189715 2.0760002
0.57534862 -0.17201144 2.0760002
0.58127999 -0.17794286 2.0760002
0.56941718 -0.16212572 2.0760002
0.5575543 -0.15026286 2.0760002
0.56348574 -0.15224001 2.0760002
0.54964572 -0.14235429 2.0760002
0.55360001 -0.14630857 2.0760002
0.54569143 -0.13444573 2.0760002
0.53778285 -0.12258286 2.0760002
0.54173714 -0.12653714 2.0760002
0.52987432 -0.11269715 2.0760002
0.53514671 -0.11467429 2.0760002
0.52789718 -0.10478857 2.0760002
0.51801145 -0.090948574 2.0760002
0.52328384 -0.097539045 2.0760002
0.51801145 -0.085017145 2.0760002
0.51326627 -0.075922288 2.0760002
0.50614858 -0.063268572 2.0760002
0.51010287 -0.067222856 2.0760002
0.49824002 -0.051405717 2.0760002
0.50318289 -0.056348577 2.0760002
0.49824002 -0.045474287 2.0760002
0.50219429 -0.047451429 2.0760002
0.49494478 -0.035588574 2.0760002
0.49033144 -0.025702856 2.0760002
0.48637715 -0.015817143 2.0760002
0.48440003 -0.0059314286 2.0760002
0.4784686 0.0059314286 2.0760002
0.48242289 0 2.0760002
0.47846857 0.015817143 2.0760002
0.4784686 0.02768 2.0760002
0.47846857 0.035588574 2.0760002
-0.025702856 0.18189715 2.0760002
-0.059314288 0.19376001 2.0760002
-0.067222856 0.20957714 2.0760002
-0.075131431 0.23330286 2.0760002
-0.079085715 0.24516572 2.0760002
-0.079085715 0.25505143 2.0760002
0.57668573 -0.17499429 2.0880001
0.58066291 -0.17897144 2.0880001
0.56873143 -0.15908572 2.0880001
0.54884571 -0.14317715 2.0880001
0.54486853 -0.13522287 2.0880001
0.5349257 -0.12329143 2.0880001
0.54089147 -0.12726858 2.0880001
0.52896005 -0.11334858 2.0880001
0.5349257 -0.11931429 2.0880001
0.52498287 -0.10539429 2.0880001
0.51702857 -0.093462855 2.0880001
0.52100575 -0.097440004 2.0880001
0.51504004 -0.08550857 2.0880001
0.50907433 -0.073577151 2.0880001
0.51305145 -0.07954286 2.0880001
0.50642288 -0.066285722 2.0880001
0.49714288 -0.051702861 2.0880001
0.50112003 -0.057668574 2.0880001
0.49581718 -0.045074284 2.0880001
0.48918858 -0.033805717 2.0880001
0.49316573 -0.037782859 2.0880001
0.48786286 -0.025188573 2.0880001
0.48521146 -0.015908573 2.0880001
0.48521143 -0.0079542864 2.0880001
0.47725716 0.025851429 2.0880001
0.47566628 0.036589719 2.0880001
-0.031817146 0.18294857 2.0880001
-0.019885715 0.18294857 2.0880001
-0.063634291 0.19885714 2.0880001
-0.067611434 0.20482287 2.0880001
-0.073577151 0.22470859 2.0880001
-0.07954286 0.23862858 2.0880001
-0.083520003 0.24658287 2.0880001
-0.083520003 0.25453714 2.0880001
-0.087497145 0.26646858 2.0880001
-0.085906282 0.27521831 2.0880001
0.58427811 -0.18408762 2.1010001
0.57227242 -0.1640781 2.1010001
0.56426859 -0.15407333 2.1010001
0.54826099 -0.14206763 2.1010001
0.55626476 -0.14807048 2.1010001
0.53625524 -0.13206287 2.1010001
0.54225814 -0.13406381 2.1010001
0.53358728 -0.12405905 2.1010001
0.54025716 -0.12806095 2.1010001
0.52424955 -0.11205333 2.1010001
0.52184844 -0.10484991 2.1010001
0.51624572 -0.09204381 2.1010001
0.51224381 -0.084040008 2.1010001
0.50824195 -0.074035242 2.1010001
0.50223911 -0.062029526 2.1010001
0.49623621 -0.052024763 2.1010001
0.50023812 -0.056026667 2.1010001
0.49356827 -0.044020955 2.1010001
0.4882324 -0.034016192 2.1010001
0.4882324 -0.028013334 2.1010001
0.4802286 0.0080038095 2.1010001
0.4802286 0.014006667 2.1010001
0.47622669 0.026012382 2.1010001
0.4802286 0.020009525 2.1010001
0.47355875 0.033349205 2.1010001
0.47222477 0.042020001 2.1010001
-0.044020955 0.18808953 2.1010001
-0.016007619 0.18008572 2.1010001
-0.064030476 0.19609334 2.1010001
-0.073368259 0.21476889 2.1010001
-0.0800381 0.22610763 2.1010001
-0.074702226 0.22143872 2.1010001
-0.0800381 0.23411143 2.1010001
-0.084040001 0.24211526 2.1010001
-0.09204381 0.26812762 2.1010001
-0.09204381 0.27413049 2.1010001
-0.09204381 0.28013334 2.1010001
0.58386672 -0.18321335 2.1140001
0.57984 -0.17314668 2.1140001
0.57480669 -0.1661 2.1140001
0.55970669 -0.15301333 2.1140001
0.56574667 -0.15704 2.1140001
0.54762667 -0.14294666 2.1140001
0.55568004 -0.14898667 2.1140001
0.53755999 -0.13489333 2.1140001
0.54360002 -0.13690667 2.1140001
0.53554666 -0.12885334 2.1140001
0.53152001 -0.11677334 2.1140001
0.51843333 -0.10368668 2.1140001
0.51675558 -0.095297784 2.1140001
0.51138669 -0.084560007 2.1140001
0.50736004 -0.074493334 2.1140001
0.50534666 -0.066440001 2.1140001
0.49930668 -0.056373335 2.1140001
0.49259558 -0.044293333 2.1140001
0.48722669 -0.012080001 2.1140001
0.48722669 -0.0060400004 2.1140001
0.47917336 0.0080533335 2.1140001
0.48521334 0.0020133334 2.1140001
0.47917336 0.014093334 2.1140001
0.47648892 0.024160003 2.1140001
-0.054360002 0.18925335 2.1140001
-0.044293337 0.18925335 2.1140001
-0.034226667 0.18321335 2.1140001
-0.024160001 0.18120001 2.1140001
-0.060400002 0.19328001 2.1140001
-0.072480001 0.20737335 2.1140001
-0.068453334 0.20133334 2.1140001
-0.082546666 0.22549334 2.1140001
-0.084559999 0.23556 2.1140001
-0.088586673 0.24965334 2.1140001
-0.088586673 0.25569335 2.1140001
-0.092613339 0.26576 2.1140001
-0.088586673 0.26374668 2.1140001
0.58340573 -0.18434 2.1270001
0.57800382 -0.17421143 2.1270001
0.58340573 -0.17826286 2.1270001
0.56720001 -0.16205715 2.1270001
0.57125145 -0.16408285 2.1270001
0.55909717 -0.1539543 2.1270001
0.56314862 -0.15800571 2.1270001
0.54559237 -0.14315046 2.1270001
0.55302 -0.14990287 2.1270001
0.53478861 -0.13369715 2.1270001
0.52668571 -0.12154286 2.1270001
0.53316802 -0.12478401 2.1270001
0.52465999 -0.11546572 2.1270001
0.53073716 -0.11749143 2.1270001
0.51858288 -0.10736286 2.1270001
0.51453143 -0.09520857 2.1270001
0.51048005 -0.081028573 2.1270001
0.5064286 -0.074951433 2.1270001
0.50372761 -0.06482286 2.1270001
0.49832574 -0.052668575 2.1270001
0.49022284 -0.024308572 2.1270001
0.49022287 -0.016205715 2.1270001
0.48617145 -0.0060771434 2.1270001
0.47806859 0.0081028575 2.1270001
0.48414573 0.0020257144 2.1270001
0.47806859 0.014180001 2.1270001
0.47604287 0.024308573 2.1270001
0.47401717 0.034437142 2.1270001
0.47401717 0.042539999 2.1270001
-0.016205715 0.17826286 2.1270001
-0.040514287 0.18636572 2.1270001
-0.024308572 0.18231429 2.1270001
-0.06482286 0.19446857 2.1270001
-0.076977149 0.21472572 2.1270001
-0.08913143 0.24713716 2.1270001
0.58289528 -0.18342859 2.1400001
0.57678097 -0.1732381 2.1400001
0.5652318 -0.16440636 2.1400001
0.57066667 -0.16712381 2.1400001
0.555381 -0.15489525 2.1400001
0.56251431 -0.15897143 2.1400001
0.54620951 -0.14674287 2.1400001
0.53533971 -0.13451429 2.1400001
0.54213333 -0.13859048 2.1400001
0.52786672 -0.12432382 2.1400001
0.52379048 -0.11617143 2.1400001
0.51767623 -0.10394286 2.1400001
0.51359999 -0.095790476 2.1400001
0.50952381 -0.083561912 2.1400001
0.51359999 -0.087638095 2.1400001
0.50544763 -0.073371433 2.1400001
0.50273019 -0.065219052 2.1400001
0.50137144 -0.057066668 2.1400001
0.49321908 -0.034647621 2.1400001
0.48914286 -0.022419048 2.1400001
0.48914286 -0.014266668 2.1400001
0.48506668 -0.0061142864 2.1400001
0.47691432 0.0081523815 2.1400001
0.48302859 0.0020380954 2.1400001
0.47691432 0.014266668 2.1400001
0.47691432 0.022419048 2.1400001
0.4728381 0.036685716 2.1400001
0.47283807 0.044838097 2.1400001
-0.022419048 0.17935239 2.1400001
-0.012228572 0.17935239 2.1400001
-0.0061142864 0.17935239 2.1400001
-0.052990478 0.18750477 2.1400001
-0.046876192 0.18750477 2.1400001
-0.036685716 0.18342859 2.1400001
-0.077447623 0.21196191 2.1400001
-0.085600004 0.22826667 2.1400001
-0.089676194 0.24253334 2.1400001
-0.093752384 0.2629143 2.1400001
0.58438575 -0.18454286 2.1530001
0.57413334 -0.17360699 2.1530001
0.56388098 -0.16608858 2.1530001
0.55567908 -0.15788667 2.1530001
0.54405969 -0.14490032 2.1530001
0.53449082 -0.13533144 2.1530001
0.52697241 -0.12507905 2.1530001
0.52218801 -0.11482667 2.1530001
0.51672 -0.10252381 2.1530001
0.51261908 -0.092271432 2.1530001
0.5085181 -0.082019053 2.1530001
0.50578415 -0.076551117 2.1530001
0.50441718 -0.069716193 2.1530001
0.49621525 -0.043060005 2.1530001
0.5003162 -0.049211431 2.1530001
0.49211431 -0.032807622 2.1530001
0.48801336 -0.020504763 2.1530001
0.49211431 -0.028706668 2.1530001
0.48801336 -0.014353335 2.1530001
0.48391241 -0.0041009528 2.1530001
0.47981146 0.0041009528 2.1530001
0.48391241 0 2.1530001
0.47571048 0.028706668 2.1530001
0.47571048 0.032807622 2.1530001
0.47160953 0.045110479 2.1530001
-0.041009527 0.18454286 2.1530001
-0.032807622 0.18044192 2.1530001
-0.028706668 0.18044192 2.1530001
-0.061514288 0.19274476 2.1530001
-0.075867623 0.2070981 2.1530001
-0.069716193 0.20094667 2.1530001
-0.082019053 0.21735048 2.1530001
-0.084069528 0.22350192 2.1530001
-0.090220958 0.23785524 2.1530001
-0.094321907 0.25425905 2.1530001
-0.098422863 0.26246098 2.1530001
0.5819943 -0.18161525 2.1670001
0.56961143 -0.17336001 2.1670001
0.57786667 -0.17748763 2.1670001
0.56273204 -0.16785651 2.1670001
0.55310094 -0.15272191 2.1670001
0.53659052 -0.14033905 2.1670001
0.54278195 -0.14653048 2.1670001
0.52833527 -0.13208382 2.1670001
0.53246289 -0.13414763 2.1670001
0.52627146 -0.12589239 2.1670001
0.52111197 -0.11660524 2.1670001
0.51595241 -0.10525429 2.1670001
0.52008003 -0.1073181 2.1670001
0.51285672 -0.095967144 2.1670001
0.51182479 -0.086680003 2.1670001
0.50356954 -0.055722859 2.1670001
0.49669018 -0.045403808 2.1670001
0.49256253 -0.0357727 2.1670001
0.48705906 -0.020638095 2.1670001
0.49118668 -0.026829526 2.1670001
0.48705906 -0.014446668 2.1670001
0.48430729 -0.0068793655 2.1670001
0.47880381 0.0061914288 2.1670001
0.48293144 0 2.1670001
0.47880381 0.014446668 2.1670001
0.47880381 0.022701904 2.1670001
0.47467622 0.035084762 2.1670001
0.47330034 0.045403808 2.1670001
-0.020638095 0.17748763 2.1670001
-0.012382858 0.17748763 2.1670001
-0.0082552386 0.17748763 2.1670001
0.0020638097 0.17748763 2.1670001
-0.061914288 0.18987048 2.1670001
-0.055722859 0.18780667 2.1670001
-0.047467619 0.18574287 2.1670001
0.0013758731 0.18299113 2.1670001
-0.070169523 0.19606191 2.1670001
-0.066041909 0.1939981 2.1670001
-0.076360956 0.20431715 2.1670001
-0.084616192 0.2167 2.1670001
-0.086680003 0.22289144 2.1670001
-0.090807624 0.23321049 2.1670001
-0.094935238 0.24765715 2.1670001
-0.10319048 0.25384858 2.1670001
-0.097686984 0.25453651 2.1670001
-0.10319048 0.26004001 2.1670001
-0.09906286 0.26416764 2.1670001
-0.09906286 0.27242288 2.1670001
0.5899086 -0.19109716 2.181
0.57744575 -0.18278858 2.181
0.58575433 -0.1855581 2.181
0.5566743 -0.17032573 2.181
0.56498283 -0.17309524 2.181
0.57536858 -0.17863429 2.181
0.55528951 -0.16340192 2.181
0.56082857 -0.1640943 2.181
0.54628861 -0.15370858 2.181
0.55390477 -0.15647809 2.181
0.52759433 -0.14124572 2.181
0.53451812 -0.14263047 2.181
0.54144192 -0.14816953 2.181
0.52551717 -0.13501428 2.181
0.53174859 -0.13709143 2.181
0.51790094 -0.12185904 2.181
0.5248248 -0.1273981 2.181
0.51720858 -0.11424286 2.181
0.51374668 -0.1052419 2.181
0.50682288 -0.09139429 2.181
0.51097715 -0.09554857 2.181
0.50682288 -0.085162863 2.181
0.51097715 -0.085162863 2.181
0.50578427 -0.073738575 2.181
0.49851429 -0.062314287 2.181
0.50474572 -0.064391434 2.181
0.49712953 -0.055390477 2.181
0.50266862 -0.05608286 2.181
0.48605144 -0.043620002 2.181
0.49366763 -0.045697149 2.181
0.48605144 -0.035311431 2.181
0.49020573 -0.035311431 2.181
0.48501289 -0.023887143 2.181
0.49020573 -0.027002858 2.181
0.48397431 -0.014540001 2.181
0.47774288 -0.0041542859 2.181
0.48189718 -0.0062314291 2.181
0.47774288 0.0041542859 2.181
0.48189718 0 2.181
0.47635815 0.015232381 2.181
0.47670433 0.025964286 2.181
0.47358859 0.035311431 2.181
0.47358859 0.041542858 2.181
-0.024925716 0.17724954 2.181
-0.015232381 0.17586477 2.181
-0.005539048 0.17586477 2.181
0.0020771429 0.17448001 2.181
-0.062314287 0.18694286 2.181
-0.058160003 0.18694286 2.181
-0.073392391 0.19525145 2.181
-0.066468574 0.19109716 2.181
-0.083085716 0.20771429 2.181
-0.078931428 0.20356001 2.181
-0.085162863 0.21394572 2.181
-0.09139429 0.22848572 2.181
-0.095548578 0.24302572 2.181
0.5955143 -0.20059429 2.194
0.58924574 -0.1922362 2.194
0.5955143 -0.19641525 2.194
0.56835049 -0.18387811 2.194
0.57461905 -0.18387811 2.194
0.58297718 -0.18805715 2.194
0.54745525 -0.17134096 2.194
0.55581337 -0.17343047 2.194
0.56626093 -0.17760953 2.194
0.57252955 -0.17969905 2.194
0.54536569 -0.16507238 2.194
0.55302733 -0.16576889 2.194
0.52656001 -0.15044571 2.194
0.53551519 -0.15343075 2.194
0.54466921 -0.1574108 2.194
0.55163431 -0.15880382 2.194
0.51820195 -0.14208762 2.194
0.52447045 -0.14417715 2.194
0.53282857 -0.14626667 2.194
0.51611245 -0.13581905 2.194
0.52238095 -0.13581905 2.194
0.50984383 -0.12119239 2.194
0.5156945 -0.12620723 2.194
0.52238095 -0.12955049 2.194
0.50984383 -0.11492382 2.194
0.51402289 -0.11492382 2.194
0.50817221 -0.10364038 2.194
0.51402289 -0.10865524 2.194
0.50566477 -0.094028577 2.194
0.50357521 -0.085670486 2.194
0.49521711 -0.075222857 2.194
0.50315732 -0.076058671 2.194
0.48755559 -0.064078726 2.194
0.49521714 -0.064775243 2.194
0.50148571 -0.066864766 2.194
0.48529193 -0.053805239 2.194
0.49417239 -0.055372383 2.194
0.47641143 -0.041790478 2.194
0.48268002 -0.043880001 2.194
0.47641143 -0.035521906 2.194
0.48268002 -0.035521906 2.194
0.47432193 -0.025074288 2.194
0.48226213 -0.025910098 2.194
0.47432193 -0.014626668 2.194
0.48059049 -0.014626667 2.194
0.47641143 -0.0062685721 2.194
0.48059049 -0.0083580958 2.194
0.47641143 0.0041790479 2.194
0.47641143 0.012537143 2.194
0.47501841 0.025074286 2.194
0.4722324 0.035521906 2.194
0.46805334 0.045969527 2.194
0.4722324 0.043880001 2.194
-0.041790478 0.17969905 2.194
-0.035521906 0.17969905 2.194
-0.025910098 0.17301257 2.194
-0.014626667 0.17134096 2.194
-0.0062685721 0.17134096 2.194
0.0020895239 0.17134096 2.194
-0.066864766 0.18805715 2.194
-0.054327622 0.18387811 2.194
-0.043880001 0.18387811 2.194
-0.037611429 0.18387811 2.194
-0.07731238 0.19432572 2.194
-0.085670479 0.20686287 2.194
-0.07940191 0.20059429 2.194
-0.091939054 0.21522096 2.194
-0.087760001 0.21313144 2.194
-0.10029715 0.24656382 2.194
-0.10238667 0.25074285 2.194
0.59300572 -0.20187429 2.2080002
0.58669716 -0.19346286 2.2080002
0.59300572 -0.19766858 2.2080002
0.55795813 -0.18224764 2.2080002
0.56566858 -0.18505144 2.2080002
0.5761829 -0.18925714 2.2080002
0.58038861 -0.18925714 2.2080002
0.54464 -0.17243429 2.2080002
0.55305147 -0.17664 2.2080002
0.53692955 -0.16542476 2.2080002
0.54253715 -0.16612571 2.2080002
0.52781713 -0.15561143 2.2080002
0.5362286 -0.15981714 2.2080002
0.51730287 -0.14299428 2.2080002
0.50889146 -0.13248 2.2080002
0.51309717 -0.13458286 2.2080002
0.50889146 -0.12406858 2.2080002
0.51309717 -0.12617144 2.2080002
0.50889146 -0.11565715 2.2080002
0.50608766 -0.10514286 2.2080002
0.49627429 -0.092525721 2.2080002
0.50258291 -0.094628572 2.2080002
0.48786288 -0.084114291 2.2080002
0.49487242 -0.085516192 2.2080002
0.50048 -0.08621715 2.2080002
0.47945145 -0.071497142 2.2080002
0.4861806 -0.07486172 2.2080002
0.49206862 -0.075702861 2.2080002
0.47945145 -0.065188572 2.2080002
0.48505905 -0.06588953 2.2080002
0.47945145 -0.054674286 2.2080002
0.48365715 -0.058880001 2.2080002
0.4773486 -0.044160001 2.2080002
0.47524574 -0.035748571 2.2080002
0.47384381 -0.0056076194 2.2080002
0.47419432 0.0052571427 2.2080002
0.47524574 0.01472 2.2080002
0.46683431 0.027337143 2.2080002
0.47272229 0.024393141 2.2080002
0.46543241 0.036449526 2.2080002
0.47104001 0.035748571 2.2080002
0.45842287 0.04626286 2.2080002
0.46473145 0.044160001 2.2080002
0.47104001 0.042057145 2.2080002
-0.025234288 0.16822858 2.2080002
-0.01472 0.16612571 2.2080002
-0.0063085714 0.16612571 2.2080002
0.0014019049 0.16682667 2.2080002
-0.042057145 0.17664 2.2080002
-0.035047621 0.17523809 2.2080002
-0.072899051 0.18785524 2.2080002
-0.065188572 0.18505144 2.2080002
-0.053622857 0.18294859 2.2080002
-0.04626286 0.18084572 2.2080002
-0.084114291 0.19556573 2.2080002
-0.079908572 0.19346286 2.2080002
-0.08621715 0.20397714 2.2080002
-0.092525721 0.22290286 2.2080002
-0.10093714 0.24393144 2.2080002
0.59280002 -0.20324573 2.223
0.55680859 -0.19054286 2.223
0.56316 -0.19054286 2.223
0.57586288 -0.19054286 2.223
0.58433145 -0.19618857 2.223
0.59280002 -0.19901143 2.223
0.55469143 -0.18419144 2.223
0.54410577 -0.17572287 2.223
0.55045718 -0.17784001 2.223
0.52928573 -0.16302 2.223
0.53563714 -0.1672543 2.223
0.52364004 -0.15384571 2.223
0.51658285 -0.14396572 2.223
0.52293432 -0.14820001 2.223
0.50811428 -0.13126287 2.223
0.51234859 -0.13973144 2.223
0.50811428 -0.12491143 2.223
0.50642061 -0.11347885 2.223
0.49964574 -0.10162286 2.223
0.50388002 -0.10374001 2.223
0.49541149 -0.094565719 2.223
0.50388002 -0.097388573 2.223
0.48482573 -0.082568571 2.223
0.4932943 -0.088920005 2.223
0.47847429 -0.074100003 2.223
0.4827086 -0.076217145 2.223
0.47847429 -0.065631434 2.223
0.47635713 -0.05504572 2.2229998
0.47424001 -0.044460002 2.223
0.47424001 -0.03599143 2.223
0.47423998 -0.025405714 2.223
0.47282854 -0.015525716 2.223
0.47141716 -0.0070571434 2.223
0.47169942 0.0033874288 2.223
0.47212285 0.014820001 2.223
0.46577144 0.027522858 2.223
0.47000572 0.02117143 2.223
0.46294856 0.035285715 2.223
0.46153715 0.04234286 2.223
-0.04234286 0.16937144 2.223
-0.03599143 0.16937144 2.223
-0.024558857 0.16344342 2.223
-0.014820001 0.16090286 2.223
-0.006351429 0.16090286 2.223
0 0.16090286 2.223
-0.053987145 0.17678143 2.223
-0.045165718 0.17501716 2.223
-0.038108572 0.17360573 2.223
-0.074100003 0.18419144 2.223
-0.065631434 0.18207429 2.223
-0.059280001 0.18207429 2.223
-0.086097144 0.19477715 2.223
-0.088920005 0.20324573 2.223
-0.093154289 0.2117143 2.223
-0.09597715 0.22441715 2.223
-0.097388573 0.23712 2.223
-0.10585715 0.24770573 2.223
-0.097388573 0.2413543 2.223
0.58588099 -0.20026477 2.237
0.5922724 -0.20452572 2.237
0.55605435 -0.19387335 2.237
0.56457627 -0.19600381 2.237
0.57522851 -0.19600381 2.237
0.54966289 -0.18535143 2.237
0.55392385 -0.18748191 2.237
0.5354597 -0.17185842 2.237
0.54256129 -0.17753969 2.237
0.52622759 -0.1619162 2.237
0.51983619 -0.15552476 2.237
0.52409714 -0.15765524 2.237
0.51472306 -0.14572458 2.237
0.50705338 -0.13208953 2.237
0.51131433 -0.13635048 2.237
0.50705338 -0.1256981 2.237
0.49853146 -0.11078477 2.237
0.50385761 -0.11611096 2.237
0.49640098 -0.10439333 2.237
0.50279242 -0.10652381 2.237
0.49427047 -0.096581586 2.237
0.47722667 -0.080958098 2.237
0.48290792 -0.085219048 2.237
0.49000955 -0.089480005 2.237
0.47722667 -0.07456667 2.237
0.47580636 -0.065334611 2.237
0.46870479 -0.053261906 2.237
0.47296572 -0.055392385 2.237
0.46728447 -0.044029843 2.237
0.47296572 -0.046870477 2.237
0.46870479 -0.036218099 2.237
0.47296572 -0.036218099 2.237
0.46870479 -0.025565714 2.237
0.47296572 -0.025565714 2.237
0.46657431 -0.014913334 2.237
0.47296572 -0.012782858 2.237
0.46529603 -0.0059653339 2.237
0.46444383 0.0042609526 2.2369998
0.46444383 0.014913335 2.2369998
0.46322641 0.024957005 2.2369998
0.46018288 0.036218099 2.237
0.46018288 0.044739999 2.237
-0.023435239 0.15765524 2.237
-0.014913334 0.15765524 2.237
-0.0063914289 0.15765524 2.237
0 0.15765524 2.237
-0.034087621 0.16617715 2.237
-0.029826667 0.1619162 2.237
-0.072436191 0.17896001 2.237
-0.066044763 0.17682953 2.237
-0.055392385 0.17327873 2.237
-0.046870477 0.1704381 2.237
-0.080958098 0.18748191 2.237
-0.076697148 0.18322095 2.237
-0.085219048 0.19174287 2.237
-0.093740955 0.20878668 2.237
-0.098001905 0.21730858 2.237
-0.10226286 0.23861334 2.237
-0.098001905 0.23222192 2.237
-0.10226286 0.24287429 2.237
0.56192762 -0.20160763 2.2520001
0.5747962 -0.20160763 2.2520001
0.58480507 -0.20446731 2.2520001
0.59195429 -0.20589715 2.2520001
0.54905909 -0.19302858 2.2520001
0.55549335 -0.19517335 2.2520001
0.54562747 -0.18530744 2.2520001
0.53333074 -0.17444064 2.2520001
0.52546668 -0.16514668 2.2520001
0.53190094 -0.16729143 2.2520001
0.51760256 -0.15442286 2.2520001
0.51045334 -0.1415543 2.2520001
0.50616384 -0.13297524 2.2520001
0.51045334 -0.13726477 2.2520001
0.49758479 -0.12010667 2.2520001
0.50401908 -0.1243962 2.2520001
0.49615493 -0.11295746 2.2520001
0.50187433 -0.11581714 2.2520001
0.49329525 -0.10509335 2.2520001
0.48557416 -0.093511619 2.2520001
0.49329525 -0.098659053 2.2520001
0.47613716 -0.081500955 2.2520001
0.4804267 -0.085790478 2.2520001
0.47613716 -0.075066671 2.2520001
0.46755812 -0.060053337 2.2520001
0.47327748 -0.064342864 2.2520001
0.46612826 -0.052904129 2.2520001
0.4646984 -0.045754924 2.2520001
0.45897904 -0.034316193 2.2520001
0.46541333 -0.034316193 2.2520001
0.45897907 -0.021447619 2.2520001
0.46541336 -0.023592383 2.2520001
0.45897907 -0.015013334 2.2520001
0.46326858 -0.015013334 2.2520001
0.45897907 -0.006434286 2.2520001
0.46326858 -0.0085790483 2.2520001
0.44611049 0.0085790483 2.2520001
0.45522574 0.0048257145 2.2520001
0.45468953 0.015013334 2.2520001
0.45468959 0.023592383 2.2520001
0.45591512 0.033703405 2.2520001
0.45897907 0.045040004 2.2520001
-0.030026669 0.15871239 2.2520001
-0.021447619 0.15442286 2.2520001
-0.051474288 0.16729143 2.2520001
-0.045040004 0.16729143 2.2520001
-0.036460955 0.16514668 2.2520001
-0.075066671 0.17587048 2.2520001
-0.064342864 0.17158096 2.2520001
-0.055763811 0.17158096 2.2520001
-0.083645716 0.18659429 2.2520001
-0.077211432 0.18016 2.2520001
-0.094369531 0.20589715 2.2520001
-0.098659053 0.2144762 2.2520001
-0.10294858 0.2252 2.2520001
-0.10294858 0.23377904 2.2520001
-0.11152762 0.24879239 2.2520001
-0.1072381 0.24235812 2.2520001
-0.11152762 0.25522667 2.2520001
0.56542099 -0.20286097 2.266
0.58268571 -0.20717715 2.266
0.5481562 -0.19422857 2.266
0.55463052 -0.19854477 2.266
0.5380851 -0.18271874 2.266
0.54383999 -0.1877543 2.266
0.52657527 -0.17480573 2.266
0.53089142 -0.17480573 2.266
0.52441716 -0.16617334 2.266
0.51650417 -0.15538286 2.266
0.50931048 -0.14243428 2.266
0.51362669 -0.14675048 2.266
0.50715244 -0.13596001 2.266
0.49636191 -0.12085333 2.266
0.50211686 -0.12804699 2.266
0.49348447 -0.11509842 2.266
0.49204573 -0.10574667 2.266
0.47909716 -0.090640001 2.266
0.48557144 -0.097114295 2.266
0.47693908 -0.084165722 2.266
0.47478098 -0.07553333 2.266
0.46614859 -0.060426667 2.266
0.47262287 -0.066900954 2.266
0.46327114 -0.054671746 2.266
0.45751619 -0.043161906 2.266
0.4618324 -0.045320004 2.266
0.45751619 -0.034529522 2.266
0.45751619 -0.023739047 2.266
0.4618324 -0.025897143 2.266
0.45607746 -0.015826032 2.266
0.45535809 -0.0064742863 2.266
0.44888383 0.0021580954 2.266
0.45320001 0 2.266
0.44888383 0.015106667 2.266
0.44888383 0.023739047 2.266
0.44888383 0.030213334 2.266
0.45320001 0.03668762 2.266
0.45535809 0.045320004 2.266
-0.032371432 0.15754095 2.266
-0.024458414 0.1525054 2.266
-0.015106667 0.15322477 2.266
-0.0064742863 0.15322477 2.266
0 0.15322477 2.266
-0.06366381 0.16725239 2.266
-0.054671746 0.16545397 2.266
-0.045320004 0.16401525 2.266
-0.038845714 0.16401525 2.266
-0.082007624 0.17696382 2.266
-0.07553333 0.17264763 2.266
-0.084885083 0.18271874 2.266
-0.094956197 0.20286097 2.266
-0.10358857 0.21580954 2.266
-0.099272385 0.21149334 2.266
-0.10358857 0.22012572 2.266
-0.11222096 0.23739049 2.266
-0.10790477 0.23523238 2.266
-0.11437906 0.24386477 2.266
-0.11653715 0.25033906 2.266
0.5539571 -0.20420381 2.2810001
0.56047428 -0.20420381 2.2810001
0.53875047 -0.19116953 2.2810001
0.54526758 -0.19551429 2.2810001
0.55178475 -0.19985905 2.2810001
0.53440571 -0.18392825 2.2810001
0.52571619 -0.17379048 2.2810001
0.51702666 -0.1607562 2.2810001
0.52354383 -0.16727334 2.2810001
0.51485431 -0.15423906 2.2810001
0.50688887 -0.14482541 2.2810001
0.5126819 -0.14772192 2.2810001
0.49964765 -0.13468762 2.2810001
0.50544065 -0.13758413 2.2810001
0.49964765 -0.12599809 2.2810001
0.49095812 -0.11296381 2.2810001
0.48661336 -0.10427429 2.2810001
0.49095812 -0.10644667 2.2810001
0.47575146 -0.091240004 2.2810001
0.48371685 -0.098481275 2.2810001
0.47502732 -0.085446991 2.2810001
0.46923432 -0.073860958 2.2810001
0.47357908 -0.076033339 2.2810001
0.46778607 -0.065171428 2.2810001
0.47357908 -0.069516189 2.2810001
0.4562 -0.052137144 2.2810001
0.46054476 -0.054309525 2.2810001
0.4562 -0.045620002 2.2810001
0.46054476 -0.047792383 2.2810001
0.4562 -0.034758095 2.2810001
0.45475173 -0.023172066 2.2810001
0.45402762 -0.015206667 2.2810001
0.44751048 0.0086895237 2.2810001
0.44751048 0.015206667 2.2810001
0.44751048 0.023896191 2.2810001
0.44751048 0.032585714 2.2810001
0.45185524 0.036930479 2.2810001
0.45185524 0.045620002 2.2810001
-0.032585714 0.15423906 2.2810001
-0.082550481 0.16944572 2.2810001
-0.076033339 0.16944572 2.2810001
-0.065171428 0.1636527 2.2810001
-0.054309525 0.1607562 2.2810001
-0.045620002 0.1607562 2.2810001
-0.03910286 0.1607562 2.2810001
-0.084722862 0.17596287 2.2810001
-0.092688262 0.19551428 2.2810001
-0.099929526 0.20854858 2.2810001
-0.10427429 0.21289334 2.2810001
-0.10861905 0.22592762 2.2810001
-0.11586032 0.2360654 2.2810001
-0.10861905 0.23027238 2.2810001
0.54471719 -0.20126095 2.2970002
0.5366959 -0.19396889 2.2970002
0.54252952 -0.19688572 2.2970002
0.52940381 -0.18376 2.2970002
0.53596669 -0.18813525 2.2970002
0.51627809 -0.17063428 2.2970002
0.52429938 -0.17500953 2.2970002
0.51627809 -0.16407144 2.2970002
0.52065337 -0.16625905 2.2970002
0.50606924 -0.15459175 2.2970002
0.51336128 -0.15605016 2.2970002
0.49877715 -0.14000763 2.2970002
0.50461078 -0.14729969 2.2970002
0.49877715 -0.13344476 2.2970002
0.49658954 -0.12469429 2.2970002
0.48565143 -0.11375619 2.2970002
0.49148512 -0.11667302 2.2970002
0.47690096 -0.1028181 2.2970002
0.48302633 -0.10588076 2.2970002
0.49002668 -0.10938095 2.2970002
0.4681505 -0.091880001 2.2970002
0.47398415 -0.094796829 2.2970002
0.48127621 -0.096255243 2.2970002
0.4681505 -0.08531715 2.2970002
0.47252575 -0.08531715 2.2970002
0.46596289 -0.074379057 2.2970002
0.47252575 -0.078754291 2.2970002
0.45940003 -0.063440956 2.2970002
0.46523368 -0.064170159 2.2970002
0.45648322 -0.055419683 2.2970002
0.45502478 -0.045940004 2.2970002
0.45502481 -0.035001907 2.2970002
0.45502478 -0.02625143 2.2970002
0.45502478 -0.013125715 2.2970002
0.45356634 -0.0058336514 2.2970002
0.44627431 0.0065628579 2.2970002
0.45064953 0.0021876192 2.2970002
0.44481587 0.01604254 2.2970002
0.44408667 0.024063811 2.2970002
0.43752381 0.039377145 2.2970002
0.44408667 0.035001907 2.2970002
0.45064953 0.039377145 2.2970002
0.43752381 0.045940004 2.2970002
0.44408667 0.045940004 2.2970002
0.45064953 0.045940004 2.2970002
0.43752381 0.052502859 2.2970002
0.44408667 0.052502859 2.2970002
0.45064953 0.052502859 2.2970002
-0.061253335 0.15750858 2.2970002
-0.05469048 0.15750858 2.2970002
-0.043752383 0.15750858 2.2970002
-0.037189528 0.15532096 2.2970002
-0.074379057 0.16480064 2.2970002
-0.065628573 0.16188382 2.2970002
-0.087504767 0.17500953 2.2970002
-0.093338408 0.18667684 2.2970002
-0.10063048 0.19251049 2.2970002
-0.096255243 0.1946981 2.2970002
-0.10208889 0.20417778 2.2970002
-0.10719334 0.21438667 2.2970002
-0.11375619 0.23188762 2.2970002
0.53506291 -0.20257525 2.312
0.54166859 -0.20257525 2.312
0.53432894 -0.19670349 2.312
0.51964957 -0.18055619 2.312
0.52625525 -0.18496001 2.312
0.53286099 -0.18936382 2.312
0.51524574 -0.17395049 2.312
0.51304382 -0.16514286 2.312
0.50423622 -0.15633523 2.312
0.49616256 -0.14238983 2.312
0.50203431 -0.14752764 2.312
0.49542859 -0.13431621 2.312
0.4873549 -0.12477461 2.312
0.49322668 -0.12550858 2.312
0.47561145 -0.11229715 2.312
0.48295113 -0.11596698 2.312
0.46680382 -0.10128763 2.312
0.47340953 -0.10348953 2.312
0.46533588 -0.09394794 2.312
0.47120765 -0.096883811 2.312
0.45799622 -0.083672382 2.312
0.46460193 -0.085874289 2.312
0.45799622 -0.074864767 2.312
0.46240005 -0.074864767 2.312
0.45652828 -0.063121267 2.312
0.45359239 -0.057249527 2.312
0.45359239 -0.033028573 2.312
0.44918859 -0.022019049 2.312
0.45359239 -0.024220955 2.312
0.44772065 -0.014679365 2.312
0.45359239 -0.015413334 2.312
0.44566554 -0.0061653331 2.312
0.45359239 -0.0088076191 2.312
0.44352657 0.0037746939 2.312
0.43597716 0.015413334 2.312
0.4418489 0.014679365 2.312
0.43597716 0.024220955 2.312
0.44038096 0.024220955 2.312
0.42716953 0.039634287 2.312
0.43377528 0.035230476 2.312
0.44038096 0.033028573 2.312
0.42716953 0.046240002 2.312
0.43377525 0.046240002 2.312
0.43377525 0.052845716 2.312
-0.033028573 0.14972953 2.312
-0.024220955 0.14972953 2.312
-0.015413334 0.14972953 2.312
-0.0088076191 0.14972953 2.312
-0.070460953 0.15853715 2.312
-0.066057146 0.15853715 2.312
-0.052845716 0.15413333 2.312
-0.046240002 0.15633523 2.312
-0.039634287 0.15413333 2.312
-0.083672382 0.16734476 2.312
-0.077066675 0.16294096 2.312
-0.088076197 0.17174858 2.312
-0.10128763 0.18936382 2.312
-0.094681904 0.18275809 2.312
-0.10128763 0.19817144 2.312
-0.10569143 0.20257525 2.312
-0.11009524 0.21578668 2.312
-0.11009524 0.2245943 2.312
-0.11890286 0.23340191 2.312
0.52597594 -0.19206984 2.3270001
0.53188574 -0.19724096 2.3270001
0.51711112 -0.18320508 2.3270001
0.52302098 -0.18616001 2.3270001
0.51415622 -0.17729524 2.3270001
0.50972384 -0.16621429 2.3270001
0.50233656 -0.15513334 2.3270001
0.49421048 -0.14405239 2.3270001
0.48756191 -0.13297144 2.3270001
0.49199429 -0.13518763 2.3270001
0.48534572 -0.12632287 2.3270001
0.47574222 -0.11524191 2.3270001
0.46687746 -0.10489968 2.3270001
0.46540001 -0.097512387 2.3270001
0.45653525 -0.084215239 2.3270001
0.46096763 -0.088647619 2.3270001
0.45653525 -0.075350478 2.3270001
0.45431906 -0.064269528 2.3270001
0.45431906 -0.055404764 2.3270001
0.45653525 -0.04654 2.3270001
0.45431906 -0.035459049 2.3270001
0.4454543 -0.022161905 2.3270001
0.45210287 -0.026594287 2.3270001
0.44471559 -0.016252065 2.3270001
0.43880573 -0.0044323811 2.3270001
0.44323811 -0.0088647623 2.3270001
0.43769762 0.0055404762 2.3270001
0.42994097 0.017729525 2.3270001
0.43437335 0.015513334 2.3270001
0.42994097 0.024378095 2.3270001
0.43437335 0.024378095 2.3270001
0.42846349 0.035459049 2.3270001
0.42550859 0.04654 2.3270001
-0.015513334 0.14626858 2.3270001
-0.062053334 0.15513334 2.3270001
-0.055404764 0.15291715 2.3270001
-0.047278732 0.15217842 2.3270001
-0.039891429 0.15070096 2.3270001
-0.0044323811 0.15070096 2.3270001
0 0.15070096 2.3270001
-0.095296197 0.17729524 2.3270001
-0.097512387 0.18172763 2.3270001
-0.10637715 0.19724096 2.3270001
-0.11080953 0.20832191 2.3270001
-0.11080953 0.21275429 2.3270001
-0.11524191 0.22161905 2.3270001
-0.1174581 0.23048382 2.3270001
0.52661717 -0.19636571 2.3430002
0.51769143 -0.18744001 2.3430002
0.5132286 -0.17405143 2.3430002
0.50727814 -0.16512573 2.3430002
0.49835241 -0.15322477 2.3430002
0.49240193 -0.14578667 2.3430002
0.4849638 -0.13537334 2.3430002
0.49091431 -0.13834858 2.3430002
0.47752574 -0.12049714 2.3430002
0.48347619 -0.12793525 2.3430002
0.4686 -0.11157143 2.3430002
0.47306287 -0.11380287 2.3430002
0.46413717 -0.09595143 2.3430002
0.45669904 -0.084794283 2.3430002
0.45372382 -0.072893336 2.3430002
0.45223621 -0.06545525 2.3430002
0.45223621 -0.055041909 2.3430002
0.4534263 -0.044628575 2.3430002
0.44628572 -0.031240001 2.3430002
0.45223621 -0.034215238 2.3430002
0.44405431 -0.024545714 2.3430002
0.45074859 -0.026777145 2.3430002
0.44182289 -0.015620001 2.3430002
0.43736002 -0.0066942861 2.3430002
0.44182289 -0.0089257145 2.3430002
0.43468231 0.0035702859 2.3430002
0.42843431 0.017851429 2.3430002
0.43289715 0.013388572 2.3430002
0.42843431 0.024545714 2.3430002
0.42620289 0.033471428 2.3430002
0.42397144 0.044628572 2.3430002
-0.033471428 0.14727429 2.3430002
-0.024545714 0.14727429 2.3430002
-0.0066942861 0.14727429 2.3430002
0 0.14727429 2.3430002
-0.071405716 0.15620001 2.3430002
-0.064711437 0.15396857 2.3430002
-0.058017146 0.15173715 2.3430002
-0.08479429 0.16512573 2.3430002
-0.075868577 0.16066286 2.3430002
-0.093720004 0.17405143 2.3430002
-0.10264572 0.18744001 2.3430002
-0.11157143 0.19636571 2.3430002
-0.10710858 0.19190286 2.3430002
-0.11305905 0.20529144 2.3430002
-0.12049714 0.21644858 2.3430002
-0.11603429 0.21644858 2.3430002
-0.12049714 0.22537428 2.3430002
-0.11603429 0.22760572 2.3430002
0.52572 -0.19321334 2.3590002
0.51673335 -0.18422668 2.3590002
0.50550002 -0.17074667 2.3590002
0.51448667 -0.17748667 2.3590002
0.49726224 -0.16325779 2.3590002
0.50475115 -0.16475557 2.3590002
0.48977336 -0.15277334 2.3590002
0.49576446 -0.15576889 2.3590002
0.48640338 -0.14491001 2.3590002
0.47629336 -0.13255334 2.3590002
0.48191002 -0.13592336 2.3590002
0.47404671 -0.12356667 2.3590002
0.48078668 -0.12581334 2.3590002
0.47180003 -0.11682667 2.3590002
0.46580887 -0.10484445 2.3590002
0.46281335 -0.096606672 2.3590002
0.44933334 -0.080880001 2.3590002
0.45495003 -0.086496666 2.3590002
0.44783556 -0.07339111 2.3590002
0.4538267 -0.076386668 2.3590002
0.44708666 -0.065153331 2.3590002
0.44484004 -0.056166667 2.3590002
0.44708666 -0.044933334 2.3590002
0.4538267 -0.044933334 2.3590002
0.4439413 -0.034149338 2.3590002
0.44184446 -0.025462223 2.3590002
0.43585336 -0.015726667 2.3590002
0.44034669 -0.015726667 2.3590002
0.43360668 -0.0067400001 2.3590002
0.42686668 0.0067400001 2.3590002
0.43136001 0.0044933334 2.3590002
0.42686668 0.015726667 2.3590002
0.43136001 0.01348 2.3590002
0.42686668 0.024713334 2.3590002
0.42237335 0.0337 2.3590002
0.42237338 0.044933334 2.3590002
-0.071893334 0.15277334 2.3590002
-0.067400001 0.15277334 2.3590002
-0.10334667 0.18422668 2.3590002
-0.11233333 0.19321334 2.3590002
-0.11682667 0.20669334 2.3590002
-0.12581334 0.21568 2.3590002
-0.12581334 0.22466667 2.3590002
-0.12581334 0.23365334 2.3590002
0.53403431 -0.20365715 2.3760002
0.52271998 -0.19234286 2.3760002
0.50688004 -0.18102857 2.3760002
0.51442283 -0.18253715 2.3760002
0.4978286 -0.17197715 2.3760002
0.50386292 -0.17499429 2.3760002
0.51140571 -0.17650287 2.3760002
0.49556574 -0.16518858 2.3760002
0.4872686 -0.15538286 2.3760002
0.49330288 -0.1584 2.3760002
0.47972572 -0.14256001 2.3760002
0.4865143 -0.14934857 2.3760002
0.47067431 -0.12219429 2.3760002
0.47067431 -0.11540572 2.3760002
0.46388572 -0.1063543 2.3760002
0.45483431 -0.092777148 2.3760002
0.46162286 -0.097302854 2.3760002
0.44578287 -0.08146286 2.3760002
0.45257145 -0.085988574 2.3760002
0.43899429 -0.074674293 2.3760002
0.44502857 -0.075428575 2.3760002
0.43899429 -0.065622866 2.3760002
0.44352001 -0.065622866 2.3760002
0.43899429 -0.056571431 2.3760002
0.43899429 -0.04525714 2.3760002
0.44351998 -0.04525714 2.3760002
0.43748572 -0.033188574 2.3760002
0.43673146 -0.024891431 2.3760002
