# .PCD v0.7 - Point Cloud Data file format
VERSION 0.7
FIELDS x y z
SIZE 4 4 4
TYPE F F F
COUNT 1 1 1
WIDTH 1526
HEIGHT 1
VIEWPOINT 0 0 0 1 0 0 0
POINTS 1526
DATA ascii
0.53495049 0.49502063 1.7229999
0.55300093 0.49884954 1.723
0.52674574 0.5045929 1.723
0.53495049 0.50213146 1.723
0.54479623 0.50213146 1.723
0.55682987 0.50322539 1.723
0.56407738 0.50541335 1.7229998
0.50869524 0.51690006 1.723
0.52729273 0.51525903 1.723
0.565144 0.51525909 1.7229999
0.57105148 0.51690006 1.723
0.56694907 0.52592528 1.723
0.57433337 0.52619874 1.7229999
0.57761526 0.5316686 1.723
0.58483541 0.5329814 1.7229999
0.59566569 0.53659141 1.723
0.60058862 0.53823239 1.723
0.61699814 0.54151428 1.723
0.62684381 0.54151428 1.723
0.65638095 0.54698414 1.723
0.66557026 0.54676533 1.7229999
0.67443144 0.54807812 1.723
0.6596629 0.55136001 1.723
0.66622669 0.55136001 1.723
0.67443144 0.55136001 1.723
0.75548196 0.0098971436 1.732
0.76537913 0.0098971436 1.732
0.75548196 0.013196191 1.7320001
0.41897905 0.19794287 1.7320001
0.43547431 0.19794287 1.732
0.44207239 0.19794287 1.7320001
0.48495999 0.19794287 1.732
0.49815622 0.19629334 1.7320001
0.5047543 0.19464381 1.7320001
0.51300192 0.19464381 1.7320001
0.53444576 0.19464381 1.7320001
0.56743622 0.19464381 1.7320001
0.57403433 0.19464381 1.7320001
0.58393145 0.19464381 1.7320001
0.59382862 0.19464381 1.732
0.62352008 0.19244444 1.732
0.63275731 0.19662324 1.7320001
0.39588574 0.20784001 1.7320001
0.40798223 0.20674032 1.732
0.41568002 0.20412858 1.7320002
0.43547431 0.20124191 1.7320001
0.44537145 0.20322135 1.7320001
0.45526859 0.20289142 1.7320002
0.46582556 0.20256153 1.7320001
0.47506288 0.20124191 1.732
0.48496002 0.20124191 1.7320001
0.6680572 0.20124191 1.7320001
0.67630482 0.20454095 1.732
0.68785143 0.20124191 1.7320001
0.37774098 0.21773715 1.7320001
0.38664836 0.21641752 1.7320001
0.39494315 0.21396683 1.7320002
0.40413335 0.21113905 1.7320001
0.36619428 0.22653461 1.732
0.37526667 0.22186096 1.7320001
0.38268954 0.2210362 1.7320001
0.35761675 0.23357257 1.7320001
0.36454478 0.23093334 1.7320001
0.35794669 0.24083048 1.7320001
0.34969905 0.25567621 1.7320001
0.35409781 0.25622603 1.732
0.34969905 0.26062477 1.7320001
0.35739684 0.26337397 1.7320002
0.36289525 0.26722288 1.7320001
0.34969905 0.27712002 1.7320001
0.35739684 0.27437082 1.7320002
0.36289525 0.27382097 1.7320001
0.33716267 0.28371811 1.7320001
0.34804952 0.28206858 1.7320001
0.35563737 0.2843779 1.7320001
0.33744547 0.29408652 1.7320002
0.34969905 0.29691431 1.7320001
0.35761678 0.29295546 1.7320001
0.36509463 0.29581463 1.732
0.34687132 0.30445498 1.7320002
0.35431772 0.30285257 1.7320001
0.34640002 0.31340954 1.7320002
0.35299811 0.31340954 1.732
0.35794669 0.32000762 1.7320001
0.36289525 0.32000762 1.7320001
0.37609145 0.32990476 1.732
0.37609145 0.33320382 1.732
0.38598859 0.33760259 1.732
0.39258668 0.33980191 1.7320001
0.40660763 0.34557527 1.7320001
0.41485524 0.34887427 1.7320001
0.42722666 0.34969905 1.7320001
0.43217525 0.34969905 1.7320001
0.41732955 0.35299811 1.7320001
0.42623696 0.35431772 1.7320001
0.43464956 0.35464764 1.7320001
0.44537148 0.35739684 1.732
0.45361906 0.35959619 1.7320001
0.43547431 0.36289525 1.7320001
0.44867051 0.36289525 1.7320001
0.45444381 0.36454478 1.7320001
0.46557814 0.36619428 1.7320002
0.47176382 0.36784381 1.7320001
0.4547973 0.37514886 1.7320002
0.46516576 0.37562016 1.7320002
0.47341335 0.37939048 1.7320001
0.4563683 0.38818797 1.732
0.46681526 0.38598859 1.7320002
0.47459158 0.38693118 1.7320002
0.4563683 0.39588571 1.732
0.46626544 0.39588574 1.7320002
0.47506285 0.39588574 1.7320002
0.48166096 0.39753526 1.7320001
0.45691812 0.40248382 1.7320001
0.46648535 0.40446323 1.7320001
0.47465047 0.4053705 1.7320002
0.48166096 0.40248382 1.7320001
0.47506288 0.41567999 1.7320001
0.50145525 0.41897905 1.7320001
0.47412029 0.42604846 1.7320002
0.48495999 0.42722666 1.7320002
0.49485713 0.42651972 1.7320002
0.50409448 0.42689675 1.7320001
0.51465142 0.42557716 1.7320001
0.52124953 0.42887619 1.7320001
0.46186668 0.43877336 1.7320001
0.47547525 0.43547428 1.7320002
0.48590264 0.4359456 1.7320002
0.49485716 0.43547431 1.7320002
0.50145525 0.43547431 1.732
0.51795048 0.43217525 1.7320001
0.52289903 0.43217525 1.7320001
0.47616255 0.44317207 1.732
0.48825908 0.44207239 1.7320001
0.49485716 0.44207239 1.732
0.50145525 0.44537148 1.732
0.51795048 0.44537145 1.7320001
0.52124953 0.44537145 1.7320001
0.48825908 0.45691812 1.7320001
0.49485719 0.45581844 1.7320002
0.50145525 0.45361906 1.7320001
0.51795048 0.45856765 1.7320001
0.52124953 0.45856765 1.7320001
0.48543128 0.46516576 1.7320002
0.49617678 0.46384612 1.7320001
0.48496002 0.47547522 1.7320002
0.49485716 0.47506285 1.7320002
0.5047543 0.47506291 1.7320002
0.51465148 0.47506285 1.7320002
0.52496099 0.47547525 1.7320002
0.53114671 0.47671241 1.7320001
0.48276067 0.48276067 1.732
0.49485716 0.48166096 1.7320001
0.50310481 0.48331049 1.7320001
0.51575112 0.4844102 1.7320002
0.52454859 0.48496002 1.7320002
0.53114671 0.48166096 1.7320001
0.5064038 0.49815622 1.7320001
0.51597106 0.49617678 1.7320001
0.52344888 0.49375746 1.7320002
0.51465142 0.5047543 1.7320001
0.52344888 0.50255495 1.732
0.53774476 0.50805336 1.7320001
0.54434294 0.50805336 1.732
0.55424005 0.50722855 1.7320001
0.49815622 0.51795048 1.7320001
0.50392956 0.51712573 1.7320001
0.51465148 0.51465142 1.7320001
0.52454859 0.51795048 1.732
0.53444576 0.51370877 1.7320002
0.54434282 0.51465142 1.7320002
0.55423999 0.51418018 1.7320002
0.56166291 0.51465142 1.7320001
0.49815622 0.52124953 1.7320001
0.5047543 0.52124953 1.7320001
0.51630092 0.52124953 1.7320001
0.52454859 0.52124953 1.732
0.53444576 0.52124953 1.7320001
0.54434288 0.52124953 1.7320001
0.55489981 0.52388877 1.7320001
0.56372482 0.52413619 1.7320002
0.5624876 0.53114671 1.7320001
0.66310859 0.55094099 1.7320001
0.75774956 0.0066323811 1.7410001
0.76604003 0.0066323816 1.7410001
0.77267241 0.0066323811 1.7410001
0.54717147 0.18902287 1.7410001
0.41452384 0.19897144 1.7410001
0.42557779 0.19510256 1.7410001
0.43359193 0.19648428 1.7410001
0.44658032 0.19676064 1.7410001
0.45431808 0.19897144 1.7410001
0.46426669 0.19897144 1.7410001
0.47487849 0.19764495 1.7409999
0.48416382 0.19565526 1.7409999
0.4941124 0.19399714 1.7410001
0.50406098 0.19344445 1.7410001
0.52395809 0.19565524 1.7410001
0.53224862 0.19565524 1.7410001
0.54053909 0.19233905 1.7410001
0.56706858 0.19233905 1.7410001
0.57701719 0.19233905 1.7410001
0.58364958 0.19233905 1.7410001
0.59359813 0.19233905 1.7410001
0.60465211 0.19454984 1.7410001
0.61183715 0.19565524 1.7410001
0.643341 0.19786604 1.7410001
0.36643904 0.20892 1.7410001
0.37472954 0.20892 1.7410001
0.38467813 0.20892 1.7410001
0.39462668 0.20726192 1.7410001
0.40416074 0.2051893 1.7410001
0.41120765 0.20228763 1.7410001
0.69971621 0.20394573 1.7410001
0.70303243 0.20394573 1.7410001
0.35814857 0.21886858 1.7410001
0.36519548 0.21596693 1.7410001
0.37431502 0.21513787 1.7410001
0.38401487 0.21356268 1.7409999
0.39131048 0.2122362 1.7410001
0.32664478 0.22881715 1.7410001
0.33659333 0.22881715 1.7410001
0.34488383 0.22881715 1.7410001
0.35524693 0.22591548 1.7410001
0.36430722 0.22455348 1.7410001
0.37141335 0.22218478 1.7410001
0.32830286 0.23544954 1.7410001
0.33540899 0.23450208 1.7410001
0.34488386 0.23544952 1.7410001
0.3531743 0.23544954 1.7410001
0.33493525 0.2453981 1.7410001
0.34488386 0.2453981 1.7410001
0.35234526 0.24456906 1.7410001
0.33493525 0.25534669 1.7410001
0.34488386 0.25534672 1.7410001
0.32830286 0.26529524 1.7410001
0.33493522 0.26529524 1.7410001
0.34488383 0.26529527 1.7410001
0.35416916 0.26662174 1.7409999
0.32830286 0.27524385 1.7410001
0.33493522 0.27524382 1.7410001
0.34488383 0.27524382 1.7410001
0.35416916 0.27391735 1.7409999
0.32830286 0.2851924 1.7410001
0.33382988 0.28574511 1.7410001
0.34488383 0.2851924 1.7409999
0.35151622 0.28850859 1.7410001
0.32830286 0.29514095 1.7410001
0.33294553 0.29447773 1.7409999
0.34654191 0.29514098 1.7410001
0.35262159 0.29293016 1.7410001
0.32830286 0.30343145 1.7410001
0.33493522 0.3050895 1.7410001
0.34355736 0.30376303 1.7409999
0.33493525 0.31503811 1.7410001
0.34156764 0.31503811 1.7410001
0.33825144 0.3216705 1.7410001
0.34583133 0.32451296 1.7410001
0.35441789 0.32540119 1.7410001
0.36411771 0.32697639 1.7409999
0.35483241 0.33161905 1.7410001
0.36519548 0.33452073 1.7410001
0.37340307 0.33626172 1.7409999
0.38136193 0.33825144 1.7410001
0.37804574 0.34156764 1.7410001
0.38550717 0.34239668 1.7410001
0.39462665 0.34654191 1.7410001
0.40374622 0.34737098 1.7410001
0.39794287 0.35151622 1.7410001
0.40523848 0.35284269 1.7409999
0.41386062 0.3568221 1.7409999
0.42336699 0.35593781 1.7410001
0.44105336 0.35814857 1.7410001
0.40789145 0.36809716 1.7410001
0.41493833 0.36519545 1.7410001
0.42447236 0.36478093 1.7410001
0.43400642 0.36478096 1.7410001
0.44436955 0.36478096 1.7410001
0.45431808 0.36809716 1.7410001
0.46260858 0.36809716 1.7410001
0.40678605 0.37362418 1.7410001
0.41499758 0.37378207 1.7410001
0.42447236 0.37472954 1.7410001
0.434421 0.37472957 1.7410001
0.44436955 0.37472951 1.7410001
0.45266002 0.3739005 1.7410001
0.46095049 0.37141335 1.7410001
0.47255719 0.37804574 1.7410001
0.41784 0.38136193 1.7410001
0.42502511 0.38412544 1.7410001
0.43483552 0.3842636 1.7410001
0.44436955 0.38467813 1.7410001
0.45384437 0.3846781 1.7410001
0.46260858 0.38467813 1.7410001
0.43773717 0.39131048 1.7410001
0.44436955 0.39462668 1.7410001
0.45265999 0.39462671 1.7410001
0.46294022 0.3952899 1.7409999
0.43442097 0.40623334 1.7410001
0.44436955 0.40457523 1.7410001
0.45390356 0.40457529 1.7410001
0.46509576 0.40623337 1.7410001
0.42778859 0.41784 1.7410001
0.43442097 0.41452381 1.7410001
0.44436955 0.41452384 1.7410001
0.45431811 0.41452384 1.7410001
0.46426672 0.41452384 1.7410001
0.47421527 0.41618192 1.7410001
0.48084763 0.41452384 1.7410001
0.42778859 0.42447242 1.7410001
0.434421 0.42447236 1.7410001
0.44436955 0.42447239 1.7410001
0.45597622 0.42447242 1.7410001
0.46426666 0.42447236 1.7410001
0.47255719 0.42364335 1.7410001
0.48084763 0.42447242 1.7410001
0.4261305 0.43442097 1.7410001
0.43525001 0.4335919 1.7410001
0.44484329 0.43347353 1.7410001
0.45431811 0.434421 1.7410001
0.46426672 0.434421 1.7410001
0.47172815 0.43525004 1.7410001
0.48416382 0.43607908 1.7410001
0.42778859 0.44105336 1.7410001
0.43442097 0.44271147 1.7410001
0.44602764 0.44271147 1.7410001
0.45597622 0.44436955 1.7410001
0.46426672 0.44478408 1.7410001
0.47222558 0.44503278 1.7409999
0.48482704 0.44635925 1.7409999
0.4941124 0.44768572 1.7410001
0.50074476 0.44768572 1.7410001
0.42447239 0.45100191 1.7410001
0.43607908 0.4576343 1.7410001
0.44436955 0.4576343 1.7410001
0.45597619 0.45100191 1.7410001
0.46316132 0.45321271 1.7410001
0.47421524 0.45431811 1.7410001
0.48416382 0.45431811 1.7410001
0.4941124 0.45265999 1.7410001
0.50074476 0.45100191 1.7410001
0.43773717 0.46095049 1.7410001
0.47476795 0.46537209 1.7410001
0.48305842 0.46316132 1.7410001
0.46095049 0.47753143 1.7410001
0.47421524 0.4742153 1.7410001
0.48084763 0.47421527 1.7410001
0.46758288 0.48748001 1.7410001
0.47421524 0.48416382 1.7410001
0.48250574 0.48499286 1.7410001
0.49344915 0.48615351 1.7409999
0.50074476 0.4858219 1.7410001
0.5117988 0.48526922 1.7410001
0.46758288 0.49079621 1.7410001
0.4742153 0.49411237 1.7410001
0.48416382 0.49411243 1.7410001
0.49411237 0.49411234 1.7410001
0.50406098 0.49411237 1.7410001
0.51400959 0.49411243 1.7410001
0.46758285 0.50406098 1.7410001
0.47380075 0.50364649 1.7410001
0.48416382 0.50406098 1.7410001
0.49411237 0.50406098 1.7410001
0.50364649 0.50447547 1.7410001
0.51400954 0.50571907 1.7410001
0.5223 0.50737715 1.7410001
0.39794287 0.51069337 1.7410001
0.40125906 0.51069337 1.7410001
0.4858219 0.51069337 1.7410001
0.49411243 0.51400954 1.7410001
0.50406092 0.51359504 1.7410001
0.51400959 0.51400954 1.7410001
0.52437258 0.51359504 1.7410001
0.55712003 0.51732576 1.7410001
0.48416382 0.52561617 1.7410001
0.4963232 0.52174729 1.7410001
0.50737715 0.52395809 1.7410001
0.51732576 0.52064192 1.7410001
0.54274982 0.52506351 1.7410001
0.55446708 0.52462137 1.7409999
0.54717147 0.53059047 1.7410001
0.5538038 0.53141952 1.7410001
0.56043619 0.5339067 1.7410001
0.63505054 0.55048764 1.7410001
0.76263958 0.0033376189 1.7522502
0.77000004 0.0033333334 1.7500001
0.48916954 0.18762667 1.7590001
0.49419525 0.18762667 1.7590001
0.36855239 0.1976781 1.7590001
0.37525335 0.1976781 1.7590002
0.40540764 0.1976781 1.7590001
0.41439053 0.1955 1.7545
0.42111111 0.19444446 1.7500001
0.43444571 0.19152877 1.7518002
0.44431049 0.19279973 1.7538573
0.4544991 0.19438319 1.7545
0.46452478 0.19549714 1.7545
0.47358635 0.19421746 1.7530001
0.48499775 0.19239087 1.7536001
0.49418476 0.19032572 1.7530001
0.50694144 0.1915662 1.7567501
0.51500005 0.19333334 1.7500001
0.52423048 0.19366477 1.7530001
0.53425336 0.19366477 1.7530001
0.54426479 0.19143683 1.7530001
0.57500005 0.19333334 1.7500001
0.58650005 0.19048858 1.7545002
0.59638476 0.19097716 1.7590001
0.6056605 0.1915662 1.7567501
0.61407286 0.19299287 1.7545002
0.62326097 0.19383049 1.7545002
0.63500005 0.19333334 1.7500001
0.64553338 0.1951073 1.7560002
0.33504763 0.20772953 1.7590001
0.34509906 0.20772953 1.7590002
0.35552955 0.20662621 1.7567501
0.36395243 0.20367812 1.753
0.37333333 0.20333336 1.7500001
0.38399053 0.20367622 1.753
0.39367527 0.20330241 1.7533751
0.40301427 0.20109048 1.7522501
0.41000003 0.2 1.7500001
0.65333337 0.2 1.7500001
0.3249962 0.21778096 1.7590002
0.33504766 0.21443048 1.7589999
0.34490097 0.21430859 1.7579999
0.35373524 0.21357337 1.7520001
0.36133334 0.21266668 1.7500002
0.31628495 0.22582209 1.7590001
0.32443622 0.22409905 1.756
0.33333331 0.22333333 1.7500001
0.34333336 0.22333333 1.7500001
0.35222223 0.22222222 1.7500001
0.29149145 0.23788382 1.7590001
0.3069036 0.23386323 1.7590001
0.3154234 0.23357604 1.7589999
0.32374385 0.23435 1.7545
0.33333334 0.23 1.7500001
0.29149145 0.24458478 1.7590002
0.30573097 0.24290954 1.7590001
0.31745762 0.24458477 1.7590001
0.3249962 0.24458477 1.7589999
0.33380952 0.24333334 1.7500001
0.34 0.24333334 1.7500001
0.29260826 0.25240257 1.7590002
0.31695503 0.2546362 1.7590001
0.3249962 0.2546362 1.7589999
0.33200002 0.252 1.7500002
0.34 0.25 1.7500001
0.28814095 0.26803809 1.7590001
0.29484192 0.26803809 1.7590002
0.31536356 0.26468766 1.7589999
0.32499623 0.26468763 1.7589999
0.33000001 0.26000002 1.7500001
0.27808952 0.27808952 1.7590001
0.2859073 0.27585587 1.7589999
0.29484192 0.27473903 1.7589999
0.30489334 0.27473906 1.7589999
0.31440762 0.27426475 1.756
0.32406861 0.27395427 1.7540001
0.28613067 0.28345031 1.7590001
0.29484192 0.28479049 1.7589999
0.30454287 0.28446478 1.757
0.31368762 0.28365526 1.7520001
0.32333335 0.28333333 1.7500001
0.2961821 0.29350173 1.7590001
0.30471814 0.29467434 1.7579999
0.31458667 0.29451048 1.757
0.32425332 0.29417333 1.755
0.3058506 0.30441472 1.7589999
0.31494474 0.30489334 1.7589999
0.32480952 0.30471811 1.7579999
0.30489334 0.31159431 1.7590002
0.31494477 0.31494474 1.7589999
0.32443812 0.3144114 1.756
0.33000001 0.31333336 1.7500001
0.30824381 0.32332098 1.7590001
0.31494477 0.3249962 1.7589999
0.32499623 0.3249962 1.7589999
0.33285713 0.32428575 1.7500001
0.34166667 0.32666668 1.7500001
0.31661999 0.33169717 1.7590001
0.3249962 0.33337238 1.7589999
0.33333331 0.33333331 1.7500001
0.34291667 0.33374998 1.7500001
0.35250002 0.33583334 1.7500001
0.36000001 0.33666667 1.7500001
0.33545241 0.34214908 1.7567501
0.34451047 0.34451616 1.756
0.35393906 0.34392756 1.753
0.36291671 0.34375 1.7500001
0.37333333 0.34500003 1.7500001
0.38333336 0.34666669 1.7500001
0.35850096 0.35180002 1.7590001
0.36760953 0.35257524 1.7545002
0.37396958 0.35394281 1.753
0.38333338 0.35333332 1.7500001
0.39285716 0.35428572 1.7500001
0.40166667 0.35666668 1.7500001
0.37692857 0.36520192 1.7589999
0.38376769 0.36374861 1.7520001
0.39333338 0.36333337 1.7500001
0.40333337 0.36333334 1.7500001
0.41083336 0.36333334 1.7500001
0.37776619 0.37609097 1.7590001
0.38540983 0.37490913 1.7551429
0.39333338 0.37333333 1.7500001
0.4029167 0.3729167 1.7500001
0.38682333 0.3834857 1.7545002
0.39355624 0.38355434 1.751
0.4033334 0.38333338 1.7500001
0.41333339 0.38333338 1.7500001
0.42333332 0.38666669 1.7500001
0.39445147 0.39445907 1.755
0.40356386 0.39356005 1.751
0.41333339 0.39333338 1.7500001
0.42333338 0.39375004 1.7500001
0.43333337 0.39428574 1.7500001
0.44000003 0.39666668 1.7500001
0.39786905 0.40540764 1.7590001
0.40540767 0.40540764 1.7589999
0.41403624 0.40402481 1.753
0.42333338 0.40333337 1.7500001
0.43285719 0.40238097 1.7500001
0.44000003 0.40166667 1.7500001
0.39870667 0.41545907 1.7590002
0.40540764 0.4154591 1.7589999
0.41427243 0.41428006 1.7540001
0.42333338 0.41333339 1.7500001
0.42999998 0.41333333 1.7500001
0.39870667 0.42383528 1.7590001
0.40540764 0.42551053 1.7589999
0.41427243 0.42429912 1.7540001
0.42333338 0.42333338 1.7500001
0.45333335 0.42500001 1.7500001
0.40708289 0.4355619 1.7589999
0.41474479 0.43481907 1.756
0.42333338 0.4329167 1.7500001
0.43333334 0.435 1.7500001
0.44000003 0.4366667 1.7500001
0.45333335 0.43000001 1.7500001
0.40792048 0.44645098 1.7590001
0.41427243 0.44434479 1.7540001
0.42333338 0.44333336 1.7500001
0.4325 0.44416669 1.7500001
0.44291669 0.44291669 1.7500001
0.45222223 0.44555557 1.7500001
0.40741792 0.45499468 1.7590001
0.41380197 0.45385143 1.7520001
0.42291671 0.45333335 1.7500001
0.43333337 0.45333332 1.7500001
0.44333336 0.45333332 1.7500001
0.45238096 0.45380953 1.7500001
0.46000001 0.45666668 1.7500001
0.47000003 0.45666668 1.7500001
0.40708286 0.46571621 1.7590001
0.41474482 0.46492189 1.756
0.42357337 0.46360001 1.751
0.4329167 0.46375003 1.7500001
0.4438889 0.46444449 1.7500001
0.45333332 0.46333334 1.7500001
0.46333337 0.46375003 1.7500001
0.47133335 0.46400005 1.7500002
0.48000002 0.46333334 1.7500001
0.40205717 0.47241715 1.7590001
0.41769269 0.47353399 1.7590002
0.42504877 0.47376707 1.7551429
0.43407619 0.47415051 1.753
0.4435848 0.47360575 1.751
0.45333332 0.47333336 1.7500001
0.46333334 0.47333336 1.7500001
0.47000003 0.47333336 1.7500001
0.41880953 0.48749429 1.7590001
0.4260689 0.48693588 1.7589999
0.4355619 0.48581907 1.7589999
0.444341 0.48443815 1.7540001
0.45333332 0.48333338 1.7500001
0.46333337 0.48375002 1.7500001
0.47000003 0.48333335 1.7500001
0.41713428 0.49252 1.7590001
0.4255105 0.49386019 1.7590001
0.4355619 0.49539185 1.7589999
0.44398236 0.49357715 1.7525715
0.4541105 0.4941791 1.753
0.46333334 0.49333334 1.7500001
0.47000003 0.4966667 1.7500001
0.40694413 0.50951493 1.756
0.41545907 0.50759715 1.7590001
0.42646775 0.5059219 1.7589999
0.43556193 0.50592196 1.7589999
0.44466808 0.50572056 1.7540911
0.45372045 0.50542855 1.7515001
0.46333334 0.50499994 1.7500001
0.47000003 0.5 1.7500001
0.48000002 0.50999999 1.7500001
0.39690983 0.51397651 1.7560002
0.4047105 0.51285976 1.7560002
0.41105431 0.51297814 1.7545002
0.4274748 0.51614666 1.7567501
0.43514076 0.51539785 1.755625
0.44318047 0.51466042 1.7512858
0.45333335 0.51500005 1.7500001
0.46333337 0.51500005 1.7500001
0.47333336 0.51500005 1.7500001
0.48266667 0.51533335 1.7500002
0.49000001 0.51666671 1.7500001
0.44166669 0.52000004 1.7500001
0.46786669 0.5230124 1.7545002
0.47380954 0.52238095 1.7500001
0.48291668 0.52291667 1.7500001
0.49222222 0.52444446 1.7500001
0.48333335 0.53000003 1.7500001
0.49333334 0.53000003 1.7500001
0.55333334 0.53666669 1.7500001
0.56 0.53666669 1.7500001
0.77792001 0 1.7680001
0.78128767 0 1.7680001
0.44620955 0.18858667 1.7680001
0.45126095 0.18858667 1.7680001
0.48662096 0.18858667 1.7680001
0.49672383 0.18521905 1.7680001
0.50177526 0.18521905 1.7680001
0.60785526 0.18858667 1.7680001
0.61290669 0.18858667 1.7680001
0.36538666 0.19868954 1.7680001
0.37380573 0.19532192 1.7680001
0.3839086 0.19756699 1.7680001
0.39401147 0.19868954 1.7680001
0.40344077 0.19666895 1.768
0.41084954 0.19700572 1.7680001
0.45799622 0.1919543 1.7680001
0.46473145 0.1919543 1.7680001
0.47315049 0.1919543 1.7680001
0.48325336 0.1919543 1.7680001
0.51692951 0.1919543 1.7680001
0.52871621 0.1919543 1.7680001
0.53376764 0.1919543 1.7680001
0.54387045 0.1919543 1.7680001
0.55902481 0.1919543 1.7680001
0.56912762 0.1919543 1.7680001
0.58596575 0.1919543 1.7680001
0.59943622 0.1919543 1.7680001
0.62300956 0.1919543 1.7680001
0.65500188 0.19700572 1.7680001
0.66005337 0.19868954 1.7680001
0.3342362 0.20710857 1.7680001
0.34349716 0.20542477 1.7680001
0.35444194 0.20458287 1.7680001
0.36033526 0.20205715 1.7680001
0.66510475 0.20205715 1.7680001
0.67015624 0.20205715 1.7680001
0.68699431 0.20542477 1.7680001
0.69036192 0.20542477 1.7680001
0.31655619 0.21721144 1.768
0.32497525 0.21384382 1.7680001
0.33002669 0.21384382 1.7680001
0.30757588 0.22787558 1.7680001
0.31487238 0.22394666 1.7680001
0.29702401 0.23708038 1.768
0.30420825 0.23797841 1.7680001
0.31487238 0.23910096 1.7680001
0.29803431 0.2449943 1.7680001
0.30645335 0.2466781 1.7680001
0.31453562 0.24583618 1.768
0.25930667 0.25593904 1.7680001
0.26562095 0.25635999 1.7679999
0.27547127 0.2579596 1.768
0.28692114 0.25795963 1.768
0.29747304 0.2570616 1.768
0.30645332 0.25593904 1.7679999
0.3140305 0.25593907 1.7680001
0.25930667 0.2626743 1.7680001
0.2660419 0.2660419 1.7679999
0.27614477 0.2660419 1.7679999
0.28624764 0.26556084 1.7679999
0.29635048 0.26435807 1.768
0.30645335 0.2660419 1.7679999
0.31318858 0.2660419 1.7680001
0.2660419 0.27446094 1.768
0.27614477 0.27518257 1.7679999
0.28400257 0.27389967 1.7680001
0.27816534 0.28557414 1.768
0.28400254 0.28737018 1.7680001
0.28624761 0.29298288 1.7680001
0.29466668 0.29803431 1.7680001
0.29731268 0.30693439 1.7679999
0.30308571 0.30813715 1.7680001
0.28720981 0.31607512 1.7679999
0.29635048 0.31655622 1.7679999
0.30645335 0.31824005 1.768
0.28793144 0.32497525 1.7680001
0.29635048 0.32497525 1.768
0.30476952 0.32497525 1.7680001
0.28961524 0.33171049 1.7680001
0.29719239 0.3308686 1.7680001
0.30687428 0.33297336 1.7679999
0.3157143 0.33592004 1.7680001
0.31824002 0.34012952 1.7680001
0.32497525 0.34181333 1.7680001
0.3325524 0.34433901 1.7680001
0.33507812 0.35023239 1.7680001
0.34301606 0.35456219 1.7679999
0.35444194 0.35444194 1.7680001
0.36437637 0.35562056 1.768
0.36370289 0.36033526 1.7680001
0.3726832 0.36370286 1.7680001
0.3760508 0.37380573 1.7680001
0.3839086 0.37548953 1.7680001
0.35696763 0.3872762 1.7680001
0.36370286 0.3872762 1.7680001
0.37717333 0.3839086 1.7680001
0.3839086 0.3855924 1.7680001
0.37717333 0.39232764 1.7680001
0.38390857 0.39401147 1.7679999
0.39064384 0.39569527 1.7680001
0.3704381 0.40748191 1.7680001
0.38390857 0.40411428 1.7679999
0.3928889 0.40467557 1.768
0.37338477 0.41379625 1.7679999
0.38390857 0.41421717 1.7679999
0.39401144 0.41421717 1.7679999
0.3726832 0.42207494 1.7680001
0.38615367 0.42207494 1.7680001
0.39443243 0.42389905 1.7679999
0.39401147 0.43442285 1.768
0.40209374 0.43509641 1.768
0.3872762 0.44452572 1.7680001
0.39288893 0.44396448 1.768
0.40411428 0.44500682 1.7679999
0.38592917 0.45395508 1.768
0.39401147 0.45462859 1.7679999
0.40243044 0.45462856 1.768
0.3872762 0.46136382 1.7680001
0.39401141 0.46809903 1.7680001
0.40411428 0.46425036 1.7679999
0.41084954 0.46473145 1.7680001
0.3872762 0.47483429 1.7680001
0.39359048 0.47525525 1.7679999
0.40411428 0.47483429 1.7679999
0.41309464 0.47595683 1.768
0.39737907 0.48156953 1.7680001
0.40411434 0.48493716 1.7680001
0.41590098 0.48493719 1.768
0.42480108 0.48397499 1.7679999
0.40411431 0.49638706 1.768
0.41379622 0.49504 1.7679999
0.42432004 0.49840763 1.7680001
0.44452572 0.49840763 1.7680001
0.40748191 0.50514287 1.7680001
0.41421714 0.50514293 1.7679999
0.42364651 0.50312233 1.768
0.43273908 0.50177526 1.7680001
0.44789335 0.50177526 1.7680001
0.39737907 0.51356196 1.7680001
0.40243047 0.51187813 1.7680001
0.41758478 0.51524574 1.7680001
0.42432001 0.51524574 1.7679999
0.43442288 0.51524574 1.7680001
0.76664865 0.006769524 1.7770001
0.78695714 0.003384762 1.7770001
0.40955621 0.18954667 1.7770001
0.41463333 0.18954667 1.7770001
0.44340384 0.18954667 1.7770001
0.45694289 0.18954667 1.7770001
0.47555906 0.18954667 1.7770001
0.48334399 0.18751581 1.7770001
0.49248287 0.18616191 1.7770001
0.50432956 0.18954667 1.7770001
0.52125335 0.18954667 1.7770001
0.53479242 0.18954666 1.7770001
0.54494667 0.18954666 1.7770001
0.55171621 0.18954667 1.7770001
0.59402573 0.18954667 1.7770001
0.60587239 0.18954667 1.7770001
0.61941147 0.18954667 1.7770001
0.64716655 0.18819277 1.7770001
0.6532591 0.18785429 1.7770001
0.33847621 0.19970097 1.7770001
0.34863049 0.19970097 1.7770001
0.35709238 0.19970097 1.7770001
0.3655543 0.19744445 1.7770001
0.37570858 0.19293143 1.7770001
0.38653982 0.19428533 1.7770001
0.39601716 0.19462381 1.7770001
0.40617144 0.19293143 1.7770001
0.41463333 0.19293143 1.7770001
0.52633047 0.19293143 1.7770001
0.5415619 0.19293143 1.7770001
0.56525528 0.19293143 1.7770001
0.57710195 0.19293143 1.7770001
0.58387148 0.19293143 1.7770001
0.62618101 0.19293143 1.7770001
0.63464284 0.19293143 1.7770001
0.64648956 0.19293143 1.7770001
0.66341335 0.19744445 1.7770001
0.67187524 0.19970097 1.7770001
0.32561412 0.20850134 1.7770001
0.33509144 0.20421398 1.7770001
0.34524572 0.20308572 1.7770001
0.35370764 0.20308572 1.7770001
0.68372196 0.20308572 1.7770001
0.69387627 0.20421398 1.7770001
0.70064574 0.20647049 1.7770001
0.29785907 0.21662477 1.7770001
0.30632097 0.21662477 1.7770001
0.31478289 0.21436827 1.7770001
0.3215524 0.21324001 1.7770001
0.28770477 0.22677906 1.7770001
0.29560256 0.22452255 1.7770001
0.30420548 0.22297122 1.7770002
0.31139812 0.22339429 1.7770001
0.28770477 0.23354858 1.7770001
0.29399076 0.23258151 1.7770002
0.3029362 0.2318562 1.7770001
0.25521106 0.24234895 1.7770001
0.2635279 0.24370284 1.7770002
0.27464923 0.24370286 1.7770002
0.28474313 0.24370286 1.7770002
0.29108953 0.24370287 1.7770001
0.30124381 0.24708763 1.7770001
0.2572419 0.25385717 1.7770001
0.26401144 0.2504724 1.7770001
0.27416572 0.25216478 1.7770001
0.28389692 0.25343406 1.7770002
0.29334605 0.25160065 1.7770001
0.30462858 0.2504724 1.7770001
0.2572419 0.26231906 1.7770001
0.26062667 0.26739621 1.7770001
0.28432 0.26739621 1.7770001
0.26062667 0.27416572 1.7770001
0.26626796 0.28206351 1.7770001
0.27213484 0.28364307 1.7770001
0.27755049 0.2944743 1.7770001
0.28488412 0.29560256 1.7770001
0.29108953 0.29785907 1.7770001
0.27529398 0.30575684 1.7770001
0.28432 0.30462858 1.7770002
0.29244345 0.30530554 1.7770001
0.27670428 0.31393668 1.7770001
0.28319177 0.31421876 1.7770001
0.29108953 0.31139812 1.7770001
0.27484268 0.32358328 1.7770001
0.28262764 0.32493716 1.7770001
0.27755049 0.33339906 1.7770001
0.28657651 0.33283493 1.7770001
0.29616669 0.33509144 1.7770001
0.3029362 0.33847621 1.7770001
0.30632097 0.34186098 1.7770001
0.31478289 0.34468159 1.7770001
0.32409096 0.34778428 1.7770001
0.33170667 0.34863049 1.7770001
0.33678383 0.35709241 1.7770001
0.35370764 0.35878477 1.7770001
0.33678386 0.3655543 1.7770001
0.34524575 0.36555433 1.7770002
0.35540003 0.36555433 1.7770002
0.3655543 0.36652139 1.7770002
0.37232381 0.36724669 1.7770001
0.33678386 0.37570858 1.7770001
0.34524572 0.37570858 1.7770002
0.3554 0.37570861 1.7770002
0.3655543 0.37570861 1.7770002
0.37367773 0.37638554 1.7770001
0.33678383 0.38247812 1.7770001
0.34609193 0.3841705 1.7770001
0.35497692 0.38543975 1.7770002
0.3655543 0.3841705 1.7770001
0.37474149 0.3863464 1.7770002
0.38247812 0.38924763 1.7770001
0.35636708 0.39553362 1.7770002
0.3655543 0.39601713 1.7770002
0.37474149 0.39650068 1.7770002
0.34524572 0.40955624 1.7770001
0.3558231 0.40659454 1.7770002
0.3655543 0.40617141 1.7770002
0.37613168 0.40574837 1.7770002
0.33678383 0.41632572 1.7770001
0.34659964 0.41632572 1.7770001
0.35540003 0.41632575 1.7770002
0.3655543 0.41632575 1.7770002
0.37909335 0.41971049 1.7770001
0.35652828 0.42422351 1.7770001
0.3655543 0.42648003 1.7770002
0.37627271 0.42760825 1.7770001
0.38473463 0.42760828 1.7770001
0.3926324 0.42986476 1.7770001
0.35878477 0.43494192 1.7770001
0.3655543 0.43494192 1.7770001
0.37570858 0.43494189 1.7770001
0.38586286 0.43494189 1.7770001
0.39601716 0.4366343 1.7770001
0.35588357 0.4443709 1.7770002
0.3655543 0.44340384 1.7770002
0.37570858 0.44340384 1.7770002
0.38543975 0.44340384 1.7770002
0.39770955 0.44678858 1.7770001
0.40278667 0.44678858 1.7770001
0.33847621 0.45694289 1.7770001
0.34524572 0.45355812 1.7770001
0.35540003 0.4530746 1.7770002
0.36597738 0.45313501 1.7770002
0.37570858 0.45355812 1.7770002
0.3833243 0.45271194 1.7770001
0.39940193 0.45017335 1.7770001
0.34863049 0.46032763 1.7770001
0.3554 0.46032763 1.7770001
0.36724672 0.46371242 1.7770001
0.37570858 0.46371236 1.7770002
0.3848958 0.46419594 1.7770002
0.39601716 0.46540475 1.7770001
0.40278667 0.46709716 1.7770001
0.36893907 0.47386667 1.7770001
0.37570855 0.47386673 1.7770002
0.38543975 0.47344357 1.7770002
0.39940193 0.47386667 1.7770001
0.36893907 0.48402098 1.7770001
0.37570858 0.48402098 1.7770002
0.38586289 0.48402098 1.7770002
0.3953402 0.4860518 1.7770001
0.40617144 0.48571336 1.7770001
0.41294098 0.48571336 1.7770001
0.36893907 0.49417529 1.7770001
0.37570858 0.49417523 1.7770002
0.38586289 0.49417529 1.7770002
0.39601719 0.49417529 1.7770002
0.40617144 0.4941752 1.7770001
0.41294098 0.49079049 1.7770001
0.36724669 0.50094479 1.7770001
0.37570858 0.50432956 1.7770002
0.38628596 0.50432956 1.7770002
0.39601719 0.50432956 1.7770002
0.40447909 0.50602198 1.7770001
0.35765651 0.51561207 1.7770001
0.36216953 0.51786858 1.7770001
0.38811937 0.5122273 1.7770001
0.39505008 0.5140003 1.7770002
0.40447906 0.51109904 1.7770001
0.3953402 0.52328426 1.7770001
0.42309526 0.52125335 1.7770001
0.77223241 0.010205715 1.7860001
0.45755619 0.18710476 1.7860001
0.47796762 0.18710476 1.7860001
0.49497718 0.18370287 1.7860001
0.50178099 0.18370287 1.7860001
0.51028574 0.18710476 1.7860001
0.58852953 0.18710476 1.7860001
0.5936324 0.18710476 1.7860001
0.60894096 0.18710476 1.7860001
0.61574483 0.18710476 1.7860001
0.35379812 0.19731049 1.7860001
0.36400381 0.19617651 1.7860001
0.37080762 0.19390857 1.7860001
0.39802286 0.19050667 1.7860001
0.40482667 0.19050665 1.7860001
0.42438763 0.1930581 1.7860001
0.43204191 0.19390857 1.7860001
0.44224763 0.19050667 1.7860001
0.46606097 0.19050665 1.7860001
0.47286478 0.19050667 1.7860001
0.51368761 0.19050665 1.7860001
0.52389336 0.19050667 1.7860001
0.53069717 0.19050667 1.7860001
0.57152003 0.19390857 1.7860001
0.58512765 0.19050665 1.7860001
0.59193146 0.19050667 1.7860001
0.60383809 0.19050667 1.7860001
0.62765145 0.19050667 1.7860001
0.64296001 0.19390857 1.7860001
0.65656763 0.19390857 1.7860001
0.67357713 0.19731049 1.7860001
0.30787241 0.20751619 1.7860001
0.31637716 0.20581524 1.7860001
0.32573241 0.20496476 1.7860001
0.33508766 0.20241334 1.7860001
0.34529334 0.20071238 1.7860001
0.35379812 0.20071238 1.7860001
0.68378288 0.20071238 1.7860001
0.2789562 0.21432 1.7860001
0.28576002 0.21431999 1.7860001
0.29554048 0.21389477 1.7860001
0.30568546 0.21334802 1.7860001
0.31552669 0.21176857 1.7860001
0.24493714 0.22792763 1.7860001
0.25514287 0.22792763 1.7860001
0.26534858 0.22792763 1.7860001
0.2755543 0.22452572 1.7860001
0.2853348 0.22410049 1.7860001
0.2936978 0.22225778 1.7860001
0.22792763 0.23643239 1.7860001
0.23473144 0.23643237 1.7860001
0.24493715 0.23473147 1.7860001
0.25514287 0.23473144 1.7860001
0.26534858 0.23521742 1.7860001
0.2755543 0.23473144 1.7860001
0.28405905 0.23473144 1.7860001
0.22509269 0.24380319 1.7860001
0.23473144 0.24493715 1.7860001
0.24493715 0.24493715 1.7860001
0.25344193 0.24663812 1.7860001
0.26704955 0.24493715 1.7860001
0.27385336 0.24493715 1.7860001
0.28235811 0.24493715 1.7860001
0.24629791 0.25378209 1.786
0.25344193 0.2551429 1.7860001
0.24697828 0.26466817 1.786
0.25417089 0.26583457 1.7860001
0.21772191 0.27725524 1.7860001
0.22384533 0.27759543 1.786
0.24833906 0.2755543 1.7860001
0.25514284 0.2755543 1.7860001
0.21687144 0.28661048 1.7860001
0.22452572 0.28576002 1.7860001
0.23473144 0.28576002 1.7860001
0.24663812 0.28576002 1.7860001
0.25514287 0.28575999 1.7860001
0.26421461 0.28689399 1.7860001
0.2755543 0.28916192 1.7860001
0.23643237 0.2959657 1.7860001
0.24493715 0.29596576 1.7860001
0.25514287 0.29596573 1.7860001
0.26534858 0.29596576 1.7860001
0.27385336 0.29596573 1.7860001
0.23643237 0.30617145 1.7860001
0.24493715 0.30617145 1.7860001
0.25514284 0.30617145 1.7860001
0.26534858 0.30617145 1.7860001
0.27328637 0.30390349 1.7860001
0.25684381 0.31467623 1.7860001
0.26632053 0.31589118 1.7860001
0.27351317 0.31705755 1.786
0.26738971 0.32590252 1.786
0.27470383 0.32828385 1.7860001
0.26875049 0.33338669 1.7860001
0.27385336 0.33508763 1.7860001
0.28349206 0.33565465 1.7860001
0.2755543 0.3401905 1.7860001
0.28644043 0.34155127 1.786
0.29639095 0.34316719 1.7860001
0.30532098 0.34614381 1.7860001
0.30702192 0.35124665 1.7860001
0.31637716 0.35209718 1.7860001
0.32726327 0.3551589 1.786
0.33338669 0.35549909 1.7860001
0.32862404 0.36468419 1.786
0.33338669 0.36400381 1.7860001
0.32862404 0.37352914 1.786
0.33338669 0.37420952 1.7860001
0.32998478 0.38101333 1.7860001
0.33452067 0.38441524 1.7860001
0.34359241 0.38781714 1.7860001
0.35039622 0.38781714 1.7860001
0.33678856 0.39462093 1.7860001
0.34359238 0.39462095 1.7860001
0.35153016 0.39688888 1.7860001
0.33678856 0.40482667 1.7860001
0.34359238 0.4048267 1.7860001
0.35175696 0.40414628 1.786
0.33678859 0.41333145 1.7860001
0.34274194 0.41418192 1.7860001
0.33678856 0.4252381 1.7860001
0.34359238 0.42523807 1.7860001
0.35209715 0.42693907 1.7860001
0.36060193 0.42864001 1.7860001
0.33678859 0.43884572 1.7860001
0.34456438 0.43592981 1.7860001
0.35379815 0.43544382 1.7860001
0.36060193 0.43204191 1.7860001
0.33678856 0.44564953 1.7860001
0.34359244 0.4456495 1.7860001
0.35243735 0.44428879 1.786
0.33678856 0.45585525 1.7860001
0.34223166 0.45517486 1.786
0.35311773 0.45653564 1.786
0.36400384 0.45925716 1.7860001
0.33678856 0.46606097 1.7860001
0.34359241 0.46606097 1.7860001
0.35379812 0.4677619 1.7860001
0.36264309 0.46674132 1.786
0.33678859 0.47456574 1.7860001
0.34359241 0.47626671 1.7860001
0.35379812 0.47626671 1.7860001
0.36400381 0.47626671 1.7860001
0.33678859 0.4864724 1.7860001
0.34359244 0.4864724 1.7860001
0.35379812 0.4864724 1.7860001
0.36400381 0.4864724 1.7860001
0.33678859 0.49667811 1.7860001
0.34359241 0.49497715 1.7860001
0.35379812 0.49497715 1.7860001
0.36400381 0.49497715 1.7860001
0.34359241 0.50093049 1.7860001
0.35379812 0.50348186 1.7860001
0.36357859 0.50348192 1.7860001
0.37080762 0.5068838 1.7860001
0.38441524 0.5068838 1.7860001
0.34529334 0.51028574 1.7860001
0.35379812 0.5127157 1.7860001
0.36442906 0.51326239 1.7860001
0.37372354 0.51465958 1.7860001
0.38373488 0.51572883 1.786
0.38781714 0.52219236 1.7860001
0.39121905 0.52219236 1.7860001
0.77270478 0.010257144 1.7950001
0.40173811 0.18804763 1.7950001
0.46670002 0.18804763 1.7950001
0.4735381 0.18804763 1.7950001
0.4872143 0.18462858 1.7950001
0.49576196 0.18234921 1.7950001
0.5094381 0.18462858 1.7950001
0.5179857 0.18804763 1.7950001
0.52824289 0.18804763 1.7950001
0.53679049 0.18804763 1.7950001
0.54533809 0.18804763 1.7950001
0.55388576 0.18804763 1.7950001
0.58534098 0.18668 1.7950001
0.59491432 0.18462856 1.7950001
0.60517144 0.18804763 1.7950001
0.61656827 0.18348889 1.7950001
0.62397623 0.1863381 1.7950001
0.32651907 0.19830477 1.7950001
0.33506668 0.19830477 1.7950001
0.34532383 0.19830477 1.7950001
0.36583811 0.19488572 1.7950001
0.38977143 0.19146667 1.7950001
0.39490002 0.19146667 1.7950001
0.4376381 0.19488572 1.7950001
0.56414288 0.19146667 1.7950001
0.57781905 0.19146667 1.7950001
0.58123809 0.19146667 1.7950001
0.6376524 0.19146667 1.7950001
0.64278096 0.19146667 1.7950001
0.66500479 0.19488572 1.7950001
0.67355245 0.1931762 1.7950001
0.68295479 0.19574049 1.7950001
0.26326668 0.20856191 1.7950001
0.27523333 0.20856191 1.7950001
0.28378096 0.20685239 1.7950001
0.29452655 0.20611973 1.7950001
0.30386788 0.20471548 1.7950001
0.31369764 0.20257857 1.7950001
0.32480952 0.20172381 1.7950001
0.33335716 0.20172381 1.7950001
0.69577622 0.20172381 1.7950001
0.70603335 0.20514287 1.7950001
0.71116191 0.20514287 1.7950001
0.21881905 0.21881905 1.7950001
0.22480239 0.21796429 1.7950001
0.23591429 0.21881907 1.7950001
0.24702621 0.21796429 1.7950001
0.25594014 0.21637687 1.7950001
0.2649762 0.2154 1.7950001
0.27352381 0.2154 1.7950001
0.2071943 0.22634096 1.7950001
0.21582738 0.22608452 1.7950001
0.22468027 0.22614558 1.7950001
0.23705399 0.22679682 1.7950001
0.24617146 0.22394763 1.7950001
0.2564286 0.22394763 1.7950001
0.2653181 0.22497335 1.7950001
0.27010477 0.22394763 1.7950001
0.20770715 0.23505953 1.7950001
0.2154 0.2359143 1.7950001
0.22468027 0.23542584 1.7950001
0.23591429 0.23249525 1.7950001
0.26668572 0.23420477 1.7950001
0.19659525 0.24788097 1.7950001
0.20445904 0.24617144 1.7950001
0.2154 0.24617144 1.7950001
0.22451746 0.2484508 1.7950001
0.17608096 0.25984764 1.7950001
0.18234921 0.25870797 1.7950001
0.19586261 0.25691703 1.7950001
0.20172381 0.25813812 1.7950001
0.2154 0.2564286 1.7950001
0.22565715 0.2564286 1.7950001
0.2359143 0.2564286 1.7950001
0.24446192 0.25813812 1.7950001
0.17608096 0.2649762 1.7950001
0.18291906 0.2649762 1.7950001
0.19488573 0.26326668 1.7950001
0.20628254 0.26440635 1.7950001
0.2154 0.2649762 1.7950001
0.22565715 0.2649762 1.7950001
0.2359143 0.2649762 1.7950001
0.24275239 0.2649762 1.7950001
0.17608096 0.27694288 1.7950001
0.18291906 0.27352381 1.7950001
0.19488573 0.27352381 1.7950001
0.20685239 0.27352381 1.7950001
0.21497262 0.27309644 1.7950001
0.22614558 0.27254695 1.7950001
0.2359143 0.27352381 1.7950001
0.24446191 0.27352381 1.7950001
0.17479883 0.28378096 1.7950001
0.18462859 0.28378093 1.7950001
0.19488573 0.2872 1.7950001
0.20611973 0.28426939 1.7950001
0.21369047 0.28378096 1.7950001
0.23634166 0.28378096 1.7950001
0.24360715 0.2829262 1.7950001
0.17534831 0.29354969 1.7950001
0.18462859 0.29232857 1.7950001
0.19602542 0.29289842 1.7950001
0.20514286 0.29403809 1.7950001
0.21491157 0.29501495 1.7950001
0.22565715 0.29574764 1.7950001
0.23335001 0.29318333 1.7950001
0.24275239 0.29061905 1.7950001
0.20514286 0.30429521 1.7950001
0.2154 0.30429524 1.7950001
0.22565715 0.30429521 1.7950001
0.23249525 0.30429524 1.7950001
0.19830477 0.31113335 1.7950001
0.20557024 0.31412503 1.7950001
0.2154 0.31455243 1.7950001
0.22565715 0.31455243 1.7950001
0.23542584 0.31552929 1.7950001
0.24617146 0.31626192 1.7950001
0.25300953 0.31626192 1.7950001
0.26326668 0.31797144 1.7950001
0.20770715 0.32395479 1.7950001
0.21497262 0.32438216 1.7950001
0.22565714 0.32432109 1.7950001
0.23728192 0.32344192 1.7950001
0.24617144 0.32480955 1.7950001
0.2564286 0.32480955 1.7950001
0.26326668 0.32480955 1.7950001
0.24685526 0.33301526 1.7950001
0.25691703 0.33408982 1.7950001
0.2649762 0.33506668 1.7950001
0.27010477 0.33848572 1.7950001
0.25813812 0.34190479 1.7950001
0.2653181 0.34464002 1.7950001
0.27303538 0.34630069 1.7950001
0.28309715 0.34737524 1.7950001
0.2923286 0.34874287 1.7950001
0.29745716 0.35216191 1.7950001
0.30315554 0.35615078 1.7950001
0.3145524 0.35558096 1.7950001
0.3231 0.35900003 1.7950001
0.31797144 0.36583811 1.7950001
0.32383269 0.36534968 1.7950001
0.30771428 0.37609527 1.7950001
0.31497979 0.37609524 1.7950001
0.32383266 0.37658367 1.7950001
0.30771428 0.38635239 1.7950001
0.31455243 0.38635239 1.7950001
0.32480949 0.38635239 1.7950001
0.33278731 0.38863173 1.7950001
0.30771428 0.3931905 1.7950001
0.3145524 0.3931905 1.7950001
0.32480952 0.39489999 1.7950001
0.33335716 0.39490002 1.7950001
0.32651907 0.40344763 1.7950001
0.33335719 0.40344763 1.7950001
0.32617718 0.41507238 1.7950001
0.33335719 0.41370478 1.7950001
0.31284288 0.42738098 1.7950001
0.32480955 0.42225239 1.7950001
0.33392701 0.42168257 1.7950001
0.33848572 0.43592858 1.7950001
0.34190479 0.43592858 1.7950001
0.33506668 0.44618574 1.7950001
0.32822859 0.45644286 1.7950001
0.33335719 0.45473334 1.7950001
0.32822859 0.46157146 1.7950001
0.33369905 0.46430668 1.7950001
0.33506668 0.47524762 1.7950001
0.33848572 0.48379526 1.7950001
0.33848572 0.49405241 1.7950001
0.33848572 0.50601906 1.7950001
0.34532383 0.50807047 1.7950001
0.33848572 0.51285714 1.7950001
0.34532383 0.51627618 1.7950001
0.35216191 0.51969528 1.7950001
0.38521269 0.52425402 1.7950001
0.78001529 0.013744762 1.8040001
0.50168383 0.17868191 1.8040001
0.3951619 0.18899049 1.8040003
0.40890667 0.18899049 1.8040001
0.41234288 0.18899049 1.8040001
0.45529526 0.18899049 1.8040001
0.48278478 0.1855543 1.8040001
0.49309337 0.1821181 1.8040001
0.51714671 0.1855543 1.8040001
0.52573717 0.18641335 1.8040001
0.53604573 0.18641335 1.8040001
0.54549527 0.18641335 1.8040001
0.56353527 0.18899049 1.8040001
0.58071619 0.18899049 1.8040001
0.61507809 0.1855543 1.8040001
0.63397717 0.18899049 1.8040001
0.31612954 0.19929905 1.8040001
0.34190094 0.19586286 1.8040001
0.35564572 0.19586286 1.8040001
0.36194542 0.19471745 1.8040003
0.37798098 0.19242667 1.8040001
0.38657144 0.19242667 1.8040001
0.42952383 0.19242667 1.8040001
0.43639621 0.19242667 1.8040003
0.4432686 0.19242667 1.8040001
0.56353527 0.19242667 1.8040001
0.57384384 0.19242667 1.8040003
0.69239241 0.19758096 1.8040001
0.25496536 0.20823315 1.8040001
0.26458669 0.20754591 1.8040001
0.2740362 0.20703049 1.8040001
0.28692192 0.20273525 1.8040001
0.29379427 0.20273525 1.8040001
0.70441908 0.20273525 1.8040001
0.20617144 0.21819811 1.804
0.21590732 0.2170527 1.804
0.22507048 0.21476191 1.8040001
0.23537907 0.21648 1.8040001
0.24465677 0.21510553 1.8040001
0.25427812 0.21304382 1.8040001
0.26115048 0.21304382 1.8040001
0.19929905 0.22678858 1.8040001
0.20388065 0.2244978 1.8040003
0.21304382 0.22335239 1.8040001
0.23297372 0.22472687 1.8040001
0.19792457 0.23434821 1.8040001
0.2035943 0.23452 1.8040001
0.19758095 0.24225143 1.8040001
0.2053124 0.24225143 1.8040001
0.16837335 0.2577143 1.8040001
0.1855543 0.25084192 1.8040001
0.19242667 0.25084192 1.8040001
0.2071532 0.25427809 1.804
0.17180952 0.26458669 1.8040001
0.20617144 0.26458669 1.8040001
0.16837335 0.27833143 1.8040001
0.17475484 0.27391347 1.804
0.18692878 0.27489525 1.8040001
0.1965501 0.27626973 1.8040001
0.20273525 0.27489522 1.8040003
0.16536668 0.28520381 1.804
0.17180952 0.28520381 1.8040001
0.19586284 0.28348571 1.804
0.20273525 0.28348571 1.8040001
0.16591892 0.29502153 1.804
0.17180952 0.29723048 1.8040001
0.18555428 0.29894859 1.8040003
0.19357206 0.29780319 1.8040003
0.18761601 0.30582094 1.8040001
0.19586287 0.30582094 1.804
0.1855543 0.31784761 1.8040001
0.19543333 0.31655908 1.804
0.20273525 0.31956571 1.8040001
0.1855543 0.32300192 1.8040001
0.19629239 0.32600856 1.804
0.20410971 0.32712534 1.8040001
0.21991619 0.32987431 1.8040001
0.22335239 0.32987431 1.8040001
0.23434821 0.32781258 1.8040001
0.20960763 0.33331048 1.8040001
0.21648002 0.33331048 1.8040003
0.22507048 0.33331048 1.8040001
0.23366098 0.33331048 1.8040003
0.24167873 0.3356013 1.8040003
0.24511492 0.34132826 1.8040003
0.25427809 0.34312817 1.804
0.26115048 0.34705526 1.8040001
0.26458669 0.35220954 1.8040001
0.27489522 0.35392764 1.8040003
0.28634921 0.35507306 1.8040003
0.29482514 0.35598934 1.8040001
0.29894859 0.36423621 1.8040003
0.30631182 0.36521798 1.804
0.31570002 0.36380669 1.804
0.29894859 0.37110859 1.8040001
0.30483919 0.3740539 1.804
0.31527048 0.3728267 1.8040001
0.30375925 0.3855406 1.8040001
0.30524826 0.3951619 1.804
0.31612954 0.3985981 1.8040003
0.30788267 0.40615773 1.8040001
0.31612954 0.40547049 1.804
0.32300192 0.40547049 1.8040003
0.29808953 0.41663814 1.8040001
0.305821 0.41577905 1.804
0.31563863 0.41676083 1.804
0.32472 0.41406095 1.8040001
0.30753905 0.42522857 1.8040001
0.31612954 0.42471319 1.8040001
0.32987431 0.42952383 1.8040001
0.33445588 0.42837843 1.8040003
0.32987431 0.43639621 1.8040003
0.33502856 0.43639621 1.804
0.32987431 0.44670478 1.8040001
0.33445588 0.44441399 1.8040003
0.32712534 0.45426434 1.8040001
0.33331048 0.45014098 1.8040001
0.31784761 0.46560383 1.8040001
0.32545635 0.46437666 1.804
0.30719543 0.47556877 1.8040001
0.31514779 0.47370344 1.804
0.3264381 0.47247621 1.804
0.33331048 0.47419429 1.8040003
0.30582094 0.48278478 1.804
0.31441146 0.48278478 1.8040001
0.33674669 0.48622096 1.8040001
0.32987431 0.49309337 1.8040001
0.33674669 0.49137527 1.8040001
0.33674669 0.50512004 1.8040001
0.33674669 0.5137105 1.8040001
0.38313526 0.52745527 1.8040001
0.78088385 0.013820953 1.8140001
0.4975543 0.17967239 1.8140001
0.50100952 0.17967239 1.8140001
0.3973524 0.18658286 1.8140001
0.40426287 0.18658286 1.8140001
0.41290098 0.18658286 1.8140001
0.42153907 0.18658286 1.8140001
0.46472955 0.18658286 1.8140001
0.47682288 0.18658286 1.8140001
0.48373333 0.18427938 1.8140001
0.49064383 0.18312763 1.8140001
0.51828575 0.18312763 1.8140001
0.52865148 0.18312763 1.8140001
0.53383434 0.18312763 1.8140001
0.55802095 0.18658286 1.8140001
0.56320381 0.18658286 1.8140001
0.58739048 0.18658286 1.8140001
0.61503237 0.18658286 1.8140001
0.63576382 0.18658286 1.8140001
0.32824764 0.19694857 1.8140001
0.33515811 0.19694857 1.8140001
0.34638762 0.19435716 1.8140001
0.35502574 0.19435714 1.8140001
0.36798286 0.19349334 1.8140001
0.37489337 0.19349334 1.8140001
0.38353145 0.19349334 1.8140001
0.39044192 0.1900381 1.8140001
0.41808382 0.1900381 1.8140001
0.42326668 0.1900381 1.8140001
0.44918096 0.1900381 1.8140001
0.45263621 0.1900381 1.8140001
0.58048004 0.1900381 1.8140001
0.61157715 0.1900381 1.8140001
0.64440191 0.1900381 1.8140001
0.6720438 0.19349334 1.8140001
0.69104767 0.19694857 1.8140001
0.24704954 0.2073143 1.8140001
0.2522324 0.2073143 1.8140001
0.27641904 0.20385905 1.8140001
0.28332955 0.20385906 1.8140001
0.29542285 0.20040381 1.8140001
0.30406097 0.20040381 1.8140001
0.31269908 0.20040381 1.8140001
0.32306477 0.20040381 1.8140001
0.70486861 0.20040381 1.8140001
0.71523428 0.20385905 1.8140001
0.19349332 0.21768002 1.8140001
0.20385905 0.2136489 1.8140001
0.21422477 0.21307302 1.8140001
0.22459047 0.21215162 1.8140001
0.2344626 0.21323755 1.8140001
0.24532191 0.21192127 1.8140001
0.15548572 0.22804572 1.8140001
0.19349334 0.22459048 1.814
0.20040381 0.22286287 1.8140001
0.14166477 0.23841144 1.8140001
0.15203048 0.2349562 1.8140001
0.16239619 0.23150097 1.8140001
0.18658286 0.2349562 1.8140001
0.19250612 0.2344626 1.8140001
0.15203048 0.24532191 1.8140001
0.16930667 0.24877715 1.8140001
0.18571906 0.24532191 1.8140001
0.19176573 0.24532191 1.8140001
0.13648191 0.25741524 1.8140001
0.14166477 0.25568762 1.8140001
0.15634954 0.25827906 1.8140001
0.1654195 0.25525573 1.8140001
0.17621715 0.25568765 1.814
0.18485524 0.25568762 1.8140001
0.1914202 0.25637868 1.8140001
0.13544533 0.26812646 1.8140001
0.14462641 0.26704052 1.8140001
0.15591761 0.26648524 1.8140001
0.16585141 0.26605335 1.814
0.17276192 0.26605332 1.8140001
0.19211124 0.2674354 1.8140001
0.20040381 0.26950857 1.8140001
0.13544533 0.2743459 1.8140001
0.14462639 0.27543184 1.8140001
0.15755887 0.2771101 1.8140001
0.16541952 0.27598715 1.8140001
0.19522095 0.27296382 1.8140001
0.14166477 0.28332955 1.8140001
0.15778922 0.28448129 1.8140001
0.16239619 0.28678477 1.8140001
0.15894096 0.29024002 1.8140001
0.16239619 0.29715049 1.8140001
0.17794478 0.30578858 1.8140001
0.18427937 0.30636445 1.8140001
0.17794476 0.31442669 1.8140001
0.18399145 0.31442669 1.8140001
0.1900381 0.3161543 1.8140001
0.17852063 0.32364067 1.8140001
0.18399143 0.32565621 1.8140001
0.1900381 0.32479239 1.8140001
0.17967239 0.33170286 1.8140001
0.18485525 0.33170286 1.8140001
0.19349334 0.33343047 1.8140001
0.20385905 0.33515811 1.8140001
0.21422477 0.33861336 1.8140001
0.22113524 0.33861333 1.8140001
0.2349562 0.33861336 1.8140001
0.23841144 0.34206858 1.8140001
0.24474604 0.3466756 1.8140001
0.2522324 0.34897906 1.8140001
0.25637868 0.35381639 1.8140001
0.26518953 0.35848099 1.8140001
0.27641904 0.35934478 1.8140001
0.28563303 0.35819301 1.8140001
0.26950857 0.3628 1.8140001
0.27296382 0.3628 1.8140001
0.28563303 0.36395177 1.8140001
0.29484698 0.36567935 1.8140001
0.29715049 0.37316573 1.8140001
0.27757081 0.38468322 1.8140001
0.28332955 0.38353145 1.8140001
0.29715049 0.38353145 1.8140001
0.30751619 0.38353145 1.8140001
