# .PCD v0.7 - Point Cloud Data file format
VERSION 0.7
FIELDS x y z
SIZE 4 4 4
TYPE F F F
COUNT 1 1 1
WIDTH 1471
HEIGHT 1
VIEWPOINT 0 0 0 1 0 0 0
POINTS 1471
DATA ascii
0.053120002 0.50274289 1.9920001
0.064502865 0.50274289 1.9920001
0.075885713 0.50236344 1.9920002
0.085371435 0.5065372 1.9920001
0.094857141 0.50464004 1.9920002
0.10497525 0.50337529 1.9920001
0.11193143 0.50084573 1.9920001
0.12672916 0.50312227 1.9920002
0.13406475 0.50211048 1.9920001
0.17833143 0.50464004 1.9920001
0.18516114 0.50691664 1.9920002
-0.015177143 0.51222861 1.9920001
-0.0056914287 0.51222861 1.9920001
0.0037942857 0.51222861 1.9920001
0.015177143 0.51222861 1.9920001
0.19540572 0.51222861 1.9920001
0.20299429 0.51222861 1.9920001
0.22765715 0.51602286 1.9920001
-0.030521905 -0.17168573 2.003
-0.024799049 -0.17359334 2.003
-0.016023999 -0.17321184 2.003
-0.0076304763 -0.17168573 2.003
0.0057228571 -0.17168573 2.003
0.015260953 -0.17168574 2.003
-0.030521905 -0.16405524 2.003
-0.024799049 -0.16405524 2.003
-0.015260952 -0.16405526 2.003
-0.0057228575 -0.16405524 2.003
0.0038152379 -0.16405526 2.003
0.015260953 -0.16405526 2.003
-0.030521905 -0.15451714 2.003
-0.024799049 -0.15451714 2.003
-0.019076191 -0.15451714 2.003
-0.0076304763 -0.15451714 2.003
0.0028614285 -0.15547095 2.003
0.015260953 -0.15451714 2.003
0.024163177 -0.15388127 2.003
-0.03179365 -0.14497906 2.003
0.026706668 -0.14879429 2.003
0.033701271 -0.14497906 2.003
0.041967619 -0.14116381 2.003
-0.032429524 -0.13734858 2.003
0.036880638 -0.13607682 2.003
0.04387524 -0.13544096 2.003
-0.030521905 -0.12590286 2.003
-0.024799049 -0.12399524 2.003
-0.015260953 -0.12399524 2.003
-0.0057228571 -0.12208762 2.003
0.019076191 -0.12208762 2.003
0.034337144 -0.12590285 2.003
0.045305956 -0.12542595 2.003
-0.030521905 -0.11445715 2.003
-0.024799049 -0.11445715 2.003
-0.015260953 -0.11445715 2.003
-0.0057228575 -0.11445715 2.003
0.0015260952 -0.11369411 2.003
0.016351022 -0.11445714 2.003
0.024799049 -0.11445715 2.003
0.034337144 -0.11445715 2.003
0.04578286 -0.11445715 2.003
0.055320952 -0.11445715 2.003
-0.030521905 -0.10491905 2.003
-0.024799049 -0.10491905 2.003
-0.015260953 -0.10491905 2.003
-0.0057228571 -0.10491905 2.003
0.0028614285 -0.10587285 2.003
0.016532699 -0.10555492 2.003
0.024799049 -0.10491905 2.003
0.034337144 -0.10491905 2.003
0.04578286 -0.10491905 2.003
0.055320956 -0.10491905 2.003
0.06104381 -0.10491905 2.003
-0.030521905 -0.097288579 2.003
-0.024417525 -0.096144006 2.003
-0.015260953 -0.095380962 2.003
-0.0057228575 -0.095380962 2.003
0.0044511114 -0.094745092 2.003
0.015260952 -0.095380962 2.003
0.024799049 -0.095380962 2.003
0.034337148 -0.095380962 2.003
0.04578286 -0.095380962 2.003
0.055320952 -0.095380962 2.003
0.061997622 -0.094427153 2.003
-0.02289143 -0.08775048 2.003
-0.014170885 -0.084480278 2.003
-0.0057228566 -0.083935238 2.003
0.0038152384 -0.083935246 2.003
0.015260954 -0.083935246 2.003
0.024799049 -0.083935238 2.003
0.034337144 -0.083935246 2.003
0.04578286 -0.083935246 2.003
0.05493943 -0.084698282 2.003
0.062315557 -0.085206985 2.003
0.07248953 -0.080120005 2.003
-0.013353335 -0.074397147 2.003
-0.0057228571 -0.074397147 2.003
0.0038152381 -0.074397147 2.003
0.015260953 -0.074397147 2.003
0.024799049 -0.074397147 2.003
0.034337144 -0.074397147 2.003
0.045782857 -0.074397147 2.003
0.055320956 -0.074397147 2.003
0.0635873 -0.073761277 2.003
-0.012971811 -0.065622099 2.003
-0.0057228566 -0.064859048 2.003
0.0038152384 -0.06485904 2.003
0.01635102 -0.06540408 2.003
0.024417525 -0.065622091 2.003
0.034337144 -0.064859048 2.003
0.04578286 -0.06485904 2.003
0.055320952 -0.06485904 2.003
0.063768975 -0.064314015 2.003
-0.012717462 -0.054685082 2.003
-0.0057228571 -0.055320952 2.003
0.0038152381 -0.055320952 2.003
0.016024001 -0.055702478 2.003
0.02289143 -0.057228573 2.003
0.035100192 -0.055702478 2.003
0.04451111 -0.055956829 2.003
0.054685082 -0.055956829 2.003
0.062951431 -0.057228573 2.003
-0.012717462 -0.048326354 2.003
-0.005086984 -0.048326354 2.003
0.0043602721 -0.046872925 2.003
0.015260953 -0.046259765 2.003
0.024799049 -0.04578286 2.003
0.034882177 -0.044692792 2.003
0.04578286 -0.046259765 2.003
0.055320952 -0.04578286 2.003
0.064382143 -0.045305956 2.003
-0.02289143 -0.036244765 2.003
-0.013353335 -0.034337144 2.003
-0.0076304763 -0.036244765 2.003
0.0076304763 -0.034337144 2.003
0.015260953 -0.034337144 2.003
0.024799049 -0.034337144 2.003
0.033860236 -0.034814049 2.003
0.044692792 -0.034882177 2.003
0.055320952 -0.034337144 2.003
0.064859048 -0.034337144 2.003
-0.024163177 -0.025434921 2.003
-0.013989207 -0.025434921 2.003
-0.0076304763 -0.024799049 2.003
0.0076304763 -0.024799049 2.003
0.015260953 -0.024799049 2.003
0.024799049 -0.024799049 2.003
0.032429524 -0.024799049 2.003
0.048326354 -0.024163177 2.003
0.055320956 -0.024799049 2.003
0.064859048 -0.024799049 2.003
0.07248953 -0.024799049 2.003
-0.02289143 -0.019076191 2.003
-0.011445715 -0.015260953 2.003
-0.0066766669 -0.014307144 2.003
0.0053413333 -0.013734859 2.003
0.015260952 -0.015260953 2.003
0.024799049 -0.015260953 2.003
0.032429524 -0.015260953 2.003
0.047690481 -0.015260953 2.003
0.055320952 -0.015260953 2.003
0.064859048 -0.015260952 2.003
0.073443338 -0.014307144 2.003
-0.02289143 -0.0057228571 2.003
-0.013353334 -0.0057228571 2.003
-0.0038152381 -0.0076304763 2.003
0.0019076191 -0.0076304763 2.003
0.017168572 -0.0076304763 2.003
0.02289143 -0.0076304763 2.003
0.036244765 -0.0076304763 2.003
0.04387524 -0.0076304763 2.003
0.08775048 -0.0076304763 2.003
0.095380962 -0.0063587301 2.003
0.10491905 -0.0038152381 2.003
0.11445715 -0.0038152381 2.003
-0.055320956 0.0038152381 2.003
-0.11064191 0.085842863 2.003
-0.10555492 0.086478733 2.003
-0.11254952 0.095380962 2.003
-0.10491905 0.095380962 2.003
-0.099196196 0.099196196 2.003
-0.11191366 0.10428318 2.003
-0.10491905 0.10491905 2.003
-0.097288579 0.10491905 2.003
-0.11064191 0.11254953 2.003
-0.10491905 0.11254954 2.003
-0.097288571 0.11445714 2.003
-0.10301143 0.1297181 2.003
-0.097288579 0.12590285 2.003
-0.10682667 0.13544096 2.003
-0.10428318 0.14370732 2.003
-0.099196196 0.14879429 2.003
-0.11064191 0.15642476 2.003
-0.10428318 0.15515302 2.003
-0.097924449 0.15515302 2.003
-0.11064191 0.16024001 2.003
-0.10491905 0.16405524 2.003
-0.096652709 0.16532698 2.003
-0.083935238 0.16787048 2.003
-0.076304764 0.16787048 2.003
-0.10301143 0.17550094 2.003
-0.095380962 0.17550096 2.003
-0.084571116 0.1742292 2.003
-0.076304764 0.17168573 2.003
-0.10428318 0.18567492 2.003
-0.095380962 0.18503906 2.003
-0.08775048 0.18313144 2.003
-0.10491905 0.19266953 2.003
-0.095380962 0.19457716 2.003
-0.086796671 0.19553097 2.003
-0.095380962 0.20602287 2.003
-0.085842855 0.20602287 2.003
-0.076304764 0.20220762 2.003
-0.09283746 0.2149251 2.003
-0.085842855 0.21556096 2.003
-0.076304764 0.21746857 2.003
-0.091565721 0.22128382 2.003
-0.083458349 0.22462216 2.003
-0.074397147 0.22700667 2.003
-0.093473338 0.23654477 2.003
-0.082027622 0.23463716 2.003
-0.074397147 0.23463716 2.003
-0.066766664 0.23463716 2.003
-0.10491905 0.24417524 2.003
-0.09490405 0.24465214 2.003
-0.082845166 0.24417524 2.003
-0.074778669 0.24417524 2.003
-0.06594912 0.2436302 2.003
-0.04578286 0.24799049 2.003
-0.034337144 0.24799049 2.003
-0.10491905 0.25180572 2.003
-0.095380954 0.25562096 2.003
-0.083390199 0.25671101 2.003
-0.074397147 0.25562096 2.003
-0.06594912 0.25562096 2.003
-0.053413335 0.25562096 2.003
-0.045782857 0.25562096 2.003
-0.034337144 0.25562099 2.003
-0.10491905 0.26515907 2.003
-0.095380962 0.26515907 2.003
-0.083935238 0.26515907 2.003
-0.074397147 0.26515907 2.003
-0.066766664 0.26706669 2.003
-0.055320956 0.26706669 2.003
-0.04578286 0.26515904 2.003
-0.034337144 0.26515907 2.003
-0.10396524 0.27374333 2.003
-0.095380962 0.27469715 2.003
-0.083935246 0.27469715 2.003
-0.074397147 0.27469715 2.003
-0.06594912 0.27524218 2.003
-0.057228573 0.27660477 2.003
-0.04578286 0.27088192 2.003
-0.035608891 0.27342543 2.003
-0.094617918 0.28537983 2.003
-0.083935246 0.28614286 2.003
-0.074397147 0.28614286 2.003
-0.064859048 0.28614289 2.003
-0.055702478 0.28690591 2.003
-0.04578286 0.28805047 2.003
-0.035100192 0.288432 2.003
-0.10301143 0.29758859 2.003
-0.095380962 0.29758859 2.003
-0.083935238 0.295681 2.003
-0.074397147 0.29568097 2.003
-0.064859055 0.295681 2.003
-0.055320956 0.29568097 2.003
-0.04578286 0.29568097 2.003
-0.036244765 0.29568097 2.003
-0.10301143 0.30140382 2.003
-0.094109215 0.30267558 2.003
-0.085025311 0.304674 2.003
-0.076304764 0.30140382 2.003
-0.063905239 0.30617285 2.003
-0.054367144 0.30617285 2.003
-0.049598098 0.30521905 2.003
-0.084698297 0.31513867 2.003
-0.075033017 0.31539303 2.003
-0.064859048 0.31475717 2.003
-0.041967619 0.31666479 2.003
-0.091565721 0.32811049 2.003
-0.083935246 0.32429525 2.003
-0.074397147 0.32429525 2.003
-0.066766664 0.32429525 2.003
-0.041967619 0.32048002 2.003
-0.083935246 0.33574098 2.003
-0.074778669 0.33497792 2.003
-0.068674289 0.33574095 2.003
-0.04451111 0.33701268 2.003
-0.035427213 0.33628601 2.003
-0.083172187 0.3456606 2.003
-0.074397147 0.34527904 2.003
-0.065622091 0.3456606 2.003
-0.054685082 0.34591493 2.003
-0.04578286 0.34527907 2.003
-0.034337144 0.34527907 2.003
-0.083458342 0.35434026 2.003
-0.074397147 0.35481715 2.003
-0.064859048 0.35481715 2.003
-0.055320952 0.35481715 2.003
-0.04578286 0.35481712 2.003
-0.034337144 0.35481718 2.003
-0.082027622 0.36435527 2.003
-0.074397147 0.36435527 2.003
-0.064859048 0.36435524 2.003
-0.055320956 0.36435527 2.003
-0.04578286 0.36435524 2.003
-0.034337144 0.36435524 2.003
-0.083458342 0.37341648 2.003
-0.074397147 0.37389338 2.003
-0.064859048 0.37389332 2.003
-0.055320952 0.37389335 2.003
-0.04578286 0.37389338 2.003
-0.034337144 0.37389335 2.003
-0.093473338 0.38915429 2.003
-0.083935238 0.38533905 2.003
-0.074397147 0.38533905 2.003
-0.064859048 0.38533905 2.003
-0.055320952 0.38533905 2.003
-0.04578286 0.38533905 2.003
-0.03488218 0.38588408 2.003
-0.09283746 0.3942413 2.003
-0.083935238 0.3948772 2.003
-0.074397147 0.3948772 2.003
-0.066130795 0.3942413 2.003
-0.053413335 0.39296955 2.003
-0.045019813 0.39449564 2.003
-0.034337144 0.3948772 2.003
-0.019076191 0.39296955 2.003
-0.084480278 0.40441522 2.003
-0.075033017 0.405687 2.003
-0.064859048 0.40823048 2.003
-0.054685082 0.40695873 2.003
-0.046872932 0.4038702 2.003
-0.033574097 0.40212613 2.003
-0.083935238 0.41395333 2.003
-0.074397147 0.41586101 2.003
-0.064859048 0.41586101 2.003
-0.055320952 0.41586098 2.003
-0.064859048 0.42539907 2.003
-0.055956826 0.4247632 2.003
0.055956829 0.42603493 2.003
0.06104381 0.42730668 2.003
-0.074397147 0.43112192 2.003
-0.064095996 0.432648 2.003
-0.054685082 0.43366539 2.003
-0.045019813 0.43341106 2.003
-0.034337144 0.43112192 2.003
-0.025180573 0.43570018 2.003
-0.017168572 0.43684477 2.003
0.055320952 0.43493715 2.003
0.062569901 0.43417412 2.003
-0.025434921 0.4438394 2.003
-0.017168572 0.44256765 2.003
0.055320956 0.44447523 2.003
0.06104381 0.44447526 2.003
-0.024799049 0.45019811 2.003
-0.024799049 0.4673667 2.003
-0.017804446 0.46800256 2.003
-0.057228573 0.47690478 2.003
-0.047690481 0.47690478 2.003
-0.024799049 0.47499716 2.003
-0.015260953 0.47499716 2.003
-0.005086984 0.47563303 2.003
0.002543492 0.4743613 2.003
-0.06104381 0.48072001 2.003
-0.057228573 0.48072001 2.003
-0.047308959 0.48377219 2.003
-0.024799049 0.48453522 2.003
-0.015260953 0.48453522 2.003
-0.0061043808 0.48377219 2.003
0 0.48262763 2.003
-0.06104381 0.49407336 2.003
-0.04387524 0.49598098 2.003
-0.034337144 0.49598098 2.003
-0.02289143 0.49216574 2.003
-0.015260954 0.49489093 2.003
-0.0076304763 0.49598098 2.003
0.017804446 0.49852446 2.003
0.025180573 0.49674401 2.003
0.034337144 0.49598095 2.003
0.041967619 0.49598098 2.003
0.057228573 0.49979621 2.003
0.064859048 0.49598098 2.003
-0.041967619 0.50361145 2.003
-0.013989207 0.50488317 2.003
-0.0076304763 0.50361145 2.003
0.019076191 0.50551903 2.003
0.024799049 0.50551909 2.003
0.034337144 0.50361145 2.003
0.041967619 0.50551903 2.003
0.057228573 0.50551903 2.003
0.064859048 0.50551903 2.003
0.076304764 0.50742668 2.003
0.11541096 0.50647289 2.003
0.12399524 0.50742668 2.003
-0.015260953 0.51124191 2.003
0.019076191 0.51124191 2.003
0.024799049 0.5131495 2.003
0.034337144 0.51124191 2.003
0.045782857 0.51124191 2.003
0.055320956 0.51124191 2.003
0.064859048 0.51124191 2.003
0.075033017 0.51251364 2.003
0.082981437 0.51410329 2.003
0.096144006 0.51353103 2.003
0.10301143 0.51124191 2.003
0.11445715 0.51124191 2.003
0.12399524 0.51124191 2.003
0.18694668 0.51505715 2.003
0.19076191 0.51505715 2.003
0.20983811 0.51887238 2.003
-0.053733334 -0.17271429 2.0150001
-0.046057142 -0.17271429 2.0150001
-0.033263493 -0.17527302 2.0150001
0.023028573 -0.17271429 2.0150001
-0.064767867 -0.16455834 2.0150001
-0.055652384 -0.16503809 2.0150001
-0.046057142 -0.16503809 2.0150001
-0.036461905 -0.16503809 2.0150001
0.02456381 -0.16427049 2.0150001
-0.080600001 -0.15352382 2.0150001
-0.074842855 -0.15352382 2.0150001
-0.065247625 -0.15608256 2.0150001
-0.05565238 -0.15544286 2.0150001
-0.046057146 -0.15544286 2.0150001
-0.036461905 -0.15544286 2.0150001
0.026866667 -0.15736191 2.0150001
0.033583336 -0.15448335 2.0150001
-0.054692857 -0.14680715 2.0150001
-0.046057142 -0.14584762 2.0150001
-0.036845714 -0.14584763 2.0150001
0.038380954 -0.14776668 2.0150001
0.045417462 -0.14584763 2.0150001
-0.055268575 -0.13510096 2.0150001
-0.046057142 -0.13433334 2.0150001
-0.036845714 -0.13356572 2.0150001
0.049895238 -0.13433334 2.0150001
0.054692857 -0.13337383 2.0150001
-0.05565238 -0.12665714 2.0150001
-0.045289528 -0.12512191 2.0150001
-0.036461905 -0.1247381 2.0150001
0.05565238 -0.1247381 2.0150001
0.061409526 -0.12281905 2.0150001
-0.061409526 -0.11130477 2.0150001
-0.05565238 -0.11130477 2.0150001
-0.046057142 -0.11514286 2.0150001
-0.036461905 -0.11514286 2.0150001
0.061409522 -0.11514286 2.0150001
-0.062688895 -0.10490795 2.0150001
-0.05565238 -0.10554762 2.0150001
-0.046057146 -0.10554763 2.0150001
-0.036461905 -0.10554762 2.0150001
0.065247625 -0.10554762 2.0150001
-0.061409526 -0.099790476 2.0150001
-0.055012699 -0.097231746 2.0150001
-0.047336508 -0.097231746 2.0150001
-0.035310477 -0.096720003 2.0150001
-0.026866667 -0.092114292 2.0150001
0.06755048 -0.096720003 2.0150001
0.072923809 -0.092114292 2.0150001
-0.053733334 -0.086357147 2.0150001
-0.048615873 -0.086996831 2.0150001
-0.030704763 -0.086357147 2.0150001
-0.025331432 -0.083670475 2.0150001
-0.019190477 -0.082519054 2.0150001
0.05757143 -0.080600001 2.0150001
0.066526987 -0.083798416 2.0150001
0.072923809 -0.0844381 2.0150001
-0.076761909 -0.074842855 2.0150001
-0.065247625 -0.072923809 2.0150001
-0.030704763 -0.074842855 2.0150001
-0.024947621 -0.074842855 2.0150001
-0.019190477 -0.074842855 2.0150001
0.046057146 -0.074842855 2.0150001
0.066526987 -0.07548254 2.0150001
0.072923809 -0.076761909 2.0150001
-0.063328579 -0.065247625 2.0150001
-0.05757143 -0.065247625 2.0150001
-0.049895238 -0.061409526 2.0150001
-0.030704763 -0.069085717 2.0150001
-0.024563812 -0.066015244 2.0150001
-0.018230952 -0.064288102 2.0150001
0.011514287 -0.063328579 2.0150001
0.026866667 -0.061409526 2.0150001
0.069085717 -0.067166671 2.0150001
0.074459046 -0.064480007 2.0150001
0.083889797 -0.064151026 2.0150001
-0.063328579 -0.053733334 2.0150001
-0.053733334 -0.053733334 2.0150001
-0.049895238 -0.053733334 2.0150001
-0.024307938 -0.056292061 2.0150001
-0.017911112 -0.056292068 2.0150001
0.011514287 -0.053733334 2.0150001
0.025587304 -0.055012699 2.0150001
0.030704763 -0.053733334 2.0150001
0.047336508 -0.055012699 2.0150001
0.05757143 -0.053733334 2.0150001
0.066207148 -0.054692857 2.0150001
0.074203171 -0.056292061 2.0150001
0.084438093 -0.056036193 2.0150001
-0.061409526 -0.046057142 2.0150001
-0.05565238 -0.047016669 2.0150001
-0.049895238 -0.049895238 2.0150001
-0.030704763 -0.04221905 2.0150001
-0.023988098 -0.045097623 2.0150001
-0.016631747 -0.044777777 2.0150001
-0.006396825 -0.043498415 2.0150001
0.0019190477 -0.04221905 2.0150001
0.015352381 -0.04221905 2.0150001
0.032623813 -0.049895238 2.0150001
0.046057146 -0.04221905 2.0150001
0.069085717 -0.049895238 2.0150001
0.074842855 -0.046057146 2.0150001
0.080600001 -0.046057146 2.0150001
-0.030704761 -0.034542859 2.0150001
-0.025907144 -0.033583336 2.0150001
-0.015992066 -0.035182543 2.0150001
0.0023028571 -0.035310477 2.0150001
0.038380954 -0.030704763 2.0150001
0.049895238 -0.032623813 2.0150001
0.074459046 -0.034542859 2.0150001
-0.088276193 -0.023028573 2.0150001
-0.030704763 -0.024947621 2.0150001
-0.026866667 -0.023028573 2.0150001
-0.016631747 -0.024307936 2.0150001
-0.0038380953 -0.024947621 2.0150001
0.0019190477 -0.024947619 2.0150001
0.038380954 -0.024947621 2.0150001
0.043498415 -0.025587304 2.0150001
0.076761909 -0.024947621 2.0150001
0.08187937 -0.024307938 2.0150001
-0.025331428 -0.014584762 2.0150001
-0.01644898 -0.015352381 2.0150001
-0.0038380953 -0.017271429 2.0150001
0.0019190477 -0.017271429 2.0150001
0.038380954 -0.015352382 2.0150001
0.042219054 -0.015352382 2.0150001
0.076761909 -0.017271429 2.0150001
0.083341494 -0.014804082 2.0150001
0.092114292 -0.011514287 2.0150001
-0.044138096 -0.0038380953 2.0150001
-0.030704763 -0.0057571428 2.0150001
-0.026866667 -0.0057571428 2.0150001
-0.019190477 -0.0057571428 2.0150001
-0.072923809 0.0038380953 2.0150001
-0.065247625 0.0038380951 2.0150001
-0.044138096 0 2.0150001
-0.036461905 0 2.0150001
-0.11770159 0.10618731 2.0150001
-0.11418334 0.11610238 2.0150001
-0.10554762 0.11898096 2.0150001
-0.11322381 0.1247381 2.0150001
-0.10554762 0.1247381 2.0150001
-0.11226429 0.13337383 2.0150001
-0.10746667 0.13049525 2.0150001
-0.10554762 0.19958095 2.0150001
-0.10490794 0.20469843 2.0150001
-0.10362858 0.21493335 2.0150001
-0.098511107 0.21749206 2.0150001
-0.10362858 0.22452858 2.0150001
-0.096720003 0.22491238 2.0150001
-0.10554763 0.23412381 2.0150001
-0.09650068 0.23302723 2.0150001
-0.088276185 0.23412381 2.0150001
-0.099790476 0.24180001 2.0150001
-0.088276193 0.2456381 2.0150001
-0.072923809 0.2456381 2.0150001
-0.092114292 0.25331429 2.0150001
-0.086357147 0.25331429 2.0150001
-0.095952384 0.27442384 2.0150001
-0.10362858 0.28593808 2.0150001
-0.095952384 0.28401902 2.0150001
-0.10362858 0.2936143 2.0150001
-0.096592069 0.29489365 2.0150001
-0.10362858 0.30704764 2.0150001
-0.097231746 0.30576825 2.0150001
-0.10362858 0.31280476 2.0150001
-0.095952377 0.31472385 2.0150001
-0.095184766 0.32393527 2.0150001
-0.10362858 0.33199525 2.0150001
-0.096432142 0.33439404 2.0150001
-0.10362858 0.34926668 2.0150001
-0.095472619 0.34542859 2.0150001
-0.088276193 0.34542859 2.0150001
-0.094033338 0.35502383 2.0150001
-0.094033338 0.36461905 2.0150001
-0.088276185 0.36461905 2.0150001
-0.094033338 0.37613335 2.0150001
-0.088276193 0.37997144 2.0150001
-0.094033338 0.3857286 2.0150001
-0.10362858 0.39916191 2.0150001
-0.098511107 0.39788255 2.0150001
-0.063968264 0.39788255 2.0150001
-0.056292061 0.39788255 2.0150001
-0.049895238 0.39916191 2.0150001
-0.10362858 0.40491909 2.0150001
-0.095952384 0.40491906 2.0150001
-0.082519054 0.40683812 2.0150001
-0.074203171 0.40555874 2.0150001
-0.065247625 0.40491906 2.0150001
-0.056292061 0.40427938 2.0150001
-0.10362858 0.41259527 2.0150001
-0.095952377 0.4145143 2.0150001
-0.065247625 0.41067621 2.0150001
-0.094855785 0.42657685 2.0150001
-0.0844381 0.42602861 2.0150001
-0.074842855 0.42794764 2.0150001
-0.095184766 0.43523997 2.0150001
-0.084438093 0.43562385 2.0150001
-0.074842855 0.43754289 2.0150001
-0.069085717 0.43754289 2.0150001
-0.034542859 0.43658337 2.0150001
-0.11130477 0.44905716 2.0150001
-0.094855785 0.44467074 2.0150001
-0.0844381 0.44521904 2.0150001
-0.074842855 0.44521907 2.0150001
-0.065247625 0.4452191 2.0150001
-0.055268575 0.44445148 2.0150001
-0.046057146 0.44330001 2.0150001
-0.034542855 0.44521904 2.0150001
-0.093393654 0.45417464 2.0150001
-0.084438093 0.45481429 2.0150001
-0.074842855 0.45481431 2.0150001
-0.065247625 0.45481429 2.0150001
-0.05565238 0.45481431 2.0150001
-0.04221905 0.45673335 2.0150001
-0.034542859 0.45481429 2.0150001
-0.11130477 0.4624905 2.0150001
-0.092114292 0.4624905 2.0150001
-0.0844381 0.46440956 2.0150001
-0.074842855 0.46440956 2.0150001
-0.065247625 0.46440956 2.0150001
-0.05565238 0.46440956 2.0150001
-0.04221905 0.46440953 2.0150001
-0.034542859 0.46440956 2.0150001
-0.10554762 0.47976193 2.0150001
-0.094417147 0.47515622 2.0150001
-0.0844381 0.47592387 2.0150001
-0.074842855 0.47592381 2.0150001
-0.065247625 0.47592387 2.0150001
-0.055268575 0.47515622 2.0150001
-0.045508843 0.47482723 2.0150001
-0.034542859 0.47592387 2.0150001
-0.10554762 0.48360002 2.0150001
-0.084438093 0.48551908 2.0150001
-0.074842855 0.48551905 2.0150001
-0.066015244 0.48590288 2.0150001
-0.055012699 0.48615873 2.0150001
-0.04221905 0.48551905 2.0150001
-0.034542859 0.48551908 2.0150001
-0.08187937 0.49255559 2.0150001
-0.074842855 0.49511433 2.0150001
-0.066344224 0.49456602 2.0150001
-0.055652384 0.4951143 2.0150001
-0.046824761 0.49434671 2.0150001
-0.034063097 0.49511433 2.0150001
-0.072923809 0.50279051 2.0150001
-0.065247625 0.50470954 2.0150001
-0.05565238 0.50470954 2.0150001
-0.047976192 0.50470954 2.0150001
-0.035310477 0.50509334 2.0150001
-0.05565238 0.51046669 2.0150001
-0.046057146 0.51046669 2.0150001
-0.032623813 0.51046669 2.0150001
0.034542859 0.51046669 2.0150001
0.10746667 0.51430476 2.0150001
-0.046331432 -0.17374286 2.0270002
-0.038609527 -0.17567334 2.0270002
0.027026668 -0.17374286 2.0270002
-0.073358096 -0.16216001 2.0270002
0.027026668 -0.16988191 2.0270002
0.032432001 -0.16524878 2.0270002
-0.081080005 -0.15057714 2.0270002
-0.075288579 -0.15443809 2.0270002
-0.065636195 -0.15315111 2.0270002
0.036679052 -0.15829906 2.0270002
0.042470478 -0.15443811 2.0270002
-0.084940955 -0.14285524 2.0270002
-0.077219054 -0.14285524 2.0270002
-0.065636195 -0.14478572 2.0270002
-0.057914287 -0.14478572 2.0270002
0.054053336 -0.14285524 2.0270002
-0.081080005 -0.13706382 2.0270002
-0.077219054 -0.13899429 2.0270002
-0.065153576 -0.13561596 2.0270002
-0.057914287 -0.13127239 2.0270002
0.057914287 -0.13706382 2.0270002
0.061775241 -0.13320287 2.0270002
-0.065636195 -0.12548096 2.0270002
-0.054053336 -0.12355048 2.0270002
0.06370572 -0.12548096 2.0270002
-0.081080005 -0.11968953 2.0270002
-0.066118814 -0.11631119 2.0270002
-0.055983812 -0.11775905 2.0270002
0.065636195 -0.11582857 2.0270002
-0.067952767 -0.10424571 2.0270002
0.069497146 -0.10617619 2.0270002
0.073358096 -0.10231523 2.0270002
-0.065636195 -0.094593339 2.0270002
-0.056627303 -0.09523683 2.0270002
-0.043757457 -0.093949847 2.0270002
-0.036679052 -0.092662863 2.0270002
0.075288579 -0.094593339 2.0270002
-0.074323334 -0.083975717 2.0270002
-0.065636195 -0.084940962 2.0270002
-0.055597715 -0.083396576 2.0270002
-0.044400953 -0.084940955 2.0270002
-0.035520766 -0.085713148 2.0270002
0.076253816 -0.085906193 2.0270002
0.081080005 -0.08301048 2.0270002
-0.073358096 -0.075288579 2.0270002
-0.065636195 -0.075674675 2.0270002
-0.054053336 -0.075288571 2.0270002
-0.046331432 -0.075288579 2.0270002
0.075932071 -0.07464508 2.0270002
0.081080005 -0.075288579 2.0270002
-0.08301048 -0.065636195 2.0270002
-0.075288579 -0.06756667 2.0270002
-0.069497146 -0.065636195 2.0270002
-0.053409845 -0.066279687 2.0270002
-0.046331432 -0.065636195 2.0270002
-0.030887621 -0.06370572 2.0270002
-0.027026668 -0.061775241 2.0270002
0.077219054 -0.069497146 2.0270002
0.092662863 -0.061775241 2.0270002
-0.064349212 -0.05534032 2.0270002
-0.055018574 -0.056949049 2.0270002
-0.044400956 -0.054053336 2.0270002
-0.034748573 -0.054053336 2.0270002
-0.027026668 -0.052122861 2.0270002
0.077219054 -0.054053336 2.0270002
0.086227931 -0.051479369 2.0270002
0.093949847 -0.05534032 2.0270002
-0.06370572 -0.044400953 2.0270002
-0.053088099 -0.044400953 2.0270002
-0.044400953 -0.044400956 2.0270002
-0.03571381 -0.044400953 2.0270002
-0.027026668 -0.046331432 2.0270002
0.08687143 -0.044400953 2.0270002
0.092662863 -0.044400953 2.0270002
-0.06370572 -0.034748573 2.0270002
-0.054604899 -0.035851706 2.0270002
-0.042470478 -0.036679052 2.0270002
-0.036679048 -0.034748573 2.0270002
-0.01544381 -0.030887621 2.0270002
-0.0048261909 -0.033783335 2.0270002
0 -0.030887621 2.0270002
0.077219054 -0.034748573 2.0270002
0.084940962 -0.034748577 2.0270002
0.092662863 -0.030887621 2.0270002
-0.084940955 -0.025096193 2.0270002
-0.06370572 -0.027026668 2.0270002
-0.057914287 -0.025096193 2.0270002
-0.042470478 -0.025096193 2.0270002
-0.036679052 -0.025096193 2.0270002
0.087514915 -0.025739685 2.0270002
0.093949847 -0.024452701 2.0270002
0.10617619 -0.023165716 2.0270002
-0.08687143 -0.019304764 2.0270002
-0.057914287 -0.01544381 2.0270002
-0.045044448 -0.012869842 2.0270002
-0.03320419 -0.013899429 2.0270002
0.088801906 -0.017374286 2.0270002
0.094979435 -0.016216001 2.0270002
0.10424571 -0.01544381 2.0270002
0.1138981 -0.011582858 2.0270002
-0.054053336 -0.005791429 2.0270002
-0.044400953 -0.0077219051 2.0270002
-0.036679052 -0.005791429 2.0270002
0.10424571 -0.0077219051 2.0270002
0.11582857 -0.0077219051 2.0270002
0.12548096 -0.0038609526 2.0270002
-0.081080005 0.0038609526 2.0270002
-0.077219054 0.0038609526 2.0270002
-0.052122861 0 2.0270002
-0.10810667 0.20849143 2.0270002
-0.10810667 0.21428287 2.0270002
-0.10328047 0.32528526 2.0270002
-0.10424571 0.33976382 2.0270002
-0.10295872 0.34619871 2.0270002
-0.10347352 0.35597983 2.0270002
-0.10038476 0.38416478 2.0270002
-0.10295872 0.39510414 2.0270002
-0.10360222 0.42599177 2.0270002
-0.11196762 0.43628764 2.0270002
-0.1061762 0.43435717 2.0270002
-0.11196762 0.44014859 2.0270002
-0.10424571 0.44345799 2.0270002
-0.10192914 0.45482022 2.0270002
-0.096523814 0.45945334 2.0270002
-0.052122861 0.45462716 2.0270002
-0.044787049 0.45482022 2.0270002
-0.10424572 0.46524477 2.0270002
-0.096523814 0.46524477 2.0270002
-0.050192382 0.46524477 2.0270002
-0.045044448 0.46588826 2.0270002
-0.11196762 0.47489715 2.0270002
-0.10424571 0.47489718 2.0270002
-0.094593339 0.4710362 2.0270002
-0.050192382 0.4710362 2.0270002
-0.046331432 0.4710362 2.0270002
-0.10038476 0.48454955 2.0270002
-0.093949847 0.48519304 2.0270002
-0.10038476 0.49034098 2.0270002
-0.094593339 0.49034098 2.0270002
-0.08687143 0.4961324 2.0270002
-0.081080005 0.5019238 2.0270002
-0.075932071 0.50835878 2.0270002
-0.075288579 0.51543719 2.0270002
-0.065636195 0.51543719 2.0270002
-0.054053336 0.51736766 2.0270002
-0.044400953 0.51736766 2.0270002
-0.038609527 0.51543719 2.0270002
-0.073358096 0.52122861 2.0270002
-0.065636195 0.52315909 2.0270002
-0.054053336 0.52315909 2.0270002
0.034954287 -0.17282951 2.039
0.042721905 -0.17088762 2.039
0.038838096 -0.16506191 2.039
0.044663809 -0.15729429 2.039
-0.083501905 -0.14564286 2.039
-0.075086989 -0.14629017 2.039
0.050489526 -0.14758477 2.039
0.062140957 -0.14370096 2.039
-0.093211435 -0.13787524 2.039
-0.086220577 -0.13671009 2.039
-0.075345911 -0.13515659 2.039
-0.069908574 -0.13204953 2.039
0.065053813 -0.1369043 2.039
-0.082854606 -0.12428191 2.039
-0.075734288 -0.12428191 2.0389998
0.068613969 -0.12428191 2.039
-0.083501905 -0.11457238 2.039
-0.075734288 -0.11457238 2.039
0.069908574 -0.11457238 2.039
0.073792383 -0.11457238 2.039
-0.083890282 -0.10330933 2.039
-0.075734288 -0.10486286 2.0389998
0.07670524 -0.10583381 2.039
0.081560001 -0.10292096 2.039
-0.08803302 -0.094506033 2.039
-0.075734288 -0.095153339 2.039
0.077676192 -0.097095244 2.039
0.084667049 -0.095541723 2.039
-0.08544381 -0.08544381 2.039
-0.077676192 -0.087385714 2.039
-0.042721905 -0.081560001 2.039
-0.036896192 -0.081560001 2.039
0.086553469 -0.085998639 2.0389998
0.094506033 -0.082854606 2.039
-0.081560001 -0.077676192 2.039
-0.042721905 -0.075734288 2.039
-0.036896192 -0.075734288 2.039
0.087385714 -0.075734288 2.039
0.095153339 -0.075734288 2.039
0.10097905 -0.073792383 2.039
-0.083501905 -0.062140957 2.039
-0.075734288 -0.062140957 2.039
-0.042721909 -0.066024765 2.039
-0.036896188 -0.066024758 2.0389998
0.087385714 -0.069908574 2.039
0.095541723 -0.066801526 2.039
0.10292095 -0.066024758 2.0389998
-0.083501905 -0.058257144 2.039
-0.075734288 -0.058257144 2.039
-0.069908574 -0.054373335 2.039
-0.034954287 -0.054373335 2.039
0.095800638 -0.05307873 2.039
0.10292095 -0.054373335 2.0389998
-0.068613969 -0.045311112 2.039
-0.034954287 -0.046605717 2.039
0.097095244 -0.044663809 2.039
0.1040861 -0.044275425 2.039
-0.082854606 -0.03236508 2.039
-0.075734288 -0.031070478 2.039
-0.069908574 -0.033012383 2.039
-0.052431431 -0.031070478 2.039
-0.045634761 -0.033983335 2.039
0.095541723 -0.035731047 2.039
0.10486285 -0.034954283 2.0389998
0.11263048 -0.031070478 2.039
-0.081560001 -0.025244763 2.039
-0.075734288 -0.025244763 2.039
-0.066995718 -0.024273811 2.039
-0.052431431 -0.025244763 2.039
-0.046605717 -0.025244763 2.039
0.097095244 -0.027186668 2.039
0.10389191 -0.026215715 2.039
0.11457238 -0.025244763 2.039
-0.085443817 -0.014887936 2.0389998
-0.075086989 -0.018124444 2.039
-0.066024765 -0.015535237 2.0389998
-0.052431431 -0.015535238 2.0389998
-0.04401651 -0.018124444 2.039
-0.036896192 -0.017477144 2.039
0.10486286 -0.015535239 2.039
0.11457238 -0.017477144 2.039
0.12331096 -0.012622382 2.039
-0.065247998 -0.0062140957 2.039
0.12622382 -0.0077676196 2.039
0.13204953 -0.0038838098 2.039
-0.064082861 0 2.039
-0.058257144 0 2.039
-0.10874667 0.32624 2.039
-0.10874667 0.33012381 2.039
-0.10486286 0.36507812 2.039
-0.10486286 0.37478763 2.039
-0.10356826 0.38449717 2.039
-0.10292096 0.39226478 2.039
-0.11263048 0.44663811 2.039
-0.11263048 0.45052192 2.039
-0.10874667 0.45440575 2.039
-0.10486286 0.46217334 2.039
-0.085443817 0.50489521 2.039
-0.081560001 0.51460481 2.039
-0.081560001 0.52043051 2.039
-0.066024765 0.5262562 2.039
-0.058257144 0.5262562 2.039
0.044926669 -0.16505668 2.0510001
0.05274 -0.15236001 2.0510001
0.056646667 -0.14650001 2.0510001
0.066413336 -0.14454667 2.0510001
0.070320003 -0.14064001 2.0510001
-0.093760006 -0.13282667 2.0510001
-0.087900005 -0.13282667 2.0510001
0.071622223 -0.13412888 2.0510001
-0.093760006 -0.12892 2.0510001
-0.088290676 -0.12579468 2.0510001
0.075342856 -0.12557144 2.0510004
0.082040004 -0.12306 2.0510001
-0.089853339 -0.1172 2.0510001
0.078133337 -0.11524667 2.0510001
0.082040004 -0.11524667 2.0510001
-0.085946672 -0.10743333 2.0510001
0.085946672 -0.10548 2.0510001
-0.083342224 -0.096364446 2.0510001
0.089853339 -0.093760006 2.0510001
0.095062226 -0.095062226 2.0510001
-0.083993338 -0.087900005 2.0510001
0.096364446 -0.088551112 2.0510001
0.10287556 -0.083342224 2.0510001
0.10626134 -0.075008005 2.0510001
0.10938667 -0.064460002 2.0510001
-0.082040004 -0.05274 2.0510001
-0.076180004 -0.052740004 2.0510001
0.10938666 -0.05469333 2.0510001
0.11329333 -0.054693338 2.0510001
-0.083342224 -0.044275556 2.0510001
-0.076180004 -0.044926669 2.0510001
0.10938667 -0.046880003 2.0510001
0.11524666 -0.044926669 2.0510001
-0.084644444 -0.037764445 2.0510001
-0.075008005 -0.037504002 2.0510001
0.11563732 -0.035941336 2.0510001
0.12240889 -0.032555554 2.0510001
0.12423201 -0.025002668 2.0510001
-0.082040004 -0.011720001 2.0510001
-0.07683111 -0.013022223 2.0510001
0.12579468 -0.017970668 2.0510001
0.13282667 -0.011720001 2.0510001
-0.085946672 -0.0058600004 2.0510004
-0.075008005 -0.0054693334 2.0510001
0.13543111 -0.0065111113 2.0510001
-0.085946672 0.00097666669 2.0510001
-0.07422667 0 2.0510001
-0.10938667 0.35941336 2.0510001
-0.10938667 0.36332002 2.0510001
-0.10548001 0.37448195 2.0510004
-0.10548 0.38285336 2.0510001
-0.10938666 0.39457336 2.0510001
-0.11329333 0.46489334 2.0510001
-0.10938667 0.46489334 2.0510001
-0.094736673 0.50298339 2.0510001
-0.089853339 0.50786668 2.0510001
-0.087900005 0.51568002 2.0510004
-0.05078667 0.52740002 2.0510001
-0.044926669 0.52740002 2.0510001
0.051083811 -0.15718096 2.0630002
0.058942858 -0.14932191 2.0630002
0.064837143 -0.14932191 2.0630002
0.070731431 -0.14539239 2.0630002
0.07662572 -0.13556857 2.0630002
0.082520001 -0.13360381 2.0630002
-0.096273333 -0.12770952 2.0630002
0.085139684 -0.12574476 2.0630002
-0.092343815 -0.1139562 2.0630002
0.086449526 -0.11592096 2.0630002
0.090379052 -0.11002667 2.0630002
-0.090379052 -0.10609715 2.0630002
0.092998736 -0.10478731 2.0630002
0.098238096 -0.098238096 2.0630002
0.10315 -0.093326196 2.0630002
0.10609715 -0.086449526 2.0630002
0.11002667 -0.082520001 2.0630002
0.11297382 -0.075643338 2.0630002
0.1139562 -0.064837143 2.0630002
-0.086449526 -0.053048573 2.0630002
0.11788573 -0.055013333 2.0630002
-0.086449526 -0.047154289 2.0630002
0.12181524 -0.045189526 2.0630002
0.12574476 -0.036348097 2.0630002
0.12967429 -0.027506668 2.0630002
0.13491365 -0.024886986 2.0630002
0.13596153 -0.016504001 2.0630002
0.14146286 -0.0078590475 2.0630002
-0.11002667 0.34972763 2.0630002
-0.11002667 0.35365716 2.0630002
-0.1139562 0.37526953 2.0630002
-0.1139562 0.39491713 2.0630002
-0.1139562 0.40081143 2.0630002
-0.098238096 0.5069086 2.0630002
-0.095618419 0.51476759 2.0630002
-0.094308577 0.5226267 2.0630002
0.047451429 -0.16608001 2.0760002
0.057337143 -0.1561943 2.0760002
0.065245718 -0.15421715 2.0760002
0.071177147 -0.15026286 2.0760002
0.077108577 -0.14235429 2.0760002
0.079085715 -0.1384 2.0760002
0.085676193 -0.13444571 2.0760002
-0.098857149 -0.12653714 2.0760002
0.093321145 -0.11546514 2.0760002
0.098857149 -0.10478857 2.0760002
0.10676572 -0.096880004 2.0760002
0.11072 -0.090948574 2.0760002
0.11269715 -0.085017145 2.0760002
0.11862858 -0.075131424 2.0760002
0.11862858 -0.065245718 2.0760002
0.12258286 -0.065245718 2.0760002
0.12357143 -0.055360004 2.0760002
0.12653714 -0.045474287 2.0760002
0.13345715 -0.034600001 2.0760002
0.1384 -0.02768 2.0760002
0.14235429 -0.023725715 2.0760002
0.14334287 -0.014828572 2.0760002
0.15026286 -0.011862857 2.0760002
0.14433143 -0.0059314286 2.0760002
0.053691432 -0.16306287 2.0880001
0.065622866 -0.16306287 2.0880001
0.071588576 -0.16306287 2.0880001
0.059657145 -0.15908572 2.0880001
0.065622866 -0.15908572 2.0880001
0.073577151 -0.15510857 2.0880001
0.077554286 -0.14715429 2.0880001
0.084845714 -0.14450286 2.0880001
0.099428572 -0.14715429 2.0880001
0.087497145 -0.1392 2.0880001
0.093065143 -0.13442743 2.0880001
-0.097440004 -0.12329143 2.0880001
0.093462855 -0.12528001 2.0880001
-0.099428572 -0.11931429 2.0880001
0.099428572 -0.11533716 2.0880001
0.10340572 -0.10340572 2.0880001
0.11334858 -0.093462855 2.0880001
0.11732572 -0.08550857 2.0880001
0.12428572 -0.074571431 2.0880001
0.12726858 -0.065622866 2.0880001
0.12726858 -0.055680003 2.0880001
0.13124572 -0.055680003 2.0880001
0.13124572 -0.045737144 2.0880001
0.13654858 -0.037120003 2.0880001
0.14317715 -0.031817146 2.0880001
0.14516571 -0.025851429 2.0880001
0.14715429 -0.017897144 2.0880001
0.15312001 -0.0079542864 2.0880001
0.054025717 -0.16808 2.1010001
0.061362546 -0.16674604 2.1010001
0.076036192 -0.1600762 2.1010001
0.082039051 -0.1600762 2.1010001
0.084040008 -0.15407334 2.1010001
0.09404476 -0.15207238 2.1010001
0.088041909 -0.14807048 2.1010001
0.09404476 -0.14406858 2.1010001
0.10004763 -0.14206763 2.1010001
0.10204858 -0.13406381 2.1010001
0.11605524 -0.13406381 2.1010001
0.12005715 -0.13406381 2.1010001
-0.10404953 -0.1220581 2.1010001
0.10244878 -0.12485943 2.1010001
0.10404953 -0.11405428 2.1010001
0.10671746 -0.10671747 2.1010001
0.11405428 -0.10004763 2.1010001
0.11605524 -0.096045718 2.1010001
0.12005715 -0.09204381 2.1010001
0.12405905 -0.08504048 2.1010001
0.12806095 -0.076036192 2.1010001
0.13206287 -0.072034292 2.1010001
0.13406381 -0.064030476 2.1010001
0.13606477 -0.054025717 2.1010001
0.14006667 -0.056026667 2.1010001
0.13606477 -0.046021909 2.1010001
0.14006667 -0.042020001 2.1010001
0.14606953 -0.034016192 2.1010001
0.14807048 -0.028013334 2.1010001
0.15340634 -0.021343494 2.1010001
0.15474032 -0.01467365 2.1010001
0.1600762 -0.012005715 2.1010001
0.096640006 -0.14898667 2.1140001
0.10670666 -0.14294666 2.1140001
0.11274667 -0.14093333 2.1140001
0.10872 -0.13489333 2.1140001
0.11274667 -0.13489333 2.1140001
0.10872 -0.1208 2.1140001
0.10872 -0.11476 2.1140001
0.11274667 -0.10469334 2.1140001
0.12281334 -0.094626673 2.1140001
0.14496 -0.092613339 2.1140001
0.12885334 -0.086573333 2.1140001
0.13288 -0.080533333 2.1140001
0.14697334 -0.080533333 2.1140001
0.13489333 -0.076506667 2.1140001
0.14697334 -0.076506667 2.1140001
0.15301333 -0.076506667 2.1140001
0.13690667 -0.068453334 2.1140001
0.14294666 -0.066440001 2.1140001
0.14093333 -0.052346669 2.1140001
0.14361776 -0.044293333 2.1140001
0.14898667 -0.03624 2.1140001
0.15502667 -0.026173335 2.1140001
0.10938857 -0.12762001 2.1270001
0.11445286 -0.12660715 2.1270001
0.12154286 -0.12964572 2.1270001
0.11344001 -0.11546572 2.1270001
0.11614095 -0.1080381 2.1270001
0.12356858 -0.10128572 2.1270001
0.12762001 -0.09520857 2.1270001
0.13774857 -0.081028573 2.1270001
0.14450096 -0.085079998 2.1270001
0.13774857 -0.072925717 2.1270001
0.14315048 -0.074276194 2.1270001
0.14504114 -0.064822868 2.1270001
0.14585143 -0.054694287 2.1270001
0.1485524 -0.044565719 2.1270001
0.1539543 -0.03241143 2.1270001
0.15800571 -0.028360002 2.1270001
0.16205715 -0.024308572 2.1270001
0.10598096 -0.15081905 2.1400001
0.11005715 -0.15081905 2.1400001
0.11820953 -0.12432382 2.1400001
0.11820953 -0.11617143 2.1400001
0.12228572 -0.11005715 2.1400001
0.12432382 -0.10598096 2.1400001
0.13451429 -0.095111109 2.1400001
0.14266667 -0.093752384 2.1400001
0.13655239 -0.087638095 2.1400001
0.14266667 -0.087638095 2.1400001
0.15081905 -0.087638095 2.1400001
0.15081905 -0.073371433 2.1400001
0.1521778 -0.062501587 2.1400001
0.15081905 -0.055028573 2.1400001
0.15285715 -0.044838097 2.1400001
0.15693334 -0.034647621 2.1400001
0.16304763 -0.032609526 2.1400001
0.16440636 -0.023098415 2.1400001
0.16508572 -0.016304763 2.1400001
0.12439556 -0.12576254 2.1530001
0.12507905 -0.11482667 2.1530001
0.13123049 -0.11072572 2.1530001
0.13328096 -0.10457429 2.1530001
0.13738191 -0.098422863 2.1530001
0.15788667 -0.073817149 2.1530001
0.15720318 -0.068349212 2.1530001
0.15583619 -0.055362858 2.1530001
0.15788667 -0.045110479 2.1530001
0.16403811 -0.041009527 2.1530001
0.15993714 -0.036908574 2.1530001
0.16608858 -0.0348581 2.1530001
0.16813906 -0.024605716 2.1530001
0.16813906 -0.012302858 2.1530001
0.17224 -0.014353335 2.1530001
0.1279562 -0.12382858 2.1670001
0.13414763 -0.12382858 2.1670001
0.1279562 -0.11970095 2.1670001
0.13414763 -0.11350953 2.1670001
0.14033905 -0.10319048 2.1670001
0.14653048 -0.09906286 2.1670001
0.16304097 -0.063978098 2.1670001
0.16097715 -0.055722859 2.1670001
0.16372889 -0.048155557 2.1670001
0.16923238 -0.028893335 2.1670001
0.13293715 -0.12047429 2.181
0.14332286 -0.10801143 2.181
0.16617143 -0.05608286 2.181
0.13790858 -0.11701334 2.194
0.14417714 -0.11492382 2.194
0.15044571 -0.11492382 2.194
0.14626667 -0.10447619 2.194
0.15044571 -0.10447619 2.194
0.17134096 -0.037611429 2.194
0.13878858 -0.12196572 2.2080002
0.14299428 -0.12196572 2.2080002
0.15350857 -0.10934857 2.2080002
0.17243429 -0.06308572 2.2080002
0.17243429 -0.042057145 2.2080002
0.17360573 -0.055045713 2.223
0.17360573 -0.046577144 2.223
0.18419144 -0.012702858 2.223
0.19054286 -0.012702858 2.223
0.17896001 -0.025565714 2.237
0.18535143 -0.01704381 2.237
0.18016 -0.060053337 2.2520001
0.18230475 -0.053619049 2.2520001
0.18016 -0.042895239 2.2520001
0.18444954 -0.033601273 2.2520001
0.18659431 -0.023592381 2.2520001
0.19302858 -0.021447619 2.2520001
0.19517335 -0.017158097 2.2520001
0.18343809 -0.045320004 2.266
0.1855962 -0.038845714 2.266
0.19422857 -0.032371432 2.266
0.19710605 -0.024458414 2.266
0.20286097 -0.021580953 2.266
0.18682477 -0.06082667 2.2810001
0.18682477 -0.047792383 2.2810001
0.19116953 -0.043447621 2.2810001
0.19116953 -0.03910286 2.2810001
0.17938477 -0.10063048 2.2970002
0.18376 -0.10063048 2.2970002
0.18594763 -0.065628573 2.2970002
0.19251049 -0.061253335 2.2970002
0.19688572 -0.043752383 2.2970002
0.19688572 -0.039377145 2.2970002
0.20417778 -0.014584128 2.2970002
0.21001144 -0.015313335 2.2970002
0.16587682 -0.11156318 2.312
0.17395049 -0.11229714 2.312
0.16587682 -0.10275557 2.312
0.17468446 -0.10275557 2.312
0.18055619 -0.10569143 2.312
0.16734476 -0.094681904 2.312
0.17395049 -0.096883811 2.312
0.18055619 -0.094681904 2.312
0.16734476 -0.088076197 2.312
0.18202412 -0.086608261 2.312
0.17615239 -0.077066675 2.312
0.18349206 -0.073396824 2.312
0.19376762 -0.066057146 2.312
0.19596952 -0.052845716 2.312
0.19596952 -0.048441906 2.312
0.20257525 -0.044038098 2.312
0.20257525 -0.039634287 2.312
0.1639981 -0.10637715 2.3270001
0.17286286 -0.10637715 2.3270001
0.17507905 -0.093080007 2.3270001
0.17507905 -0.086431429 2.3270001
0.20388953 -0.048756193 2.3270001
0.17133334 -0.17133334 2.5700002
0.17378096 -0.16399048 2.5700002
0.17622858 -0.15664762 2.5700002
0.15780573 -0.19232573 2.5890002
0.16520286 -0.19232573 2.5890002
0.15780573 -0.18739429 2.5890002
0.16273715 -0.18739429 2.5890002
0.16766858 -0.17506573 2.5890002
0.17753144 -0.1726 2.5890002
0.20712 -0.093697146 2.5890002
0.21205144 -0.093697146 2.5890002
0.20712 -0.088765718 2.5890002
0.15902478 -0.19878095 2.6090002
0.16647905 -0.19878095 2.6090002
0.15902478 -0.18387239 2.6090002
0.1673073 -0.18552889 2.6090002
0.1764181 -0.18387239 2.6090002
0.15902478 -0.17890286 2.6090002
0.1639943 -0.17890286 2.6090002
0.1764181 -0.17890286 2.6090002
0.18552889 -0.1656508 2.6090002
0.19381143 -0.1639943 2.6090002
0.18635714 -0.15654001 2.6090002
0.19546793 -0.15571176 2.6090002
0.18635714 -0.14411619 2.6090002
0.19629619 -0.14660095 2.6090002
0.20375048 -0.14660096 2.6090002
0.18718541 -0.13749017 2.6090002
0.19629619 -0.13666192 2.6090002
0.20375048 -0.13914667 2.6090002
0.20872001 -0.10684477 2.6090002
0.2161743 -0.10436001 2.6090002
0.21700256 -0.097733974 2.6090002
0.22362858 -0.096905716 2.6090002
0.2161743 -0.086966671 2.6090002
0.17526667 -0.19028953 2.6290002
0.18528192 -0.17526667 2.6290002
0.19279334 -0.17025906 2.6290002
0.20280859 -0.16274762 2.6290002
0.19028953 -0.15022857 2.6290002
0.20531239 -0.1552362 2.6290002
0.20531239 -0.1327019 2.6290002
0.20531239 -0.12519048 2.6290002
0.21198921 -0.12185206 2.6290002
0.22283906 -0.12018286 2.6290002
0.21532762 -0.11267143 2.6290002
0.22283906 -0.11267143 2.6290002
0.22534287 -0.10516001 2.6290002
0.23285429 -0.1026562 2.6290002
0.24203493 -0.10349081 2.6290002
0.25038096 -0.10516001 2.6290002
0.22534287 -0.090137146 2.6290002
0.23285429 -0.095144764 2.6290002
0.24036573 -0.095144764 2.6290002
0.28543431 -0.005007619 2.6290002
0.29044193 -0.005007619 2.6290002
0.20435144 -0.19173715 2.6490002
0.18669143 -0.18416858 2.6490002
0.19173715 -0.18416858 2.6490002
0.19173715 -0.17660001 2.6490002
0.20182858 -0.1715543 2.6490002
0.18669143 -0.15137143 2.6490002
0.2136019 -0.14464383 2.6490002
0.22453429 -0.14632572 2.6490002
0.21444286 -0.13371143 2.6490002
0.22453429 -0.13371143 2.6490002
0.21696572 -0.12614286 2.6490002
0.22453429 -0.12614286 2.6490002
0.23210287 -0.12362 2.6490002
0.23462573 -0.11352858 2.6490002
0.24471715 -0.11352858 2.6490002
0.24724001 -0.10091429 2.6490002
0.23462573 -0.090822861 2.6490002
0.24219429 -0.090822861 2.6490002
0.22453429 -0.083254293 2.6490002
0.2455581 -0.052139048 2.6490002
0.25228572 -0.050457146 2.6490002
0.24471715 -0.042888571 2.6490002
0.25480857 -0.04541143 2.6490002
0.24471715 -0.025228573 2.6490002
0.25564954 -0.023546668 2.6490002
0.26237714 -0.025228573 2.6490002
0.27751431 -0.010091429 2.6490002
0.28508288 -0.012614286 2.6490002
0.18301715 -0.19318476 2.6690001
0.19826858 -0.19318476 2.6690001
0.19826858 -0.18555906 2.6690001
0.20335239 -0.18301715 2.6690001
0.19826858 -0.17793334 2.6690001
0.20674159 -0.17623873 2.6689999
0.21352001 -0.16522381 2.6690001
0.21521461 -0.1542089 2.6689999
0.21860382 -0.14234667 2.6690001
0.22622953 -0.14234667 2.6690001
0.23385525 -0.14234667 2.6690001
0.23554985 -0.13556826 2.6689999
0.23893906 -0.12455334 2.6690001
0.24571747 -0.12370604 2.6689999
0.24910668 -0.094050482 2.6690001
0.2567324 -0.094050482 2.6690001
0.22877143 -0.081340954 2.6690001
0.23724444 -0.084730171 2.6689999
0.24656478 -0.083882861 2.6690001
0.2567324 -0.081340954 2.6690001
0.2643581 -0.081340954 2.6690001
0.22877143 -0.07371524 2.6690001
0.23639715 -0.07371524 2.6690001
0.24656478 -0.07371524 2.6690001
0.25588509 -0.072867937 2.6689999
0.22622953 -0.066089526 2.6690001
0.23893906 -0.063547619 2.6690001
0.24656478 -0.063547619 2.6690001
0.2567324 -0.063547619 2.6690001
0.23893906 -0.053380005 2.6690001
0.24402286 -0.055921908 2.6690001
0.25757971 -0.054227307 2.6689999
0.2669 -0.053380005 2.6690001
0.23724444 -0.042365085 2.6689999
0.2567324 -0.040670477 2.6690001
0.2669 -0.04321238 2.6690001
0.27452573 -0.045754287 2.6690001
0.23893906 -0.033044763 2.6690001
0.24656478 -0.033044763 2.6690001
0.2567324 -0.033044763 2.6690001
0.2669 -0.033044763 2.6690001
0.24910668 -0.020335238 2.6690001
0.25419047 -0.020335238 2.6690001
0.26774731 -0.022029841 2.6689999
0.27706763 -0.022877146 2.6690001
0.28469333 -0.022877144 2.6690001
0.24910668 -0.015251429 2.6690001
0.2567324 -0.012709524 2.6690001
0.2669 -0.012709524 2.6690001
0.27622032 -0.013556826 2.6689999
0.18958096 -0.19470477 2.6900001
0.19470477 -0.19470477 2.6900001
0.20495239 -0.18958096 2.6900001
0.21178414 -0.18616509 2.6899998
0.21520001 -0.17677143 2.6900001
0.2237397 -0.17762542 2.6899998
0.23057143 -0.17677143 2.6900001
0.22032382 -0.16652381 2.6900001
0.22288573 -0.1562762 2.6900001
0.23057143 -0.15371428 2.6900001
0.24338096 -0.13321905 2.6900001
0.25619048 -0.10247619 2.6900001
0.2613143 -0.10247619 2.6900001
0.23569524 -0.081980959 2.6900001
0.25619048 -0.087104768 2.6900001
0.2638762 -0.087104768 2.6900001
0.27156192 -0.084542863 2.6900001
0.26473019 -0.075149208 2.6899998
0.23569524 -0.06404762 2.6900001
0.2664381 -0.06404762 2.6900001
0.27668571 -0.040990479 2.6900001
0.23569524 -0.035866667 2.6900001
0.27668571 -0.033304762 2.6900001
0.22462572 -0.17298763 2.7110002
0.23237143 -0.17040572 2.7110002
0.22720763 -0.16266 2.7110002
0.23686001 -0.16398001 2.733
0.23946287 -0.15617144 2.733
0.82657146 -0.022041906 2.8930001
0.8348372 -0.024797142 2.8930001
0.84310287 -0.024797143 2.8930001
0.82657146 -0.013776191 2.8930001
0.83483714 -0.013776191 2.8930001
0.84310287 -0.013776191 2.8930001
0.82657146 -0.0055104764 2.8930001
0.8348372 -0.0055104764 2.8930001
0.8458581 -0.0055104764 2.8930001
0.40560192 -0.11390191 2.9170001
0.41115811 -0.11390191 2.9170001
0.74452955 -0.10001143 2.9170001
0.76397622 -0.10001143 2.9170001
0.74452955 -0.094455242 2.9170001
0.75564194 -0.094455242 2.9170001
0.76397622 -0.094455242 2.9170001
0.68896765 -0.088899054 2.9170001
0.74452955 -0.086120956 2.9170001
0.76305014 -0.085194923 2.9170001
0.77786672 -0.088899054 2.9170001
0.74452955 -0.077786669 2.9170001
0.75564194 -0.077786669 2.9170001
0.76305014 -0.075934611 2.9170001
0.77508861 -0.075008571 2.9170001
0.786201 -0.077786669 2.9170001
0.79453528 -0.075008571 2.9170001
0.80009145 -0.077786669 2.9170001
0.81398189 -0.075008571 2.9170001
0.68896765 -0.066674285 2.9170001
0.70285809 -0.066674285 2.9170001
0.71397054 -0.066674285 2.9170001
0.72415686 -0.064822227 2.9170001
0.74452955 -0.061118096 2.9170001
0.77786672 -0.063896194 2.9170001
0.78342289 -0.061118096 2.9170001
0.79453528 -0.061118096 2.9170001
0.80564767 -0.061118096 2.9170001
0.81398195 -0.063896194 2.9170001
0.82509434 -0.063896194 2.9170001
0.83342862 -0.066674285 2.9170001
0.7056362 -0.050005715 2.9170001
0.72230476 -0.05278381 2.9170001
0.77786672 -0.05278381 2.9170001
0.786201 -0.052783813 2.9170001
0.79453528 -0.05278381 2.9170001
0.80286956 -0.05278381 2.9170001
0.81398189 -0.052783813 2.9170001
0.82509434 -0.05278381 2.9170001
0.83528066 -0.051857781 2.9170001
0.72230476 -0.044449527 2.9170001
0.77786672 -0.044449527 2.9170001
0.786201 -0.044449527 2.9170001
0.79453528 -0.044449527 2.9170001
0.80286956 -0.044449527 2.9170001
0.81398189 -0.044449527 2.9170001
0.82231623 -0.044449527 2.9170001
0.83620667 -0.044449527 2.9170001
0.84454101 -0.044449527 2.9170001
0.72230476 -0.038893335 2.9170001
0.77786672 -0.038893335 2.9170001
0.78712702 -0.037041269 2.9170001
0.79453528 -0.038893335 2.9170001
0.80564767 -0.038893335 2.9170001
