# .PCD v0.7 - Point Cloud Data file format
VERSION 0.7
FIELDS x y z
SIZE 4 4 4
TYPE F F F
COUNT 1 1 1
WIDTH 1560
HEIGHT 1
VIEWPOINT 0 0 0 1 0 0 0
POINTS 1560
DATA ascii
0.33748344 0.26542822 1.6166
0.34596097 0.26446712 1.6145
0.35365286 0.26313001 1.6110001
0.66772115 0.26451087 1.6110001
0.67493719 0.26504382 1.618
0.32580137 0.27472979 1.618
0.33560169 0.27402729 1.6164445
0.34571934 0.27448851 1.6119334
0.66763347 0.27485636 1.6110001
0.67493719 0.27428955 1.618
0.31743619 0.28353524 1.618
0.32570043 0.28454834 1.6175001
0.33531985 0.28455845 1.6150833
0.34481713 0.28542808 1.6127501
0.65974289 0.28691143 1.6110001
0.664828 0.28558603 1.6121668
0.67185527 0.2850762 1.618
0.32723588 0.29441336 1.6156667
0.33560318 0.2955814 1.6164445
0.34546098 0.29479733 1.6121668
0.35534057 0.296424 1.6110001
0.65744144 0.29381573 1.6110001
0.66492099 0.2950924 1.618
0.33592764 0.30510861 1.618
0.34621808 0.30563292 1.6142668
0.35534057 0.30470914 1.6110001
0.65974289 0.30532289 1.6110001
0.66569144 0.30510858 1.618
0.33680817 0.31391403 1.618
0.34603018 0.31556523 1.6141819
0.35442004 0.3160629 1.6110001
0.65755111 0.3165012 1.6110001
0.66569144 0.3143543 1.618
0.32976383 0.32668191 1.618
0.33623582 0.3242164 1.618
0.34584072 0.3253985 1.6160001
0.35442004 0.3252686 1.6110001
0.65514004 0.3252686 1.6110001
0.6643706 0.32580137 1.618
0.3467173 0.3344011 1.617
0.35424635 0.3354806 1.6125556
0.65611106 0.33486447 1.615
0.66338003 0.33515716 1.618
0.34825525 0.3436324 1.618
0.35559872 0.34495825 1.6147692
0.36362574 0.34674859 1.6110001
0.65489787 0.34588253 1.6133333
0.66260958 0.34671432 1.618
0.35503545 0.35256991 1.618
0.36549562 0.35442209 1.6152
0.37558571 0.35557669 1.61625
0.38203716 0.35748857 1.6110001
0.6535424 0.35551375 1.613
0.37599239 0.36058286 1.618
0.38570318 0.36365175 1.6156667
0.39334157 0.36876193 1.6133333
0.64746857 0.36822858 1.6110001
0.65487242 0.36483938 1.6141112
0.38832003 0.37599239 1.618
0.39516258 0.37518123 1.6145
0.40466785 0.3747493 1.6110001
0.41272289 0.37743431 1.6110001
0.64670146 0.37436575 1.6110001
0.6534915 0.37517905 1.6145
0.38832006 0.38523808 1.618
0.39559147 0.38558856 1.61625
0.404847 0.38500598 1.612077
0.41195571 0.38357145 1.6110001
0.64644569 0.38612857 1.6110001
0.65408236 0.38334137 1.6152
0.38832003 0.39294288 1.618
0.39559147 0.39482436 1.61625
0.40598884 0.39545849 1.613
0.41272286 0.39584574 1.6110001
0.64352322 0.39540735 1.6110001
0.65233654 0.3944838 1.618
0.38832003 0.40989333 1.618
0.39482465 0.40501755 1.6174616
0.40535429 0.40583152 1.6169231
0.41409695 0.40565664 1.6118751
0.4203943 0.40658572 1.6110001
0.6436789 0.40513906 1.6138
0.65028191 0.4021886 1.618
0.39602479 0.4160572 1.618
0.40527046 0.41605714 1.618
0.41485271 0.41485718 1.6133333
0.4203943 0.41272289 1.6110001
0.63826287 0.41425717 1.6110001
0.64133143 0.41425717 1.6110001
0.38832003 0.42838478 1.618
0.39486906 0.42568809 1.618
0.40548971 0.42563346 1.6174616
0.41414061 0.42474478 1.6116364
0.63764918 0.42469031 1.6110001
0.64488864 0.42453238 1.618
0.39756572 0.43300763 1.618
0.40485021 0.43482876 1.618
0.4145124 0.43600765 1.6120001
0.42192858 0.43727145 1.6110001
0.6351943 0.43727145 1.6110001
0.64103621 0.43608955 1.618
0.39448383 0.4468762 1.618
0.40527046 0.4453353 1.618
0.41466498 0.44509983 1.6138
0.42141715 0.44596577 1.6110001
0.63723999 0.44494286 1.6110001
0.64188051 0.44639289 1.61625
0.40569076 0.45612192 1.618
0.41545272 0.45546415 1.6156667
0.42192855 0.45414856 1.6110001
0.63672858 0.45414859 1.6110001
0.64334768 0.45535144 1.618
0.40681142 0.46536765 1.618
0.41485274 0.46402538 1.6133333
0.42284918 0.46550232 1.6110001
0.6351943 0.46510774 1.6110001
0.64342147 0.4640938 1.61625
0.40681142 0.47461334 1.618
0.41605717 0.47461334 1.618
0.42407477 0.47550333 1.6118751
0.63335311 0.47501487 1.6110001
0.64103621 0.47461334 1.618
0.39448383 0.48385906 1.618
0.40681145 0.48077717 1.618
0.41644242 0.48347384 1.618
0.42529905 0.48440233 1.6141112
0.62905717 0.4863686 1.6110001
0.63504004 0.48434666 1.6145
0.64103621 0.48077717 1.618
0.41852269 0.49557027 1.618
0.42579168 0.49409527 1.6152
0.4326686 0.49404001 1.6110001
0.62905717 0.49404001 1.6110001
0.63545638 0.49438617 1.615
0.40989333 0.50235051 1.618
0.4160572 0.50543237 1.618
0.42622277 0.50496036 1.6156667
0.43469638 0.50622737 1.6117001
0.4418743 0.50631428 1.6110001
0.62675571 0.50324571 1.6110001
0.63487244 0.504816 1.618
0.4160572 0.51467812 1.618
0.42608416 0.5145523 1.6167274
0.43573719 0.51551998 1.6110001
0.4418743 0.51552004 1.6110001
0.6259886 0.51552004 1.6110001
0.63179052 0.51467812 1.618
0.41605717 0.52392381 1.618
0.42530286 0.52392381 1.618
0.43519324 0.52464145 1.6141819
0.44371542 0.52411205 1.6110001
0.62675571 0.52549285 1.6110001
0.63302326 0.52454019 1.618
0.41605714 0.53162861 1.618
0.42561108 0.53378594 1.618
0.43510541 0.53470898 1.6160001
0.4445045 0.53305471 1.6110001
0.45414859 0.53393143 1.6110001
0.46028572 0.537 1.6110001
0.62829006 0.53316426 1.6110001
0.63426948 0.53277999 1.6145
0.64103621 0.53471053 1.618
0.43744764 0.54200906 1.6145
0.4555026 0.5445556 1.6121668
0.46504825 0.54563308 1.6133333
0.63212574 0.54006857 1.6110001
0.44995812 0.55166095 1.618
0.45612192 0.55166095 1.618
0.46536762 0.55166095 1.618
0.66898286 0.021680001 1.626
0.67517722 0.026325716 1.626
0.68601716 0.03097143 1.626
0.69376004 0.034842856 1.626
0.69499886 0.045218289 1.626
0.69685715 0.054200001 1.626
0.6937601 0.06504 1.626
0.69376004 0.074331433 1.626
0.69376004 0.085171431 1.626
0.69376004 0.092914291 1.626
0.69066286 0.10530287 1.626
0.68756574 0.11149715 1.626
0.69066286 0.11459428 1.626
0.69066286 0.12388572 1.626
0.69066286 0.13317715 1.626
0.68756574 0.15640572 1.626
0.69066286 0.15176001 1.626
0.68756574 0.16414858 1.626
0.69066286 0.16724572 1.626
0.68756574 0.17498857 1.626
0.69066286 0.17498858 1.626
0.68679148 0.18660286 1.626
0.69066286 0.18428001 1.626
0.68601722 0.19511999 1.626
0.40572572 0.20750858 1.626
0.42430863 0.20750858 1.626
0.4351486 0.20596001 1.626
0.46457145 0.20750858 1.626
0.67827433 0.20750858 1.626
0.68214571 0.20363715 1.626
0.35926858 0.21989715 1.626
0.36856002 0.21989715 1.626
0.37413487 0.21803884 1.626
0.38404572 0.21783239 1.626
0.39643431 0.21370286 1.626
0.40572572 0.21060573 1.626
0.41501716 0.21060573 1.626
0.4878 0.21060573 1.626
0.4939943 0.21060573 1.626
0.67827433 0.21060573 1.626
0.68137145 0.21525143 1.626
0.34636381 0.22557525 1.626
0.35617146 0.22299428 1.626
0.36546287 0.22299428 1.626
0.68343616 0.22609144 1.626
0.3365562 0.23538287 1.626
0.34068573 0.23228572 1.626
0.68343616 0.23435049 1.626
0.33552381 0.24467428 1.626
0.34068573 0.24777144 1.626
0.68137145 0.24777144 1.626
0.3363497 0.25458515 1.626
0.33449143 0.26480573 1.6260002
0.68137145 0.26480573 1.626
0.31900573 0.27874288 1.626
0.32210287 0.27874288 1.626
0.33139428 0.27409714 1.626
0.68137145 0.27409714 1.626
0.31900573 0.28184 1.626
0.67827433 0.28493714 1.626
0.32365143 0.29577714 1.626
0.66898286 0.29732573 1.626
0.67414474 0.29422858 1.626
0.32829717 0.30506858 1.626
0.33139428 0.30661717 1.626
0.66898286 0.30042288 1.626
0.67208004 0.30506858 1.626
0.32829717 0.31590858 1.626
0.33263314 0.31652802 1.626
0.67208004 0.31590858 1.626
0.33139428 0.32365143 1.626
0.67208004 0.32520005 1.626
0.33537632 0.33404899 1.6260002
0.34171811 0.3365562 1.626
0.66898286 0.33758858 1.626
0.67208004 0.33294284 1.626
0.33449143 0.34068573 1.626
0.34555268 0.3437829 1.6260002
0.66898286 0.34842861 1.626
0.67208004 0.34997717 1.626
0.34997717 0.35307431 1.626
0.35307431 0.35617143 1.626
0.37475431 0.35926858 1.626
0.66278857 0.35772002 1.626
0.38327146 0.36623716 1.626
0.66588575 0.36391431 1.626
0.38714287 0.37165716 1.626
0.39024001 0.37320572 1.626
0.66278857 0.37475431 1.626
0.38611045 0.38611051 1.626
0.39024001 0.38094857 1.626
0.65969145 0.38714287 1.626
0.66278857 0.38094857 1.626
0.38611051 0.39385334 1.626
0.39024001 0.39953145 1.626
0.65891719 0.39488572 1.626
0.39024004 0.40572572 1.626
0.65556192 0.40572572 1.626
0.38714287 0.41501716 1.626
0.39178857 0.41656572 1.626
0.65194863 0.41501716 1.626
0.38714287 0.42430863 1.626
0.39147887 0.42368919 1.626
0.65194857 0.4235343 1.626
0.38714287 0.43050286 1.626
0.39436954 0.43669713 1.6260002
0.64730287 0.43669716 1.626
0.65040004 0.4351486 1.626
0.39695048 0.44547239 1.626
0.64730287 0.44444001 1.626
0.65040004 0.44598863 1.626
0.39550516 0.45466056 1.6260002
0.4026286 0.45837715 1.626
0.65040004 0.45527998 1.626
0.39875719 0.46534574 1.626
0.4026286 0.46612 1.626
0.65040004 0.46457145 1.626
0.3979829 0.47076574 1.626
0.40262857 0.47386289 1.626
0.64730287 0.47386289 1.626
0.39746669 0.4831543 1.626
0.40495145 0.48625141 1.6260002
0.41295239 0.48831621 1.626
0.64627051 0.4857353 1.626
0.65040004 0.48160571 1.626
0.40572572 0.49554288 1.6260002
0.41501719 0.49554288 1.6260002
0.64575434 0.49554288 1.626
0.40572575 0.50483429 1.6260002
0.41295242 0.50380188 1.626
0.64420575 0.50406003 1.626
0.40611288 0.51373857 1.6260002
0.41191998 0.5141257 1.626
0.63801146 0.51567429 1.626
0.64214092 0.51206094 1.626
0.40779051 0.52135235 1.626
0.41192001 0.5249657 1.626
0.63801146 0.52186859 1.626
0.64110857 0.52961147 1.626
0.41192001 0.53425717 1.626
0.64110857 0.53270859 1.626
0.46766859 0.55438858 1.626
0.68679875 0.02697397 1.6340002
0.69198608 0.026973968 1.6340002
0.69406098 0.031123811 1.6340001
0.70402062 0.036103617 1.6340001
0.70402062 0.044507049 1.6340001
0.70391685 0.056022856 1.6339999
0.70106387 0.064581908 1.6340001
0.70028573 0.074697144 1.6340002
0.70153069 0.08465676 1.6340001
0.69717336 0.09804 1.6340001
0.70106381 0.092593335 1.6340001
0.69717336 0.10582095 1.6340002
0.69717336 0.1151581 1.6340002
0.69717336 0.12449525 1.6340002
0.70028573 0.12449525 1.6340002
0.69717336 0.1338324 1.6340002
0.70028573 0.13072 1.6340001
0.69583946 0.14405878 1.6339999
0.69592839 0.15624154 1.6340001
0.69592845 0.16433373 1.6340001
0.70028573 0.16806857 1.6340001
0.69717336 0.17429334 1.6340002
0.69639528 0.18518667 1.6340001
0.69406098 0.19608001 1.6340002
0.3952724 0.20852953 1.6340002
0.40149716 0.20852953 1.6340001
0.41550288 0.20852953 1.6340001
0.42017144 0.20852953 1.6340001
0.43417716 0.20541716 1.6340001
0.44662669 0.20541716 1.6340001
0.45440763 0.20541716 1.6340001
0.46063238 0.20541716 1.6340001
0.47619429 0.20852953 1.6340002
0.48397526 0.20852953 1.6340001
0.50264955 0.20852953 1.6340001
0.68783623 0.20697334 1.6340001
0.69172668 0.20463905 1.6340001
0.35481143 0.21786667 1.6340001
0.36414859 0.21662173 1.6340001
0.3741082 0.21537678 1.6340001
0.38671333 0.21553239 1.6340001
0.39464992 0.21288686 1.6340001
0.68783623 0.21475428 1.6340002
0.69094867 0.21475428 1.6340002
0.33769333 0.22720382 1.6340001
0.3454743 0.22253525 1.6340001
0.35481143 0.22097905 1.6340002
0.36570477 0.22097905 1.6340001
0.68783623 0.22253525 1.6340001
0.69172668 0.22486952 1.6340001
0.33613715 0.23342857 1.6340001
0.68783623 0.23965335 1.6340001
0.69157106 0.23405106 1.6340001
0.32866743 0.2458781 1.6340001
0.33380285 0.24665619 1.6340001
0.68783623 0.2458781 1.6340002
0.69094861 0.24276572 1.6340001
0.32991239 0.25832763 1.6340001
0.33380285 0.25443715 1.6340001
0.68783623 0.25521526 1.6340002
0.32991239 0.26455238 1.6340002
0.33302477 0.2629962 1.6340001
0.68783623 0.26455238 1.6340002
0.31435049 0.27077717 1.6340001
0.32524383 0.27388954 1.6340001
0.68783623 0.27233335 1.6340001
0.32213145 0.28945145 1.6340001
0.68347895 0.28447166 1.6340001
0.31746286 0.29878858 1.6340001
0.3218202 0.2956762 1.6340001
0.67849904 0.29878858 1.6340001
0.68161148 0.29412001 1.6340001
0.32368764 0.30501336 1.6339999
0.67849904 0.30501333 1.6340002
0.32368764 0.31435049 1.6339999
0.67772096 0.31512856 1.6340001
0.32560295 0.32512411 1.6340002
0.67849904 0.32524383 1.6340001
0.32835621 0.33613715 1.6339999
0.33302477 0.33613715 1.6340001
0.67772096 0.33691522 1.6340001
0.33924952 0.34236193 1.6340001
0.34339938 0.3475492 1.6340002
0.66916192 0.3454743 1.6340001
0.67590541 0.34547427 1.6339999
0.34703049 0.35169905 1.6340001
0.66916192 0.35636765 1.6340001
0.67600912 0.35543391 1.6340001
0.35792384 0.36103621 1.6340001
0.36726096 0.36103621 1.6340001
0.37535316 0.36477107 1.6340001
0.66916192 0.36103621 1.6340001
0.67414176 0.36477107 1.6340001
0.3797105 0.37037334 1.6340001
0.38593528 0.37504193 1.6339999
0.66916192 0.3750419 1.6340001
0.38531274 0.3853128 1.6340001
0.66916192 0.38437906 1.6340001
0.38360098 0.39605051 1.6340001
0.38593522 0.40409079 1.6339999
0.66371524 0.40460953 1.6340001
0.38593525 0.41316858 1.6340001
0.65982479 0.41394672 1.6340002
0.3848978 0.42380258 1.6339999
0.65920234 0.42577371 1.6340001
0.66293716 0.42639622 1.6340001
0.38671333 0.43495527 1.6340001
0.65826863 0.43573335 1.6339999
0.38904762 0.44507051 1.6340002
0.39371622 0.44507051 1.6340001
0.65671241 0.44507051 1.6340002
0.38904762 0.4544076 1.6340002
0.39371622 0.45129526 1.6340001
0.65671241 0.4544076 1.6340002
0.38904762 0.46530098 1.6340001
0.39464992 0.46530098 1.6340001
0.65733492 0.46623468 1.6340001
0.38904762 0.47308192 1.6340001
0.39579114 0.47619429 1.6339999
0.40149716 0.47775048 1.6340001
0.6551562 0.47619426 1.6339999
0.39423493 0.48345652 1.6340002
0.65723115 0.48553145 1.6339999
0.39838478 0.49486861 1.6340002
0.40149716 0.49486861 1.6340002
0.6551562 0.49486861 1.6339999
0.39838478 0.50420576 1.6340002
0.40149716 0.50420576 1.6340002
0.65282196 0.50498384 1.6340001
0.39630985 0.51458031 1.6340002
0.40211964 0.51603281 1.6340001
0.64659721 0.51665533 1.6340001
0.65048766 0.51198673 1.6340001
0.40512824 0.52599239 1.6339999
0.41083431 0.52910477 1.6340001
0.64504099 0.52521431 1.6340001
0.40772191 0.53221714 1.6340001
0.41083431 0.5337733 1.6340001
0.64737529 0.5337733 1.6340001
0.67828 0.021880001 1.641
0.68619239 0.023496192 1.645
0.69716287 0.023496192 1.645
0.70385987 0.025948841 1.6444285
0.71456671 0.026698096 1.649
0.70484865 0.031257145 1.641
0.71596795 0.034461591 1.645
0.72241908 0.036120951 1.649
0.71422577 0.043760002 1.6409999
0.72241908 0.043973338 1.649
0.70953715 0.059388574 1.641
0.71509814 0.054770481 1.643
0.72241908 0.051825717 1.649
0.70797431 0.065640002 1.641
0.71703464 0.066408701 1.649
0.7071929 0.074235722 1.641
0.71535194 0.074597619 1.649
0.70875573 0.083612867 1.641
0.71613717 0.08480572 1.649
0.70797431 0.093771435 1.641
0.71509022 0.094228573 1.649
0.70613998 0.10490572 1.6439999
0.71299624 0.10051048 1.649
0.70406717 0.11487 1.641
0.70870733 0.12542985 1.6463333
0.71299624 0.12877905 1.649
0.70722747 0.13542399 1.6458
0.71299624 0.13192001 1.649
0.70657057 0.14413334 1.645
0.70610124 0.15437306 1.6444286
0.70651746 0.16436158 1.6436666
0.71299624 0.16804096 1.649
0.70542258 0.17518477 1.6423331
0.71299624 0.17589335 1.649
0.70657045 0.18486667 1.645
0.71299624 0.18531621 1.649
0.70504171 0.19399214 1.646
0.3847667 0.20730287 1.649
0.39449856 0.20783287 1.6470001
0.40518284 0.20730287 1.649
0.41460574 0.20730287 1.649
0.42402861 0.20730287 1.649
0.43240443 0.20625587 1.649
0.44287431 0.20416191 1.649
0.45635429 0.20629714 1.641
0.46729431 0.20629714 1.641
0.47510859 0.20629714 1.6410002
0.48527718 0.20651762 1.649
0.49525002 0.20889287 1.6430001
0.50196892 0.20767431 1.6436667
0.6970343 0.20786001 1.641
0.70345658 0.20463265 1.6455715
0.32980001 0.21986668 1.649
0.33671013 0.21861029 1.6489999
0.34547237 0.21731839 1.6467143
0.35465997 0.21598515 1.6434
0.36525592 0.21289144 1.6436666
0.37442955 0.21149622 1.645
0.38463646 0.21134588 1.6455715
0.39071429 0.21254858 1.641
0.6970343 0.2156743 1.6410002
0.70536816 0.21582831 1.649
0.32630518 0.2259014 1.6472223
0.33446646 0.22493121 1.643
0.34226573 0.22427002 1.641
0.6970343 0.22348857 1.641
0.7026481 0.22637762 1.645
0.31723621 0.23714191 1.649
0.32479236 0.2353375 1.6453637
0.33257604 0.23380344 1.641
0.6970343 0.23599145 1.641
0.70016003 0.23442858 1.6410002
0.31645098 0.24577954 1.649
0.32379445 0.24434458 1.6446365
0.3328886 0.24068001 1.641
0.69625282 0.24458715 1.641
0.70357335 0.24342382 1.649
0.29839048 0.25598764 1.649
0.30467242 0.25531456 1.649
0.31409526 0.25441715 1.649
0.32406873 0.25518653 1.6438572
0.33132574 0.25474572 1.641
0.69390857 0.25474572 1.641
0.70121765 0.25441715 1.649
0.29614696 0.26428869 1.649
0.30467239 0.26384002 1.649
0.31409526 0.26384002 1.649
0.32389998 0.26522431 1.643
0.69390851 0.26568571 1.6410002
0.70043242 0.26384002 1.649
0.28896764 0.27483332 1.649
0.29524949 0.27483335 1.649
0.30480984 0.27440307 1.6471539
0.31459782 0.274611 1.6440772
0.32272854 0.27371842 1.6423331
0.69312716 0.27584428 1.641
0.70043248 0.27326286 1.649
0.29760525 0.28504145 1.649
0.30524859 0.28490093 1.6436667
0.31569716 0.28444001 1.6409999
0.69325197 0.28435192 1.645
0.29742539 0.29429969 1.6436666
0.30500224 0.29405841 1.6423335
0.31569716 0.29381716 1.6409999
0.68765718 0.2922543 1.641
0.69100952 0.29839048 1.649
0.2971341 0.30530056 1.6489999
0.30551717 0.30440411 1.6427144
0.31541303 0.30518338 1.641
0.68453145 0.30475718 1.641
0.69100952 0.30467239 1.649
0.2971341 0.31346709 1.6489999
0.30555293 0.31467777 1.646091
0.31569713 0.31569713 1.6409999
0.68609428 0.31569716 1.6409999
0.69310349 0.31409526 1.649
0.29760522 0.3235181 1.649
0.30495796 0.32466027 1.649
0.31463844 0.32560384 1.6436666
0.32194859 0.32820001 1.641
0.68531287 0.32429284 1.641
0.69100952 0.32822955 1.649
0.30781335 0.33608195 1.649
0.31514892 0.3355397 1.6463333
0.32319888 0.33507657 1.641
0.68453145 0.33445144 1.6410002
0.69100952 0.33451146 1.649
0.30781335 0.34236383 1.649
0.31496954 0.34462225 1.6481112
0.32429466 0.34529641 1.6450001
0.33447143 0.34543431 1.6436667
0.34070286 0.34695429 1.641
0.67828 0.34539145 1.641
0.68453145 0.34226573 1.641
0.69100952 0.34236383 1.649
0.32603088 0.35241491 1.6489999
0.33604431 0.35171479 1.645
0.3430635 0.35453713 1.6423334
0.35164288 0.3578943 1.641
0.67515433 0.35633144 1.641
0.68463719 0.3571924 1.645
0.34628999 0.36199477 1.649
0.35466886 0.3648636 1.646
0.36570859 0.36570859 1.6409999
0.37300193 0.36779237 1.6410002
0.67515433 0.36258286 1.641
0.68302149 0.36458382 1.6429999
0.34864572 0.37220287 1.649
0.3549276 0.37377334 1.649
0.36449972 0.37392083 1.6481112
0.37493822 0.37494162 1.6418889
0.38237906 0.37716952 1.6410002
0.6764046 0.37446058 1.641
0.68472767 0.3753438 1.649
0.34864572 0.3847667 1.649
0.35492757 0.3847667 1.649
0.36499104 0.38494655 1.6478573
0.37438527 0.38377762 1.6436667
0.38342094 0.38342097 1.6409999
0.67515439 0.38446286 1.6410002
0.68158668 0.38476667 1.649
0.35571286 0.3934043 1.649
0.36435053 0.39576003 1.649
0.37412348 0.39448133 1.6436667
0.38133717 0.39383999 1.6410002
0.66890287 0.39383999 1.6410002
0.67468858 0.39448002 1.6436666
0.68158668 0.39576003 1.649
0.35806859 0.40675336 1.649
0.36528116 0.40538377 1.6447334
0.37612519 0.40463009 1.6442
0.3829 0.40634289 1.6409999
0.66890287 0.40425906 1.6410002
0.67413998 0.40354225 1.6423331
0.68158668 0.40361238 1.649
0.35806859 0.41460574 1.649
0.36429551 0.41488808 1.6470001
0.37536463 0.4158527 1.645667
0.38342094 0.41572002 1.6409999
0.66702747 0.41509485 1.641
0.67609 0.41382051 1.649
0.3570216 0.4219346 1.649
0.36539748 0.42298162 1.649
0.37448505 0.42489699 1.6446363
0.38211858 0.42587858 1.641
0.6668191 0.42509714 1.6410002
0.67373437 0.42402861 1.649
0.36749145 0.43502194 1.649
0.37410817 0.43478721 1.6455716
0.38342094 0.43499526 1.6409999
0.66734004 0.43447432 1.6409999
0.67530477 0.43502191 1.649
0.36474314 0.44640791 1.649
0.37421715 0.44548637 1.6482
0.38366148 0.44453046 1.6424545
0.66452688 0.44447654 1.641
0.67294908 0.44680047 1.649
0.36435053 0.45543808 1.649
0.37377334 0.45543808 1.649
0.38358134 0.45492074 1.6426003
0.66421431 0.45479146 1.6409999
0.67216378 0.45543814 1.649
0.3649787 0.4629764 1.6489999
0.37458026 0.46501923 1.6475456
0.38366148 0.46557322 1.6424545
0.66520005 0.46601146 1.6442001
0.36623508 0.47365561 1.6489999
0.37457812 0.47410524 1.6456667
0.38446286 0.47510856 1.6409999
0.39227715 0.47823429 1.641
0.66527623 0.47496858 1.6423334
0.6732108 0.47637776 1.649
0.37440494 0.48481989 1.6483334
0.38399947 0.4856315 1.6439091
0.39196458 0.48448572 1.641
0.66577721 0.48448572 1.641
0.67342025 0.48559126 1.6489999
0.3753438 0.49470001 1.649
0.38445306 0.49587175 1.6476668
0.39344931 0.49425358 1.6409999
0.66538644 0.49347219 1.6409999
0.67451954 0.49705574 1.649
0.37691429 0.50412285 1.649
0.38539445 0.50574815 1.6483334
0.39383999 0.50480288 1.6410002
0.65952575 0.50636572 1.6410002
0.66584611 0.50408685 1.6458
0.67216384 0.50255239 1.649
0.38481906 0.5157938 1.647
0.39294693 0.51529634 1.6409999
0.40009144 0.5157429 1.641
0.65639997 0.5157429 1.641
0.66483498 0.51511621 1.649
0.37691429 0.52139813 1.649
0.38410857 0.52498299 1.6468182
0.39383999 0.52512002 1.6409999
0.40087286 0.52590144 1.641
0.65379524 0.52512002 1.6409999
0.66274101 0.52610958 1.649
0.67687523 0.52768004 1.649
0.37691429 0.53082097 1.649
0.3831962 0.53082097 1.649
0.39462143 0.53215289 1.641
0.40356442 0.53519177 1.6409999
0.6560446 0.53462029 1.645
0.39890096 0.5402438 1.649
0.40790573 0.5407486 1.641
0.41259429 0.5407486 1.641
0.6532743 0.5407486 1.641
0.68489337 0.018937144 1.6570001
0.72276765 0.018937144 1.6570001
0.69436193 0.022093333 1.6570001
0.70698667 0.022093333 1.6570001
0.71435118 0.022093333 1.6570001
0.72276765 0.026827618 1.6570001
0.72592384 0.031561907 1.6570001
0.72750193 0.055233337 1.6570001
0.72718632 0.066911235 1.6569999
0.71961147 0.07732667 1.6570001
0.72539783 0.07574857 1.6569999
0.72434574 0.085217148 1.6569999
0.71961147 0.097841911 1.6570001
0.72276765 0.094685726 1.6570001
0.71803337 0.10415429 1.6570001
0.71600443 0.1154264 1.6569998
0.71750736 0.12624763 1.6570001
0.71834898 0.13634744 1.6569999
0.71771777 0.14455351 1.6569999
0.71724433 0.15386429 1.6570001
0.71645528 0.16254382 1.6570001
0.71961147 0.18937144 1.6570001
0.71540326 0.19568382 1.6570001
0.36927429 0.20830858 1.6570001
0.37558666 0.20830858 1.6570001
0.38505521 0.20515239 1.6570001
0.39452383 0.20515239 1.6570001
0.40399241 0.20515239 1.6570001
0.41661716 0.20515239 1.6570001
0.42608571 0.20436335 1.6570001
0.4355543 0.20515239 1.6570001
0.4418667 0.20515239 1.6570001
0.48763144 0.20515239 1.6570001
0.49552193 0.20725651 1.6570001
0.50656861 0.20515239 1.6570001
0.51130289 0.20515239 1.6570001
0.7132991 0.20515239 1.6570001
0.32824382 0.21777715 1.6570001
0.3329781 0.21777715 1.6570001
0.35822764 0.21146476 1.6570001
0.36454001 0.21146476 1.6570001
0.7132991 0.21146476 1.6570001
0.31877524 0.22566763 1.6570001
0.32429859 0.22330049 1.6570001
0.71014291 0.22566763 1.6570001
0.3152245 0.2355307 1.6569998
0.32193145 0.23198001 1.6570001
0.71014291 0.2367143 1.6570001
0.3080442 0.24618287 1.6569999
0.31372532 0.24555163 1.6569999
0.70698667 0.24933906 1.6570001
0.29668191 0.25644049 1.6570001
0.3061505 0.25249526 1.6570001
0.70698667 0.25565144 1.6570001
0.28721336 0.26669812 1.6570001
0.29194763 0.26512003 1.6570001
0.70619762 0.26512 1.6570001
0.28642428 0.27537763 1.6570001
0.70698667 0.27301049 1.6570001
0.28595084 0.28468838 1.6569999
0.29289448 0.28595087 1.6569999
0.7027784 0.28405714 1.6570001
0.28405714 0.29194763 1.6569999
0.29415697 0.29447258 1.6569998
0.69751811 0.29668191 1.6570001
0.7006743 0.29352573 1.6570001
0.29262397 0.30569959 1.6569998
0.69751811 0.3061505 1.6570001
0.29262397 0.3160699 1.6569998
0.69751811 0.31246287 1.6570001
0.2931312 0.32508764 1.6569998
0.69751811 0.32508764 1.6570001
0.7006743 0.32824382 1.6570001
0.2998381 0.33140001 1.6570001
0.30425677 0.33518746 1.6569999
0.69751811 0.33455619 1.6570001
0.7006743 0.33140001 1.6570001
0.30720255 0.34402478 1.6570001
0.69436193 0.34402478 1.6570001
0.30930668 0.35033715 1.6570001
0.31483001 0.35270429 1.6570001
0.32508764 0.35664955 1.6570001
0.33534527 0.35822764 1.6570001
0.34086859 0.35980573 1.6570001
0.69199479 0.35349333 1.6570001
0.33455622 0.36296192 1.6570001
0.34481382 0.3661181 1.6570001
0.35033715 0.36927429 1.6570001
0.69225782 0.36717018 1.6570001
0.34718096 0.3740086 1.6570001
0.35033715 0.37874287 1.6570001
0.69120574 0.37716478 1.6570001
0.34718096 0.38189906 1.6570001
0.68804955 0.38505521 1.6570001
0.34718096 0.39294574 1.6570001
0.35349333 0.39662793 1.6570001
0.68804955 0.39452383 1.6570001
0.69120574 0.39136764 1.6570001
0.35625502 0.40359789 1.6569998
0.3546769 0.41543359 1.6569998
0.68384129 0.41609111 1.6569999
0.35586047 0.42608571 1.6570001
0.36454001 0.42766383 1.6570001
0.68299967 0.42545447 1.6569999
0.35901669 0.43634334 1.6570001
0.36485562 0.43618554 1.6569999
0.68173718 0.4355543 1.6570001
0.35901669 0.44581193 1.6570001
0.364014 0.44291878 1.6570001
0.678581 0.44660097 1.6570001
0.68173718 0.44502288 1.6570001
0.35854325 0.45386019 1.6569999
0.678581 0.45606953 1.6570001
0.68173718 0.45291334 1.6570001
0.35875368 0.46185589 1.6570001
0.36296192 0.46711621 1.6570001
0.67700291 0.46396002 1.6570001
0.36476547 0.47433037 1.6569998
0.67542481 0.47185048 1.6570001
0.3676962 0.48605338 1.6569999
0.3724305 0.48920953 1.6570001
0.678581 0.48605335 1.6570001
0.3676962 0.49552193 1.6569999
0.3724305 0.49710003 1.6570001
0.37468496 0.50453967 1.6569998
0.67700291 0.50656861 1.6570001
0.37558672 0.51445907 1.6569998
0.38189906 0.51445907 1.6570001
0.67305762 0.51367003 1.6570001
0.37558672 0.52287561 1.6569999
0.66832334 0.52392763 1.6570001
0.67226857 0.52077144 1.6570001
0.37558666 0.5323441 1.6570001
0.66753429 0.53550035 1.6569999
0.67542481 0.53181809 1.6570001
0.6659562 0.5428648 1.6570001
0.69295716 0.017442858 1.6650001
0.70564288 0.017442858 1.6650001
0.71277857 0.018235715 1.6650001
0.71991432 0.022200001 1.6650001
0.72837144 0.025371427 1.6650001
0.73260003 0.028542858 1.6650001
0.73471433 0.033828575 1.6650001
0.73260003 0.044400003 1.6650001
0.73260003 0.057085715 1.6650001
0.73450291 0.064697146 1.6650002
0.73497862 0.075321436 1.6650001
0.73260003 0.085628577 1.6650001
0.72942859 0.095142864 1.6650001
0.72716331 0.10511021 1.6650001
0.72572857 0.11417144 1.6650001
0.72387862 0.12447858 1.6650001
0.72625715 0.13478573 1.6650001
0.72716331 0.14633878 1.6650001
0.72498858 0.15603431 1.6650002
0.72435427 0.16428001 1.6650002
0.7230857 0.17442858 1.6650001
0.72435439 0.18394287 1.6650002
0.71991432 0.19980001 1.6650001
0.72435433 0.19472572 1.6650002
0.35837144 0.20931429 1.6650001
0.36471429 0.20931429 1.6650001
0.3742286 0.20614286 1.6650001
0.38215715 0.20455715 1.6650001
0.4091143 0.20297143 1.6650001
0.4146643 0.20376429 1.6650001
0.42338574 0.20297143 1.6650001
0.43448573 0.20297143 1.6650001
0.4551 0.20614286 1.6650001
0.46620002 0.20614286 1.6650001
0.47571433 0.20614286 1.6650001
0.48205715 0.20614286 1.6650001
0.49791431 0.20614286 1.6650001
0.50267148 0.20614286 1.6650001
0.71991426 0.20614286 1.6650001
0.72308576 0.20297143 1.6650001
0.31714287 0.21882857 1.6650001
0.32348573 0.21882857 1.6650001
0.33775717 0.21565714 1.6650001
0.34568572 0.21565716 1.6650001
0.3536143 0.21248572 1.6650001
0.71674287 0.21724287 1.6650001
0.30762857 0.22675714 1.6650001
0.31397146 0.22517143 1.6650001
0.32190001 0.222 1.6650001
0.71674281 0.22517143 1.6650001
0.30604288 0.23468573 1.6650001
0.31270286 0.23341715 1.6650002
0.71674281 0.23468572 1.6650001
0.30498573 0.24472857 1.6650001
0.31080002 0.24102858 1.6650001
0.71462852 0.24420001 1.6650001
0.2886 0.25688574 1.6650001
0.29335713 0.25688574 1.6650001
0.30287144 0.25054288 1.6650001
0.71357137 0.25371432 1.6650001
0.2864857 0.2637572 1.6650001
0.29177144 0.26164287 1.6650001
0.71462864 0.26481429 1.6650001
0.28542858 0.27432859 1.6650001
0.71357143 0.27654856 1.6650002
0.28305 0.28463572 1.6650001
0.7072286 0.2886 1.6650001
0.71198577 0.28542855 1.6650001
0.27644286 0.29441428 1.6650001
0.28542858 0.2981143 1.6650001
0.29177144 0.2981143 1.6650001
0.7072286 0.29494286 1.6650001
0.71119291 0.29414999 1.6650001
0.27908573 0.30445716 1.6650001
0.28542855 0.30445716 1.6650001
0.29177144 0.30128571 1.6650001
0.70564288 0.30445716 1.6650001
0.28542855 0.31397143 1.6650001
0.70564288 0.31397143 1.6650001
0.28571686 0.32463896 1.6650002
0.7032643 0.32427859 1.6650001
0.2886 0.333 1.6650001
0.29652858 0.33617145 1.6650001
0.30128571 0.33775717 1.6650001
0.70564288 0.33775714 1.6650001
0.30340001 0.34357142 1.6650001
0.70215428 0.34505144 1.6650002
0.31397143 0.35731426 1.6650001
0.32031429 0.35837144 1.6650001
0.69771433 0.35678571 1.6650001
0.70247144 0.35202858 1.6650001
0.32745001 0.36233574 1.6650001
0.33617145 0.3631286 1.6650001
0.34251431 0.36788574 1.6650001
0.69771433 0.3631286 1.6650001
0.70088571 0.36788574 1.6650001
0.3441 0.3742286 1.6650001
0.69692147 0.3742286 1.6650001
0.34528929 0.38374287 1.6650001
0.69644576 0.38437718 1.6650002
0.34695429 0.39389142 1.6650002
0.35202858 0.39960003 1.6650001
0.69612861 0.39246428 1.6650001
0.70088571 0.39325717 1.6650001
0.34885716 0.40594283 1.6650001
0.35202858 0.40594283 1.6650001
0.69137144 0.40594283 1.6650001
0.34885716 0.41545713 1.6650001
0.35282144 0.41624999 1.6650001
0.69137144 0.41545713 1.6650001
0.3480643 0.42497146 1.6650001
0.35202858 0.42655715 1.6650001
0.69137144 0.42338574 1.6650001
0.34885716 0.43290001 1.6650001
0.35520002 0.4344857 1.6650001
0.36471429 0.43290001 1.6650001
0.6882 0.43448576 1.6650001
0.35520002 0.44400001 1.6650001
0.68740714 0.44479287 1.6650001
0.35520002 0.45510003 1.6650001
0.68740714 0.4551 1.6650001
0.35646859 0.46683431 1.6650002
0.36154288 0.46937144 1.6650001
0.68423575 0.46699286 1.6650001
0.35757858 0.47492146 1.6650001
0.36154285 0.47571433 1.6650001
0.68185717 0.47571433 1.6650001
0.35837144 0.48205715 1.6650001
0.36281148 0.48586288 1.6650002
0.68344289 0.48681432 1.6650001
0.35837141 0.49474287 1.6650001
0.36312857 0.49474287 1.6650001
0.68502861 0.49474287 1.6650001
0.35837144 0.50267148 1.6650001
0.36426124 0.50425714 1.6650001
0.37105715 0.50584286 1.6650001
0.68502861 0.5042572 1.6650001
0.35837144 0.51218575 1.6650001
0.36516738 0.51286536 1.6650001
0.37105715 0.51377147 1.6650001
0.67868572 0.51694286 1.6650001
0.68185717 0.51218575 1.6650001
0.36630002 0.52328575 1.6650001
0.37296003 0.52582282 1.6650002
0.67762858 0.52592856 1.6650001
0.68432379 0.52610481 1.6650001
0.69137144 0.52645719 1.6650001
0.37581432 0.53280002 1.6650001
0.67551428 0.53835005 1.6650001
0.70744002 0.0095600002 1.6730001
0.71222007 0.0095600002 1.6730001
0.69788003 0.015933335 1.6730001
0.70361602 0.016570669 1.6730001
0.71460998 0.013543333 1.6730001
0.72273606 0.016570667 1.6730001
0.73611999 0.024696667 1.6730001
0.74249333 0.027086668 1.6730001
0.73930669 0.038240001 1.6730001
0.74408668 0.035053335 1.6730001
0.73930669 0.044613335 1.673
0.74249333 0.044613335 1.673
0.73930669 0.054173335 1.673
0.74249333 0.05098667 1.6730001
0.73930669 0.06054667 1.6730001
0.74249333 0.063733339 1.673
0.73930669 0.078073338 1.6730001
0.74249333 0.07010667 1.6730001
0.73930669 0.086039998 1.673
0.73612005 0.095600002 1.673
0.73691666 0.10516001 1.6730001
0.73399562 0.11472001 1.673
0.7297467 0.12268668 1.6730001
0.73293334 0.12428001 1.673
0.73293334 0.13384001 1.673
0.73532337 0.14499334 1.6730001
0.73373002 0.15535 1.6730001
0.7297467 0.16889334 1.6730001
0.73373002 0.16570668 1.6730001
0.72974664 0.17526667 1.673
0.73293334 0.17208001 1.6730001
0.7297467 0.18482667 1.6730001
0.73293334 0.18482667 1.6730001
0.41586 0.19757333 1.6730001
0.7297467 0.19757333 1.6730001
0.73293334 0.19438668 1.673
0.35690668 0.20713334 1.6730001
0.36487335 0.20713334 1.6730001
0.37602666 0.20394666 1.673
0.38558668 0.20394668 1.6730001
0.3951467 0.20394666 1.673
0.40470669 0.20394666 1.673
0.41586 0.20076001 1.6730001
0.42382669 0.20076001 1.673
0.43338668 0.20235334 1.6730001
0.46206668 0.20713334 1.6730001
0.47640669 0.20394668 1.6730001
0.48437333 0.20394668 1.6730001
0.72895002 0.20474336 1.6730001
0.30910668 0.21988001 1.6730001
0.31508169 0.216295 1.6730002
0.32504001 0.21510001 1.6730002
0.3346 0.21403779 1.6730002
0.34415999 0.21191333 1.6730002
0.35292336 0.21111667 1.6730001
0.72464806 0.21478136 1.6730001
0.3053889 0.22625333 1.6730002
0.72337335 0.22625335 1.673
0.30273333 0.23581333 1.673
0.72337335 0.23581333 1.673
0.27617779 0.2474978 1.673
0.28600335 0.24776335 1.6730001
0.29636002 0.24537332 1.6730002
0.30273333 0.24378002 1.6730001
0.72124892 0.24537335 1.673
0.27405334 0.25652671 1.6730002
0.28588954 0.25584385 1.6730002
0.29636002 0.25334001 1.6730002
0.72178006 0.25493336 1.6730002
0.27511558 0.2634311 1.6730002
0.28202 0.26449335 1.6730002
0.72284228 0.26449335 1.6730002
0.27724001 0.27405334 1.673
0.28202003 0.27405334 1.6730002
0.72337335 0.27341598 1.6730001
0.27511558 0.28626892 1.6730002
0.28106403 0.28425068 1.6730001
0.72124892 0.28414446 1.6730002
0.27214131 0.29636002 1.6730001
0.28042668 0.29954669 1.6730001
0.71700001 0.29795337 1.6730001
0.72098339 0.29556334 1.6730001
0.27405334 0.30592 1.6730002
0.28042668 0.30592 1.6730001
0.71508801 0.30528265 1.6730001
0.27564669 0.31548002 1.6730002
0.28042668 0.31547999 1.673
0.71461004 0.31468335 1.6730001
0.27564669 0.32504001 1.6730002
0.28042668 0.32504001 1.673
0.71190137 0.32504001 1.6730001
0.28361335 0.3346 1.6730002
0.29636002 0.336512 1.6730001
0.71062672 0.33300668 1.6730001
0.28743732 0.34224802 1.6730001
0.29763469 0.34479737 1.6730001
0.30273333 0.34734669 1.6730001
0.71062672 0.34575337 1.6730001
0.29795337 0.35053334 1.6730001
0.30751336 0.35053334 1.6730001
0.7063778 0.35478222 1.673
0.71062678 0.35372004 1.673
0.31548002 0.36221781 1.673
0.32504001 0.36540446 1.673
0.3346 0.36965334 1.673
0.34097335 0.36965334 1.6730001
0.7060743 0.36419052 1.6730002
0.71062672 0.36487335 1.6730001
0.33619332 0.37602672 1.6730002
0.34097335 0.37602666 1.673
0.70505005 0.37682337 1.6730001
0.33499834 0.38518837 1.6730002
0.34097335 0.38558665 1.673
0.70552808 0.38558668 1.6730001
0.336512 0.39450935 1.6730001
0.3425667 0.3951467 1.6730002
0.70425338 0.39594334 1.6730001
0.33778667 0.40470672 1.673
0.34416002 0.40470669 1.6730002
0.69788003 0.40470672 1.673
0.70186335 0.40391004 1.6730001
0.33778667 0.41426668 1.673
0.34416005 0.41426665 1.6730002
0.69708335 0.41506332 1.6730001
0.70106667 0.41267335 1.6730001
0.33778667 0.42382669 1.673
0.34376171 0.42342836 1.6730002
0.69788003 0.42382669 1.673
0.70106667 0.42542002 1.6730001
0.33714932 0.43402404 1.6730001
0.34416005 0.43498003 1.6730002
0.35053334 0.43976003 1.6730001
0.69605911 0.43429714 1.6730002
0.70106667 0.43020001 1.6730001
0.34575334 0.44613335 1.6730002
0.35133001 0.44692999 1.6730001
0.69469339 0.44294667 1.6730001
0.34607202 0.45505601 1.6730001
0.35180801 0.45633069 1.6730001
0.69469339 0.45569333 1.673
0.34607202 0.46589071 1.6730001
0.35212669 0.46525335 1.6730002
0.69230336 0.46445668 1.6730001
0.3346 0.47640669 1.6730001
0.34507054 0.47481337 1.6730002
0.35280949 0.47526854 1.6730002
0.68725777 0.4769378 1.673
0.69150668 0.47162667 1.6730001
0.33566225 0.48224893 1.673
0.34416005 0.48437336 1.6730002
0.35372001 0.48437336 1.6730002
0.36009336 0.48756 1.6730001
0.68831998 0.48437333 1.673
0.69150668 0.48118669 1.6730001
0.34607202 0.493296 1.6730001
0.35372001 0.49393332 1.6730002
0.36009336 0.49074668 1.6730001
0.69150668 0.49393335 1.673
0.34734669 0.50190002 1.6730001
0.35400966 0.50465208 1.6730002
0.36328 0.50986671 1.6730001
0.69310004 0.50030667 1.6730001
0.35478222 0.51570892 1.6730002
0.36328003 0.5194267 1.673
0.68752337 0.51703668 1.6730001
0.35499468 0.52707469 1.6730001
0.36423603 0.52580005 1.6730001
0.68832004 0.52261335 1.6730001
0.69389665 0.52500331 1.6730001
0.3664667 0.53399432 1.6730002
0.37284002 0.53536004 1.673
0.37443334 0.54173332 1.6730001
0.70762098 0.0096057151 1.6810001
0.72202957 0.0096057151 1.6810001
0.70602 0.01280762 1.6810001
0.74604386 0.027216192 1.6810001
0.74924576 0.03842286 1.6810001
0.75244766 0.035220955 1.6810001
0.74924576 0.043225713 1.6810001
0.74711114 0.054432381 1.6810001
0.74924576 0.065639049 1.6810001
0.74764478 0.073643818 1.6810001
0.75244766 0.070441909 1.6810001
0.74604386 0.083249524 1.6810001
0.74412274 0.096697524 1.6810001
0.74476314 0.10566287 1.6810001
0.73964 0.11686952 1.6810001
0.7439093 0.11313397 1.6810001
0.73964 0.12487429 1.6810001
0.74284196 0.12647524 1.6810001
0.73964 0.13448 1.6810001
0.74284196 0.13608095 1.6810001
0.73964 0.14088382 1.6810001
0.74284196 0.14408572 1.6810001
0.73964 0.15689334 1.6810001
0.74284196 0.15369144 1.6810001
0.73964 0.16436444 1.6810001
0.74284196 0.16329715 1.6810001
0.73803902 0.17610477 1.6810001
0.73803902 0.18410954 1.6810001
0.38422859 0.1985181 1.6810001
0.40984383 0.1985181 1.6810001
0.41624764 0.19638349 1.6810001
0.42585334 0.1985181 1.6810001
0.32531351 0.20748344 1.6810001
0.33684039 0.20684306 1.6810001
0.34580573 0.20652288 1.6810001
0.35477108 0.20620267 1.6810001
0.36565751 0.20364115 1.6810001
0.37382239 0.20252049 1.6810001
0.38422859 0.20172001 1.6810001
0.39703619 0.20172001 1.6810001
0.40557465 0.20172001 1.6810001
0.41304573 0.20172001 1.6810001
0.44506478 0.20385462 1.6810001
0.46747813 0.20492192 1.6810001
0.47228098 0.20492192 1.6810001
0.48508859 0.20332097 1.6810001
0.49629524 0.20492192 1.6810001
0.50269908 0.20492192 1.6810001
0.7364381 0.20492192 1.6810001
0.30482131 0.21644878 1.6810001
0.3129862 0.21372715 1.6810001
0.32499334 0.21132572 1.6810001
0.33459905 0.21132572 1.6810001
0.73216885 0.21452762 1.6810001
0.28176764 0.22733524 1.6810001
0.2961762 0.22573429 1.6810001
0.30311367 0.22306605 1.6810001
0.73003429 0.22413333 1.6810001
0.27856573 0.23534001 1.6810001
0.28496951 0.23373906 1.681
0.29457524 0.23373906 1.681
0.30097905 0.23373906 1.6810001
0.73083478 0.23293859 1.6810001
0.26767921 0.24718705 1.6810001
0.27496359 0.24414523 1.681
0.28528973 0.24398513 1.681
0.29377478 0.24094334 1.6810001
0.30097905 0.24014287 1.6810001
0.72683239 0.24814764 1.6810001
0.73067468 0.24398515 1.6810001
0.26615834 0.25655264 1.681
0.27536383 0.25295049 1.6810001
0.28416905 0.25375098 1.6810001
0.73131502 0.25679278 1.6810001
0.26667291 0.26530069 1.681
0.27322921 0.26789269 1.6810001
0.73195541 0.26639849 1.6810001
0.26815951 0.27456334 1.6810001
0.27376285 0.27536383 1.6810001
0.73323613 0.27322921 1.6810001
0.26767924 0.28560993 1.6810001
0.27408305 0.28432915 1.6810001
0.72683239 0.28817144 1.6810001
0.25935429 0.2961762 1.6810001
0.26615834 0.29497549 1.681
0.27536383 0.29137334 1.6810001
0.72683239 0.29457524 1.6810001
0.26735905 0.30418095 1.6810001
0.72523141 0.30418098 1.6810001
0.26767924 0.31378669 1.6810001
0.2721619 0.31538764 1.6810001
0.72042859 0.31378669 1.6810001
0.25775334 0.3297962 1.6810001
0.26604918 0.32484782 1.6809999
0.2721619 0.32499334 1.6810001
0.71722668 0.32659429 1.6810001
0.72042859 0.32499334 1.6810001
0.27627864 0.33574256 1.681
0.28176764 0.33940193 1.6810001
0.29137334 0.33940193 1.6810001
0.71722668 0.3362 1.6810001
0.72042859 0.33459905 1.6810001
0.27856573 0.34420478 1.6810001
0.28336859 0.34580573 1.6810001
0.29457524 0.34580573 1.6810001
0.71722668 0.34580573 1.6810001
0.29564252 0.35541144 1.6810001
0.30354059 0.35605183 1.6810001
0.31058478 0.35541144 1.6810001
0.71722668 0.35541144 1.6810001
0.30418098 0.36181524 1.6810001
0.31218573 0.36341619 1.6810001
0.32179144 0.36821905 1.6810001
0.71594596 0.36565751 1.6810001
0.72042859 0.36501715 1.6810001
0.32659429 0.37462282 1.681
0.3329981 0.37622383 1.6810001
0.71402478 0.37569019 1.6810001
0.32542995 0.38422862 1.6809999
0.3329981 0.38102669 1.6810001
0.71322429 0.38502908 1.6810001
0.30738288 0.39063239 1.6810001
0.32659429 0.39383432 1.681
0.3329981 0.39383426 1.6810001
0.71295744 0.39276698 1.6810001
0.32819527 0.40504098 1.681
0.33459902 0.40504101 1.681
0.70762098 0.40824288 1.6810001
0.71082288 0.40504098 1.6810001
0.32819524 0.41624764 1.6810001
0.33459905 0.41624764 1.6810001
0.7065537 0.41624764 1.6810001
0.32819524 0.42585334 1.6810001
0.33459905 0.42585334 1.6810001
0.70682049 0.42505285 1.6810001
0.32699454 0.43545908 1.681
0.33427888 0.43609944 1.6810001
0.70548636 0.43545905 1.6810001
0.32819524 0.44506478 1.6810001
0.33579975 0.44546503 1.681
0.34260383 0.44666573 1.6810001
0.69801527 0.44826669 1.6810001
0.70121717 0.44506478 1.6810001
0.32750914 0.45421308 1.681
0.33660024 0.45467049 1.681
0.34260383 0.45467052 1.6810001
0.69801527 0.45146859 1.6810001
0.70121717 0.45467049 1.6810001
0.33780098 0.46427622 1.6810001
0.34388459 0.46363583 1.6810001
0.69801527 0.46747813 1.6810001
0.70121717 0.46107429 1.6810001
0.3362 0.47348168 1.681
0.34260383 0.47228098 1.6810001
0.69721478 0.47468242 1.6810001
0.3297962 0.48508859 1.6810001
0.33579975 0.48588908 1.681
0.34260383 0.48028573 1.6810001
0.69561386 0.48508859 1.6810001
0.70121717 0.48348764 1.6810001
0.3297962 0.49629527 1.6810001
0.3362 0.49629524 1.681
0.34340429 0.49709573 1.6810001
0.3362 0.50590098 1.681
0.34489089 0.50635844 1.681
0.69481337 0.50750196 1.6810001
0.3362 0.51550668 1.681
0.34580573 0.51550668 1.681
0.35220954 0.51390576 1.6810001
0.69561386 0.51630718 1.6810001
0.33673367 0.52457875 1.6810001
0.34580576 0.52511239 1.681
0.35381052 0.52511239 1.6810001
0.69694799 0.52297777 1.6810001
0.70441908 0.52831429 1.6810001
0.34580573 0.53151619 1.6810001
0.75664955 0.027422858 1.694
0.75969529 0.035409525 1.6900001
0.76733434 0.034768574 1.6980001
0.75647622 0.045066666 1.6900002
0.76523197 0.045926861 1.6980002
0.75433016 0.05472381 1.6900001
0.76167428 0.05498286 1.6980001
0.75325716 0.061161906 1.6900001
0.76005715 0.064685717 1.6980001
0.75325716 0.075647622 1.6900001
0.75245237 0.08369524 1.6900001
0.76005715 0.084091425 1.6980001
0.75218415 0.093888886 1.6900002
0.76135087 0.094441153 1.6980002
0.7532571 0.10622858 1.6900001
0.76167423 0.10511429 1.6980001
0.74681908 0.11910477 1.6900001
0.75339586 0.11675201 1.6932001
0.76086575 0.11562572 1.6980001
0.74681908 0.12232381 1.6900001
0.7540223 0.12594159 1.6953334
0.76005715 0.12290286 1.6980001
0.74681908 0.13198096 1.6900001
0.75402218 0.13562414 1.6953335
0.75343055 0.1452 1.6940002
0.75122166 0.15476318 1.6926666
0.74681908 0.16417143 1.6900001
0.75358862 0.16494857 1.6980001
0.74681908 0.17382859 1.6900001
0.75358862 0.17465144 1.6980001
0.40881905 0.18992382 1.6900001
0.74360007 0.18563175 1.6900001
0.75197148 0.18435431 1.6980001
0.34565431 0.19900858 1.692
0.35411885 0.19866516 1.6932001
0.36375239 0.19958095 1.6900001
0.37984765 0.19958095 1.6900001
0.38628572 0.19958095 1.6900001
0.39755237 0.19958095 1.6900001
0.40609062 0.19713102 1.6935556
0.41483429 0.1939816 1.6926666
0.42541716 0.19498095 1.692
0.43611428 0.19786382 1.6960001
0.4796381 0.19958095 1.6900001
0.48607621 0.19958095 1.6900001
0.74440479 0.19555715 1.6900001
0.7522949 0.19405715 1.6980002
0.29755428 0.2069943 1.6980001
0.30676952 0.20774223 1.6953335
0.31459466 0.20650211 1.694
0.32490075 0.20297059 1.6944447
0.33497286 0.20275193 1.6930001
0.34443808 0.20279999 1.6900001
0.35409522 0.20279999 1.6900001
0.36214286 0.20280001 1.6900001
0.37517715 0.20052572 1.6980001
0.39441654 0.20204191 1.6926666
0.40560001 0.20280001 1.6900001
0.43882668 0.20166287 1.694
0.44591388 0.20162742 1.6964
0.45387807 0.20376001 1.6980001
0.46463621 0.2056981 1.694
0.47647542 0.20272915 1.6948001
0.4857651 0.20204191 1.6926666
0.49528953 0.20166285 1.6940001
0.50496954 0.20219935 1.6939999
0.51392615 0.20466363 1.6948
0.52072001 0.20537716 1.6980001
0.74488765 0.20666286 1.6900002
0.7522949 0.20311315 1.6980002
0.2851519 0.21739383 1.694
0.29519203 0.21545663 1.6929092
0.30410954 0.21214953 1.694
0.31224763 0.21245715 1.6900001
0.4592686 0.21022858 1.6980001
0.73716193 0.21889524 1.6900001
0.74316382 0.21601908 1.6926666
0.75164807 0.21475658 1.6980002
0.27499285 0.22653382 1.6960001
0.28503206 0.22504072 1.6900004
0.29486477 0.22404571 1.6900002
0.73716193 0.22533333 1.6900001
0.74433464 0.22604191 1.6953334
0.75035429 0.22316572 1.6980001
0.26844573 0.23772001 1.6980001
0.27404571 0.23536126 1.692667
0.28005716 0.23177144 1.6900001
0.73716193 0.23660001 1.6900001
0.74316382 0.2353638 1.6926666
0.75035429 0.23610286 1.6980001
0.2579343 0.24661431 1.6980001
0.26433858 0.24496335 1.6950002
0.27200955 0.24142858 1.6900001
0.73716193 0.24625716 1.6900001
0.74375057 0.24522668 1.6939999
0.25671938 0.25510478 1.6953334
0.26203048 0.25366098 1.6900002
0.73716193 0.25269526 1.6900001
0.74491882 0.25530541 1.6966667
0.25671935 0.26479748 1.6953335
0.26154763 0.26476666 1.6900001
0.74375051 0.26458669 1.6939999
0.25692251 0.27469841 1.6966667
0.26304218 0.27407891 1.6900003
0.73716193 0.27683809 1.6900001
0.7444213 0.27440229 1.6948
0.25700843 0.28515157 1.6957144
0.26331812 0.28424194 1.6900003
0.73555237 0.2832762 1.6900002
0.74388576 0.28461716 1.6980001
0.25631556 0.29500511 1.6926666
0.26235241 0.29293334 1.6900001
0.73741716 0.29431999 1.6980001
0.74065143 0.29431999 1.6980001
0.25720531 0.30567089 1.6964
0.26235238 0.30580953 1.6900002
0.73741716 0.30402288 1.6980001
0.74065143 0.30240571 1.6980001
0.25671938 0.31484509 1.6953335
0.26304218 0.31546667 1.6900003
0.72750479 0.31546667 1.6900001
0.73522353 0.31347683 1.6966667
0.25637224 0.3250792 1.6945714
0.26154765 0.32592857 1.6900001
0.72750479 0.32512382 1.6900001
0.73580003 0.32504573 1.6980001
0.25584698 0.33610415 1.6966667
0.26416764 0.33665717 1.6913334
0.27147305 0.33692697 1.6900001
0.72750479 0.33478096 1.6900001
0.25874287 0.34283429 1.6980001
0.26602003 0.34364289 1.6980001
0.27491429 0.34391236 1.6980001
0.72428578 0.34443808 1.6900001
0.73175722 0.34606856 1.6980001
0.28600574 0.35441652 1.6966667
0.29339048 0.35572958 1.6926666
0.30580953 0.35731429 1.6900001
0.72428578 0.35409525 1.6900001
0.73175722 0.35577145 1.6980001
0.29597715 0.36318937 1.6964
0.30784762 0.36490545 1.6953335
0.31215492 0.36598349 1.6953335
0.72428572 0.36214286 1.6900001
0.73094863 0.36547431 1.6980001
0.30725715 0.37841144 1.6980001
0.31500429 0.37562376 1.6955384
0.32147717 0.3762657 1.692
0.72364187 0.375341 1.6900002
0.73094863 0.37517715 1.6980001
0.30725715 0.38649714 1.6980001
0.31446922 0.38543174 1.6933335
0.32190478 0.38628572 1.6900001
0.72372574 0.3863703 1.6931999
0.73094863 0.38326287 1.6980001
0.30725715 0.39296573 1.6980001
0.31483081 0.3951557 1.6929092
0.32190478 0.39594284 1.6900001
0.71784765 0.39916191 1.6900001
0.72439051 0.39526287 1.6939999
0.3143943 0.40455008 1.6964
0.32383618 0.40495619 1.6900002
0.71784765 0.40559998 1.6900001
0.72642058 0.40493259 1.6980002
0.31566629 0.41334176 1.6980002
0.32291555 0.41441143 1.6953334
0.71656001 0.41590101 1.6900002
0.72609717 0.41398859 1.6980001
0.31615144 0.42450005 1.6980001
0.32276699 0.42414731 1.6926668
0.71516514 0.42384127 1.6900002
0.72447997 0.42369142 1.6980001
0.31588191 0.43447244 1.6980001
0.3220292 0.43499389 1.6944444
0.71636093 0.43691906 1.6960001
0.72124577 0.43339431 1.6980001
0.30725715 0.44956574 1.6980001
0.31523675 0.44585943 1.6950909
0.32319239 0.44487244 1.6900002
0.7081905 0.44583809 1.6900001
0.71390194 0.44447523 1.6940001
0.30725715 0.4560343 1.6980001
0.31459239 0.45495999 1.6940001
0.32319239 0.45388573 1.6900002
0.33478096 0.45710477 1.6900001
0.7071175 0.45281276 1.6900001
0.71396863 0.45684287 1.6980001
0.30725715 0.46250287 1.6980001
0.3140724 0.46497792 1.6964
0.32411781 0.46586257 1.691231
0.33317146 0.46676192 1.6900002
0.70577621 0.46515241 1.6900001
0.7115429 0.46573716 1.6980001
0.31615144 0.47463143 1.6980001
0.32401842 0.47636095 1.6926669
0.33156192 0.47641906 1.6900001
0.70497149 0.47641906 1.6900001
0.71283662 0.47608685 1.6980002
0.31696001 0.48514286 1.6980001
0.32389143 0.48584291 1.6920003
0.70393783 0.4857651 1.6926666
0.71235144 0.48433429 1.6980001
0.31753525 0.49299049 1.6953334
0.3246122 0.49546862 1.6924002
0.33156192 0.49895239 1.6900001
0.70503062 0.49528956 1.6939999
0.7115429 0.49161145 1.6980001
0.32433489 0.50485611 1.6950911
0.33156192 0.50699997 1.6900001
0.70501083 0.50510728 1.6926666
0.7115429 0.50778288 1.6980001
0.32604268 0.5148918 1.6948
0.33156192 0.51504761 1.6900001
0.70447427 0.51585776 1.6926666
0.7115429 0.51425147 1.6980001
0.32560825 0.52313143 1.6953335
0.33263493 0.52470475 1.6900001
0.34121907 0.52792382 1.6900001
0.70658094 0.52470475 1.6900002
0.71427697 0.52416652 1.6957144
0.33313143 0.53042287 1.6980001
0.75388956 0.022746667 1.7060001
0.7652629 0.027620953 1.7060001
0.77338672 0.037369527 1.7060001
0.77501136 0.045493335 1.7060002
0.76688766 0.058491431 1.7060001
0.77143699 0.054592002 1.7060001
0.76688766 0.064990476 1.706
