# .PCD v0.7 - Point Cloud Data file format
VERSION 0.7
FIELDS x y z
SIZE 4 4 4
TYPE F F F
COUNT 1 1 1
WIDTH 1568
HEIGHT 1
VIEWPOINT 0 0 0 1 0 0 0
POINTS 1568
DATA ascii
-0.014881386 0.51380819 1.5625457
-0.0059595238 0.51409918 1.5646667
0.0023878096 0.51815468 1.567
0.028852699 0.5113892 1.567
0.03283238 0.51188666 1.567
-0.072966665 0.5261302 1.5635
-0.068342857 0.52148575 1.5600001
-0.032685716 0.52742863 1.5600001
-0.025009526 0.52396196 1.5600001
-0.014857143 0.52445722 1.5600001
-0.0059428574 0.52445716 1.5600001
0.0036725276 0.52592045 1.5653846
0.011939048 0.52830285 1.567
-0.074512385 0.53446734 1.5646669
-0.066114292 0.53560001 1.5600001
-0.052000001 0.53782856 1.5600001
-0.043085717 0.53782856 1.5600001
-0.034171429 0.53560001 1.5600001
-0.025122078 0.53512722 1.5600002
-0.014857143 0.53485709 1.5600002
-0.0059428578 0.53485715 1.5600002
0.004582711 0.53444767 1.5621539
0.011939048 0.53427237 1.567
-0.074619047 0.54407948 1.5670002
-0.065601058 0.54467726 1.5654446
-0.055132542 0.54540145 1.5646667
-0.044704761 0.54540259 1.5646669
-0.035763815 0.54540259 1.5646669
-0.025194807 0.54505646 1.5644547
-0.014898624 0.54540104 1.5646669
-0.0059650796 0.54567218 1.5654446
0.0044733332 0.54516661 1.564
0.014177619 0.54621142 1.5670002
-0.057705399 0.55317587 1.567
-0.043776508 0.55317587 1.567
-0.036563333 0.55292714 1.567
-0.025370477 0.55218095 1.567
-0.01492381 0.55218095 1.567
-0.0059695239 0.55218095 1.567
0.0059695239 0.55218095 1.567
0.011939048 0.55218095 1.567
-0.052233335 0.58202857 1.567
-0.047756191 0.58352095 1.567
-0.092940956 0.038975239 1.5740001
-0.088443816 0.038975239 1.5740001
-0.10193525 0.047969524 1.5740001
-0.094439998 0.041973334 1.5740001
-0.089942858 0.041973334 1.5740001
-0.11092953 0.059961908 1.5740001
-0.10593271 0.053965718 1.574
-0.11092953 0.065958098 1.574
-0.11092953 0.071954288 1.5740001
-0.10643239 0.085445717 1.5740001
-0.10493334 0.095939048 1.574
-0.10418382 0.10568286 1.5740001
-0.10393398 0.114927 1.5740002
-0.10193525 0.12592001 1.574
-0.10193525 0.13341525 1.5740001
-0.10193525 0.14840573 1.5740001
-0.10193525 0.15740001 1.5740001
-0.10193525 0.16489525 1.574
-0.10193525 0.17538857 1.5740001
-0.098937146 0.17988572 1.5740001
-0.10193525 0.18588191 1.574
-0.098937146 0.18738097 1.5740001
-0.10193525 0.19487619 1.574
-0.098937146 0.19487619 1.574
-0.10364845 0.20686857 1.5740002
-0.10493334 0.21586286 1.5740002
-0.10343429 0.22485714 1.5740002
0.029980954 0.22785525 1.5740001
0.032979049 0.22785525 1.5740001
0.047969524 0.22785525 1.5740001
0.056464124 0.22685587 1.5740002
0.063959368 0.22585653 1.574
0.076451436 0.22485715 1.5740001
0.084446348 0.22685587 1.5740002
0.094439998 0.22785525 1.5740001
-0.10193525 0.23085335 1.5740001
-0.098937146 0.23684955 1.574
0.015989842 0.23485081 1.574
0.020986667 0.23385143 1.5740001
0.089942858 0.23085335 1.5740001
0.097138286 0.23265219 1.5740001
0.10455858 0.2342262 1.5740002
0.11092953 0.23684955 1.574
-0.098937146 0.24584383 1.574
0.1289181 0.24584381 1.5740001
0.13691302 0.24784255 1.574
0.1459073 0.24884193 1.574
0.15889905 0.24884191 1.5740001
0.16189715 0.24884191 1.5740001
-0.098937146 0.25483811 1.574
0.13641334 0.25184 1.5740001
0.14510782 0.25243962 1.5740001
0.15530133 0.25363886 1.5740001
0.16339619 0.25483811 1.5740002
-0.098937146 0.26383242 1.574
0.15590096 0.26383239 1.5740001
0.16439557 0.26533142 1.5740002
-0.095939048 0.27732384 1.5740001
0.1666941 0.27522516 1.5740001
0.1718908 0.27782354 1.574
-0.095939048 0.28631812 1.5740001
0.17748725 0.28421944 1.5740001
0.18588193 0.28481907 1.5740002
0.19337714 0.28631809 1.5740001
-0.095339432 0.29621184 1.5740001
0.17888635 0.29281399 1.574
0.18648154 0.29471278 1.5740002
0.19337714 0.2953124 1.5740002
-0.094440006 0.30580571 1.5740002
0.17988572 0.30880383 1.5740001
0.18588191 0.30580571 1.5740002
-0.094440006 0.31480002 1.5740002
0.17838669 0.31480002 1.5740002
0.18588191 0.31480002 1.5740002
0.1918781 0.31480002 1.5740001
-0.094225846 0.32465091 1.5740002
0.15889905 0.3297905 1.5740001
0.16532353 0.32764897 1.5740002
0.17189081 0.32179555 1.574
0.18288381 0.32079619 1.5740001
-0.092940956 0.33728573 1.5740001
0.15590096 0.33578667 1.5740002
0.16339619 0.33578667 1.5740002
-0.092940956 0.34328192 1.5740001
0.14870554 0.34538057 1.5740001
0.15552619 0.34440619 1.5740002
0.16339621 0.34178287 1.5740001
-0.088443816 0.35527429 1.5740001
0.13591366 0.35627365 1.5740002
0.1455439 0.35404781 1.5740002
0.15490158 0.35177651 1.574
-0.086944766 0.36576763 1.574
0.10493334 0.36676702 1.574
0.11512686 0.3675665 1.5740001
0.12666953 0.36576766 1.5740001
0.13341525 0.36276954 1.5740001
-0.087944128 0.37476194 1.574
0.087694287 0.37401238 1.5740001
0.095339432 0.37296304 1.5740001
-0.092940956 0.3867543 1.5740001
-0.089942858 0.38225716 1.5740001
0.056963813 0.38975239 1.574
0.067157336 0.38555509 1.5740001
-0.089942858 0.39874667 1.5740001
0.047969524 0.39874667 1.5740001
0.055464771 0.39574862 1.5740002
0.065583333 0.39612338 1.5740002
0.071954288 0.39874667 1.5740001
-0.088443816 0.40474287 1.5740002
0.037776001 0.40534252 1.5740001
0.044971429 0.40474293 1.5740002
0.055464767 0.40414327 1.5740002
0.065583333 0.40436813 1.5740002
-0.085945398 0.41623554 1.5740002
0.036576763 0.4158358 1.5740002
0.044971425 0.4152362 1.5740002
0.055764567 0.41533616 1.574
0.062959999 0.4152362 1.5740001
-0.086944766 0.42572951 1.574
0.034977779 0.42373082 1.574
0.047969524 0.42572951 1.574
0.056963809 0.42572954 1.5740002
0.062959999 0.42273143 1.5740001
-0.086944766 0.43472385 1.574
0.057338573 0.43472385 1.5740002
0.065358475 0.43652266 1.5740001
-0.083946668 0.44671622 1.574
0.035977144 0.4497143 1.5740001
0.045346189 0.44709092 1.5740002
0.054822318 0.44200495 1.5740002
0.066814698 0.44457468 1.5740002
-0.08274743 0.45631012 1.5740001
0.038225714 0.4557105 1.5740001
0.044971425 0.45571047 1.5740002
0.050967623 0.45870858 1.5740001
0.067457147 0.4557105 1.5740002
0.071954288 0.45720953 1.5740001
-0.083090074 0.4651331 1.5740002
0.038225714 0.46395525 1.5740001
0.044971429 0.46470478 1.5740002
0.053216193 0.46545431 1.5740001
0.06655772 0.46410513 1.5740001
0.071954288 0.46320575 1.5740001
-0.08266177 0.4745557 1.5740002
0.038975239 0.47469842 1.574
0.044971425 0.47478932 1.5740002
0.055250611 0.47519812 1.5740001
0.063959368 0.47269973 1.574
-0.083946668 0.48569146 1.574
0.037975874 0.48769018 1.574
0.044221904 0.48344287 1.5740001
0.050967623 0.48269334 1.5740001
-0.084696196 0.49468574 1.5740001
0.0089942859 0.49618477 1.5740001
0.038225714 0.49543527 1.5740001
0.043172572 0.49528536 1.5740001
-0.083197147 0.50517905 1.5740001
0.005096762 0.50727779 1.5740002
0.013791238 0.50787735 1.5740001
0.020986667 0.50967622 1.5740001
0.03837562 0.50607848 1.5740001
0.043472383 0.50517905 1.5740002
-0.080948576 0.51567239 1.574
-0.077950478 0.51717144 1.5740001
0.005096762 0.51507276 1.5740002
0.014990476 0.51467305 1.574
0.024317883 0.51633865 1.5740002
0.036833741 0.5161007 1.5740002
0.044971425 0.51417339 1.5740002
-0.080948576 0.52466667 1.5740001
-0.076751247 0.52526629 1.5740001
0.0089942859 0.52316761 1.5740001
0.012991746 0.52666539 1.574
0.02569796 0.52338183 1.5740002
0.032979049 0.52316761 1.5740001
-0.080948576 0.53516006 1.5740001
-0.080948576 0.54265523 1.5740001
-0.077950478 0.54265523 1.5740001
-0.075701907 0.5523991 1.5740001
-0.065358475 0.55524725 1.5740001
-0.053965718 0.55644649 1.5740001
-0.045970798 0.55664635 1.574
-0.026982859 0.55164957 1.5740001
-0.063959368 0.56264257 1.574
-0.057820413 0.56321365 1.5740002
-0.046470478 0.56064385 1.5740001
-0.056107216 0.58591354 1.5740002
-0.053366102 0.59182405 1.5740001
-0.10290667 0.039346669 1.5890001
-0.09836667 0.039346669 1.5890001
-0.081720002 0.036320001 1.5890001
-0.069262862 0.033125717 1.5810001
-0.11198667 0.048426669 1.5890001
-0.10575809 0.045825716 1.5863334
-0.099377148 0.042160001 1.5810001
-0.11297182 0.053761911 1.5858001
-0.10841143 0.052700002 1.5810001
-0.11602223 0.065577783 1.5890001
-0.11357714 0.076116577 1.5858002
-0.11297182 0.083973721 1.5858001
-0.10841143 0.087331429 1.5810001
-0.11198667 0.095339999 1.5890001
-0.10841143 0.094860002 1.5810001
-0.11198667 0.10593334 1.5890001
-0.10841143 0.1054 1.581
-0.11198667 0.11501334 1.5890001
-0.10841143 0.11594 1.5810001
-0.11198667 0.12106667 1.5890001
-0.10708857 0.12518509 1.5836668
-0.10743429 0.13504137 1.5855714
-0.10629001 0.14473143 1.5830002
-0.106824 0.15449905 1.5842001
-0.10731333 0.16474192 1.587
-0.10718 0.17510478 1.5850002
-0.10658667 0.18450636 1.5836668
-0.10629 0.19599049 1.5830002
-0.11198667 0.20884001 1.5890001
-0.10742629 0.2045863 1.5842001
-0.11142286 0.21531716 1.5810001
-0.11170477 0.22492287 1.585
-0.10841143 0.22585715 1.581
0.025597144 0.22886857 1.5810001
0.054205716 0.22585715 1.5810001
0.066586673 0.22397335 1.5890001
0.075666666 0.22397335 1.5890001
0.085392863 0.2244443 1.5870001
0.096172146 0.22552717 1.5840001
0.10563873 0.22636002 1.5845556
0.11391047 0.22630256 1.5876669
0.12409334 0.22700001 1.5890001
-0.11198667 0.23002668 1.5890001
-0.1051673 0.23548572 1.585
0.015851906 0.23171 1.585
0.021133333 0.23095334 1.585
0.10841143 0.23188001 1.5810001
0.11556848 0.23347579 1.5827779
0.12459674 0.23431553 1.5844288
0.13498935 0.23547468 1.589
0.14326222 0.23809779 1.5890001
0.16041334 0.23910667 1.5890001
-0.10433365 0.24495174 1.5876669
0.11594 0.2409143 1.5810001
0.1259781 0.2419181 1.5810002
0.13551429 0.24306533 1.5810002
0.14469638 0.24477184 1.5826001
0.15509795 0.24584036 1.5836667
0.16573438 0.24557771 1.5846366
0.17494135 0.24697602 1.5890001
0.1816 0.24818668 1.5890001
-0.10365652 0.25460127 1.5850002
0.16864 0.25597143 1.581
0.17510475 0.2551057 1.585
0.18462667 0.25424001 1.589
0.19521999 0.25424001 1.5890001
0.20354335 0.25348333 1.5890001
0.21640666 0.25424001 1.5890001
0.22473 0.25651002 1.5890001
0.23002668 0.25424001 1.5890001
-0.10441416 0.26490721 1.5855714
0.16864 0.26500571 1.581
0.17505397 0.26560342 1.5845556
0.18462665 0.26483336 1.5890001
0.19521999 0.26483333 1.5890002
0.20551069 0.26574132 1.589
0.2145742 0.26451465 1.5846366
0.22397335 0.26483336 1.5890001
0.23103558 0.2653378 1.5890001
-0.10366333 0.27542669 1.5890001
-0.099377148 0.27404001 1.581
0.17514977 0.273835 1.5820001
0.18411195 0.27465123 1.5845556
0.19522001 0.27542666 1.5890001
0.20581335 0.27542669 1.589
0.21416698 0.27450222 1.5836668
0.22397335 0.27542666 1.589
0.23338965 0.27609926 1.589
-0.10405578 0.28496 1.5867144
-0.099377148 0.28457999 1.5810001
0.17767429 0.28006285 1.5810001
0.18520285 0.28106666 1.5810002
0.19649573 0.28307429 1.5810002
0.20499869 0.28439277 1.585
0.21424115 0.28425103 1.5842001
0.22397335 0.28450668 1.589
0.23456669 0.28450668 1.5890001
-0.10433365 0.29485366 1.5876669
-0.099377148 0.29512 1.581
0.1987543 0.29512 1.581
0.20581007 0.29510546 1.5868182
0.21449852 0.29496834 1.5860909
0.22397333 0.2951 1.5890001
0.23456667 0.29509997 1.5890002
0.24213335 0.29964 1.5890001
-0.10290667 0.30569336 1.5890001
-0.099377148 0.30415431 1.581
0.19646041 0.30545661 1.5832859
0.20581335 0.30569336 1.589
0.21592173 0.30415896 1.5824547
0.22499673 0.3045845 1.5810002
0.23497941 0.30541822 1.589
0.24364668 0.30645001 1.5890001
-0.10290667 0.31477335 1.5890001
-0.099377148 0.31469429 1.5810001
0.19664685 0.3148686 1.5834001
0.20555431 0.31588289 1.587
0.21551713 0.31499144 1.5825001
0.22585715 0.31469432 1.5810002
0.23495142 0.31426629 1.5834001
0.24289 0.31553003 1.5890001
-0.10290667 0.32536668 1.5890001
-0.099377148 0.32523429 1.581
0.17566667 0.32623813 1.5810002
0.18542562 0.3256591 1.5817275
0.19618647 0.32596743 1.5845557
0.20501082 0.32560173 1.582778
0.21519738 0.32540938 1.5831821
0.22467701 0.32707947 1.5878572
0.23482926 0.32578126 1.5878572
0.24213335 0.32536668 1.5890001
-0.097955249 0.334553 1.5823336
0.16864 0.3357743 1.5810001
0.17476276 0.33445653 1.581889
0.18458286 0.33447486 1.5834001
0.19563274 0.33623514 1.589
0.20558479 0.3355875 1.5872223
0.21513644 0.33537021 1.5880001
0.22397333 0.33596003 1.589
0.23381001 0.33520332 1.589
-0.097116508 0.34467337 1.585
0.15960573 0.34932572 1.5810001
0.1661807 0.34613442 1.5821431
0.17525716 0.34446096 1.5863335
0.18462665 0.34503999 1.589
0.19522001 0.34504005 1.5890001
0.20494859 0.34460762 1.589
0.21640666 0.34503999 1.5890001
0.223368 0.34322405 1.5890001
-0.094246104 0.35461146 1.5858002
0.15709621 0.35635242 1.5810002
0.16654421 0.35421851 1.5855715
0.17554669 0.35412002 1.589
0.18419428 0.35325524 1.589
0.19543619 0.3523905 1.589
0.20278667 0.35109335 1.5890001
-0.092333607 0.36457172 1.5855715
0.13626716 0.36664143 1.5810001
0.14443401 0.36431265 1.5844287
0.15234222 0.36420891 1.5890001
0.16495334 0.36017334 1.5890001
-0.092839524 0.37549311 1.5850002
0.084320001 0.37943998 1.581
0.094860002 0.37793428 1.5810001
0.10598025 0.37450597 1.5840002
0.1143328 0.37536383 1.5855715
0.12477307 0.37477115 1.5867144
0.13424991 0.37311584 1.5874002
-0.095605724 0.3849248 1.5850002
0.075285718 0.38546288 1.5810002
0.084746666 0.38590002 1.5890001
0.095752724 0.38466188 1.589
0.10391556 0.38236892 1.5890001
0.11501334 0.38136002 1.5890001
-0.095022552 0.39516509 1.5836668
0.068259053 0.39248952 1.581
0.075285718 0.39449716 1.5810002
0.084746666 0.39497998 1.5890001
0.094691418 0.39454761 1.5890001
0.10290667 0.39195335 1.5890001
-0.094853878 0.40526694 1.5844287
0.069262862 0.4095543 1.5810001
0.075502433 0.4056713 1.5854446
0.084746666 0.40557334 1.589
0.091808893 0.40355554 1.5890001
0.10896 0.40254667 1.5890001
-0.092631035 0.41531104 1.5832859
0.067757145 0.41557714 1.5810002
0.075953573 0.41450793 1.587
0.084368333 0.41465336 1.589
-0.093516819 0.42431879 1.5836668
0.067111835 0.42504162 1.5810002
0.075511746 0.42435017 1.5856667
0.084746666 0.42524669 1.5890001
0.090800002 0.42524669 1.5890001
0.11198667 0.42827335 1.5890001
-0.091700956 0.43482178 1.5821429
0.066681638 0.4327853 1.5810002
0.075083978 0.43513843 1.5824547
0.084746666 0.43584001 1.589
0.091808893 0.43684888 1.5890001
-0.091808893 0.44492003 1.5890001
-0.087331437 0.44569147 1.581
0.069262862 0.44268003 1.5810001
0.075666092 0.4455356 1.5826001
0.084746666 0.44492 1.589
0.092313327 0.44492003 1.5890001
-0.09080001 0.45400003 1.5890001
-0.087331437 0.45472574 1.581
0.075342312 0.45419404 1.5821431
0.084746666 0.454 1.589
0.092313327 0.45400003 1.5890001
-0.091152065 0.4658213 1.5863334
-0.087331437 0.46376002 1.581
0.067757145 0.46978289 1.5810001
0.076563574 0.46463808 1.5840002
0.084141329 0.46398801 1.589
0.091808893 0.46106222 1.5890001
-0.092313334 0.47518668 1.5890001
-0.087331437 0.47580573 1.581
0.067255236 0.47630763 1.5810002
0.075502433 0.47512552 1.5854446
0.084141329 0.47639734 1.5890001
-0.09080001 0.48426667 1.5890001
-0.087331437 0.48484004 1.581
0.046175241 0.48584381 1.581
0.054808002 0.48664689 1.5810001
0.064280577 0.48521599 1.5842001
0.076044999 0.48464504 1.589
0.085124999 0.48388839 1.589
-0.091313899 0.49526519 1.5874002
-0.087331437 0.49487808 1.581
0.04646204 0.49387431 1.5810002
0.054230645 0.49519652 1.5817275
0.064936481 0.49496001 1.5833529
0.075666666 0.49486002 1.5890001
0.084410369 0.49469191 1.589
0.093826666 0.49940002 1.5890001
-0.09080001 0.50545335 1.5890001
-0.087331429 0.50441432 1.5810001
0.04818286 0.50591999 1.581
0.054260571 0.50582671 1.5826002
0.064479627 0.50557071 1.5818002
0.075666666 0.50545335 1.589
0.083233334 0.50545335 1.5890001
0.093826666 0.50242668 1.5890001
-0.086046666 0.5147438 1.585
0.014304287 0.51721293 1.5810001
0.04818286 0.51194286 1.5810001
0.054205716 0.51457787 1.5810002
0.06536445 0.51381022 1.5836667
0.075666666 0.51453334 1.589
0.083881907 0.51496571 1.589
0.094835557 0.51352447 1.5890001
-0.085670233 0.52493405 1.5850002
0.015917553 0.5239886 1.5810002
0.02409143 0.52700001 1.5810001
0.037642859 0.52549434 1.5810001
0.045171432 0.52398854 1.5810002
0.054428201 0.52550441 1.5874
0.063560002 0.52416366 1.589
0.093826666 0.52058667 1.5890001
-0.085610613 0.53388327 1.5810002
0.016777961 0.53517389 1.5810002
0.023756826 0.53402668 1.5810002
0.034675878 0.533701 1.5830002
0.045247618 0.53392708 1.5836667
0.054422431 0.53512233 1.5872222
0.062796198 0.53647792 1.5850002
0.078693338 0.53874671 1.5890001
0.082476668 0.53647673 1.5890001
-0.084320001 0.54205716 1.5810001
0.016578097 0.54552573 1.5823336
0.024591666 0.54517835 1.589
0.032915004 0.54442173 1.589
0.045400001 0.54253 1.5890001
0.055344768 0.54436767 1.589
0.063851118 0.54347336 1.5836668
0.074153334 0.54177338 1.5890001
-0.07378 0.5571143 1.5810001
-0.069262862 0.5571143 1.5810001
0.023456667 0.55161005 1.5890001
0.031780001 0.55085337 1.5890001
-0.073901914 0.56408954 1.5836668
-0.067372061 0.56609714 1.5836668
-0.05239886 0.56675088 1.5810001
-0.044418573 0.56539571 1.5810001
-0.039148573 0.56313717 1.5810001
-0.072640002 0.57204002 1.5890001
-0.06285987 0.57473385 1.5821431
-0.054234497 0.57550633 1.581889
-0.047167242 0.57388228 1.5874002
-0.061890483 0.58418953 1.5850002
-0.055095714 0.58418953 1.5850002
-0.048426669 0.58112001 1.5890001
-0.063560002 0.59020001 1.5890001
-0.10792001 0.039520003 1.5960001
-0.08512 0.036480002 1.5960001
-0.11491201 0.046208002 1.5960001
-0.10792001 0.04256 1.5960001
-0.1178 0.055480003 1.5960001
-0.1216 0.066880003 1.5960001
-0.11856 0.063840002 1.5960001
-0.1216 0.072960004 1.5960001
-0.11855999 0.076000005 1.5960001
-0.11754668 0.08512 1.5960001
-0.11552001 0.094240002 1.5960001
-0.11552001 0.10488 1.5960001
-0.11552001 0.11552 1.5960001
-0.11430401 0.125248 1.5960001
-0.11308801 0.13436802 1.5960001
-0.11248001 0.14288001 1.5960001
-0.10944001 0.14592001 1.5960001
-0.11248001 0.15656 1.5960001
-0.10944001 0.15200001 1.5960001
-0.11248001 0.16416 1.5960001
-0.11248001 0.17479999 1.5960001
-0.11248001 0.18544 1.5960001
-0.10944001 0.18848 1.5960001
-0.11248001 0.19608 1.5960001
-0.10944001 0.19304001 1.5960001
-0.11248001 0.20672001 1.5960001
-0.10944001 0.20064001 1.5960001
-0.11552001 0.21432 1.5960001
0.031920001 0.22800002 1.5960001
0.047120001 0.22800002 1.5960001
0.057760004 0.22496001 1.5960001
0.060800001 0.22496001 1.5960001
0.076000005 0.22192001 1.5960001
0.08664 0.22192001 1.5960001
0.092213333 0.22293335 1.5960001
0.10640001 0.22192001 1.5960001
0.11856 0.22496001 1.5960001
0.12464 0.22617602 1.5960001
0.13528001 0.22800002 1.5960001
0.14288001 0.22800002 1.5960001
-0.11248001 0.23559999 1.5960001
-0.10944001 0.23712 1.5960001
0.0091200005 0.23104002 1.5960001
0.13679999 0.2318 1.5960001
0.1463 0.23370001 1.596
0.15504001 0.23590401 1.5960001
0.16340001 0.23636001 1.5960001
-0.10944001 0.24472001 1.5960001
0.14896001 0.24016 1.5960001
0.15504001 0.24092001 1.5960001
0.16618668 0.24117333 1.5960001
0.17530668 0.24218667 1.5960001
0.186048 0.247456 1.5960001
0.19489779 0.24590223 1.596
0.20124801 0.24563202 1.5960001
0.21584001 0.24928001 1.5960001
0.22800002 0.24928001 1.5960001
0.23104002 0.24928001 1.5960001
-0.10842667 0.25536004 1.5960001
0.20854402 0.255968 1.5960001
0.21280001 0.25536004 1.5960001
0.224352 0.25353605 1.5960001
0.23509334 0.25738668 1.5960001
-0.10944001 0.26448002 1.5960001
0.20824 0.26144001 1.5960001
0.21280001 0.26144001 1.5960001
0.23590401 0.26448002 1.5960001
0.241376 0.26508802 1.5960001
-0.10792001 0.27740002 1.5960001
0.23712 0.27208 1.5960001
0.24395998 0.27461335 1.5960001
0.25232002 0.27359998 1.5960001
-0.10944001 0.28576002 1.5960001
0.2432 0.28576002 1.5960001
-0.10944001 0.29488 1.5960001
0.244416 0.29548803 1.5960001
-0.10716001 0.30324 1.5960001
0.24700001 0.30400002 1.5960001
0.25536001 0.30704001 1.5960001
0.26144001 0.30704001 1.5960001
-0.10640001 0.31464002 1.5960001
0.21280001 0.31008002 1.5960001
0.24776001 0.31464002 1.5960001
0.25384003 0.31362668 1.5960001
0.26410002 0.31350002 1.596
0.27360001 0.31464002 1.5960001
-0.10640001 0.32528004 1.5960001
0.247456 0.32528001 1.5960001
-0.10336 0.33592001 1.5960001
0.24421334 0.33490667 1.5960001
-0.10184 0.34504002 1.5960001
0.20976001 0.34808001 1.5960001
0.21280001 0.34504002 1.5960001
0.22572002 0.34884 1.5960001
0.23374224 0.34453332 1.596
0.24117334 0.34149334 1.5960001
-0.10032 0.35568002 1.5960001
-0.097280003 0.35872 1.5960001
0.18696001 0.35872 1.5960001
0.19456001 0.35795999 1.5960001
0.20638222 0.35635555 1.596
0.21584003 0.35415998 1.5960001
0.22556801 0.35385603 1.5960001
0.23104002 0.35264 1.5960001
-0.097280003 0.36480001 1.5960001
0.15706667 0.36682668 1.5960001
0.16568001 0.36480001 1.5960001
0.17175999 0.36176002 1.5960001
-0.097280003 0.37391999 1.5960001
0.13832 0.37696001 1.5960001
0.14592001 0.37240002 1.5960001
0.15200001 0.37088001 1.5960001
-0.10032 0.38456002 1.5960001
0.10741334 0.38709334 1.5960001
0.11552 0.38646004 1.596
0.12507428 0.38390857 1.596
0.13325334 0.38202667 1.5960001
-0.10032 0.39368004 1.5960001
0.10640001 0.39596 1.596
0.11552 0.39519998 1.596
0.12502 0.39482003 1.596
0.13451999 0.39633998 1.596
0.096266665 0.40634668 1.5960001
0.10446546 0.40431997 1.596
0.11552 0.40432003 1.596
0.12420572 0.40345144 1.596
0.13315201 0.40249601 1.5960001
-0.097280003 0.41800001 1.5960001
0.088160001 0.41648 1.5960001
0.094240002 0.41496 1.5960001
0.10488001 0.41496006 1.5960002
0.11552001 0.41496 1.5960001
0.1216 0.41496 1.5960001
0.09576001 0.42560002 1.5960001
0.10488 0.42560002 1.5960001
0.1159 0.42522001 1.596
-0.097280003 0.43472004 1.5960001
0.095108576 0.43515429 1.596
0.10488 0.43472004 1.5960001
0.11590001 0.43510002 1.596
-0.095760003 0.44536003 1.5960001
0.097280003 0.44536 1.5960001
0.10488 0.44536 1.5960002
0.11524363 0.44577456 1.596
0.1216 0.44688001 1.5960001
-0.094240002 0.456 1.5960001
0.097280003 0.456 1.5960001
0.10488001 0.456 1.5960001
0.11552 0.456 1.596
0.12312001 0.456 1.5960001
-0.094240002 0.46512005 1.5960001
0.088160001 0.46816 1.5960001
0.095253341 0.46613336 1.5960001
0.10488001 0.46511999 1.5960001
0.11552 0.46474001 1.596
0.12311999 0.46511999 1.5960001
-0.097280003 0.47424001 1.5960001
0.085880004 0.47348005 1.5960001
0.093024001 0.475456 1.5960001
0.10032 0.47728002 1.5960001
0.11552 0.47424001 1.5960001
0.12464 0.47120002 1.5960001
-0.094240002 0.48488003 1.5960001
0.085120007 0.48488003 1.5960001
0.093226671 0.4853867 1.596
-0.094240002 0.49552003 1.5960001
0.085120007 0.49552 1.5960001
0.094240002 0.49552 1.596
0.10032 0.49552003 1.5960001
-0.094240002 0.50616002 1.5960001
0.088160001 0.50464004 1.5960001
0.094240002 0.50507432 1.596
0.101536 0.50524801 1.5960001
-0.093479998 0.51642001 1.596
0.088160001 0.51376003 1.5960001
0.09390223 0.51511121 1.596
0.10268444 0.51646221 1.596
-0.094240002 0.52592003 1.596
0.068906672 0.52794671 1.5960001
0.076000005 0.52592003 1.596
0.08512 0.52592003 1.596
0.094240002 0.52630007 1.596
0.103968 0.52622402 1.596
-0.092720002 0.53503996 1.5960001
0.068400003 0.53503996 1.5960001
0.076000005 0.53504008 1.596
0.085988574 0.53460568 1.596
0.094240002 0.53504002 1.596
0.10488001 0.53428 1.596
0.11476 0.53580004 1.5960001
0.12616 0.53504002 1.5960001
-0.091200002 0.54111999 1.5960001
0.039520003 0.54568005 1.5960001
0.045600001 0.54720002 1.5960001
0.051680002 0.54720002 1.5960001
0.069920003 0.54111999 1.5960001
0.074480005 0.54111999 1.5960001
0.088160001 0.54111999 1.5960001
0.094240002 0.54111999 1.5960001
0.10032 0.54111999 1.5960001
0.038000003 0.55024004 1.5960001
0.045600001 0.55024004 1.5960001
0.051680002 0.55024004 1.5960001
-0.051680002 0.58672005 1.5960001
-0.048640002 0.58672005 1.5960001
-0.11480534 0.037861336 1.603
-0.10992 0.03664 1.603
-0.091600001 0.03664 1.603
-0.088546671 0.03664 1.603
-0.12213334 0.0458 1.603
-0.11806223 0.043764442 1.603
-0.12366 0.054960001 1.603
-0.1241689 0.064120002 1.603
-0.12366001 0.074806668 1.603
-0.12213334 0.083966672 1.603
-0.11908001 0.088546671 1.603
-0.11908001 0.094653338 1.603
-0.12213334 0.10381334 1.603
-0.11908001 0.10534001 1.603
-0.11908001 0.11602667 1.603
-0.11908001 0.12518667 1.603
-0.11785867 0.13495734 1.603
-0.11541601 0.14411733 1.603
-0.11500889 0.15368445 1.603
-0.11602667 0.16488001 1.603
-0.11602667 0.17251334 1.603
-0.11602667 0.1832 1.603
-0.1145 0.19541335 1.603
-0.11297334 0.20304668 1.603
-0.11602667 0.21068001 1.603
0.088546671 0.21984001 1.603
0.091600001 0.21984001 1.603
0.027480001 0.229 1.603
0.038166665 0.229 1.603
0.042746667 0.229 1.603
0.082440004 0.22289334 1.603
0.097706668 0.22289334 1.603
0.10483112 0.22289334 1.603
0.1145 0.22289334 1.603
0.13434666 0.22594668 1.603
0.14533867 0.22716801 1.603
0.15572001 0.22900002 1.603
0.16335334 0.229 1.603
0.013740001 0.23205334 1.603
0.15572001 0.23281668 1.603
0.16488001 0.23358002 1.603
0.17200445 0.23714225 1.603
0.18930668 0.23663335 1.603
0.19541335 0.23663335 1.603
0.20304668 0.23663335 1.603
-0.11297334 0.24426667 1.603
0.17709334 0.24121334 1.603
0.18538097 0.2429581 1.6029999
0.19439556 0.24223112 1.603
0.20610003 0.24426669 1.603
0.21475111 0.24630225 1.603
0.22594666 0.24732001 1.603
0.24732001 0.24732001 1.603
0.25648001 0.24579334 1.603
-0.11297334 0.25037333 1.603
-0.10992 0.25648001 1.603
0.20762667 0.25037333 1.603
0.21475112 0.25037333 1.603
0.22442001 0.25037333 1.603
0.23693869 0.25281602 1.603
0.24426667 0.25495335 1.603
0.25505513 0.25485155 1.6030002
0.26258668 0.25037333 1.603
-0.10992 0.26564002 1.603
0.24655667 0.26487669 1.603
0.25495332 0.26564005 1.603
0.26651239 0.2652038 1.6029999
-0.10992 0.27327335 1.603
0.25609836 0.2748 1.6029999
0.26525837 0.27441832 1.6029999
0.27174667 0.27632666 1.603
0.24732001 0.2854867 1.603
0.255335 0.28281501 1.6029999
0.26564002 0.28396001 1.6029999
0.27392763 0.28396001 1.6029999
0.28090668 0.28701335 1.603
0.24732001 0.29159334 1.603
0.25495335 0.29770002 1.603
0.26625067 0.29495203 1.6029999
0.27452242 0.29506302 1.6029999
0.28212801 0.29678398 1.603
0.25525868 0.30502802 1.6029999
0.26602167 0.30495167 1.6029999
0.2748 0.30533335 1.6029999
0.28212801 0.30533335 1.603
0.25800669 0.31525669 1.603
0.26869336 0.31144002 1.603
0.27479997 0.31144002 1.603
0.28294224 0.31551111 1.603
0.25622556 0.32568887 1.603
0.26564005 0.32365334 1.6029999
0.2748 0.3206 1.603
0.28090668 0.3206 1.603
0.25190002 0.33586669 1.603
-0.10381334 0.34655333 1.603
0.24503 0.34502667 1.603
0.25037333 0.34350002 1.603
-0.10381334 0.35418668 1.603
0.22289334 0.35724002 1.603
0.23561557 0.35418668 1.603
0.24223112 0.35215113 1.603
-0.10228667 0.36487332 1.603
0.16411668 0.36868998 1.603
0.17327666 0.3664 1.603
0.18472669 0.36334667 1.603
0.19541335 0.36334667 1.603
0.20457335 0.36334667 1.603
0.21678667 0.36029336 1.603
-0.10076001 0.37556005 1.603
0.14656 0.37759557 1.603
0.15572 0.37352443 1.603
0.13536444 0.38675556 1.603
0.14437905 0.38428381 1.6029999
-0.10076001 0.39998668 1.603
0.12442333 0.39311668 1.603
0.13434666 0.39204803 1.603
0.1454497 0.39610064 1.6029999
0.15266667 0.39998668 1.603
-0.10076001 0.40609336 1.603
0.12671334 0.4091467 1.603
0.13511001 0.40838337 1.603
0.14411733 0.40578803 1.6029999
0.126408 0.41464266 1.603
0.13434668 0.41438097 1.6029999
0.14503333 0.41372669 1.6029999
0.12442334 0.42365003 1.603
0.122744 0.43601599 1.603
-0.097706668 0.44884002 1.603
0.11908001 0.44273335 1.603
0.1241689 0.44578668 1.603
-0.097706668 0.45189336 1.603
0.12747666 0.45418334 1.603
0.13129334 0.458 1.603
0.12824 0.46410668 1.603
0.13205668 0.46487001 1.603
0.096180007 0.47479337 1.603
0.10575638 0.47604239 1.6029999
0.11602667 0.4755567 1.6029999
0.12552592 0.47598076 1.6029999
0.13205668 0.47250336 1.603
0.097706668 0.48547998 1.603
0.10534001 0.48547998 1.603
0.11602667 0.48547998 1.6029999
0.12289667 0.48471668 1.603
-0.097706668 0.49464002 1.603
0.10432223 0.49463999 1.603
0.11602667 0.49158669 1.603
-0.097706668 0.50838006 1.603
0.10564534 0.50502139 1.603
-0.10076001 0.51601338 1.603
-0.097706668 0.51601332 1.603
0.10686667 0.51524997 1.603
0.1145 0.51906669 1.603
-0.10320268 0.52334136 1.603
-0.094653338 0.52822667 1.603
0.10992 0.52517337 1.603
0.11373667 0.52593666 1.603
0.10534 0.53738672 1.603
0.11602667 0.53280669 1.603
0.12620445 0.53433341 1.603
0.16182667 0.53128004 1.603
0.10483112 0.54145783 1.603
0.038166665 0.55570668 1.603
0.0458 0.55570668 1.603
-0.04681778 0.59336448 1.603
-0.10398439 0.035686098 1.6152
-0.095259048 0.035848889 1.6133333
-0.087644294 0.032286666 1.6145
-0.12541372 0.04364305 1.6138
-0.12944001 0.055474292 1.618
-0.12853286 0.063882858 1.61625
-0.12841271 0.073965721 1.618
-0.12545429 0.084655717 1.61625
-0.12274286 0.095125712 1.6110001
-0.12274286 0.10433143 1.6110001
-0.12274286 0.11046857 1.6110001
-0.1232762 0.12635811 1.618
-0.1232762 0.13406286 1.618
-0.11814 0.14575714 1.6110001
-0.12019429 0.15101334 1.618
-0.11660572 0.15496287 1.6110001
-0.12019429 0.16950476 1.618
-0.11660572 0.17797714 1.6110001
-0.12019429 0.18183239 1.618
-0.11711238 0.19416003 1.618
-0.11711238 0.20340572 1.618
0.088347942 0.21778794 1.618
0.095539056 0.21881525 1.618
0.10478476 0.21881525 1.618
0.11403048 0.21881525 1.618
0.1232762 0.21881525 1.618
0.22497906 0.21881525 1.618
0.23114286 0.21881525 1.618
-0.11711238 0.22497906 1.618
0.016950477 0.22806096 1.618
0.025395716 0.22704382 1.61625
0.034312382 0.22637588 1.6133333
0.045361429 0.22679715 1.6145
0.053933337 0.22806096 1.618
0.084752381 0.22189716 1.618
0.096866667 0.22141716 1.6145
0.10433143 0.22093715 1.6110001
0.11544143 0.2224243 1.61625
0.12524328 0.22280082 1.615
0.13540603 0.22311366 1.6156667
0.1445362 0.22295143 1.6145
0.15472624 0.22454649 1.6129092
0.16570286 0.22554 1.6110001
0.17566858 0.22497906 1.618
0.18491429 0.22652 1.618
0.19454524 0.22536428 1.618
0.20494668 0.22497909 1.618
0.21634972 0.22559543 1.618
0.22395176 0.22600634 1.618
0.23653619 0.22574952 1.618
0.24439506 0.22559544 1.618
0.25425714 0.22806096 1.618
-0.11711238 0.23422475 1.618
0.0077047618 0.23114286 1.618
0.015360636 0.23047619 1.6133333
0.023014287 0.23014286 1.6110001
0.052165717 0.23014286 1.6110001
0.16877143 0.23167714 1.6110001
0.17567641 0.23366348 1.6117778
0.18417986 0.23482905 1.6115834
0.1948543 0.23167714 1.6110001
0.20669977 0.2335881 1.613625
0.215452 0.23514685 1.6159
0.22497903 0.23422477 1.618
0.23422477 0.23422477 1.618
0.24489297 0.2350442 1.6152
0.2553359 0.23533459 1.6150833
0.26339918 0.23569062 1.6160001
-0.11711238 0.24501145 1.618
0.21517333 0.24283583 1.6138
0.22470324 0.24344818 1.6138
0.23503621 0.24424951 1.613
0.24457842 0.24457842 1.6117778
0.25381473 0.24504736 1.6110001
0.26449126 0.24465472 1.6129092
0.2741358 0.24587947 1.6154546
0.28573662 0.24699266 1.618
0.29624808 0.24616715 1.618
0.30510861 0.24655239 1.618
0.31358382 0.24655239 1.618
0.32154539 0.24757969 1.618
-0.11403048 0.25733906 1.618
0.25469145 0.25776002 1.6110001
0.26573831 0.25530517 1.6110001
0.27363473 0.25518182 1.6141112
0.28507623 0.25579813 1.618
0.29586285 0.2557981 1.618
0.30510861 0.2557981 1.618
0.3143543 0.25425717 1.618
0.32051811 0.25425714 1.618
-0.11386603 0.26465714 1.6156667
0.26492 0.26287428 1.6110001
0.2739796 0.26345879 1.6110001
0.28507623 0.2650438 1.618
0.29586282 0.26504385 1.618
0.30510861 0.26504382 1.618
0.3143543 0.26504385 1.618
0.32175088 0.2656602 1.618
-0.11390714 0.27552718 1.61625
0.26389715 0.27003428 1.6110001
0.27502072 0.27502072 1.6110001
0.28505459 0.27519959 1.6161333
0.29554287 0.27552715 1.61625
0.30435082 0.27497146 1.6154546
0.3143543 0.27428952 1.618
0.32205907 0.27428952 1.618
-0.11516458 0.28452268 1.6166
0.25545859 0.28767857 1.6110001
0.27924001 0.28537714 1.6110001
0.2859174 0.28514689 1.6118751
0.29458287 0.28537714 1.6110001
0.30554345 0.28499839 1.6115385
0.31523049 0.28442627 1.6172223
0.32411367 0.28558987 1.618
-0.11370159 0.29500508 1.6133333
0.25507501 0.29419929 1.6110001
0.26236287 0.29458287 1.6110001
0.27924001 0.29151431 1.6110001
0.28639999 0.29356 1.6110001
0.29458287 0.29458287 1.6110001
0.3043797 0.29515323 1.6141112
0.3143543 0.29586288 1.618
0.32394245 0.29654774 1.618
-0.11260571 0.30642176 1.6152
0.28783199 0.30562973 1.6110001
0.29430392 0.30490443 1.6110001
0.30510861 0.30510861 1.618
0.3143543 0.30510861 1.618
0.32462731 0.30716321 1.618
0.33592761 0.30356765 1.618
-0.11147904 0.31520855 1.6145
0.28742287 0.31401715 1.6110001
0.29527777 0.31585711 1.6131001
0.30466974 0.31483203 1.6173
0.3143543 0.3143543 1.618
0.32462728 0.31503916 1.618
0.33284572 0.31743619 1.618
-0.11147904 0.3252081 1.6145
0.27617145 0.32680288 1.6110001
0.2857607 0.32565218 1.6110001
0.29458287 0.32526857 1.6110001
0.30515119 0.32530305 1.6167274
0.31435427 0.32514098 1.618
0.32051811 0.32514095 1.618
-0.11094858 0.33592761 1.618
-0.10740001 0.33600858 1.6110001
0.25776002 0.33600858 1.6110001
0.26428074 0.33485785 1.6110001
0.27463716 0.3344743 1.6110001
0.28537714 0.3344743 1.6110001
0.29486883 0.33480021 1.6125556
0.30510858 0.33592764 1.618
0.31358382 0.3336162 1.618
-0.10786667 0.34517336 1.618
0.24702001 0.34981716 1.6110001
0.25584218 0.34636503 1.6110001
0.26382095 0.34459504 1.6124001
0.2741926 0.34397182 1.6138
0.28504676 0.34491414 1.6154546
0.29437679 0.34364459 1.6166
0.30510858 0.34209144 1.618
-0.11094858 0.35596001 1.618
-0.10751667 0.35480002 1.6127501
0.23934858 0.35902286 1.6110001
0.24631543 0.35687733 1.6124001
0.25561589 0.35570446 1.6168333
0.26504382 0.35441908 1.618
0.27506003 0.35210764 1.618
0.28404889 0.35236445 1.618
0.29278097 0.35133716 1.618
-0.11197588 0.36417842 1.618
-0.10740001 0.36516002 1.6110001
0.17797714 0.36822858 1.6110001
0.18411429 0.36822858 1.6110001
0.19485429 0.36822858 1.6110001
0.20589207 0.3687619 1.6133333
0.2149303 0.36643201 1.6166
0.22410882 0.36557311 1.6145
0.2337905 0.36519188 1.615
0.2447913 0.36410505 1.618
0.25502762 0.36135334 1.618
-0.10574552 0.37440002 1.6138
0.15803143 0.37743431 1.6110001
0.1659451 0.37644669 1.6133333
0.17534287 0.37529904 1.615
0.18413791 0.3738206 1.6166
0.19416001 0.37368098 1.618
0.20494668 0.3729105 1.618
-0.10467143 0.3863557 1.61625
0.14115429 0.3881743 1.6110001
0.15333508 0.38514185 1.6129092
0.1648819 0.38523808 1.618
0.17528336 0.38562337 1.618
0.18183239 0.38832003 1.618
-0.10433143 0.39431143 1.6110001
0.14115429 0.39431143 1.6110001
0.15479201 0.39557332 1.6124001
0.16470902 0.39482468 1.6174616
0.1756686 0.39448383 1.618
0.18183239 0.3944838 1.618
-0.10375746 0.40475681 1.618
0.15537633 0.40599456 1.613
0.16565728 0.40596581 1.6174616
0.1756686 0.40527049 1.618
0.18491429 0.40527049 1.618
0.1910781 0.40064764 1.618
-0.10170286 0.41759813 1.618
0.15449961 0.4143312 1.613
0.1648819 0.4160572 1.618
0.17443582 0.41482443 1.618
-0.10214324 0.42640799 1.6152
0.12765257 0.42653146 1.6110001
0.13474287 0.42469165 1.6117778
0.14465372 0.42444724 1.6124001
0.15333506 0.42508057 1.6129092
0.1648819 0.42530289 1.618
0.17381945 0.42468649 1.618
-0.10302382 0.43514287 1.6145
0.12734573 0.43573716 1.6110001
0.13584571 0.43446213 1.61625
0.14438429 0.43469879 1.617125
0.15444218 0.43516055 1.617
0.1648819 0.43454859 1.618
0.17478804 0.43498883 1.618
-0.10327538 0.44516709 1.615
0.12811285 0.44494286 1.6110001
0.13550715 0.44501522 1.6168333
0.14484952 0.44533527 1.618
0.15409525 0.44533527 1.618
0.16488191 0.44533527 1.618
0.1746413 0.44482163 1.618
0.18183239 0.44225335 1.618
-0.10225333 0.45436811 1.6145
-0.098194286 0.45721716 1.6110001
0.12888001 0.45108002 1.6110001
0.135149 0.45458418 1.6125556
0.14484952 0.45612192 1.618
0.15409525 0.45612192 1.618
0.1648819 0.45612192 1.618
0.17258668 0.45458096 1.618
-0.10170286 0.46382669 1.618
-0.098336518 0.46402097 1.6133333
0.13677062 0.46423101 1.6110001
0.14432953 0.46522304 1.6121668
0.15409526 0.46536765 1.618
0.16334096 0.46404681 1.618
-0.098478734 0.47392449 1.6156667
0.1368583 0.4762423 1.6110001
0.14378449 0.4747518 1.6110001
0.15371001 0.47422811 1.618
-0.098407626 0.48435336 1.6145
0.12785715 0.48688003 1.6110001
0.13521492 0.4840022 1.6133333
0.14523476 0.48424432 1.618
0.1525543 0.48077717 1.618
-0.10170286 0.49772763 1.618
-0.098478734 0.49238923 1.6156667
0.10740001 0.49404001 1.6110001
0.11485224 0.49579349 1.6110001
0.12633501 0.49496192 1.6127501
0.1356038 0.49464574 1.618
0.14484952 0.49464571 1.618
0.15101334 0.49772763 1.618
-0.10170286 0.50543237 1.618
-0.098194279 0.50324571 1.6110001
0.10740001 0.50324571 1.6110001
0.11476458 0.50447315 1.6110001
0.12583658 0.50517142 1.6152
0.13553864 0.50518942 1.6172223
0.14484952 0.50543243 1.618
0.15286247 0.50666517 1.618
0.16334096 0.50851429 1.618
-0.10214 0.51530617 1.6127501
0.11353714 0.51552004 1.6110001
0.12477057 0.5151732 1.6158462
0.13560382 0.51467812 1.618
0.14484952 0.51467812 1.618
0.15409525 0.51467812 1.618
0.16295572 0.51506335 1.618
-0.10433143 0.52165717 1.6110001
0.11844686 0.52533948 1.6110001
0.12563066 0.5240196 1.6122727
0.13511394 0.52421421 1.6154546
0.14484954 0.52392381 1.618
0.15409525 0.52392381 1.618
0.1629557 0.52392381 1.618
0.11967429 0.53086287 1.6110001
0.12493471 0.53349304 1.6110001
0.13562134 0.53447235 1.6145
0.14453508 0.5335483 1.6145
0.15484501 0.53218788 1.6141819
0.16547406 0.532206 1.61625
0.17258668 0.53471053 1.618
0.13194858 0.54006857 1.6110001
-0.10530286 0.027874287 1.626
-0.11149715 0.034068573 1.626
-0.10685143 0.032520004 1.626
-0.09601143 0.033036191 1.626
-0.13008 0.048005715 1.626
-0.13317715 0.055748578 1.626
-0.13317715 0.06194286 1.626
-0.13008 0.077428572 1.626
-0.13008 0.085171431 1.626
-0.12698287 0.089817144 1.626
-0.13008 0.09601143 1.626
-0.12698287 0.09601143 1.626
-0.12698287 0.10530286 1.626
-0.12543429 0.11614285 1.626
-0.12620857 0.12311143 1.626
-0.12620857 0.13472572 1.626
-0.12311143 0.14634001 1.626
-0.12233715 0.15485714 1.626
-0.12233714 0.16414858 1.626
-0.12233714 0.17498858 1.626
-0.12078857 0.18737715 1.626
-0.12078857 0.19512002 1.626
-0.12078857 0.2013143 1.626
-0.11769143 0.20750858 1.626
-0.12078857 0.21989715 1.626
-0.11769143 0.21060573 1.626
0.082074285 0.21989715 1.626
0.09601143 0.21680002 1.626
0.10452858 0.21602573 1.626
0.11459429 0.21680002 1.626
0.12388572 0.21680002 1.626
0.13369334 0.21886475 1.626
0.14556572 0.21989715 1.626
0.15485714 0.21989715 1.626
0.16414858 0.21989715 1.626
0.17189144 0.21989715 1.626
0.19666858 0.21989715 1.626
0.20286286 0.21989715 1.626
0.21602573 0.21912286 1.626
0.22609143 0.21680002 1.626
0.23538287 0.21834856 1.626
0.24467428 0.21989715 1.626
0.25086859 0.21989715 1.626
-0.12078857 0.2229943 1.626
0.015485715 0.22764 1.626
0.024777144 0.22609143 1.626
0.034068573 0.22402668 1.626
0.044908576 0.22531715 1.626
0.055748571 0.22609143 1.626
0.06504 0.22609143 1.626
0.074331433 0.22402668 1.626
0.080525719 0.2229943 1.626
0.16414858 0.22299428 1.626
0.17034286 0.2229943 1.626
0.18582858 0.22299428 1.626
0.19202286 0.2229943 1.626
0.21602571 0.22531715 1.626
0.22815619 0.22402668 1.626
0.23352459 0.225472 1.626
0.24777144 0.2229943 1.626
0.25458515 0.22423315 1.626
0.26119235 0.22815619 1.626
-0.12078857 0.2338343 1.626
0.2168 0.23538287 1.626
0.26841906 0.23331811 1.626
0.27502629 0.23724115 1.626
0.29484802 0.23724115 1.626
0.30413944 0.23786056 1.626
0.31281143 0.23848 1.626
-0.12078857 0.24312572 1.626
0.27719432 0.24157715 1.626
0.28648573 0.24467428 1.626
0.29546744 0.24343543 1.626
0.30661717 0.24157715 1.626
0.31745714 0.2446743 1.626
0.32365143 0.2446743 1.626
-0.11769143 0.25551429 1.626
0.32597432 0.25474 1.626
0.33449143 0.255824 1.626
-0.11769143 0.2648057 1.626
0.31590858 0.26016 1.626
0.32597432 0.26403144 1.626
0.33517969 0.26566604 1.6260002
0.34429908 0.26583809 1.626
0.35307431 0.26790285 1.626
-0.11769143 0.27564573 1.626
0.32829717 0.27564573 1.626
0.33449143 0.27564573 1.6260002
0.34533143 0.27564573 1.626
0.35431314 0.27626517 1.626
-0.11769143 0.28803429 1.626
0.32829717 0.28493714 1.626
0.33487856 0.28493714 1.6260002
0.34440231 0.28524685 1.6260002
0.35513905 0.28493714 1.626
0.36546287 0.28493714 1.626
-0.11769143 0.29422858 1.626
0.32829717 0.29422858 1.626
0.33487856 0.29461575 1.6260002
0.34417003 0.29306716 1.6260002
0.35410666 0.29216382 1.626
0.36546287 0.29113144 1.626
-0.11769143 0.30506858 1.626
0.32468382 0.30558479 1.626
0.33480114 0.30537829 1.6260002
0.34481528 0.30481049 1.626
-0.11459429 0.31745714 1.626
0.32674861 0.31436002 1.626
0.33552381 0.3148762 1.626
0.34289795 0.316351 1.6260002
-0.11459429 0.32520002 1.626
0.32674861 0.32520005 1.626
0.3341043 0.32481289 1.6260002
0.34068573 0.32365143 1.626
-0.11459429 0.3344914 1.626
0.31745714 0.33758858 1.626
0.32558715 0.33487856 1.6260002
0.33294284 0.33139428 1.626
-0.11304572 0.34533143 1.626
0.29732573 0.34842861 1.626
0.30545574 0.34688002 1.6260002
0.31590858 0.34223428 1.626
0.32442573 0.34146002 1.626
-0.11382 0.35539716 1.626
0.26945144 0.35926858 1.626
0.27409714 0.35771999 1.626
-0.11459429 0.36856002 1.626
0.24777144 0.36856002 1.626
0.25241715 0.36856002 1.626
0.26325715 0.36236572 1.626
-0.11149715 0.37475431 1.626
0.18892573 0.37785146 1.626
0.19512001 0.37785146 1.626
0.20441143 0.37785146 1.626
0.21628381 0.3742381 1.626
0.22609144 0.37372193 1.626
0.23615715 0.37320575 1.626
0.24467428 0.37165716 1.626
0.25086859 0.37165716 1.626
-0.10840001 0.38404572 1.626
0.17963429 0.38249713 1.626
0.18582858 0.38404572 1.6260002
0.19512002 0.38404572 1.6260002
0.20441143 0.38365859 1.6260002
0.21060573 0.38559431 1.626
-0.10840001 0.39643431 1.626
0.18737715 0.39488572 1.6260002
0.19511999 0.39488569 1.626
0.20441145 0.39488569 1.626
0.21193306 0.39554939 1.6260002
-0.11149715 0.40572572 1.626
-0.10685143 0.40572572 1.626
0.18582858 0.40727428 1.626
0.19550715 0.40611288 1.6260002
0.20317259 0.40448689 1.626
0.2121543 0.4026286 1.626
-0.11149715 0.4181143 1.626
-0.10654172 0.41439772 1.626
0.17808571 0.4181143 1.626
0.18582858 0.41656575 1.626
0.1942351 0.41457468 1.6260002
0.2013143 0.41192001 1.626
0.22609143 0.4181143 1.626
-0.10607715 0.4243086 1.626
0.17885999 0.42353433 1.626
0.18582858 0.4243086 1.6260002
0.19202286 0.42121145 1.626
0.22815619 0.42224383 1.626
-0.1084 0.4351486 1.626
0.17885999 0.43282574 1.626
0.18582858 0.43514857 1.626
0.19512002 0.4397943 1.626
0.2013143 0.4397943 1.626
-0.10840001 0.44598857 1.626
0.17963429 0.44753718 1.626
0.18671349 0.44643101 1.6260002
0.19467756 0.44510368 1.6260002
0.2013143 0.44444001 1.626
-0.10685143 0.45528001 1.626
0.17839542 0.45589942 1.626
0.18544143 0.45489287 1.6260002
-0.10530286 0.46457148 1.626
0.16724572 0.46766859 1.626
0.17591771 0.46488118 1.6260002
0.18350573 0.46379715 1.626
-0.10220572 0.47386289 1.626
0.16453573 0.47425005 1.6260002
0.17405942 0.47138515 1.626
0.18737715 0.47696 1.626
-0.10220572 0.48470289 1.626
0.15563145 0.48625147 1.6260002
0.16414858 0.48470286 1.626
0.17344001 0.48713636 1.6260002
0.18686096 0.48470286 1.626
0.19512002 0.48005715 1.626
-0.10220572 0.4939943 1.626
0.15524429 0.49515575 1.6260002
0.16414858 0.49554294 1.6260002
0.17498858 0.49554291 1.626
0.1839703 0.49492344 1.626
-0.10427048 0.50483435 1.626
0.15640572 0.50483423 1.626
0.16414858 0.50483429 1.6260002
0.17498858 0.50483435 1.626
-0.10530286 0.51567429 1.626
0.16518097 0.51206094 1.626
0.17456625 0.51412576 1.6260002
0.16724572 0.52651429 1.626
0.1739562 0.52393335 1.626
0.18273143 0.52032 1.626
0.17498857 0.53425717 1.626
-0.10893334 0.02801143 1.6340001
-0.11827048 0.037348572 1.6340001
-0.10582095 0.031123811 1.6340001
-0.09804 0.031123811 1.6340001
-0.13279492 0.046685714 1.6340002
-0.13694477 0.057579048 1.6340001
-0.13383238 0.066916198 1.6340001
-0.13383238 0.074697144 1.6340002
-0.13383238 0.084034294 1.6340002
-0.13072 0.096483812 1.6340001
-0.13072 0.10582095 1.6340002
-0.13072 0.1151581 1.6340002
-0.12760763 0.11204572 1.6340001
-0.13072 0.12449525 1.6340002
-0.13072 0.1338324 1.6340002
-0.13072 0.14628191 1.6340001
-0.12760763 0.14472571 1.6340001
-0.12682953 0.15639715 1.6340001
-0.12760763 0.1649562 1.6340002
-0.12760763 0.17429334 1.6340002
-0.12449525 0.18518668 1.6340001
-0.12449525 0.19608001 1.6340002
-0.12293907 0.20619525 1.6340001
-0.12138286 0.21475428 1.6340002
0.084034286 0.21786667 1.6340002
0.09804 0.2147543 1.6340001
0.12138286 0.2147543 1.6340001
0.1338324 0.21631049 1.6340001
0.14472571 0.21786667 1.6340001
0.15561906 0.21786667 1.6340002
0.1649562 0.21786667 1.6340002
0.17429334 0.21786667 1.6340002
0.18674287 0.21786667 1.6340001
0.19608001 0.21786667 1.6340001
0.20386097 0.21786667 1.6340001
0.2147543 0.21786667 1.6340002
0.22564763 0.2147543 1.6340001
0.23446603 0.21579176 1.6340002
-0.12371716 0.22486955 1.6340001
0.036311109 0.22201651 1.6340002
0.044195812 0.22284648 1.6340001
0.055400383 0.22284648 1.6340001
0.065360002 0.22409146 1.6340002
0.073919043 0.22175714 1.6340001
0.17740571 0.22097905 1.6340001
0.18518667 0.22097905 1.6340001
0.19296762 0.22097905 1.6340001
0.20852953 0.22097905 1.6340001
0.21786667 0.22097905 1.6340001
0.25677145 0.22097905 1.6340001
0.2639299 0.22471392 1.6340001
0.27077717 0.22720382 1.6340001
-0.12293907 0.23498477 1.6340001
0.26766476 0.23031619 1.6340001
0.27388954 0.23239112 1.6340002
0.28495577 0.23688677 1.6339999
0.2956762 0.23446603 1.6340002
0.30439085 0.23405106 1.6340001
0.31746286 0.23965335 1.6340001
0.32617754 0.2384084 1.6340001
0.33302477 0.23965335 1.6340001
0.3454743 0.23965335 1.6340001
-0.12138286 0.24899049 1.6340001
0.28322667 0.24276572 1.6340001
0.31746286 0.24276572 1.6340001
0.32680002 0.2443219 1.6339999
0.33613715 0.2458781 1.6339999
0.3454743 0.24510001 1.6340001
0.35325527 0.24432191 1.6340001
-0.12138286 0.25521526 1.6340002
0.32991239 0.25365907 1.6340001
0.33613715 0.25288096 1.6340001
0.34495556 0.25625271 1.6339999
0.35543391 0.25708267 1.6340001
0.36103621 0.25521526 1.6340002
-0.12138286 0.2629962 1.6340001
0.32887495 0.26351491 1.6340002
0.33406222 0.26351491 1.6340002
0.34858668 0.2629962 1.6340001
0.35525605 0.26366311 1.6339999
0.36181429 0.26533046 1.6340001
-0.12138286 0.27388954 1.6340002
0.35792384 0.27233335 1.6340001
0.36375952 0.27427858 1.6339999
0.37037334 0.27700192 1.6340001
-0.12138286 0.28478289 1.6340001
0.35377398 0.2853016 1.6340002
0.36414859 0.28447166 1.6340001
0.37348574 0.28711715 1.6340001
0.38531277 0.2844716 1.6340001
-0.12138286 0.2956762 1.6340002
0.34703049 0.29878858 1.6340001
0.35481146 0.29754362 1.6340001
0.36375955 0.29606524 1.6339999
0.37115145 0.29489812 1.6340001
-0.12138286 0.30501336 1.6340002
0.3557007 0.30456871 1.6339999
0.36414859 0.30501333 1.6339999
0.37037334 0.30501333 1.6340002
-0.11827048 0.31590667 1.6340001
0.34858668 0.31435049 1.6340002
0.35294405 0.31372803 1.6340001
0.36207366 0.31227556 1.6340002
-0.11827048 0.32524383 1.6340001
0.33924952 0.32991239 1.6340001
0.34599304 0.32680002 1.6339999
0.3527365 0.32161272 1.6340002
-0.11827048 0.33613715 1.6340002
0.33551466 0.33675963 1.6340001
0.34339938 0.33406222 1.6340002
-0.11827048 0.34547433 1.6340002
0.31590667 0.34858668 1.6340001
0.32555506 0.34734172 1.6340001
-0.11749239 0.35403335 1.6340001
0.28945145 0.35792384 1.6340001
0.29878858 0.35481143 1.6340001
0.30501336 0.35325524 1.6340001
0.31435049 0.35169905 1.6340001
0.32057524 0.35169905 1.6340001
-0.11827048 0.36414859 1.6340002
0.25832763 0.36726096 1.6340001
0.26455238 0.36622348 1.6340002
0.27077717 0.36414859 1.6340001
0.28011429 0.36103621 1.6340001
-0.11412064 0.37659812 1.6340002
0.2147543 0.3797105 1.6340001
0.22409144 0.3797105 1.6340001
0.23446603 0.37763557 1.6340002
0.24525563 0.37784308 1.6340001
0.25459278 0.37535316 1.6340001
-0.11204573 0.38593522 1.6340002
0.20541716 0.38904762 1.6340001
0.21397619 0.38515714 1.6340001
0.22564763 0.38904762 1.6340001
0.23965335 0.38593522 1.6340002
0.2458781 0.38593525 1.6340001
-0.11204573 0.3952724 1.6340002
-0.10893334 0.39216003 1.6340001
0.21708858 0.39449432 1.6340001
0.2237024 0.39488336 1.6339999
0.23031619 0.3952724 1.6340001
-0.11204572 0.40305334 1.6340001
-0.10893334 0.40772191 1.6340001
0.20697334 0.40772191 1.6340001
0.21553239 0.40538761 1.6340001
0.22448048 0.40422049 1.6339999
0.23031621 0.40460953 1.6340002
-0.11360192 0.41394672 1.6339999
-0.10893334 0.41083431 1.6340001
0.19919239 0.41705906 1.6340001
0.20630638 0.41439125 1.6339999
0.21164191 0.4123905 1.6340001
0.22564763 0.41394672 1.6339999
0.23031621 0.41394672 1.6340002
-0.11329068 0.42452878 1.6340001
-0.10893334 0.42432129 1.6340002
0.19556129 0.42587748 1.6339999
0.20230477 0.42017144 1.6340001
0.22512889 0.42587748 1.6339999
0.23436227 0.42577371 1.6340001
-0.11204573 0.43573335 1.6340002
0.19519077 0.4352887 1.6339999
0.20852953 0.43573335 1.6340001
0.2147543 0.43884572 1.6340001
0.22564763 0.43573335 1.6339999
0.23280609 0.43386593 1.6340001
