# .PCD v0.7 - Point Cloud Data file format
VERSION 0.7
FIELDS x y z
SIZE 4 4 4
TYPE F F F
COUNT 1 1 1
WIDTH 1503
HEIGHT 1
VIEWPOINT 0 0 0 1 0 0 0
POINTS 1503
DATA ascii
0.65651053 0.20619048 1.7320002
0.6655829 0.20701525 1.7320001
0.84455621 0.20784001 1.7320001
0.85492462 0.20548354 1.7320002
0.86393809 0.20495331 1.7320002
0.87342292 0.20206667 1.7320001
0.88084573 0.20124191 1.7320001
0.8944543 0.20412859 1.7320002
0.9019596 0.20388114 1.7320001
0.45691812 0.21773715 1.7320001
0.46475336 0.21485049 1.7320002
0.47459155 0.21538068 1.7320002
0.48430023 0.21641752 1.7320001
0.49403238 0.21361333 1.7320001
0.50392956 0.21196383 1.7320001
0.51465142 0.21443811 1.7320002
0.52388877 0.21575773 1.7320001
0.53444576 0.2144381 1.732
0.54434282 0.2144381 1.732
0.5550648 0.21526286 1.7320001
0.56479698 0.21443811 1.7320001
0.57337451 0.21245869 1.7320001
0.5872305 0.21278858 1.7320001
0.59382862 0.21278858 1.7320002
0.60504538 0.21311848 1.7320001
0.6136229 0.21608762 1.7320002
0.62269521 0.21691239 1.7320001
0.63506669 0.21608762 1.7320001
0.64413905 0.21402572 1.7320002
0.66970664 0.2144381 1.732
0.67300576 0.21773715 1.7320001
0.68620187 0.21773715 1.732
0.69609904 0.21498793 1.7320002
0.70682096 0.21526286 1.7320001
0.71369404 0.21663748 1.732
0.73651242 0.21691239 1.7320001
0.74448508 0.21553779 1.7320002
0.84455621 0.21113905 1.7320001
0.85445338 0.21311851 1.7320001
0.86476284 0.21402574 1.7320002
0.87094861 0.2144381 1.732
0.88414478 0.21773715 1.7320001
0.8935706 0.21349552 1.7320002
0.34804952 0.2276343 1.7320001
0.35794669 0.2276343 1.7320001
0.38763809 0.2276343 1.7320001
0.39588571 0.22598477 1.7320002
0.40644264 0.22565487 1.7320001
0.42887619 0.2276343 1.7320001
0.43547431 0.2276343 1.732
0.44603127 0.22631469 1.7320001
0.45573992 0.22433527 1.7320002
0.46516573 0.22433525 1.7320002
0.47506285 0.22433525 1.7320002
0.48441014 0.22323556 1.7320002
0.49485716 0.2210362 1.7320001
0.5047543 0.2210362 1.732
0.51465148 0.22392286 1.7320002
0.52256912 0.22367544 1.7320001
0.55753905 0.22268572 1.7320001
0.56507975 0.22386394 1.7320002
0.57073528 0.22598478 1.7320001
0.59712762 0.2210362 1.7320001
0.61032385 0.2210362 1.7320001
0.62417984 0.22301564 1.7320001
0.63341713 0.22268574 1.7320002
0.64111495 0.22213589 1.732
0.66970664 0.22433525 1.732
0.67498523 0.22301564 1.7320001
0.68620187 0.22433525 1.7320002
0.70929527 0.22433525 1.7320001
0.71754289 0.22268572 1.7320001
0.72579044 0.22433525 1.7320002
0.73527521 0.22392288 1.7320002
0.7446422 0.22386394 1.7320002
0.75746137 0.22433524 1.7320001
0.76537913 0.22433525 1.7320002
0.77593601 0.22433524 1.7320001
0.78517336 0.2276343 1.732
0.79342103 0.2276343 1.7320001
0.81486481 0.2276343 1.732
0.86764956 0.22433525 1.7320001
0.87479752 0.22488509 1.7320002
0.88414478 0.22301564 1.7320001
0.33815241 0.2342324 1.7320001
0.34722477 0.23175809 1.7320001
0.35684702 0.23313271 1.7320002
0.36674416 0.23533209 1.7320002
0.37562013 0.23517498 1.7320002
0.38598859 0.23258285 1.7320002
0.39522591 0.23357257 1.7320001
0.40660763 0.23505715 1.7320001
0.41897905 0.23588192 1.7320001
0.42604846 0.2342324 1.7320002
0.43500301 0.23328981 1.7320002
0.4461962 0.23175809 1.7320001
0.45526859 0.23258287 1.7320002
0.46186668 0.23093334 1.7320001
0.47506288 0.23258287 1.7320001
0.5064038 0.23423238 1.7320002
0.51355177 0.23203301 1.732
0.56743622 0.2342324 1.7320001
0.6697067 0.23093334 1.7320001
0.67630482 0.23258287 1.7320002
0.68290287 0.23093334 1.7320001
0.7257905 0.23093335 1.732
0.73568767 0.23313271 1.732
0.74517238 0.23464477 1.7320002
0.75506961 0.23382001 1.7320002
0.76537913 0.23258287 1.7320002
0.77197719 0.23093334 1.7320001
0.78517336 0.23093335 1.732
0.79507053 0.2342324 1.7320001
0.80543894 0.23517498 1.7320002
0.81486481 0.23423238 1.7320002
0.82476187 0.23423238 1.7320002
0.86764956 0.23423238 1.732
0.87259811 0.23505715 1.7320001
0.90352672 0.23423238 1.7320002
0.91218668 0.23340765 1.7320001
0.079177149 0.24742858 1.7320001
0.082476191 0.24742858 1.7320001
0.095672391 0.24742858 1.732
0.33815241 0.24412954 1.7320002
0.35959619 0.24083048 1.7320001
0.36619428 0.24083048 1.732
0.37609145 0.24083048 1.732
0.39629808 0.24412954 1.7320002
0.40619525 0.2445419 1.7320002
0.41348064 0.24632891 1.732
0.42887619 0.24412954 1.732
0.43217525 0.24248001 1.7320001
0.74778414 0.24193017 1.732
0.7521829 0.24083048 1.7320001
0.80579239 0.24330477 1.7320001
0.81156576 0.24083048 1.7320001
0.82806093 0.24412954 1.732
0.83136004 0.24083048 1.7320001
0.85775238 0.24742858 1.7320001
0.86476284 0.24454191 1.7320002
0.87644702 0.24193017 1.732
0.88373238 0.24371715 1.7320002
0.89309937 0.24412952 1.7320002
0.90435141 0.24371713 1.7320002
0.91136199 0.2449543 1.7320001
0.035464764 0.25650096 1.7320001
0.095672384 0.25443906 1.7320002
0.10556953 0.25485146 1.7320001
0.13856001 0.25732571 1.7320001
0.16825144 0.25732571 1.7320001
0.17155048 0.25732571 1.7320001
0.28371811 0.25237715 1.7320001
0.32330668 0.25402668 1.7320001
0.33716267 0.25468644 1.7320001
0.34475049 0.25732571 1.7320001
0.35299811 0.25732571 1.7320001
0.39629811 0.25361431 1.7320002
0.40578288 0.25402668 1.7320002
0.41458032 0.25457653 1.7320002
0.76867813 0.25072762 1.7320001
0.82723618 0.25485143 1.7320001
0.83136004 0.25402665 1.732
0.85775238 0.25402668 1.732
0.86393815 0.25402668 1.7320002
0.87259817 0.25732571 1.7320001
0.88414478 0.25732571 1.732
0.8923924 0.25485143 1.7320001
0.90558863 0.25072762 1.7320001
0.91218674 0.25072762 1.7320001
-0.12206477 0.26722288 1.7320001
-0.11546668 0.26557335 1.7320002
-0.10886858 0.26557335 1.7320001
-0.0082476195 0.26722288 1.7320001
0.079177149 0.26062477 1.7320001
0.089074291 0.26062477 1.7320001
0.094022855 0.2622743 1.7320001
0.13773525 0.26392382 1.7320001
0.1583543 0.26722288 1.7320001
0.16550224 0.26447368 1.7320002
0.17443715 0.2643362 1.7320002
0.18144763 0.26722288 1.7320001
0.20784001 0.26722288 1.7320001
0.21575773 0.26524344 1.7320001
0.2210362 0.26392382 1.732
0.27712002 0.26557335 1.7320001
0.28371811 0.2650235 1.732
0.30516192 0.26722288 1.7320001
0.31340954 0.26722288 1.732
0.32495618 0.26557335 1.7320002
0.33650288 0.26351145 1.7320002
0.34640002 0.26392382 1.7320002
0.35582587 0.26392385 1.7320002
0.39753526 0.26062477 1.7320001
0.40578291 0.2622743 1.7320002
0.41502023 0.26260418 1.7320001
0.42227811 0.26557335 1.7320001
0.82476193 0.26392382 1.7320002
0.83245975 0.26282415 1.732
0.85775238 0.2622743 1.7320001
0.8643505 0.26194438 1.7320001
0.87424767 0.26298124 1.7320002
0.88414478 0.26260418 1.7320001
0.89294219 0.26337397 1.7320002
-0.12206477 0.27052191 1.7320001
-0.11546668 0.27382097 1.7320002
-0.10886858 0.27217144 1.7320001
-0.072579049 0.27382097 1.7320001
-0.015395557 0.27492067 1.732
-0.0082476195 0.27382097 1.7320002
0.026392382 0.27382097 1.7320001
0.03534694 0.27429226 1.7320002
0.044537142 0.27712002 1.7320001
0.1583543 0.2754705 1.7320001
0.16542368 0.27287838 1.7320002
0.17484954 0.27382097 1.7320002
0.18433429 0.27423334 1.7320002
0.19244444 0.27602032 1.732
0.20784001 0.27382097 1.732
0.2144381 0.27382097 1.7320002
0.22433524 0.27514058 1.7320001
0.23357257 0.27580041 1.7320001
0.27580041 0.27448079 1.7320001
0.28041905 0.27217144 1.7320001
0.30571178 0.27162158 1.732
0.31340954 0.27272129 1.732
0.32858515 0.27382097 1.7320001
0.33697414 0.27476355 1.7320002
0.34640002 0.27217147 1.7320002
0.35464764 0.27217144 1.7320001
0.36619431 0.2754705 1.7320001
0.41567999 0.27382097 1.7320001
0.42227811 0.27217144 1.7320001
0.82517433 0.27340856 1.7320002
0.83371651 0.27429226 1.7320002
0.90558863 0.2754705 1.7320001
0.91218674 0.27712002 1.7320001
-0.1171162 0.28041905 1.7320001
-0.072579049 0.28206858 1.7320001
-0.069280006 0.28206858 1.7320001
-0.015175621 0.28305832 1.7320001
-0.0082476195 0.28371811 1.7320002
0 0.28701717 1.7320001
0.019794287 0.28701717 1.7320001
0.028041907 0.28701717 1.7320001
0.035739683 0.28426793 1.7320002
0.13856001 0.28371811 1.7320001
0.15670477 0.28206858 1.7320001
0.17550933 0.28173867 1.7320001
0.18474668 0.28041905 1.732
0.19134477 0.28041905 1.7320001
0.20784001 0.28371811 1.732
0.21443811 0.28413048 1.7320002
0.22433525 0.28413048 1.7320002
0.23423238 0.28330573 1.7320002
0.24412952 0.28466067 1.7320002
0.27580041 0.28305832 1.7320001
0.28324682 0.28466067 1.7320002
0.32330668 0.28701717 1.7320001
0.33815241 0.28536764 1.7320001
0.34640002 0.28371811 1.7320002
0.35588479 0.28413048 1.7320002
0.36619428 0.28316829 1.7320002
0.82723629 0.28289336 1.7320001
0.83300954 0.28371811 1.7320002
0.90558863 0.28041905 1.7320001
0.032990478 0.29361525 1.732
0.05938286 0.29691431 1.7320001
0.06680572 0.29608956 1.7320001
0.072579049 0.29691431 1.7320001
0.14185905 0.29031619 1.7320001
0.2150979 0.29361525 1.7320001
0.22433525 0.29361525 1.7320002
0.2342324 0.29408655 1.7320002
0.24357969 0.29251558 1.7320002
0.28413051 0.29320285 1.7320002
0.29361528 0.29402766 1.7320002
0.32990476 0.29691431 1.7320001
0.33320382 0.29691431 1.7320001
0.34722477 0.29114097 1.7320001
0.35629714 0.29361528 1.7320002
0.76867813 0.29691431 1.7320001
0.81816381 0.29361525 1.7320001
0.82806093 0.29361525 1.732
0.83267963 0.29361528 1.7320001
-0.098971434 0.30351239 1.7320001
0.067630485 0.30021334 1.7320001
0.22680953 0.30268764 1.7320001
0.2342324 0.30256981 1.7320002
0.24412954 0.30021334 1.732
0.28371811 0.30445498 1.7320002
0.29361522 0.30351239 1.7320002
0.30021334 0.30681145 1.7320001
0.32990476 0.30681145 1.7320001
0.33485335 0.30433714 1.7320001
0.34640002 0.30681145 1.7320001
0.35629711 0.30398369 1.7320002
0.3668541 0.30549183 1.7320001
0.37279239 0.30681145 1.7320001
0.38268954 0.30351239 1.7320001
0.67630476 0.30681145 1.7320001
0.68290287 0.30681145 1.7320001
0.7521829 0.30681145 1.7320001
0.76867813 0.30021334 1.7320001
0.81486481 0.30021334 1.7320001
0.82641149 0.30186287 1.7320001
0.83300954 0.30351239 1.7320002
-0.10886858 0.31011048 1.7320001
-0.098971434 0.31011048 1.7320001
0.2342324 0.31011048 1.7320001
0.30681145 0.31505907 1.7320001
0.31274971 0.31538898 1.7320001
0.32561603 0.31406936 1.7320001
0.33556032 0.31340954 1.7320002
0.34640002 0.31340957 1.7320002
0.35670954 0.31299716 1.7320002
0.36564445 0.31230983 1.7320002
0.37609145 0.31230986 1.732
0.38433903 0.31505907 1.7320001
0.40248382 0.31340954 1.7320001
0.41238096 0.31505907 1.7320001
0.57073528 0.31670859 1.7320001
0.67630476 0.31340954 1.7320002
0.6852594 0.31388083 1.7320002
0.69444954 0.31670859 1.7320001
0.71589339 0.31670859 1.7320001
0.72531921 0.31388083 1.7320002
0.75548196 0.31340954 1.732
0.76208001 0.31340954 1.7320001
0.83136004 0.31176001 1.7320001
0.31670859 0.32000762 1.7320001
0.32660574 0.32000762 1.7320001
0.38928762 0.32330668 1.732
0.39629808 0.32701814 1.7320002
0.4053705 0.3228943 1.7320002
0.41568002 0.32594591 1.7320001
0.42359772 0.32726556 1.7320001
0.44207239 0.32330668 1.7320001
0.46681526 0.32990476 1.7320001
0.55341524 0.32743049 1.7320001
0.5608381 0.32330668 1.7320001
0.57073528 0.32495618 1.7320001
0.59712762 0.32990476 1.7320001
0.60372573 0.32990476 1.732
0.62352002 0.32660574 1.7320001
0.64991242 0.32990476 1.7320001
0.65651047 0.32990476 1.7320001
0.66904688 0.32594591 1.7320001
0.67630482 0.32495618 1.7320002
0.68620199 0.32495618 1.7320002
0.69543928 0.32561603 1.7320001
0.70599622 0.32792535 1.7320001
0.71548098 0.32536858 1.7320002
0.7257905 0.32480624 1.7320002
0.73538774 0.32480624 1.7320002
0.74492502 0.32528612 1.7320001
0.75630671 0.32083237 1.7320001
0.76471925 0.32264686 1.7320001
0.77527624 0.32660574 1.7320001
0.79177147 0.32330668 1.7320001
0.8082667 0.32990476 1.7320001
0.81651431 0.32990476 1.7320001
0.42557716 0.3343035 1.732
0.43547431 0.33650288 1.732
0.44537145 0.33650288 1.7320001
0.45609334 0.33567813 1.7320001
0.46516573 0.33320382 1.732
0.47506288 0.3354032 1.732
0.48413527 0.33567813 1.7320001
0.49485716 0.33650288 1.732
0.5064038 0.33320382 1.7320001
0.53362101 0.3340286 1.7320001
0.54434288 0.33609048 1.7320002
0.55471128 0.33556026 1.7320002
0.56372476 0.33609048 1.7320002
0.57403433 0.33595303 1.7320002
0.58393145 0.33485332 1.7320002
0.5931688 0.33452344 1.7320001
0.60290098 0.3356781 1.7320001
0.62681907 0.33650288 1.732
0.63451684 0.33760253 1.7320002
0.6449638 0.33705273 1.7320002
0.65651053 0.33650288 1.7320002
0.6664077 0.33650285 1.7320002
0.67677605 0.33556029 1.7320002
0.68510222 0.33540317 1.7320002
0.69609904 0.33320382 1.732
0.70599622 0.33320382 1.7320001
0.71699309 0.3370527 1.7320002
0.7257905 0.33556026 1.7320002
0.73502791 0.33452347 1.7320001
0.74228573 0.33320382 1.7320001
0.80661714 0.33320382 1.7320001
0.81321532 0.33485335 1.7320001
0.55753905 0.34310097 1.7320001
0.62681907 0.34310097 1.7320001
0.88542289 -0.013264762 1.7410001
0.88708103 0.0099485721 1.7410001
0.89371336 0.0099485721 1.7410001
0.84894478 0.019897144 1.7410001
0.8671838 0.019897144 1.7410001
0.87547427 0.018791746 1.7410001
0.88542295 0.014370158 1.7410001
0.89537144 0.014370158 1.7410001
0.82794219 0.028740317 1.7410001
0.83568001 0.025424128 1.7410001
0.8423124 0.023213334 1.7410001
0.85723531 0.023213334 1.7410001
0.86552572 0.024042383 1.7410001
0.87381625 0.023213334 1.7410001
0.8251788 0.036478098 1.7410001
0.81909907 0.049742859 1.7410001
0.82324433 0.04559762 1.7410001
0.81909913 0.056375239 1.7410001
0.82241529 0.054717146 1.7410001
0.81909913 0.066323809 1.7410001
0.82241529 0.066323809 1.7410001
0.82478392 0.076746121 1.7410001
0.81909907 0.087879047 1.7410001
0.82573146 0.08622095 1.7410001
0.83236384 0.089537144 1.7410001
0.81909913 0.096169531 1.7410001
0.82531691 0.095755003 1.7410001
0.83236384 0.096169524 1.7410001
0.81909907 0.10280191 1.7410001
0.82573146 0.1061181 1.7410001
0.82738948 0.11606667 1.7410001
0.83402187 0.11606666 1.7410001
0.91858482 0.11606667 1.7410001
0.92355907 0.11772476 1.7410001
0.82821858 0.1251862 1.7410001
0.83526552 0.12642977 1.7410001
0.82904762 0.13596381 1.7410001
0.83526552 0.13637833 1.7410001
0.82772112 0.14524916 1.7409999
0.83568007 0.14591239 1.7410001
0.8436389 0.14524914 1.7409999
0.82904762 0.15586096 1.7410001
0.83568001 0.15586096 1.7410001
0.84562856 0.15586096 1.7410001
0.85447174 0.15696637 1.7410001
0.86331493 0.15807176 1.7410001
0.91526866 0.15917715 1.7410001
0.92190099 0.15917715 1.7410001
0.83568007 0.16580951 1.7410001
0.84562856 0.16580951 1.7410001
0.85516262 0.16622405 1.7410001
0.86220956 0.16580953 1.7410001
0.92190099 0.16249333 1.7410001
0.83662754 0.17623186 1.7410001
0.84452319 0.1746527 1.7410001
0.85447174 0.17354731 1.7410001
0.74780095 0.18736479 1.7410001
0.75277525 0.18736477 1.7410001
0.83733815 0.18570668 1.7410001
0.84521407 0.18612121 1.7410001
0.85226101 0.18902287 1.7410001
0.90532005 0.18902287 1.7410001
0.91526866 0.18902285 1.7410001
0.73951048 0.19897144 1.7410001
0.74614286 0.19731334 1.7410001
0.75388068 0.19786604 1.7410001
0.83899623 0.19399714 1.7410001
0.84562856 0.19565523 1.7410001
0.85226101 0.19565524 1.7410001
0.91485411 0.19524072 1.7410001
0.4659248 0.20892 1.7410001
0.47421527 0.20809096 1.7410001
0.48416385 0.20892 1.7410001
0.4941124 0.20809096 1.7410001
0.50406098 0.20809096 1.7410001
0.51467276 0.20759353 1.7409999
0.52329481 0.20759353 1.7409999
0.5339067 0.20892 1.7410001
0.54053909 0.20892 1.7410001
0.55712003 0.20892 1.7410001
0.56375241 0.20892 1.7410001
0.57287192 0.20809096 1.7410001
0.58364952 0.20892 1.7410001
0.59525621 0.20892 1.7410001
0.6018886 0.20726192 1.7410001
0.61349529 0.20892 1.7410001
0.62454921 0.20781462 1.7410001
0.63339239 0.20726192 1.7410001
0.64518332 0.2059723 1.7410001
0.65328956 0.20228763 1.7410001
0.66738331 0.20311667 1.7410001
0.6771661 0.20693031 1.7409999
0.68692523 0.20655131 1.7410001
0.6959855 0.20601834 1.7410001
0.7063486 0.20726192 1.7410001
0.71629715 0.20892 1.7410001
0.72690898 0.20759353 1.7409999
0.7366088 0.20601836 1.7410001
0.74614292 0.20560382 1.7410001
0.75609142 0.20560381 1.7410001
0.76537681 0.20759353 1.7409999
0.77267241 0.20892 1.7410001
0.84562862 0.20560382 1.7410001
0.85425073 0.20427735 1.7409999
0.87215811 0.20228763 1.7410001
0.90863621 0.20892 1.7410001
0.91361052 0.20394573 1.7410001
0.39628476 0.21886858 1.7410001
0.40291715 0.21886858 1.7410001
0.41784 0.21886858 1.7410001
0.43110478 0.21886858 1.7410001
0.44768572 0.21721049 1.7410001
0.45431811 0.2155524 1.7410001
0.46095049 0.21389429 1.7410001
0.47421527 0.2122362 1.7410001
0.48416385 0.21223621 1.7410001
0.49300703 0.21334159 1.7410001
0.50074476 0.2122362 1.7410001
0.52395815 0.21223621 1.7410001
0.5339067 0.21223621 1.7410001
0.54385525 0.21223621 1.7410001
0.5538038 0.21223621 1.7410001
0.56375241 0.21223621 1.7410001
0.61515337 0.2122362 1.7410001
0.62427288 0.21306525 1.7410001
0.63283968 0.21444698 1.7410001
0.64168286 0.2122362 1.7410001
0.67849261 0.21488914 1.7409999
0.68597776 0.21460488 1.7410001
0.69557095 0.21306524 1.7410001
0.70800668 0.2122362 1.7410001
0.71712619 0.21306524 1.7410001
0.7262457 0.21555239 1.7410001
0.73572057 0.2146049 1.7410001
0.74614286 0.2122362 1.7410001
0.75650597 0.21513785 1.7410001
0.76604003 0.21555239 1.7410001
0.77598858 0.21555239 1.7410001
0.78461063 0.21687885 1.7409999
0.79588574 0.21886857 1.7410001
0.80666333 0.21803954 1.7410001
0.8157829 0.21803953 1.7410001
0.84521407 0.21596693 1.7410001
0.85358745 0.21621564 1.7409999
0.86331493 0.21776319 1.7410001
0.89868766 0.21886858 1.7410001
0.90626752 0.21602614 1.7410001
0.91361052 0.21721049 1.7410001
0.22715905 0.22881715 1.7410001
0.23876572 0.22881715 1.7410001
0.32664478 0.22881715 1.7410001
0.33493528 0.22881715 1.7410001
0.34422058 0.22682743 1.7409999
0.35538509 0.22494827 1.7410001
0.36395192 0.22633001 1.7410001
0.37539276 0.22749069 1.7409999
0.38467813 0.22605366 1.7410001
0.39379764 0.22301382 1.7410001
0.40457526 0.22218478 1.7410001
0.41547132 0.22502722 1.7410001
0.42447236 0.22550096 1.7410001
0.43442097 0.22384286 1.7410001
0.44370633 0.22351125 1.7409999
0.45266002 0.22218478 1.7410001
0.67981905 0.22715905 1.7410001
0.68313527 0.22715905 1.7410001
0.75553876 0.22605366 1.7410001
0.77598858 0.22218478 1.7410001
0.78660041 0.22351125 1.7409999
0.79588574 0.22384286 1.7410001
0.80583435 0.22550096 1.7410001
0.81530911 0.22455347 1.7410001
0.8257314 0.22550094 1.7410001
0.83568007 0.22597469 1.7410001
0.8461023 0.22455348 1.7410001
0.85557723 0.22550096 1.7410001
0.86552584 0.22550096 1.7410001
0.87436897 0.22439556 1.7410001
0.88431746 0.22660635 1.7410001
0.89578605 0.22591548 1.7410001
0.90532005 0.22550096 1.7410001
0.91361052 0.22550097 1.7410001
0.21776319 0.23766033 1.7410001
0.22591548 0.23586407 1.7410001
0.23627858 0.23462048 1.7410001
0.24208191 0.23544954 1.7410001
0.27856001 0.23710763 1.7410001
0.28519237 0.23544952 1.7410001
0.32830286 0.23544954 1.7410001
0.3345207 0.23544954 1.7410001
0.34156764 0.23213334 1.7410001
0.36699176 0.23323874 1.7410001
0.37804574 0.23213334 1.7410001
0.38136193 0.23213334 1.7410001
0.41493836 0.23503502 1.7410001
0.42281431 0.23213334 1.7410001
0.75277525 0.23213334 1.7410001
0.80583429 0.23213334 1.7410001
0.83733809 0.23710763 1.7410001
0.84562862 0.23379144 1.7410001
0.85652465 0.2349758 1.7410001
0.86552578 0.23544955 1.7410001
0.87713242 0.23379144 1.7410001
0.88542295 0.23544955 1.7410001
0.89537144 0.23544952 1.7410001
0.90200382 0.23544954 1.7410001
-0.18570668 0.2470562 1.7410001
-0.17907429 0.2487143 1.7410001
-0.024871429 0.24705622 1.7410001
-0.01616643 0.24581264 1.7410001
-0.0066323811 0.24539807 1.7410001
0.0033161906 0.2453981 1.7410001
0.015633469 0.24587187 1.7410001
0.033161905 0.2487143 1.7410001
0.059691429 0.2453981 1.7410001
0.065909289 0.24581262 1.7410001
0.076272383 0.24539812 1.7410001
0.086635478 0.24498358 1.7410001
0.096169531 0.24374001 1.7410001
0.10611811 0.2470562 1.7410001
0.11559293 0.24634559 1.7410001
0.12684429 0.24788524 1.7410001
0.13596381 0.2470562 1.7410001
0.1425962 0.2453981 1.7410001
0.15669 0.24788526 1.7410001
0.16580954 0.24738781 1.7409999
0.17244191 0.2470562 1.7410001
0.2172105 0.2453981 1.7410001
0.22467192 0.24622715 1.7410001
0.2644662 0.2453981 1.7410001
0.27524382 0.24498357 1.7410001
0.28519243 0.2453981 1.7410001
0.32830286 0.2453981 1.7410001
0.33327714 0.24539812 1.7410001
0.41618192 0.24208191 1.7410001
0.83766973 0.24606135 1.7409999
0.84515482 0.24634559 1.7410001
0.85557717 0.24539807 1.7410001
0.86331493 0.24318731 1.7410001
0.89205527 0.2487143 1.7410001
0.90310925 0.24650352 1.7410001
-0.24318731 0.25424126 1.7410001
-0.18570668 0.25203049 1.7410001
-0.11606667 0.25866288 1.7410001
-0.024871429 0.25534669 1.7410001
-0.016166428 0.25534669 1.7410001
-0.0066323807 0.25534669 1.7410001
0.004311048 0.25600994 1.7409999
0.016107213 0.25629419 1.7410001
0.026529524 0.25534669 1.7410001
0.037141334 0.25335696 1.7409999
0.046426669 0.25534669 1.7410001
0.053888097 0.25451764 1.7410001
0.068534605 0.25424129 1.7410001
0.076272391 0.25534669 1.7410001
0.086220957 0.25534669 1.7410001
0.096169524 0.25203049 1.7410001
0.10611811 0.25468343 1.7409999
0.11407696 0.25468343 1.7409999
0.12696274 0.25487295 1.7410001
0.13554929 0.25493217 1.7410001
0.14543864 0.25629416 1.7410001
0.15633468 0.25534669 1.7410001
0.16539501 0.25493217 1.7410001
0.17575811 0.25534669 1.7410001
0.21555239 0.25534669 1.7410001
0.22218478 0.25534669 1.7410001
0.27619129 0.25534669 1.7410001
0.28519243 0.25582042 1.7410001
0.29348284 0.25617573 1.7410001
0.3050895 0.25866288 1.7410001
0.31570134 0.25733641 1.7409999
0.32277587 0.25755748 1.7410001
0.33272445 0.25424129 1.7410001
0.83899623 0.25534669 1.7410001
0.84562856 0.25493217 1.7410001
0.85557723 0.25534669 1.7410001
0.88873911 0.25368857 1.7410001
0.89426607 0.25313589 1.7410001
0.9049055 0.25576124 1.7410001
0.91526866 0.25700483 1.7410001
-0.15254477 0.26861143 1.7410001
-0.13264762 0.26695335 1.7410001
-0.12535201 0.26529521 1.7409999
-0.11606666 0.26197904 1.7410001
-0.1061181 0.26529524 1.7410001
-0.076272383 0.26861143 1.7410001
-0.044768572 0.26695335 1.7410001
-0.024871429 0.26529524 1.7410001
-0.015633469 0.26576898 1.7410001
-0.0061586397 0.26434779 1.7410001
0.0048235501 0.26499379 1.7409999
0.016580952 0.26529524 1.7410001
0.026529524 0.26529527 1.7410001
0.036478098 0.26529527 1.7410001
0.046426669 0.26529524 1.7410001
0.053059053 0.26529524 1.7410001
0.069640003 0.26529524 1.7410001
0.075857863 0.26570976 1.7410001
0.085806429 0.26570976 1.7410001
0.096643269 0.26576898 1.7410001
0.10611811 0.26529527 1.7410001
0.12767334 0.26529524 1.7410001
0.13397411 0.26529521 1.7409999
0.14591239 0.26529527 1.7410001
0.15544644 0.26488075 1.7410001
0.16470413 0.26418984 1.7410001
0.17907429 0.26197904 1.7410001
0.18570669 0.26584795 1.7410001
0.19233905 0.26861143 1.7410001
0.20626707 0.26595849 1.7409999
0.21389429 0.26363713 1.7410001
0.22682743 0.26595849 1.7409999
0.23213334 0.26861143 1.7410001
0.2470562 0.26861143 1.7410001
0.27524382 0.26396877 1.7409999
0.2851924 0.26363713 1.7410001
0.29514095 0.26396877 1.7409999
0.30508953 0.2644662 1.7410001
0.31503811 0.26363716 1.7410001
0.3249867 0.26197904 1.7410001
0.33161905 0.26197904 1.7410001
0.36146477 0.26861143 1.7410001
0.8378908 0.26640064 1.7410001
0.84452319 0.26418984 1.7410001
0.85605091 0.26434776 1.7410001
0.86635476 0.26778239 1.7410001
0.87381625 0.26861143 1.7410001
0.88625193 0.26695335 1.7410001
0.89537144 0.26861143 1.7410001
0.90573454 0.26529527 1.7410001
0.91416317 0.26474252 1.7410001
-0.23213334 0.27524382 1.7410001
-0.22881715 0.27524382 1.7410001
-0.21472333 0.27607286 1.7410001
-0.20892 0.27358574 1.7410001
-0.15254477 0.2769019 1.7410001
-0.12468877 0.27590707 1.7409999
-0.1055654 0.27524379 1.7410001
-0.077598855 0.27458057 1.7409999
-0.063007623 0.2769019 1.7410001
-0.059691429 0.2769019 1.7410001
-0.045321271 0.27303302 1.7410001
-0.024871429 0.27524385 1.7410001
-0.017133653 0.2746911 1.7410001
-0.0033161908 0.27524385 1.7410001
0.0033161906 0.2748293 1.7410001
0.017054696 0.27429634 1.7410001
0.026529524 0.27524379 1.7410001
0.039794289 0.27358574 1.7410001
0.046900414 0.27429631 1.7410001
0.055269841 0.27634922 1.7410001
0.069640003 0.27524382 1.7410001
0.076272391 0.27524382 1.7410001
0.08622095 0.27524382 1.7410001
0.096169524 0.27524382 1.7410001
0.10611811 0.27524382 1.7410001
0.11440857 0.27524379 1.7410001
0.12642977 0.27565834 1.7410001
0.13637833 0.27482927 1.7410001
0.14591239 0.27524382 1.7410001
0.1549135 0.27477008 1.7410001
0.18902287 0.27192762 1.7410001
0.19676064 0.27413842 1.7410001
0.20394574 0.27524379 1.7410001
0.22715905 0.27192762 1.7410001
0.23655492 0.27303302 1.7410001
0.24581262 0.27565834 1.7410001
0.25534669 0.27192762 1.7410001
0.26584795 0.27413842 1.7410001
0.27303302 0.27303302 1.7410001
0.34654194 0.27856001 1.7410001
0.35483241 0.27856001 1.7410001
0.36279124 0.27590704 1.7409999
0.8423124 0.27358574 1.7410001
0.85889339 0.27192762 1.7410001
0.86594033 0.2748293 1.7410001
0.87547427 0.27524382 1.7410001
0.88542295 0.27524382 1.7410001
0.89537156 0.27524379 1.7410001
0.9049055 0.2748293 1.7410001
0.91593188 0.2732541 1.7409999
-0.28353429 0.28850859 1.7410001
-0.27524382 0.28560692 1.7410001
-0.26861143 0.2851924 1.7410001
-0.24208191 0.28353429 1.7410001
-0.23544952 0.28353429 1.7410001
-0.22771175 0.2829816 1.7410001
-0.21886858 0.28187621 1.7410001
-0.17244191 0.2851924 1.7410001
-0.16713601 0.28386593 1.7409999
-0.15586096 0.28187621 1.7410001
-0.12435715 0.28353429 1.7410001
-0.11559293 0.28613991 1.7410001
-0.10744457 0.28452915 1.7409999
-0.076825082 0.2851924 1.7410001
-0.064997338 0.28585562 1.7409999
-0.056375239 0.2851924 1.7410001
-0.048084766 0.28850859 1.7410001
-0.024871429 0.2851924 1.7410001
-0.018239049 0.28602147 1.7410001
-0.0033161908 0.2851924 1.7410001
0.0045597618 0.2851924 1.7410001
0.016580952 0.28685048 1.7410001
0.026055783 0.28424492 1.7410001
0.037583493 0.28408697 1.7410001
0.046426669 0.2851924 1.7410001
0.056375239 0.28519237 1.7410001
0.066738337 0.2851924 1.7410001
0.076272391 0.2851924 1.7410001
0.086220957 0.2851924 1.7410001
0.096169524 0.2851924 1.7410001
0.10556541 0.28463969 1.7410001
0.11606667 0.28187621 1.7410001
0.125352 0.28320268 1.7409999
0.13651651 0.28463969 1.7410001
0.14591238 0.2851924 1.7410001
0.15453449 0.28651887 1.7409999
0.16580953 0.2851924 1.7410001
0.17492905 0.28767955 1.7410001
0.18570668 0.28685048 1.7410001
0.19606976 0.28560695 1.7410001
0.20394574 0.2851924 1.7410001
0.2453981 0.28187621 1.7410001
0.25335696 0.28585562 1.7409999
0.26695335 0.2851924 1.7410001
0.27275667 0.28602147 1.7410001
0.36312288 0.28187621 1.7410001
0.84397054 0.2851924 1.7410001
0.86718386 0.2851924 1.7410001
0.87547427 0.28519237 1.7410001
0.88542289 0.2851924 1.7410001
0.89537144 0.2851924 1.7410001
0.9049055 0.28560695 1.7410001
0.91526866 0.28463969 1.7410001
0.92190099 0.28187621 1.7410001
-0.28320268 0.2958042 1.7409999
-0.27524379 0.29514095 1.7410001
-0.26778239 0.29596999 1.7410001
-0.23213334 0.29514095 1.7410001
-0.17410003 0.29514095 1.7410001
-0.16713601 0.29381448 1.7409999
-0.15627548 0.2955555 1.7410001
-0.11772476 0.29431188 1.7410001
-0.10611811 0.29348287 1.7410001
-0.087049998 0.29679906 1.7410001
-0.07793048 0.29845715 1.7410001
-0.065218419 0.29293016 1.7410001
-0.056375239 0.29348287 1.7410001
-0.023213334 0.29182476 1.7410001
-0.015254477 0.29381448 1.7409999
-0.0066323807 0.29514095 1.7410001
0.0049742856 0.29514098 1.7409998
0.016580952 0.29514095 1.7410001
0.026529524 0.29514095 1.7410001
0.038136195 0.29514098 1.7410001
0.046426669 0.29514095 1.7410001
0.055960715 0.29472643 1.7410001
0.065660581 0.29315123 1.7409999
0.076686911 0.29472643 1.7410001
0.08622095 0.29514095 1.7410001
0.096169524 0.29514095 1.7410001
0.10390731 0.29624635 1.7410001
0.13928001 0.29514095 1.7410001
0.1463269 0.29555547 1.7410001
0.15586096 0.29514098 1.7410001
0.16533579 0.29608843 1.7410001
0.17575811 0.29514095 1.7410001
0.18570668 0.29514095 1.7410001
0.19565524 0.29514095 1.7410001
0.20560384 0.29514098 1.7410001
0.21472335 0.29514095 1.7410001
0.24650352 0.29735175 1.7410001
0.25203049 0.29514095 1.7410001
0.26612431 0.29597002 1.7410001
0.27524382 0.29514095 1.7410001
0.28187621 0.29845715 1.7410001
0.83899623 0.29514095 1.7410001
0.84468114 0.29561469 1.7410001
0.86801285 0.29431191 1.7410001
0.87547427 0.29514098 1.7410001
0.88542289 0.29514098 1.7410001
0.89495695 0.29472643 1.7410001
0.90532005 0.29419348 1.7410001
0.91195244 0.29348284 1.7410001
-0.28270525 0.30426049 1.7410001
-0.27524382 0.30467498 1.7410001
-0.26728496 0.30575275 1.7409999
-0.2487143 0.30508953 1.7410001
-0.19233905 0.3050895 1.7410001
-0.18681209 0.30619493 1.7410001
-0.17481063 0.30556327 1.7410001
-0.16746762 0.30426049 1.7410001
-0.15807176 0.30287874 1.7410001
-0.11661936 0.30508953 1.7410001
-0.10570358 0.30550405 1.7410001
-0.096722223 0.30453685 1.7410001
-0.086773656 0.30453685 1.7410001
-0.079588577 0.30177334 1.7410001
-0.013264762 0.30177334 1.7410001
-0.005969143 0.30376306 1.7409999
0.0044215871 0.30398411 1.7410001
0.017054694 0.30414203 1.7410001
0.026529524 0.30508953 1.7410001
0.034820002 0.30508953 1.7410001
0.058033332 0.30508956 1.7410001
0.065850072 0.30603698 1.7410001
0.075166993 0.30398414 1.7410001
0.087049998 0.30260238 1.7410001
0.096584052 0.30467498 1.7410001
0.10570358 0.30550402 1.7410001
0.11275048 0.30508953 1.7410001
0.13928001 0.3050895 1.7410001
0.14591238 0.30508953 1.7410001
0.15586096 0.30508953 1.7410001
0.16486204 0.3046158 1.7410001
0.17708458 0.30376309 1.7409999
0.18475917 0.3046158 1.7410001
0.19660272 0.30461577 1.7410001
0.20465635 0.3050895 1.7410001
0.21649989 0.3046158 1.7410001
0.22351125 0.30575275 1.7409999
0.23544952 0.30840573 1.7410001
0.24539812 0.30674765 1.7410001
0.25534669 0.30508953 1.7410001
0.26529524 0.30508953 1.7410001
0.27524382 0.3050895 1.7410001
0.2851924 0.30177334 1.7410001
0.83236384 0.30840573 1.7410001
0.84468114 0.30508953 1.7410001
0.85723525 0.3050895 1.7410001
0.86599952 0.30603701 1.7410001
0.87547427 0.30508953 1.7410001
0.88542295 0.3050895 1.7410001
0.894045 0.30376306 1.7409999
-0.28187621 0.31172192 1.7410001
-0.27524382 0.31172192 1.7410001
-0.26529524 0.31456438 1.7410001
-0.25451764 0.31752527 1.7410001
-0.24650352 0.31559083 1.7410001
-0.19233905 0.31338 1.7410001
-0.18570668 0.31503814 1.7410001
-0.17617263 0.31503814 1.7410001
-0.12269905 0.31503811 1.7410001
-0.11565215 0.31462359 1.7410001
-0.1066708 0.31503811 1.7410001
-0.096169524 0.31172192 1.7410001
-0.085391909 0.31255096 1.7410001
-0.079588577 0.31172192 1.7410001
0.026529524 0.31371161 1.7409999
0.036478095 0.31172192 1.7410001
0.097827621 0.31338 1.7410001
0.10570358 0.31462359 1.7410001
0.17907429 0.31338 1.7410001
0.18570668 0.31338003 1.7410001
0.19631848 0.31304839 1.7409999
0.20560384 0.31338 1.7410001
0.21621561 0.31304839 1.7409999
0.22550096 0.31503811 1.7410001
0.23544954 0.31545264 1.7410001
0.2453981 0.31172192 1.7410001
0.26529524 0.31338 1.7410001
0.27524382 0.31338 1.7410001
0.28560692 0.31503811 1.7410001
0.29514095 0.31503808 1.7410001
0.30309981 0.31570137 1.7409999
0.34156764 0.31503811 1.7410001
0.35483238 0.31835431 1.7410001
0.36478096 0.31835431 1.7410001
0.37406629 0.31702784 1.7409999
0.38136193 0.31835431 1.7410001
0.82904762 0.31503811 1.7410001
0.83568007 0.31551188 1.7410001
0.8423124 0.31338 1.7410001
0.85652459 0.31503811 1.7410001
0.86552572 0.31503811 1.7410001
0.87547427 0.31503811 1.7410001
0.88210672 0.31172192 1.7410001
-0.26197904 0.32332858 1.7410001
-0.25534669 0.32332858 1.7410001
-0.2470562 0.32332858 1.7410001
-0.18460126 0.3238813 1.7410001
-0.17686349 0.3238813 1.7410001
-0.11606667 0.3216705 1.7410001
-0.10777619 0.3216705 1.7410001
-0.02431873 0.3238813 1.7410001
-0.019897144 0.32830286 1.7410001
0.026529524 0.3216705 1.7410001
0.10280191 0.3216705 1.7410001
0.2862978 0.32277587 1.7410001
0.29679906 0.3249867 1.7410001
0.30508953 0.3249867 1.7410001
0.31462359 0.32540122 1.7410001
0.32457215 0.32540122 1.7410001
0.33493522 0.32498667 1.7410001
0.34583133 0.32451296 1.7410001
0.35566145 0.32249954 1.7410001
0.36533365 0.3238813 1.7410001
0.37555861 0.32249954 1.7410001
0.38688889 0.32277587 1.7410001
0.41120765 0.32830286 1.7410001
0.72956192 0.32830286 1.7410001
0.7428267 0.32830286 1.7410001
0.7567547 0.32697639 1.7409999
0.76604003 0.32609206 1.7410001
0.77377778 0.32719746 1.7410001
0.79671478 0.32747382 1.7410001
0.80517101 0.32697639 1.7409999
0.82904762 0.3249867 1.7410001
0.83236384 0.3249867 1.7410001
0.85889339 0.3216705 1.7410001
0.86647326 0.32451293 1.7410001
0.87588882 0.32498667 1.7410001
0.88542295 0.32498667 1.7410001
0.90863621 0.32830286 1.7410001
0.9152686 0.32830286 1.7410001
0.29845715 0.33327717 1.7410001
0.30591857 0.3324481 1.7410001
0.31172192 0.33493525 1.7410001
0.32830286 0.33327717 1.7410001
0.33493522 0.33161905 1.7410001
0.34488383 0.33161905 1.7410001
0.38799429 0.33493525 1.7410001
0.39462665 0.33548793 1.7410001
0.40498981 0.33534974 1.7410001
0.4140501 0.33588269 1.7410001
0.42364332 0.33742237 1.7410001
0.46426669 0.33825144 1.7410001
0.47421527 0.33825144 1.7410001
0.51511496 0.33604065 1.7410001
0.5339067 0.33659333 1.7410001
0.54053909 0.33825144 1.7410001
0.6018886 0.33825144 1.7410001
0.61390978 0.33534977 1.7410001
0.62344384 0.33493522 1.7410001
0.69639999 0.33825144 1.7410001
0.7063486 0.33825144 1.7410001
0.71298099 0.33825144 1.7410001
0.74697196 0.3374224 1.7410001
0.75650597 0.33534977 1.7410001
0.76604009 0.33493522 1.7410001
0.77598864 0.33493525 1.7410001
0.78593713 0.33493525 1.7410001
0.79635948 0.33398774 1.7410001
0.80541974 0.33493525 1.7410001
0.81246668 0.33825144 1.7410001
0.82517868 0.33493528 1.7410001
0.8671838 0.33327717 1.7410001
0.89371336 0.33659333 1.7410001
0.90532005 0.33493525 1.7410001
0.91526866 0.33161905 1.7410001
0.44436955 0.34156764 1.7410001
0.45431808 0.34156764 1.7410001
0.47753143 0.34156764 1.7410001
0.48499286 0.34239668 1.7410001
0.49344915 0.34554708 1.7409999
0.5024029 0.34488383 1.7410001
0.52561617 0.34156764 1.7410001
0.5339067 0.34156764 1.7410001
0.54385531 0.34355733 1.7409999
0.55446702 0.34355733 1.7409999
0.56375241 0.34598923 1.7410001
0.57370096 0.34156764 1.7410001
0.58298624 0.34422058 1.7409999
0.59359813 0.34156764 1.7410001
0.60354668 0.34267303 1.7410001
0.61349529 0.34156764 1.7410001
0.62344384 0.34156764 1.7410001
0.63339239 0.34654194 1.7410001
0.64599389 0.34422058 1.7409999
0.65660572 0.34543654 1.7410001
0.66655427 0.34654191 1.7410001
0.67691737 0.34529838 1.7410001
0.68645144 0.3448838 1.7409999
0.69639999 0.34267303 1.7410001
0.71629715 0.34322575 1.7410001
0.72624576 0.34405479 1.7410001
0.73619431 0.34322572 1.7410001
0.74614286 0.34156764 1.7410001
0.75609148 0.34156764 1.7410001
0.76604003 0.34156764 1.7410001
0.77709395 0.34267303 1.7410001
0.78593713 0.34156764 1.7410001
0.80583429 0.34156764 1.7410001
0.81744099 0.34156764 1.7410001
0.86386764 0.34820002 1.7410001
0.8787905 0.34488383 1.7410001
0.88708103 0.34488383 1.7410001
0.89470828 0.34355736 1.7409999
0.65992194 0.35151622 1.7410001
0.66655433 0.35151622 1.7410001
0.85690367 0.35416916 1.7409999
0.86511129 0.35441789 1.7410001
0.8787905 0.35814857 1.7410001
0.89205527 0.35483238 1.7410001
0.85889339 0.36146477 1.7410001
0.86386764 0.36146477 1.7410001
0.8787905 0.36478096 1.7410001
0.8837648 0.36478096 1.7410001
0.89785856 0.43442094 1.7410001
0.90200382 0.43442097 1.7410001
0.88666672 -0.013333334 1.7500001
0.88333338 0.0066666668 1.7500001
0.89290196 0.0067009525 1.7590001
0.84599531 0.016752381 1.7590001
0.85411197 0.015893333 1.7567501
0.86442286 0.015077143 1.7589999
0.87390172 0.015036428 1.7545
0.88264698 0.012089763 1.7511251
0.8271172 0.026735239 1.7545002
0.83368409 0.022540715 1.7533751
0.84250009 0.020833336 1.7500001
0.85333335 0.020000001 1.7500001
0.8633334 0.020000001 1.7500001
-0.36687714 0.036855239 1.7590001
-0.3543129 0.036017619 1.7590001
-0.34509906 0.035179999 1.7589999
-0.33504763 0.035179999 1.7589999
0.82397103 0.032959525 1.7522501
-0.37274051 0.044393811 1.7590001
-0.36520192 0.043556195 1.7589999
-0.35495046 0.043531433 1.7579999
-0.34431428 0.043453336 1.755
-0.33504766 0.043556195 1.7589999
-0.32547483 0.044513468 1.7589999
-0.31578237 0.046069048 1.7590001
-0.30656856 0.045231428 1.7590001
0.82335979 0.043939322 1.7551429
-0.37525338 0.053607624 1.7589999
-0.36520195 0.05360762 1.7589999
-0.35515046 0.05360762 1.7589999
-0.34470665 0.053548574 1.757
-0.33485904 0.053575244 1.7579999
-0.32479146 0.053917143 1.755625
-0.31327885 0.054889522 1.7572
-0.30531216 0.054026429 1.7589999
-0.29707554 0.055841271 1.7590002
0.82119018 0.05283124 1.7554001
-0.38195431 0.06533429 1.7590001
-0.3744019 0.06350857 1.755
-0.36520195 0.063659042 1.7589999
-0.35515049 0.063659042 1.7589999
-0.34509903 0.06365905 1.7589999
-0.33504763 0.06365905 1.7589999
-0.32333335 0.063333333 1.7500001
-0.31440189 0.063550472 1.756
-0.30601019 0.062542222 1.7589999
-0.29819238 0.060308572 1.7590001
0.82421714 0.06365905 1.7590002
-0.38195431 0.070360005 1.7590001
-0.37483048 0.073628567 1.757
-0.36499622 0.073670477 1.7579999
-0.35433906 0.073539048 1.755
-0.34509906 0.073710471 1.7589999
-0.33371046 0.073417142 1.7520001
-0.32333335 0.07333333 1.7500001
-0.31404382 0.073499046 1.7540001
-0.30601016 0.074827306 1.7589999
0.82386369 0.074226283 1.7554001
-0.3742961 0.083283268 1.7589999
-0.36520192 0.083761908 1.7589999
-0.35393333 0.083476186 1.753
-0.34451047 0.083613344 1.756
-0.33409336 0.083525725 1.7540001
-0.32444194 0.083624765 1.756
-0.31458476 0.083670482 1.757
-0.30489337 0.083761908 1.7589999
-0.29685217 0.084432006 1.7590001
0.82133341 0.08266668 1.7500002
-0.37324306 0.09314324 1.7590001
-0.36520192 0.093813337 1.7589999
-0.35474667 0.093708567 1.757
-0.34392193 0.09349905 1.753
-0.33333331 0.093333334 1.7500001
-0.32407048 0.093540959 1.7540001
-0.31494477 0.09381333 1.7589999
-0.30537197 0.09477061 1.7589999
0.82034671 0.092855237 1.7536001
-0.37190288 0.10218953 1.7590001
-0.36520192 0.10386477 1.7589999
-0.35515046 0.10386477 1.7589999
-0.34509903 0.10386477 1.7589999
-0.33333331 0.10333335 1.7500001
-0.32369906 0.10344954 1.7520001
-0.31494477 0.10386476 1.7589999
-0.30531213 0.10428358 1.7589999
-0.29484192 0.10386477 1.7590001
0.82084763 0.10403728 1.7538573
-0.36520195 0.11056572 1.7590002
-0.35515049 0.1139162 1.7589999
-0.34509906 0.1139162 1.7589999
-0.33379063 0.1146 1.7508183
-0.32366666 0.114 1.7500002
-0.31494474 0.1139162 1.7589999
-0.3058506 0.11343756 1.7589999
0.81694984 0.11797778 1.7530001
0.8226974 0.11496016 1.7513847
-0.35515046 0.12396762 1.7589999
-0.34509903 0.12396763 1.7589999
-0.33432168 0.1248343 1.7577143
-0.3243674 0.12430715 1.757875
-0.31494477 0.12396762 1.7589999
-0.30601016 0.12452602 1.7589999
0.81717646 0.12438057 1.7554001
0.82333344 0.125 1.7500001
0.83000004 0.12666667 1.7500001
-0.37190288 0.1356943 1.7590001
-0.36631873 0.13513587 1.7589999
-0.35515046 0.13401905 1.7589999
-0.34509903 0.13401905 1.7589999
-0.33504763 0.13401906 1.7589999
-0.32499623 0.13401903 1.7589999
-0.31494477 0.13401905 1.7589999
-0.30537197 0.13354041 1.7589999
0.81694984 0.13133396 1.7530001
0.82308674 0.13373695 1.7509
0.8300001 0.13333334 1.7500001
-0.37324303 0.14340039 1.7590001
-0.36520192 0.14407049 1.7589999
-0.35473165 0.14407049 1.7589999
-0.34509909 0.14407049 1.7589999
-0.33504766 0.14407048 1.7589999
-0.32499623 0.14407048 1.7589999
-0.31326956 0.14323285 1.7590001
-0.30489334 0.14407048 1.7589999
-0.29819238 0.14574572 1.7590001
0.82271671 0.14351761 1.7522501
0.83000004 0.14 1.7500001
-0.37190288 0.15077144 1.7590001
-0.36464348 0.1535635 1.7589999
-0.35515046 0.15412191 1.7589999
-0.3445105 0.15385334 1.756
-0.33616447 0.15300508 1.7589999
-0.32667142 0.15077144 1.7590001
-0.30489334 0.15244667 1.7590001
0.82435191 0.15331371 1.7536001
0.8300001 0.15333334 1.7500001
-0.35515046 0.16417335 1.7589999
-0.34431615 0.16380192 1.755
-0.33705789 0.16484344 1.7590001
-0.30656856 0.16752382 1.7590001
0.82641149 0.16361621 1.7530001
0.83133334 0.164 1.7500002
-0.36520192 0.17757525 1.7590002
-0.35515049 0.17422476 1.7589999
-0.34470665 0.17402479 1.757
-0.33546644 0.17464356 1.7589999
-0.30824381 0.17757525 1.7590001
0.82756764 0.17422478 1.7590002
0.83237165 0.17387949 1.7524546
-0.36520192 0.18427621 1.7590002
-0.35347524 0.18427621 1.7589999
-0.34509909 0.18427619 1.7589999
-0.33504763 0.18427619 1.7589999
-0.32750905 0.18427619 1.7590001
-0.30824381 0.18092573 1.7590001
0.7471562 0.18762667 1.7590001
0.7505067 0.18762667 1.7590001
0.82734239 0.18320715 1.7567501
0.83251703 0.1841903 1.7518002
-0.35291684 0.19209397 1.7590002
-0.34509903 0.19432762 1.7589999
-0.33504766 0.19432762 1.7589999
-0.32700649 0.19499771 1.7590001
0.4355619 0.1976781 1.7590002
0.44561335 0.1976781 1.7590002
0.45566478 0.1976781 1.7590001
0.46571621 0.1976781 1.7590002
0.47576764 0.1976781 1.7590001
0.48581904 0.1976781 1.7590001
0.49587047 0.19684048 1.7590001
0.50592196 0.1976781 1.7590001
0.52937526 0.1976781 1.7590001
0.53607619 0.1976781 1.7590001
0.54780287 0.19600286 1.7590001
0.55617905 0.19600286 1.7589999
0.56623048 0.19600286 1.7589999
0.57676059 0.19528489 1.7589999
0.58599812 0.19421522 1.7579999
0.59638476 0.19600286 1.7589999
0.60643619 0.19600286 1.7589999
0.614254 0.19656128 1.7590002
0.62740433 0.19742525 1.7567501
0.63661879 0.19454889 1.756
0.64427519 0.19470939 1.7538573
0.65400732 0.19573104 1.7536001
0.66226292 0.19622414 1.756
0.67338955 0.19717239 1.7545002
0.68513942 0.1963927 1.7575001
0.69354856 0.19566782 1.7590001
0.7019248 0.1976781 1.7590001
0.74418724 0.19406612 1.7536001
0.75333339 0.19500001 1.7500001
0.76362956 0.19550143 1.7545002
0.77060956 0.19600287 1.7590001
0.82635301 0.19356735 1.7564286
0.83309186 0.19376783 1.7509
0.84000003 0.19500001 1.7500001
-0.34509906 0.20102859 1.7590002
-0.33504763 0.20214541 1.7590002
-0.32667142 0.20437905 1.7590001
-0.016752381 0.20772953 1.7590001
0.06533429 0.20772953 1.7590001
0.072035238 0.20772953 1.7590001
0.17590001 0.20772953 1.7590001
0.18427619 0.20772953 1.7590001
0.19432764 0.20772953 1.7590002
0.20102859 0.20772953 1.7590001
0.32499623 0.20638935 1.7590001
0.33504763 0.20605431 1.7589999
0.34509906 0.20772953 1.7590002
0.35515049 0.20772953 1.7590002
0.36541119 0.2051845 1.7577143
0.37411457 0.20439932 1.755625
0.38530478 0.20605431 1.7589999
0.39535618 0.20605429 1.7589999
0.40540764 0.20605429 1.7589999
0.41481289 0.20426859 1.7545
0.42429909 0.20379241 1.7540001
0.43407619 0.20367621 1.753
0.44409335 0.20367622 1.753
0.45410669 0.20368002 1.753
0.46412766 0.20367622 1.753
0.47382954 0.2033024 1.7533751
0.48416191 0.20367622 1.753
0.49323168 0.20304525 1.7511251
0.50484931 0.20353906 1.7518002
0.5152089 0.20273654 1.7545
0.52467906 0.20218098 1.7545
0.53424764 0.20367621 1.753
0.54426479 0.20367621 1.753
0.55428195 0.20367622 1.753
0.56523997 0.20341907 1.7507501
0.57533342 0.20266668 1.7500002
0.58333331 0.20333335 1.7500001
0.5936743 0.20344764 1.751
0.60369027 0.20317383 1.7522501
0.61403626 0.20356193 1.7520001
0.6257112 0.20340592 1.7532729
0.63500005 0.20166667 1.7500001
0.64333338 0.20166667 1.7500001
0.65333337 0.2 1.7500001
0.66266668 0.20133336 1.7500002
0.67416668 0.20083334 1.7500001
0.685 0.20166668 1.7500001
0.69500005 0.2 1.7500001
0.70513767 0.20218098 1.7545002
0.71394587 0.20282181 1.7538573
0.72345656 0.20367621 1.753
0.73345119 0.20172247 1.7525715
0.74000001 0.2 1.7500001
0.76555562 0.20111112 1.7500001
0.77446717 0.20362723 1.7525715
0.78372085 0.20440219 1.7551429
0.79304713 0.20578858 1.7567501
0.80243909 0.20772953 1.7590001
0.82518983 0.20439848 1.7565455
0.83333331 0.20333336 1.7500001
0.842381 0.20333336 1.7500001
-0.34509906 0.21778096 1.7590001
-0.3383981 0.21778096 1.7590001
-0.3249962 0.21108001 1.7590001
-0.31829524 0.21108001 1.7590001
-0.23453332 0.21778096 1.7590002
-0.022496056 0.21490911 1.7589999
-0.013401905 0.2144305 1.7589999
-0.0046906667 0.21510057 1.7590001
0.0033504763 0.21644077 1.7590001
0.014239524 0.21694334 1.7590001
0.023453334 0.21644077 1.7590001
0.033504762 0.21778096 1.7590002
0.043556195 0.21778096 1.7590002
0.054947812 0.21577068 1.7590001
0.063659042 0.2144305 1.7589999
0.073710471 0.2144305 1.7589999
0.083714291 0.21430667 1.7579999
0.094291978 0.21538775 1.7589999
0.10386476 0.2144305 1.7589999
0.1139162 0.21610571 1.7589999
0.12329753 0.21644077 1.7590001
0.13513587 0.21554731 1.7589999
0.14407049 0.21610571 1.7589999
0.15403239 0.21430667 1.7579999
0.16441198 0.21506938 1.7564286
0.17402858 0.21418285 1.757
0.18406667 0.21418285 1.757
0.19421524 0.21430667 1.7579999
0.20426479 0.21430665 1.7579999
0.21395184 0.21538775 1.7589999
0.22515202 0.21644077 1.7590001
0.23369572 0.21694334 1.7590001
0.24458475 0.21778096 1.7590002
0.28562811 0.21694334 1.7590001
0.29484192 0.21538775 1.7589999
0.30463621 0.2153616 1.7575001
0.31433621 0.21443358 1.755625
0.32407239 0.21381526 1.7540001
0.33409527 0.21381527 1.7540001
0.34411621 0.21381526 1.7540001
0.35414097 0.21381527 1.7540001
0.36333337 0.21333335 1.7500001
0.37333333 0.21333335 1.7500001
0.38333338 0.21333335 1.7500001
0.39333338 0.21333335 1.7500001
0.40356576 0.21345335 1.751
0.41356766 0.21345335 1.751
0.42333338 0.21333335 1.7500001
0.43333337 0.21333335 1.7500001
0.44333336 0.21333335 1.7500001
0.45266667 0.21133335 1.7500002
0.46166667 0.21000001 1.7500001
0.54666668 0.21000001 1.7500001
0.55333334 0.20999999 1.7500001
0.59333336 0.21000001 1.7500001
0.62666667 0.21000001 1.7500001
0.78333336 0.20999999 1.7500001
0.79333335 0.21333335 1.7500001
0.80394745 0.21402003 1.7522501
0.81364554 0.21332169 1.7533751
0.8234297 0.21271262 1.751
0.83333331 0.21333335 1.7500001
0.8416667 0.21333335 1.7500001
0.91666669 0.21166667 1.7500001
0.92166668 0.21333334 1.7500001
-0.34509906 0.22113144 1.7590001
-0.33638781 0.22582212 1.7590001
-0.29484192 0.22783239 1.7590001
-0.25128573 0.22783239 1.7590001
-0.24416597 0.22490074 1.7589999
-0.23453334 0.22448193 1.7589999
-0.22490074 0.22490074 1.7589999
-0.10554001 0.22783239 1.7590001
-0.031829525 0.22783239 1.7590001
-0.023377143 0.22371238 1.753
-0.013384762 0.22422668 1.757
-0.0050171427 0.22409333 1.756
0.0033447619 0.22409336 1.756
0.013369523 0.22396572 1.755
0.023344763 0.22345906 1.751
0.033405717 0.22384194 1.7540001
0.043438096 0.22384191 1.7540001
0.053424764 0.22371048 1.753
0.063590482 0.22422478 1.757
0.073626667 0.22422287 1.757
0.08352191 0.22383812 1.7540001
0.093493342 0.22371048 1.753
0.10351049 0.22371048 1.753
0.11372001 0.22409527 1.756
0.12396762 0.22448193 1.7589999
0.13394095 0.22435239 1.7579999
0.14373714 0.22396953 1.755
0.15333332 0.22333333 1.7500001
0.16342859 0.22346288 1.751
0.17333335 0.22333333 1.7500001
0.18343812 0.22345906 1.751
0.19366857 0.22371429 1.753
0.20380193 0.22384381 1.7540001
0.21345335 0.22345906 1.751
0.2237162 0.22371048 1.753
0.23360001 0.22358476 1.7520001
0.24389145 0.22383812 1.7540001
0.2546362 0.22490074 1.7589999
0.26468763 0.22615717 1.7589999
0.27498001 0.22475502 1.757875
0.28414097 0.22396572 1.755
0.29349905 0.22345906 1.751
0.30368191 0.22358476 1.7520001
0.3133333 0.22333333 1.7500001
0.32333335 0.22333333 1.7500001
0.33333334 0.22333333 1.7500001
0.34285712 0.22238097 1.7500001
0.35266668 0.22133334 1.7500002
0.36466667 0.222 1.7500002
0.37291664 0.22291668 1.7500001
0.38333336 0.22166668 1.7500001
0.39166668 0.22000001 1.7500001
0.41333333 0.22000001 1.7500001
0.42500001 0.22000001 1.7500001
0.43333334 0.22000001 1.7500001
0.44333336 0.22000001 1.7500001
0.82666671 0.22000001 1.7500001
0.83333337 0.22083335 1.7500001
0.84083343 0.22250001 1.7500001
0.91666669 0.22666667 1.7500001
0.92000002 0.22666667 1.7500001
-0.34342384 0.23453334 1.7590001
-0.33504766 0.23453334 1.7589999
-0.32722983 0.23229969 1.7590002
-0.30154288 0.23118286 1.7590001
-0.29436326 0.23453332 1.7589999
-0.2852093 0.23495214 1.7589999
-0.27473906 0.23495215 1.7589999
-0.26468763 0.23620857 1.7589999
-0.25415754 0.23549061 1.7589999
-0.24430476 0.23426287 1.757
-0.23426856 0.23426287 1.757
-0.22448193 0.23453334 1.7589999
-0.21778096 0.23788382 1.7590001
-0.19097716 0.23788382 1.7590001
-0.18427619 0.23654363 1.7590001
-0.17422478 0.23620857 1.7589999
-0.16640699 0.23676699 1.7590002
-0.15077144 0.23788382 1.7590001
-0.14407048 0.23704621 1.7590001
-0.13360023 0.23495214 1.7589999
-0.12396762 0.23453334 1.7589999
-0.1139162 0.23453334 1.7589999
-0.10386477 0.23453332 1.7589999
