# .PCD v0.7 - Point Cloud Data file format
VERSION 0.7
FIELDS x y z
SIZE 4 4 4
TYPE F F F
COUNT 1 1 1
WIDTH 1509
HEIGHT 1
VIEWPOINT 0 0 0 1 0 0 0
POINTS 1509
DATA ascii
0.15353334 0.4246667 1.715
0.16006668 0.42466667 1.715
0.49980003 0.42793334 1.715
0.50306666 0.42303336 1.715
0.1372 0.43283337 1.715
0.14373334 0.43446672 1.715
0.15157335 0.43381339 1.7149999
0.49326667 0.43773335 1.715
0.50388336 0.43365002 1.715
0.14536667 0.44426668 1.715
0.15026668 0.44426668 1.715
0.49587998 0.44361335 1.7149999
0.14591111 0.45188892 1.715
0.15260001 0.45453334 1.715
0.49980003 0.45733336 1.715
0.50306666 0.45733336 1.715
0.15446667 0.46340004 1.715
0.16006668 0.4655 1.715
0.50306666 0.46386668 1.715
0.147 0.47693336 1.715
0.15394168 0.47407508 1.715
0.16170001 0.47366667 1.715
0.49606666 0.47460002 1.715
0.50306666 0.47040001 1.715
0.14536667 0.48183334 1.715
0.15353334 0.48346668 1.715
0.16006668 0.48183334 1.715
0.48673335 0.48673335 1.715
0.49435553 0.48346668 1.715
0.147 0.49000001 1.715
0.1538303 0.49445447 1.715
0.16072001 0.49588004 1.7149999
0.48608002 0.49588004 1.7149999
0.49367502 0.49326667 1.715
0.147 0.50960004 1.715
0.15394168 0.5067417 1.715
0.16170001 0.50633335 1.715
0.48542672 0.50567997 1.7149999
0.49326667 0.50829333 1.7149999
0.147 0.51613337 1.715
0.15394168 0.51572508 1.715
0.16006668 0.51613337 1.715
0.48673335 0.51613337 1.715
0.49130669 0.51613331 1.7149999
0.1372 0.52266669 1.715
0.14373334 0.52266669 1.715
0.15418668 0.52397335 1.7149999
0.16006668 0.52429998 1.715
0.48673335 0.52266669 1.715
0.4910889 0.52375555 1.715
0.068920001 0.018050477 1.723
0.073842861 0.018050477 1.723
0.088611431 0.01969143 1.723
0.067607239 0.02691162 1.7229999
0.07302238 0.025434762 1.723
0.057761528 0.036757335 1.7229999
0.063997142 0.036100954 1.7229999
0.057433337 0.045946669 1.7229999
0.06470041 0.046415512 1.7229998
0.05825381 0.056612857 1.723
0.06470041 0.055323537 1.7229998
0.055792384 0.065638095 1.7229998
0.06516926 0.066575781 1.7229998
0.05620262 0.07507357 1.7229998
0.064981714 0.077452958 1.7229999
0.057433337 0.085329525 1.7229999
0.063668951 0.084673144 1.7229999
0.057761528 0.094518863 1.7229999
0.062356193 0.095175244 1.723
0.059074286 0.10338001 1.723
0.065091111 0.10611492 1.7229999
0.065638095 0.11486667 1.7229998
0.072201908 0.11486667 1.723
0.066575781 0.12471239 1.7229998
0.073842861 0.12471239 1.7229999
0.067279048 0.1345581 1.7229999
0.073842861 0.1345581 1.7229999
0.067607239 0.14374743 1.7229999
0.073842861 0.14440382 1.7229999
0.068920001 0.15424953 1.723
0.074546136 0.15424953 1.7229998
0.068920001 0.16409524 1.723
0.075483814 0.16409525 1.7229998
0.082047619 0.16737714 1.723
0.068920001 0.17065905 1.723
0.075483814 0.17394096 1.7229998
0.084235549 0.17503493 1.7229999
0.091893338 0.17722286 1.723
0.085329525 0.18378669 1.7229998
0.094765007 0.1841969 1.7229998
0.07876572 0.19035049 1.723
0.085329525 0.19363241 1.7229998
0.094628267 0.19417937 1.7229999
0.07876572 0.20676 1.723
0.085329533 0.2034781 1.7229998
0.094706401 0.2025404 1.7229998
0.10666192 0.2034781 1.723
0.43780613 0.20413446 1.7229999
0.44633904 0.20511906 1.7229999
0.45618477 0.2034781 1.723
0.46603048 0.20429857 1.723
0.47587618 0.2034781 1.723
0.4865424 0.20593953 1.723
0.49556765 0.20511904 1.723
0.50541335 0.20676 1.723
0.51197714 0.20676 1.723
0.07876572 0.21004191 1.723
0.085031174 0.21511394 1.7229997
0.094876885 0.21541229 1.7229997
0.10173905 0.21988763 1.723
0.43321145 0.21004191 1.723
0.50541335 0.21004191 1.723
0.51525909 0.21004193 1.723
0.52510482 0.21222985 1.723
0.53413004 0.21578525 1.723
0.54315525 0.21988763 1.723
0.088611431 0.22481048 1.723
0.095175244 0.22645146 1.7229998
0.10255953 0.22727191 1.723
0.42992955 0.22316954 1.723
0.54561669 0.22563097 1.723
0.55136001 0.22973335 1.723
0.095175244 0.23629713 1.7229998
0.10338 0.23629715 1.7229999
0.54807812 0.23301524 1.723
0.55332911 0.23564076 1.7229999
0.097636677 0.24532239 1.723
0.10338 0.24614288 1.7229999
0.5546419 0.24286096 1.723
0.56284666 0.24942477 1.723
0.09845715 0.25598857 1.723
0.10502096 0.25598857 1.7229998
0.11158477 0.25762951 1.723
0.56284666 0.2559886 1.723
0.09845715 0.2658343 1.723
0.10502096 0.26583427 1.7229998
0.11158477 0.2658343 1.723
0.56448764 0.2658343 1.723
0.09845715 0.27568004 1.723
0.10502095 0.27568001 1.7229998
0.11158477 0.27896193 1.723
0.56448764 0.27568004 1.723
0.09845715 0.28388476 1.723
0.10502096 0.28552571 1.7229998
0.11445644 0.285936 1.7229998
0.56530809 0.2863462 1.723
0.10502096 0.29537144 1.7229998
0.11486668 0.29537141 1.7229998
0.12143048 0.29701239 1.723
0.56645679 0.29537144 1.7229999
0.10173905 0.30849907 1.723
0.11486667 0.30521715 1.7229998
0.12307143 0.30521715 1.7229999
0.56612861 0.30521715 1.723
0.11580436 0.31506285 1.7229998
0.12307143 0.31506285 1.7229999
0.55792385 0.31670383 1.723
0.56120574 0.31178096 1.723
0.11650762 0.32490858 1.7229999
0.12274323 0.32425219 1.7229999
0.55628288 0.32819048 1.723
0.11486667 0.33475429 1.7229998
0.12143048 0.33475432 1.723
0.55354792 0.33366033 1.723
0.10830286 0.34624097 1.723
0.11445643 0.34459996 1.7229998
0.12143048 0.3413181 1.723
0.10830286 0.35280478 1.723
0.11445644 0.35485598 1.7229998
0.12553287 0.35690716 1.723
0.11580436 0.36429146 1.7229998
0.12471239 0.36429146 1.7229998
0.13291714 0.36429146 1.7229999
0.51525903 0.3659324 1.723
0.52182287 0.36100954 1.723
0.1170546 0.3719492 1.723
0.12471239 0.37413716 1.7229998
0.13362041 0.37460598 1.7229998
0.50650734 0.37523112 1.723
0.51197714 0.37085524 1.723
0.12580635 0.38288891 1.7229999
0.1345581 0.38398293 1.7229998
0.14112191 0.38562381 1.723
0.50705433 0.38234192 1.723
0.13549578 0.39335975 1.7229998
0.14221588 0.39492258 1.723
0.50541335 0.39546955 1.723
0.12635334 0.4069562 1.723
0.13455808 0.4036743 1.7229998
0.50541335 0.40203333 1.723
0.12717381 0.4143405 1.723
0.13414785 0.41393024 1.7229998
0.50869524 0.41516095 1.723
0.12536877 0.42500672 1.7229998
0.13127619 0.42500669 1.723
0.50803888 0.42599124 1.7229999
0.12668154 0.43583697 1.7229999
0.13362041 0.43696219 1.7229998
0.51197714 0.43321145 1.723
0.12799428 0.44305715 1.723
0.13549578 0.44587022 1.7229998
0.14112191 0.44633904 1.723
0.50541335 0.44633904 1.723
0.13549578 0.45665362 1.7229998
0.14330985 0.45727876 1.7229999
0.50650734 0.45399687 1.723
0.12799428 0.46767145 1.723
0.1345581 0.46603048 1.7229998
0.14440382 0.46603048 1.7229998
0.15096763 0.46767145 1.723
0.12635334 0.47259429 1.723
0.1345581 0.47587621 1.7229998
0.14399357 0.47546595 1.7229998
0.15096763 0.47259429 1.723
0.50541335 0.47751716 1.723
0.1345581 0.48572192 1.7229998
0.14309105 0.48703471 1.7229999
0.50410056 0.48637834 1.7229999
0.1354958 0.49603653 1.7229998
0.14399357 0.49597785 1.7229998
0.4972086 0.49556762 1.723
0.50213146 0.49228573 1.723
0.13784 0.50541335 1.723
0.14440382 0.50541329 1.7229998
0.15096763 0.50377238 1.723
0.49556762 0.50475699 1.7229999
0.13587086 0.51591539 1.7229999
0.14346613 0.51525909 1.7229998
0.4972086 0.51854098 1.723
0.50213146 0.51197714 1.723
0.13784 0.52182287 1.723
0.14440382 0.52264333 1.723
0.15096763 0.52182287 1.723
0.49884954 0.52182287 1.723
0.065980956 0.018144764 1.7320001
0.057733335 0.02969143 1.7320001
0.063781589 0.026392384 1.732
0.049485717 0.037939049 1.7320001
0.053609528 0.035464764 1.7320001
0.048166096 0.046846479 1.7320001
0.05278476 0.046186671 1.732
0.048660953 0.055259049 1.7320001
0.05410438 0.055424005 1.7320001
0.048660956 0.06680572 1.7320001
0.048166096 0.075218283 1.7320001
0.052784763 0.079177149 1.7320001
0.049485717 0.085775234 1.732
0.05278476 0.085775249 1.732
0.053609528 0.096497148 1.7320001
0.056908574 0.10639429 1.7320001
0.057026394 0.11546666 1.7320002
0.058063246 0.124704 1.7320001
0.062681906 0.12536381 1.7320001
0.058558099 0.13443621 1.7320001
0.062681906 0.13526095 1.732
0.05938286 0.14350858 1.7320001
0.06350667 0.14598288 1.7320001
0.065980956 0.15505524 1.732
0.064661339 0.16561221 1.7320001
0.065980956 0.17532082 1.7320002
0.068180323 0.18254732 1.732
0.075878099 0.18474668 1.7320002
0.076427937 0.19464381 1.7320002
0.077197716 0.20388114 1.7320001
0.44537148 0.20124191 1.732
0.45526859 0.20124191 1.732
0.46516573 0.20124191 1.732
0.47506288 0.20124191 1.732
0.48496002 0.20289144 1.7320001
0.49650669 0.20289144 1.7320001
0.5047543 0.20344126 1.732
0.51531124 0.20454097 1.7320001
0.52372384 0.20701525 1.7320001
0.077527627 0.21278858 1.7320001
0.089074291 0.2144381 1.7320001
0.52784765 0.21113905 1.7320001
0.53444576 0.21278858 1.7320001
0.54434288 0.21608762 1.7320001
0.55094099 0.21773715 1.7320001
0.079177149 0.22268572 1.7320001
0.084125713 0.22598478 1.7320001
0.55424005 0.22433527 1.7320002
0.085775241 0.23423237 1.7320002
0.55753905 0.23093334 1.7320001
0.56248766 0.23423238 1.7320002
0.08742477 0.24083048 1.7320001
0.093473017 0.24632891 1.732
0.56413722 0.24412952 1.7320002
0.57073528 0.24412954 1.732
0.094022863 0.25402668 1.7320002
0.56743622 0.25567621 1.7320001
0.57156003 0.25485143 1.7320001
0.095672391 0.26392382 1.732
0.57238483 0.26392385 1.7320002
0.095672391 0.27382097 1.732
0.57238483 0.27382097 1.7320002
0.09484762 0.28454286 1.7320001
0.57205492 0.28371811 1.7320001
0.095672384 0.29361525 1.7320002
0.57535392 0.29361528 1.7320001
0.095672384 0.30351236 1.7320002
0.10556952 0.30516192 1.7320002
0.57293463 0.30351239 1.732
0.096143678 0.31246695 1.7320002
0.10598192 0.31382191 1.7320002
0.11216763 0.31340954 1.7320001
0.56578672 0.31505907 1.7320001
0.57073528 0.31011048 1.7320001
0.098971434 0.32000762 1.7320001
0.10721905 0.32330668 1.7320002
0.11216763 0.32495618 1.7320001
0.56193775 0.32330668 1.732
0.10886858 0.33650288 1.732
0.10490972 0.34705982 1.7320001
0.54104382 0.34969905 1.7320001
0.10462695 0.35676846 1.7320002
0.53279626 0.35794669 1.7320001
0.10721905 0.36619428 1.7320002
0.11216763 0.36619431 1.7320001
0.51795048 0.36949334 1.7320001
0.52454859 0.36619434 1.732
0.10886858 0.37444192 1.7320001
0.11480687 0.37675124 1.7320001
0.51575112 0.3771911 1.7320002
0.52124953 0.37279239 1.7320001
0.1174461 0.38532877 1.7320001
0.12316445 0.38818797 1.732
0.51465142 0.38598856 1.7320001
0.1257762 0.39588571 1.7320002
0.13196191 0.39753526 1.7320001
0.51217717 0.39506096 1.7320001
0.12536381 0.40523303 1.7320002
0.13196191 0.40248382 1.7320001
0.51135242 0.40578285 1.732
0.11876572 0.41897905 1.7320001
0.12338439 0.41502023 1.7320001
0.51465142 0.41568002 1.732
0.11876572 0.42557716 1.732
0.12206477 0.42227811 1.7320001
0.51465142 0.42557716 1.732
0.11876572 0.43712384 1.7320001
0.12206477 0.43547431 1.732
0.51575112 0.43602416 1.7320002
0.124704 0.44471163 1.7320001
0.13196191 0.44867051 1.7320001
0.51355177 0.44537148 1.7320002
0.12866285 0.45526859 1.732
0.13196191 0.45526859 1.732
0.51333177 0.45526856 1.7320001
0.12591363 0.46516573 1.7320002
0.51300192 0.46516576 1.7320002
0.11546667 0.47341335 1.7320001
0.124704 0.47506291 1.7320001
0.51135242 0.47506288 1.732
0.12866285 0.48495999 1.732
0.51135242 0.48495999 1.732
0.13196191 0.49650669 1.7320001
0.50805336 0.49650669 1.7320001
0.51135242 0.49650669 1.7320001
0.13361144 0.5064038 1.7320001
0.49815622 0.5064038 1.7320001
0.5064038 0.5047543 1.7320002
0.51399165 0.50673372 1.7320001
0.12701333 0.51795048 1.7320001
0.13394134 0.51399165 1.7320001
0.50695366 0.51245207 1.732
0.51399165 0.51267207 1.7320001
0.13361144 0.52289903 1.7320001
0.063007623 0.019897144 1.7410001
0.057204284 0.026529524 1.7410001
0.063007623 0.023213334 1.7410001
0.039794289 0.038136192 1.7410001
0.04587397 0.036478098 1.7410001
0.03896524 0.047255717 1.7410001
0.043939523 0.04559762 1.7410001
0.036478098 0.055901498 1.7410001
0.044768572 0.056375239 1.7410001
0.044436954 0.065660581 1.7409999
0.043939527 0.077101432 1.7410001
0.04510019 0.085557714 1.7409999
0.048913814 0.095340483 1.7410001
0.048913814 0.1061181 1.7410001
0.053059053 0.10611811 1.7410001
0.04891381 0.11606666 1.7410001
0.053059049 0.11275048 1.7410001
0.049742859 0.12601525 1.7410001
0.053059049 0.12269905 1.7410001
0.049742859 0.13264762 1.7410001
0.055269841 0.13817461 1.7410001
0.055427756 0.14638612 1.7410001
0.05836495 0.15519772 1.7409999
0.063007623 0.15586096 1.7410001
0.049742859 0.16912572 1.7410001
0.057322718 0.16628326 1.7410001
0.063007623 0.16249333 1.7410001
0.049742859 0.17244191 1.7410001
0.057701714 0.17443162 1.7409999
0.063007623 0.17575811 1.7410001
0.056375235 0.1823905 1.7410001
0.066323809 0.18653573 1.7410001
0.067981906 0.19565524 1.7410001
0.07295619 0.19731334 1.7410001
0.44436955 0.19897144 1.7410001
0.45431808 0.19897144 1.7410001
0.46426669 0.19897144 1.7410001
0.47421527 0.19897144 1.7410001
0.48416382 0.19897144 1.7410001
0.5024029 0.19897144 1.7410001
0.0672713 0.20560384 1.7410001
0.07295619 0.20560382 1.7410001
0.4941124 0.20228763 1.7410001
0.50737715 0.20228763 1.7410001
0.51235145 0.20228763 1.7410001
0.52478719 0.20311667 1.7410001
0.53335398 0.20560382 1.7410001
0.069640003 0.2122362 1.7410001
0.076272383 0.21638143 1.7410001
0.53722286 0.2122362 1.7410001
0.54219717 0.2122362 1.7410001
0.5546329 0.21638145 1.7410001
0.56154162 0.21776319 1.7410001
0.075719684 0.22660635 1.7410001
0.56469989 0.22502722 1.7410001
0.57204288 0.22715905 1.7410001
0.076686911 0.235035 1.7410001
0.57328641 0.23586406 1.7410001
0.078759529 0.24456906 1.7410001
0.085747205 0.24634559 1.7410001
0.57701719 0.2453981 1.7410001
0.087879047 0.25451764 1.7410001
0.57701719 0.25368857 1.7410001
0.58143872 0.25645208 1.7410001
0.58165979 0.26463202 1.7409999
0.58199143 0.27524382 1.7410001
0.089537144 0.28685051 1.7410001
0.092853338 0.2851924 1.7410001
0.57701719 0.2851924 1.7410001
0.58199143 0.2851924 1.7410001
0.089537144 0.29514095 1.7410001
0.58282048 0.29514095 1.7410001
0.087879039 0.3050895 1.7410001
0.57701719 0.30840573 1.7410001
0.58143872 0.30287874 1.7410001
0.08716844 0.31503811 1.7410001
0.094511434 0.31835431 1.7410001
0.57370096 0.31503811 1.7410001
0.087879047 0.3216705 1.7410001
0.096722223 0.3249867 1.7410001
0.10446 0.32664478 1.7410001
0.56706858 0.32664478 1.7410001
0.5703848 0.3216705 1.7410001
0.099485718 0.33825144 1.7410001
0.10446 0.33493522 1.7410001
0.56706858 0.33161905 1.7410001
0.097827621 0.34820002 1.7410001
0.10446 0.34322575 1.7410001
0.55712003 0.34156764 1.7410001
0.56043619 0.34156764 1.7410001
0.079588577 0.35814857 1.7410001
0.089537144 0.35814857 1.7410001
0.096169524 0.35483241 1.7410001
0.079588577 0.36146477 1.7410001
0.08622095 0.36146477 1.7410001
0.096643262 0.36383346 1.7410001
0.10280191 0.36643904 1.7410001
0.5339067 0.36411771 1.7409999
0.10412838 0.37539279 1.7409999
0.52616888 0.37472954 1.7410001
0.53059047 0.37472954 1.7410001
0.10777619 0.38467813 1.7410001
0.11275048 0.38467813 1.7410001
0.52312905 0.38550717 1.7410001
0.10943429 0.3929686 1.7410001
0.1167299 0.39396346 1.7409999
0.12269905 0.39794287 1.7410001
0.51732576 0.39794287 1.7410001
0.5223 0.39462665 1.7410001
0.10943428 0.40457526 1.7410001
0.11648119 0.40498978 1.7410001
0.12269905 0.40457526 1.7410001
0.51732576 0.40457526 1.7410001
0.52147096 0.40457526 1.7410001
0.10943429 0.41120765 1.7410001
0.11606666 0.41452384 1.7410001
0.51732576 0.41120765 1.7410001
0.52064192 0.41452384 1.7410001
0.10943429 0.4211562 1.7410001
0.11440858 0.42447236 1.7410001
0.52064192 0.42447236 1.7410001
0.1151192 0.43442103 1.7410001
0.52285272 0.43442097 1.7410001
0.10943429 0.44105336 1.7410001
0.11565215 0.44478408 1.7410001
0.51732576 0.44436955 1.7410001
0.52285272 0.44436955 1.7410001
0.11739314 0.45564461 1.7409999
0.12435714 0.45431808 1.7410001
0.52064192 0.45431814 1.7410001
0.11772477 0.46426669 1.7410001
0.1235281 0.46343765 1.7410001
0.52064192 0.4659248 1.7410001
0.11661937 0.47421527 1.7410001
0.51732576 0.47587335 1.7410001
0.52064192 0.47421527 1.7410001
0.11938286 0.48250574 1.7410001
0.12402554 0.4848271 1.7409999
0.51732576 0.48416385 1.7410001
0.52064192 0.48084763 1.7410001
0.12560073 0.49452698 1.7410001
0.51566768 0.49245429 1.7410001
0.11938286 0.50571907 1.7410001
0.12601525 0.50406098 1.7410001
0.51622033 0.50295562 1.7410001
0.52064192 0.50737715 1.7410001
0.12601525 0.51400954 1.7410001
0.12601525 0.52285272 1.7410001
0.044393811 0.015914761 1.7590001
0.053464767 0.015037145 1.7545
0.062666669 0.014666667 1.7500002
0.025128573 0.02680381 1.7590001
0.034342382 0.025966192 1.7590001
0.043556195 0.023453334 1.7589999
0.052916672 0.022916667 1.7500001
0.060000002 0.020000001 1.7500001
0.015412191 0.03417486 1.7590001
0.023438096 0.033483811 1.7579999
0.033407621 0.033403806 1.7540001
0.042707812 0.031364191 1.7518002
0.050000001 0.030000001 1.7500001
0.0067009525 0.045231432 1.7590001
0.013401905 0.043556195 1.7589999
0.023367621 0.043407619 1.753
0.033333331 0.043333337 1.7500001
0.0067009525 0.050257146 1.7590001
0.013401904 0.05360762 1.7589999
0.023380956 0.053453337 1.7540001
0.031333335 0.053333335 1.7500002
0.014359184 0.064137682 1.7589999
0.023367621 0.063441902 1.753
0.032857146 0.06428571 1.7500001
0.040833339 0.0625 1.7500001
0.015077143 0.073710479 1.7589999
0.023367621 0.073459052 1.753
0.033333331 0.07333333 1.7500001
0.040000003 0.073333338 1.7500001
0.015914761 0.082924291 1.7590001
0.023453332 0.083761908 1.7589999
0.033333335 0.083333343 1.7500001
0.040000003 0.083333336 1.7500001
0.016752381 0.093813337 1.7590002
0.023453334 0.09381333 1.7589999
0.033384763 0.093493342 1.753
0.042380955 0.093809523 1.7500001
0.02457016 0.10274794 1.7589999
0.033422858 0.10363049 1.755
0.04291667 0.10291668 1.7500001
0.025128573 0.1139162 1.7589999
0.033422854 0.11365715 1.755
0.043030307 0.11484849 1.7500001
0.053333335 0.12 1.7500001
0.024410611 0.12444627 1.7589999
0.033504762 0.12396763 1.7589999
0.043333337 0.125 1.7500001
0.05166667 0.125 1.7500001
0.016752381 0.13066858 1.7590001
0.023872145 0.13360023 1.7589999
0.033483814 0.13394475 1.7579999
0.04337905 0.13348763 1.7520001
0.052777782 0.13277778 1.7500001
0.02680381 0.14239524 1.7590001
0.033504765 0.14407051 1.7589999
0.043380957 0.14349334 1.7520001
0.050000001 0.14333335 1.7500001
0.033923574 0.15412191 1.7589999
0.043333337 0.15333332 1.7500001
0.051333338 0.154 1.7500002
0.033504762 0.16417333 1.7589999
0.043333337 0.16333334 1.7500001
0.052380953 0.16285716 1.7500001
0.034435101 0.17362122 1.7577143
0.043333333 0.17333335 1.7500001
0.053333331 0.17666668 1.7500001
0.035179999 0.18427618 1.7589999
0.043356195 0.18344003 1.751
0.052857149 0.18333332 1.7500001
0.061666667 0.18666667 1.7500001
0.035179999 0.19432764 1.7589999
0.043529525 0.19421905 1.7579999
0.053361908 0.19344574 1.751
0.061666667 0.19333334 1.7500001
0.45566478 0.1976781 1.7590002
0.46492764 0.19734097 1.7560002
0.47495618 0.19734097 1.756
0.48581907 0.1976781 1.7590002
0.49419525 0.1976781 1.7590001
0.50505906 0.19734097 1.756
0.51597333 0.1976781 1.7590001
0.52602482 0.1976781 1.7590001
0.035180002 0.20270382 1.7590001
0.043556195 0.20437905 1.7589999
0.053419054 0.20368193 1.753
0.061333336 0.20266668 1.7500002
0.48333335 0.2 1.7500001
0.49333334 0.2 1.7500001
0.505 0.2 1.7500001
0.51500005 0.2 1.7500001
0.52333337 0.2 1.7500001
0.53333336 0.2 1.7500001
0.5444563 0.20488329 1.7551429
0.5545038 0.20772953 1.7590001
0.044673014 0.21331365 1.7589999
0.053419054 0.21369906 1.753
0.062916666 0.21375002 1.7500001
0.071666673 0.21666667 1.7500001
0.54500002 0.21000001 1.7500001
0.55475622 0.21220668 1.7545
0.56591618 0.2148861 1.7518002
0.57628191 0.21610573 1.7590001
0.043556191 0.22280669 1.7590001
0.053480003 0.22397335 1.755
0.063333333 0.22333333 1.7500001
0.071333334 0.22266667 1.7500002
0.56999999 0.22000001 1.7500001
0.57500005 0.22166668 1.7500001
0.58307481 0.2250281 1.7567501
0.05354286 0.23426665 1.757
0.063333333 0.23333335 1.7500001
0.07 0.23333335 1.7500001
0.58462393 0.23384762 1.7538573
0.046906669 0.24458475 1.7590002
0.05357524 0.24444763 1.7579999
0.063401908 0.24361335 1.7520001
0.072380953 0.24380954 1.7500001
0.58550292 0.24353905 1.7515001
0.59303433 0.24458478 1.7590002
0.045566477 0.25530627 1.7590001
0.053607624 0.25463623 1.7589999
0.06350857 0.25405905 1.755
0.07337524 0.25348002 1.751
0.083333343 0.25533333 1.7500002
0.58533335 0.25333333 1.7500002
0.59255052 0.25452116 1.7536001
0.046906669 0.26133716 1.7590001
0.053607624 0.2646876 1.7589999
0.063544765 0.26423618 1.756
0.073630482 0.26438859 1.757
0.083333336 0.26333335 1.7500001
0.091666669 0.26500002 1.7500001
0.5931924 0.26401046 1.7545
0.054947812 0.27339888 1.7590001
0.063620955 0.27458474 1.7579999
0.073624767 0.27442667 1.757
0.083333343 0.27333334 1.7500001
0.091666669 0.27333334 1.7500001
0.5866667 0.27000001 1.7500001
0.59412712 0.27413657 1.7551429
0.055282861 0.28144002 1.7590001
0.064077854 0.28437167 1.7589999
0.073710471 0.28479052 1.7589999
0.083333336 0.28333333 1.7500001
0.091666669 0.28166667 1.7500001
0.59412712 0.28368735 1.7551429
0.065334283 0.29484192 1.7589999
0.073666669 0.29467618 1.7579999
0.083333336 0.29333332 1.7500001
0.59194362 0.29296499 1.7518002
0.065334283 0.30489334 1.7589999
0.073579051 0.30437335 1.756
0.082380958 0.30285713 1.7500001
0.5866667 0.30666667 1.7500001
0.59316075 0.30360267 1.7554001
0.064077862 0.31452593 1.7589999
0.073537141 0.31423047 1.755
0.081333339 0.31266665 1.7500002
0.58539462 0.31413904 1.7545
0.06533429 0.3249962 1.7589999
0.073579051 0.32444191 1.756
0.082380958 0.32380956 1.7500001
0.091666669 0.32666668 1.7500001
0.57731622 0.3250024 1.7545
0.58149147 0.32249811 1.7545002
0.065334283 0.33504763 1.7589999
0.073710479 0.33504766 1.7589999
0.083567627 0.33428955 1.755
0.092974529 0.33396643 1.7511251
0.1 0.33500001 1.7500001
0.56666666 0.33666667 1.7500001
0.57636231 0.33403811 1.7572
0.067009524 0.34509906 1.7590002
0.074129283 0.34509909 1.7589999
0.083619051 0.34450483 1.756
0.093436204 0.34372383 1.7520001
0.1 0.34500003 1.7500001
0.55666667 0.34666669 1.7500001
0.56 0.34666669 1.7500001
0.07362286 0.35474476 1.757
0.083333328 0.35333332 1.7500001
0.090833336 0.35250002 1.7500001
0.54666668 0.35666668 1.7500001
0.55000001 0.35333335 1.7500001
0.073495239 0.36416572 1.7540001
0.084000006 0.36400002 1.7500002
0.090000004 0.36666667 1.7500001
0.54640573 0.36092573 1.7545002
0.074827306 0.37413654 1.7589999
0.083619051 0.3746191 1.756
0.093438111 0.37376383 1.7520001
0.1 0.375 1.7500001
0.53583336 0.37333333 1.7500001
0.54398012 0.37490913 1.7551429
0.085102096 0.3839646 1.7590001
0.093702868 0.38486668 1.757
0.10133334 0.384 1.7500002
0.53394669 0.38377339 1.7520001
0.54277718 0.38195431 1.7590001
0.08711239 0.39535621 1.7590002
0.093647629 0.39468193 1.756
0.10291667 0.39375004 1.7500001
0.11333334 0.39666668 1.7500001
0.53394949 0.39367527 1.7533751
0.093758106 0.4051753 1.7579999
0.10333334 0.4033334 1.7500001
0.11333334 0.40083334 1.7500001
0.5266667 0.40333334 1.7500001
0.53355891 0.40374616 1.7538573
0.093813337 0.4154591 1.7589999
0.10356572 0.41428196 1.7540001
0.11333334 0.41666669 1.7500001
0.5266667 0.41333333 1.7500001
0.53349239 0.41475055 1.756
0.084240548 0.42646772 1.7589999
0.093813337 0.4255105 1.7589999
0.10333335 0.42333338 1.7500001
0.11000001 0.42333335 1.7500001
0.5266667 0.42333332 1.7500001
0.53356338 0.42634812 1.7590001
0.084180713 0.4355619 1.7589999
0.093813337 0.4355619 1.7589999
0.10344763 0.43383053 1.7520001
0.11000001 0.43333337 1.7500001
0.5266667 0.43166667 1.7500001
0.53440094 0.4355619 1.7589999
0.084240548 0.4446561 1.7589999
0.093702868 0.44510862 1.757
0.10333335 0.44333336 1.7500001
0.11000001 0.44333336 1.7500001
0.53352082 0.44449073 1.7572
0.087112382 0.45398957 1.7590001
0.093813337 0.45566478 1.7589999
0.10333335 0.45333332 1.7500001
0.11285715 0.45428571 1.7500001
0.52756953 0.45411623 1.7530001
0.53272575 0.45566478 1.7590002
0.095488571 0.46571621 1.7589999
0.10344763 0.46386474 1.7520001
0.11133333 0.46400005 1.7500002
0.52718765 0.46452907 1.7545002
0.53272575 0.46571621 1.7590002
0.094770618 0.47624627 1.7589999
0.10350668 0.47414097 1.753
0.11133333 0.47266668 1.7500002
0.52847242 0.47495618 1.7560002
0.53272575 0.47576761 1.7590002
0.09381333 0.48581907 1.7589999
0.10333334 0.48333338 1.7500001
0.11285715 0.48428574 1.7500001
0.52786481 0.486031 1.7567501
0.093813337 0.49587047 1.7589999
0.10345335 0.49390098 1.7520001
0.11504715 0.49354625 1.7507501
0.52544653 0.49489689 1.7538573
0.09381333 0.5059219 1.7589999
0.10386477 0.50592196 1.7589999
0.11449021 0.50544709 1.7532145
0.52492195 0.50407141 1.7511251
0.5318172 0.50839812 1.756
0.097163811 0.51262289 1.7590001
0.10374477 0.51538289 1.757
0.11514358 0.51565999 1.7522501
0.097163811 0.52267432 1.7590001
0.10341906 0.52211243 1.7515001
0.11556208 0.52352285 1.7516365
0.12333333 0.5266667 1.7500001
0.12353904 0.53090858 1.7530001
0.13166668 0.53000003 1.7500001
0.03704381 0.016838096 1.7680001
0.016838096 0.025257144 1.7680001
0.023573333 0.023012064 1.768
0.033002667 0.021552762 1.768
0.0047146669 0.035023239 1.768
0.010944762 0.032834288 1.7680001
-0.0033676189 0.043779049 1.7680001
0.0024054423 0.043297965 1.7679999
-0.0033676191 0.050514288 1.7680001
0.0039288891 0.05388191 1.768
0.0056126988 0.065107308 1.7680001
0.010102858 0.062300958 1.7680001
0.010102858 0.07408762 1.7680001
0.011449905 0.084864005 1.768
0.012628571 0.093451433 1.7680001
0.015154286 0.10439619 1.768
0.021328256 0.10664127 1.7680001
0.015154286 0.11449905 1.768
0.020205716 0.11449905 1.7680001
0.015154286 0.12460191 1.768
0.020205716 0.1229181 1.7680001
0.015715556 0.13470477 1.7680001
0.020205716 0.13807239 1.7680001
0.023573333 0.14480762 1.768
0.025257146 0.15491048 1.768
0.030308573 0.15491048 1.7680001
0.025257142 0.16501333 1.768
0.026099049 0.17427428 1.7680001
0.030308573 0.17680001 1.7680001
0.026940951 0.18521905 1.7680001
0.030308573 0.18521905 1.7680001
0.026099049 0.19616382 1.7680001
0.030308573 0.19532192 1.7680001
0.45126095 0.19868954 1.7680001
0.46473145 0.19532192 1.7680001
0.47651809 0.19532192 1.7680001
0.48493716 0.19532192 1.7680001
0.49504003 0.19532192 1.7680001
0.50402033 0.19644445 1.7680001
0.51356196 0.19700572 1.7680001
0.5253486 0.19868954 1.7680001
0.53713524 0.19868954 1.7680001
0.54555428 0.19868954 1.7680001
0.026940951 0.20542479 1.7680001
0.032329146 0.20677181 1.768
0.54892194 0.20205715 1.7680001
0.55565715 0.20374095 1.7680001
0.5649181 0.20795049 1.7680001
0.57249528 0.20879239 1.7680001
0.034638368 0.21504654 1.7679999
0.041533973 0.21777271 1.7680001
0.56744385 0.21216001 1.7680001
0.57417905 0.21216001 1.7680001
0.58596575 0.21721144 1.7680001
0.036201905 0.22478858 1.7680001
0.043779049 0.22697754 1.768
0.58933336 0.22394666 1.7680001
0.59354287 0.22647239 1.7680001
0.043779053 0.23573335 1.7679999
0.59662992 0.23573335 1.768
0.03704381 0.2441524 1.7680001
0.04209524 0.24583621 1.768
0.59943622 0.2458362 1.7680001
0.03704381 0.25762287 1.7680001
0.041253336 0.25509715 1.7680001
0.59943622 0.25257143 1.7680001
0.60280383 0.25762287 1.7680001
0.035921272 0.26379684 1.7680001
0.043358099 0.26646286 1.7679999
0.60448766 0.2660419 1.768
0.046304762 0.27530289 1.7680001
0.052198097 0.27782857 1.7680001
0.60482442 0.27614477 1.768
0.047146667 0.28624761 1.7680001
0.053881902 0.28680891 1.768
0.060617145 0.28961524 1.7680001
0.60448766 0.28793144 1.7680001
0.055902481 0.29702401 1.768
0.060617145 0.29635048 1.7680001
0.59943622 0.29971811 1.7680001
0.60392636 0.29410541 1.7680001
0.055228956 0.30510631 1.768
0.060617145 0.30645332 1.7680001
0.59943622 0.30982095 1.7680001
0.053881902 0.31655619 1.7679999
0.060617145 0.31992382 1.7680001
0.59606862 0.31655619 1.768
0.055565719 0.32497525 1.7680001
0.060617145 0.32497525 1.7680001
0.58933336 0.32497525 1.7680001
0.59382349 0.32441399 1.7680001
0.055902481 0.33272076 1.768
0.060617145 0.33339429 1.7680001
0.58596575 0.33171049 1.7680001
0.055565715 0.34012952 1.7680001
0.061964191 0.34417066 1.768
0.070720002 0.34686476 1.7680001
0.063563809 0.35402095 1.7679999
0.064405724 0.36412385 1.7679999
0.54892194 0.3670705 1.7680001
0.55397332 0.36370289 1.7680001
0.065331809 0.37245867 1.768
0.070720002 0.37717333 1.7680001
0.55228955 0.37380573 1.7680001
0.067352384 0.38054097 1.7680001
0.073666662 0.38432953 1.7679999
0.082506672 0.3872762 1.7680001
0.54779941 0.38615367 1.7680001
0.55228955 0.3839086 1.7680001
0.067352384 0.39737907 1.7680001
0.07408762 0.39401144 1.7679999
0.082506672 0.39401147 1.768
0.5463962 0.39316955 1.7680001
0.065668575 0.40074667 1.7680001
0.074508578 0.40369332 1.7679999
0.08376953 0.40453523 1.7679999
0.54555422 0.40459538 1.7679999
0.077455238 0.41421714 1.7680001
0.08419048 0.41421717 1.7679999
0.54507315 0.4151794 1.7679999
0.083516955 0.42229944 1.768
0.53881907 0.42600381 1.7680001
0.54459208 0.42383894 1.7679999
0.080822863 0.43779048 1.7680001
0.54302859 0.43442285 1.7680001
0.54218668 0.44452572 1.7680001
0.082506672 0.45462862 1.768
0.53881907 0.45462859 1.7680001
0.084671572 0.46425036 1.7679999
0.090925716 0.46641526 1.7680001
0.53881907 0.46473145 1.7680001
0.077455238 0.47483429 1.7680001
0.08419048 0.47483429 1.7679999
0.090925716 0.47483429 1.7680001
0.53881907 0.47483429 1.7680001
0.084190488 0.48493719 1.7679999
0.53747201 0.48561072 1.768
0.08671619 0.49419811 1.7680001
0.53679854 0.49504003 1.768
0.087558098 0.50514287 1.7680001
0.53747201 0.50446934 1.768
0.54555428 0.50851047 1.7680001
0.087558098 0.51187813 1.7680001
0.093619809 0.51726627 1.768
0.53881907 0.51187813 1.7680001
0.54218668 0.51187813 1.7680001
0.087558098 0.521981 1.7680001
0.094293334 0.52282292 1.7680001
0.11113143 0.53208381 1.7680001
0.006769524 0.016923809 1.7770001
0.013539048 0.016923809 1.7770001
0.020308573 0.016923809 1.7770001
0.006769524 0.027078096 1.7770001
0.011846667 0.027078096 1.7770001
0.020308573 0.020308573 1.7770001
-0.010154286 0.037232384 1.7770001
-0.004513016 0.036104128 1.7770001
0.001692381 0.032155238 1.7770001
-0.011508191 0.044678859 1.7770001
-0.0067695244 0.044001907 1.7770001
-0.011846667 0.054156192 1.7770001
-0.0054156194 0.054833144 1.7770001
0 0.055848572 1.7770001
-0.0050771427 0.064310484 1.7770001
0.002256508 0.063746355 1.7770001
0.004513016 0.075028896 1.7770001
0.0043518366 0.084135517 1.7770002
0.0050771427 0.094773345 1.7770001
0.010154286 0.096465722 1.7770001
0.0050771427 0.10492762 1.7770001
0.010154286 0.10492762 1.7770001
0.0038078572 0.115505 1.7770002
0.010154286 0.11508191 1.7770001
0.0050771432 0.12354381 1.7770001
0.010154286 0.12354381 1.7770001
0.006769524 0.13200572 1.7770001
0.012410794 0.13539048 1.7770001
0.016077619 0.14469858 1.7770001
0.020308573 0.14723715 1.7770001
0.016923809 0.15908381 1.7770001
0.020308573 0.15569906 1.7770001
0.016923809 0.16585334 1.7770001
0.020308573 0.16585334 1.7770001
0.015231428 0.17600763 1.7770001
0.021662477 0.17668459 1.7770001
0.015569905 0.18548496 1.7770001
0.022000954 0.18616192 1.7770001
0.016923809 0.19293143 1.7770001
0.021662477 0.19563924 1.7770001
0.45186573 0.19800858 1.7770001
0.46202001 0.1963162 1.7770001
0.47217429 0.1963162 1.7770001
0.50771433 0.1963162 1.7770001
0.51786858 0.1963162 1.7770001
0.52463812 0.1963162 1.7770001
0.53479242 0.1963162 1.7770001
0.54494667 0.1963162 1.7770001
0.55577791 0.1976701 1.7770001
0.56356287 0.19970097 1.7770001
0.022000954 0.20647049 1.7770001
0.56610143 0.20393191 1.7770001
0.57456332 0.20647049 1.7770001
0.58387148 0.20985524 1.7770001
0.024370287 0.21459392 1.7770001
0.030462857 0.21662477 1.7770001
0.58556384 0.21324001 1.7770001
0.59402573 0.21662477 1.7770001
0.025385715 0.22000954 1.7770001
0.03130905 0.22424048 1.7770001
0.5979746 0.22339429 1.7770001
0.035201523 0.23422554 1.7770001
0.60248762 0.23354858 1.7770001
0.034693807 0.24285668 1.7770001
0.60587239 0.24370284 1.7770001
0.027078096 0.2572419 1.7770001
0.034411747 0.25385717 1.7770001
0.60756481 0.25385714 1.7770001
0.61264193 0.25554955 1.7770001
0.027078096 0.26231906 1.7770001
0.031816762 0.26401144 1.7770001
0.60925716 0.26062667 1.7770001
0.61264193 0.26401144 1.7770001
0.035878476 0.27416569 1.7770001
0.041745398 0.27642223 1.7770001
0.61264193 0.27416572 1.7770001
0.03554 0.28601238 1.7770001
0.042309523 0.28432 1.7770001
0.60925716 0.28432 1.7770001
0.61264193 0.28432003 1.7770001
0.037232384 0.29108953 1.7770001
0.044001907 0.29447433 1.7770002
0.051617619 0.2944743 1.7770001
0.60925716 0.29785907 1.7770001
0.61264193 0.29278192 1.7770001
0.044968985 0.30414504 1.7770002
0.051899683 0.30575684 1.7770001
0.60587239 0.30462858 1.7770001
0.046032768 0.31545982 1.7770001
0.052463811 0.31139812 1.7770001
0.60474414 0.31478289 1.7770001
0.045694288 0.32493713 1.7770001
0.05077143 0.32662952 1.7770001
0.59910285 0.3283219 1.7770001
0.60248762 0.32493716 1.7770001
0.046540476 0.33424523 1.7770001
0.051617619 0.33593762 1.7770001
0.58894861 0.33847621 1.7770001
0.59487194 0.33255288 1.7770001
0.053672653 0.3462128 1.7770002
0.045694288 0.35540006 1.7770001
0.054156192 0.35540003 1.7770002
0.56356287 0.35709238 1.7770001
0.044968985 0.36603785 1.7770002
0.054156192 0.3655543 1.7770002
0.060925715 0.36216953 1.7770001
0.55848575 0.36724669 1.7770001
0.045694288 0.37232381 1.7770001
0.054639731 0.37474149 1.7770002
0.062618092 0.37740099 1.7770001
0.55679333 0.37486237 1.7770001
0.057540953 0.38247812 1.7770001
0.06388738 0.38628596 1.7770002
0.55763954 0.38670906 1.7770001
0.057540953 0.39940193 1.7770001
0.06388738 0.39559406 1.7770002
0.55340856 0.39601716 1.7770001
0.056412697 0.40391493 1.7770001
0.063826941 0.4071385 1.7770002
0.071079999 0.40955621 1.7770001
0.55397272 0.40617144 1.7770001
0.054156192 0.4180181 1.7770001
0.064310476 0.41632575 1.7770002
0.073110864 0.41564879 1.7770001
0.54833144 0.41294098 1.7770001
0.55397272 0.41632572 1.7770001
0.065156668 0.42478761 1.7770001
0.075431839 0.42696354 1.7770002
0.55374706 0.42715698 1.7770001
0.067695238 0.43324953 1.7770001
0.074464768 0.43494192 1.7770001
0.54833144 0.43324953 1.7770001
0.55171621 0.43494192 1.7770001
0.076495633 0.44408077 1.7770001
0.54833144 0.44340384 1.7770001
0.55171621 0.44001907 1.7770001
0.067695238 0.45694289 1.7770001
0.075593024 0.45412222 1.7770001
0.54663908 0.45355812 1.7770001
0.067695238 0.46371236 1.7770001
0.074464768 0.46371242 1.7770002
0.081234291 0.46709716 1.7770001
0.54494667 0.46371236 1.7770001
0.066849053 0.47471288 1.7770001
0.07349769 0.47338316 1.7770002
0.084619053 0.47048193 1.7770001
0.54579288 0.47471285 1.7770001
0.074464761 0.48402098 1.7770002
0.54494667 0.48402095 1.7770001
0.074464768 0.49248287 1.7770001
0.082362548 0.49643174 1.7770001
0.54410046 0.49502146 1.7770001
0.082926668 0.50432962 1.7770001
0.54494667 0.5043295 1.7770001
0.083942093 0.51380688 1.7770001
0.55510098 0.51109904 1.7770001
0.088003814 0.52125335 1.7770001
-0.010205715 0.013607619 1.7860001
-0.005102857 0.013607619 1.7860001
0.0034019046 0.013607618 1.7860001
0.011906667 0.015308572 1.7860001
-0.021545397 0.02608127 1.7860001
-0.014458096 0.026364762 1.7860001
-0.004535873 0.02608127 1.7860001
0.0027215239 0.025174096 1.786
0.012927239 0.021772191 1.786
-0.012246857 0.03333867 1.786
-0.0056698415 0.031751111 1.7860001
-0.022841362 0.043738779 1.7860001
-0.016159048 0.043374289 1.7860001
-0.021772191 0.053750098 1.786
-0.014093607 0.054430481 1.7860001
-0.02041143 0.064636193 1.7860001
-0.01360762 0.064636201 1.7860001
-0.013182382 0.074841909 1.7860001
-0.0051028575 0.074841909 1.7860001
0.0011339682 0.073707938 1.7860001
-0.013182382 0.084622383 1.7860001
-0.0051028575 0.085047625 1.7860001
0 0.086748578 1.7860001
-0.012635647 0.095739312 1.7860001
-0.0051028575 0.095253341 1.7860001
0 0.095253341 1.7860001
-0.010205715 0.10545904 1.7860001
-0.0051028575 0.10545904 1.7860001
0 0.10545904 1.7860001
-0.01360762 0.11566476 1.7860001
-0.0051028575 0.11566476 1.7860001
0 0.11226286 1.7860001
-0.013121634 0.12489852 1.7860001
-0.0051028575 0.12587048 1.7860001
0.0020411429 0.12723126 1.786
0.010205715 0.12927239 1.7860001
-0.010205715 0.13267429 1.7860001
-0.0051028575 0.1360762 1.7860001
0.0029766667 0.13650143 1.7860001
0.010205715 0.13777715 1.7860001
-0.0042523812 0.14628191 1.7860001
0.0034019048 0.14628191 1.7860001
0.011566477 0.1469623 1.786
0.0043738778 0.15600164 1.7860001
0.013182382 0.15606238 1.7860001
0.0040822858 0.16533259 1.786
0.011906667 0.16499239 1.7860001
-0.0034019048 0.17689906 1.7860001
0.0034019048 0.17349716 1.7860001
0.01105619 0.17264669 1.7860001
0.003827143 0.18327764 1.7860001
0.010205715 0.18370287 1.7860001
0.0051028575 0.19390857 1.7860001
0.012635647 0.19439456 1.7860001
0.44791746 0.19504254 1.7860001
0.45500478 0.19560951 1.7860001
0.46776193 0.19390857 1.7860001
0.47796762 0.19390857 1.7860001
0.48647237 0.19390857 1.7860001
0.49497718 0.19390857 1.7860001
0.50348186 0.19390857 1.7860001
0.51368761 0.19390857 1.7860001
0.52389336 0.19390857 1.7860001
0.54090285 0.19390857 1.7860001
0.55621147 0.19390857 1.7860001
0.56641716 0.19731048 1.7860001
0.57322097 0.19731048 1.7860001
0.0068038097 0.20411429 1.7860001
0.01360762 0.20411429 1.7860001
0.57492191 0.20184636 1.7860001
0.58342671 0.20751619 1.7860001
0.0068038092 0.21432 1.7860001
0.014032858 0.21389475 1.7860001
0.02041143 0.21772191 1.7860001
0.59533334 0.21261905 1.7860001
0.60383809 0.21772191 1.7860001
0.017009525 0.22282477 1.7860001
0.024493715 0.22520609 1.786
0.60468858 0.22367525 1.7860001
0.025854478 0.23405106 1.786
0.030617142 0.23473144 1.7860001
0.60809052 0.23388097 1.7860001
0.013607619 0.24833906 1.7860001
0.024947302 0.24607112 1.7860001
0.030617142 0.24493714 1.7860001
0.61319333 0.24578764 1.7860001
0.0068038097 0.25344193 1.7860001
0.014032858 0.25471765 1.7860001
0.023388097 0.25471762 1.7860001
0.030617144 0.25344193 1.7860001
0.61659527 0.2542924 1.7860001
0.014741588 0.26591554 1.7860001
0.022841362 0.26583454 1.7860001
0.6191467 0.26534858 1.7860001
0.014741587 0.27328637 1.7860001
0.024785308 0.27506831 1.7860001
0.03146762 0.2755543 1.7860001
0.6191467 0.2755543 1.7860001
0.025174096 0.28439924 1.786
0.032658286 0.28439927 1.786
0.6191467 0.28576002 1.7860001
0.027215239 0.29426479 1.7860001
0.033593811 0.29639095 1.7860001
0.04082286 0.29936764 1.7860001
0.61801273 0.29596576 1.7860001
0.034019049 0.30617145 1.7860001
0.04082286 0.30787241 1.7860001
0.61404383 0.30617145 1.7860001
0.027215239 0.31977907 1.7860001
0.034019049 0.31637716 1.7860001
0.041673336 0.31552669 1.7860001
0.60894096 0.31977907 1.7860001
0.61234289 0.31637716 1.7860001
0.027215237 0.32658288 1.7860001
0.034991022 0.32609692 1.7860001
0.04082286 0.32658288 1.7860001
0.60894096 0.32658288 1.7860001
0.61234289 0.32318097 1.7860001
0.027215239 0.33338669 1.7860001
0.035720002 0.33508763 1.7860001
0.041956827 0.33565465 1.7860001
0.59873527 0.33678859 1.7860001
0.60553908 0.33508766 1.7860001
0.036060192 0.34291202 1.786
0.043799527 0.34401768 1.7860001
0.58512765 0.34359241 1.7860001
0.59533334 0.3401905 1.7860001
0.037420955 0.35379812 1.7860001
0.042864002 0.35243735 1.786
0.037420955 0.36400381 1.7860001
0.04082286 0.36400381 1.7860001
0.56471622 0.36570477 1.7860001
0.037420955 0.37250859 1.7860001
0.043374285 0.37676096 1.7860001
0.56556666 0.37420952 1.7860001
0.045925718 0.38441524 1.7860001
0.053458508 0.38490123 1.7860001
0.56556666 0.38526574 1.7860001
0.047626663 0.39462098 1.7860001
0.054430481 0.39462095 1.7860001
0.56335545 0.39530134 1.786
0.046265908 0.40550703 1.786
0.052389335 0.4048267 1.786
0.55791241 0.4031257 1.7860001
0.56216478 0.40567714 1.7860001
0.045925718 0.41503242 1.7860001
0.054430481 0.41460714 1.7860001
0.55791241 0.41503239 1.7860001
0.56301528 0.41503236 1.7860001
0.045925718 0.4252381 1.7860001
0.054430481 0.42566335 1.7860001
0.064636193 0.42864001 1.7860001
0.071440004 0.4252381 1.7860001
0.56216478 0.42438763 1.7860001
0.04677619 0.43459332 1.7860001
0.054430481 0.43544379 1.7860001
0.06366422 0.43592978 1.7860001
0.55791241 0.43714476 1.7860001
0.054430481 0.4456495 1.7860001
0.064636193 0.44564956 1.7860001
0.07229048 0.44479907 1.7860001
0.55655164 0.44632992 1.786
0.057832379 0.45585525 1.7860001
0.064210959 0.45543 1.7860001
0.072573967 0.4547213 1.7860001
0.5533765 0.45585525 1.7860001
0.057832379 0.46606097 1.7860001
0.062935241 0.466061 1.7860001
0.55280954 0.46606097 1.7860001
0.057832379 0.47626665 1.7860001
0.062595055 0.47558632 1.786
0.5511086 0.47456574 1.7860001
0.057832383 0.48307049 1.7860001
0.065061435 0.48604712 1.7860001
0.071440004 0.4898743 1.7860001
0.5511086 0.4864724 1.7860001
0.066337146 0.49497718 1.7860001
0.55224258 0.49441019 1.7860001
0.074841909 0.50348192 1.7860001
0.55195904 0.50348186 1.7860001
0.068038099 0.51368761 1.7860001
0.074841902 0.51368761 1.7860001
0.5511086 0.51028574 1.7860001
0.068038099 0.52049142 1.7860001
0.075327896 0.52292138 1.7860001
0.083346672 0.5238933 1.7860001
0.39802286 0.61404383 1.7860001
0.40482667 0.61404389 1.7860001
0.41333145 0.61234289 1.7860001
-0.030771431 0.010257144 1.7950001
-0.023933336 0.014246032 1.7950001
-0.014815873 0.015955554 1.7950001
-0.0051285718 0.017095238 1.7950001
0.0017095238 0.017095238 1.7950001
0.015385714 0.013676191 1.7950001
-0.024617143 0.023249526 1.7950001
-0.012992382 0.021881906 1.7950001
-0.0056984127 0.021653971 1.7950001
0.0034190479 0.020514287 1.7950001
-0.030771431 0.037609525 1.7950001
-0.023505956 0.03461786 1.7950001
-0.017095238 0.03419048 1.7950001
-0.030771431 0.041028574 1.7950001
-0.027352381 0.046157144 1.7950001
-0.030771431 0.056414288 1.7950001
-0.026212698 0.054704767 1.7950001
-0.030771429 0.06496191 1.7950001
-0.023933334 0.06496191 1.7950001
-0.030771431 0.07521905 1.7950001
-0.022956464 0.07521905 1.7950001
-0.017095238 0.07521905 1.7950001
-0.02222381 0.085476197 1.7950001
-0.017095238 0.088895239 1.7950001
-0.021369049 0.096588105 1.7950001
-0.017095238 0.094023809 1.7950001
-0.022956464 0.10647891 1.7950001
-0.015385713 0.10599049 1.7950001
-0.030771431 0.11282858 1.7950001
-0.02222381 0.11624762 1.7950001
-0.021881906 0.12582096 1.7950001
-0.015385714 0.12992382 1.7950001
-0.01436 0.13539429 1.7950001
-0.013248811 0.14317262 1.7950001
-0.0068380954 0.1436 1.7950001
-0.013248811 0.15428452 1.7950001
-0.0054704761 0.15454094 1.7950001
0 0.1572762 1.7950001
-0.013676192 0.1641143 1.7950001
-0.0051285713 0.1641143 1.7950001
0 0.16240478 1.7950001
-0.011966668 0.17437144 1.7950001
-0.0054704761 0.17368762 1.7950001
-0.010257144 0.18462856 1.7950001
-0.0051285718 0.18462859 1.7950001
0 0.18804763 1.7950001
0.45815238 0.18804763 1.7950001
-0.0047866665 0.19420192 1.7950001
0 0.19488573 1.7950001
0.45815238 0.19146667 1.7950001
0.46328098 0.19488572 1.7950001
0.47524765 0.19488572 1.7950001
0.48892382 0.19146667 1.7950001
0.49576196 0.19146667 1.7950001
0.50601906 0.19146667 1.7950001
0.5179857 0.19146667 1.7950001
0.52653337 0.19374603 1.7950001
0.53451115 0.19374603 1.7950001
0.54277384 0.1931762 1.7950001
0.55160642 0.19374603 1.7950001
0.5658524 0.19488572 1.7950001
-0.0047866665 0.20582668 1.7950001
0.0024421769 0.20514286 1.7950001
0.013676191 0.20514287 1.7950001
0.58465719 0.20343333 1.7950001
0.59405959 0.20770715 1.7950001
-0.010257144 0.21540001 1.7950001
-0.0051285713 0.2154 1.7950001
0.001709524 0.2154 1.7950001
0.010257144 0.21881905 1.7950001
0.60517144 0.21369049 1.7950001
0.61371905 0.21881905 1.7950001
-0.010257144 0.22394763 1.7950001
-0.0047866669 0.22497335 1.7950001
0.0034190479 0.22565715 1.7950001
0.012699321 0.22614558 1.7950001
0.020514287 0.22736667 1.7950001
0.61286426 0.22651191 1.7950001
-0.0034190479 0.23591429 1.7950001
0.0034190477 0.23591429 1.7950001
0.013676192 0.2359143 1.7950001
0.021369049 0.23676905 1.7950001
0.61542857 0.23591429 1.7950001
-0.0042738095 0.24702621 1.7950001
0.0034190479 0.24617144 1.7950001
0.013676192 0.24574408 1.7950001
0.021653971 0.24389207 1.7950001
0.61884767 0.24446192 1.7950001
0.62226671 0.24788097 1.7950001
-0.0047866669 0.25711241 1.7950001
0.0024421769 0.25691703 1.7950001
0.010257144 0.25984764 1.7950001
0.62568575 0.2564286 1.7950001
-0.0045587304 0.26440635 1.7950001
0.0034190475 0.2649762 1.7950001
0.011966668 0.26326668 1.7950001
0.62568575 0.2649762 1.7950001
-0.0034190477 0.27181429 1.7950001
0.0034190477 0.27352381 1.7950001
0.011966667 0.27437857 1.7950001
0.020514287 0.27694288 1.7950001
0.62568575 0.27352381 1.7950001
0.0041028573 0.28172952 1.7950001
0.013676192 0.28378096 1.7950001
0.021653971 0.28492066 1.7950001
0.62568575 0.28378096 1.7950001
0.015385713 0.29403809 1.7950001
0.02222381 0.29403809 1.7950001
0.62568575 0.29403812 1.7950001
0.014653062 0.30429524 1.7950001
0.023933334 0.30429521 1.7950001
0.6231215 0.30344048 1.7950001
0.015385713 0.3145524 1.7950001
0.023933332 0.31455243 1.7950001
0.61884767 0.31626192 1.7950001
0.62226671 0.3145524 1.7950001
0.017095238 0.32480952 1.7950001
0.02222381 0.32480955 1.7950001
0.030771431 0.32822859 1.7950001
0.61770797 0.32480955 1.7950001
0.62226671 0.3231 1.7950001
0.017095238 0.33506668 1.7950001
0.022956463 0.33555511 1.7950001
0.030771429 0.33506668 1.7950001
0.61542857 0.33164763 1.7950001
0.024910206 0.34483543 1.7950001
0.031626191 0.34617859 1.7950001
0.60517144 0.34190479 1.7950001
0.025642857 0.35216191 1.7950001
0.032480955 0.35558096 1.7950001
0.032480951 0.36583808 1.7950001
0.57269049 0.36583814 1.7950001
0.027352381 0.37609527 1.7950001
0.034190476 0.37677908 1.7950001
0.57303238 0.37609527 1.7950001
0.0359 0.38293335 1.7950001
0.041028574 0.38635239 1.7950001
0.57212067 0.38407302 1.7950001
0.042738095 0.39490002 1.7950001
0.57098097 0.39490002 1.7950001
0.035330158 0.405727 1.7950001
0.042396192 0.40276384 1.7950001
0.56756192 0.40515715 1.7950001
0.57098097 0.40344763 1.7950001
0.03419048 0.41370475 1.7950001
0.041028574 0.41370478 1.7950001
0.57098097 0.41199526 1.7950001
0.0359 0.42396191 1.7950001
0.041028574 0.42396191 1.7950001
0.56756192 0.42738098 1.7950001
0.037609525 0.43250954 1.7950001
0.041883335 0.43507379 1.7950001
0.56414288 0.43592858 1.7950001
0.046157144 0.44533098 1.7950001
0.56414288 0.44447622 1.7950001
0.047011904 0.45387858 1.7950001
0.052995242 0.45644286 1.7950001
0.56072384 0.45644286 1.7950001
0.052995238 0.4649905 1.7950001
0.5573048 0.46157146 1.7950001
0.56072384 0.4649905 1.7950001
0.052995238 0.47524765 1.7950001
0.5573048 0.47524765 1.7950001
0.56157863 0.47439286 1.7950001
0.05413492 0.48550478 1.7950001
0.5573048 0.48208573 1.7950001
0.058123812 0.49576196 1.7950001
0.061542857 0.49576196 1.7950001
0.058123812 0.50601906 1.7950001
0.06496191 0.50601906 1.7950001
0.5573048 0.50601906 1.7950001
0.057269048 0.51713097 1.7950001
0.063252389 0.51627618 1.7950001
0.5573048 0.51285714 1.7950001
0.56414288 0.51285714 1.7950001
0.058123812 0.52311432 1.7950001
0.06496191 0.52482384 1.7950001
-0.030925715 0.013744762 1.8040001
-0.027489524 0.017180953 1.8040001
-0.013744762 0.015462858 1.8040001
-0.03207111 0.034361906 1.8040003
-0.027489524 0.030925715 1.8040001
-0.03264381 0.044670478 1.8040001
-0.03264381 0.053260952 1.8040001
-0.027489524 0.058415242 1.8040001
-0.027489522 0.06528762 1.8040003
-0.030925715 0.075596198 1.8040001
-0.027489524 0.075596198 1.8040001
-0.030925715 0.08590477 1.8040003
-0.027489522 0.08590477 1.8040003
-0.030925715 0.096213333 1.8040003
-0.026115049 0.095526099 1.8040001
-0.030925715 0.1065219 1.8040003
-0.027489524 0.10480382 1.8040001
-0.030925715 0.11683048 1.8040001
-0.027489524 0.11511239 1.8040001
-0.030925715 0.12370286 1.8040003
-0.027489522 0.12370286 1.8040003
-0.022335239 0.13401143 1.8040001
-0.020617144 0.14088382 1.8040001
-0.017180953 0.14775619 1.8040001
-0.02199162 0.15531582 1.8040001
-0.017180953 0.15119238 1.8040001
-0.023071567 0.16444626 1.804
-0.020617144 0.17352763 1.8040001
-0.017180953 0.17524572 1.8040003
-0.01460381 0.18469524 1.8040001
0.49481145 0.18899049 1.8040003
0.50512004 0.18899049 1.8040001
0.51886481 0.18899049 1.8040001
0.52401906 0.18899049 1.8040001
-0.012026667 0.19586287 1.804
-0.0068723811 0.19929905 1.8040001
0.45701334 0.19242667 1.8040001
0.46560383 0.19242667 1.8040001
0.47419429 0.19242667 1.8040003
0.48450288 0.19242667 1.8040003
0.50512004 0.19242667 1.8040001
0.5137105 0.19242667 1.8040001
0.52573717 0.19242667 1.8040001
0.53604573 0.19242667 1.8040001
0.5497905 0.19242667 1.8040001
0.55666286 0.19242667 1.8040001
0.56181717 0.19242667 1.8040001
0.57556194 0.19586286 1.8040001
0.5841524 0.19815366 1.8040003
0.59274286 0.19929905 1.8040001
-0.012026668 0.20617144 1.804
-0.0068723811 0.20273525 1.8040001
