# .PCD v0.7 - Point Cloud Data file format
VERSION 0.7
FIELDS x y z
SIZE 4 4 4
TYPE F F F
COUNT 1 1 1
WIDTH 1507
HEIGHT 1
VIEWPOINT 0 0 0 1 0 0 0
POINTS 1507
DATA ascii
0.40558749 -0.14301035 1.7577143
0.41475052 -0.14383048 1.756
0.42478478 -0.14383048 1.756
0.43432003 -0.14366476 1.7540001
0.44291669 -0.14375 1.7500001
0.45111111 -0.14555557 1.7500001
0.38753843 -0.13178541 1.7590002
0.39535621 -0.13234381 1.7589999
0.4029167 -0.13375001 1.7500001
0.41250002 -0.13583334 1.7500001
0.42333338 -0.13500001 1.7500001
0.43333337 -0.13333334 1.7500001
0.44000003 -0.13666667 1.7500001
0.36855239 -0.12061714 1.7590001
0.37567216 -0.12354882 1.7589999
0.38530475 -0.12396763 1.7589999
0.39535621 -0.12396763 1.7589999
0.40166667 -0.125 1.7500001
0.35515049 -0.11726667 1.7590001
0.36520192 -0.11726668 1.7590002
0.37525335 -0.11559144 1.7589999
0.38530478 -0.1139162 1.7589999
0.39535621 -0.1139162 1.7589999
0.40190482 -0.11333334 1.7500001
0.386262 -0.1043434 1.7589999
0.39535618 -0.10386477 1.7589999
0.40333337 -0.10333334 1.7500001
0.39577499 -0.094232149 1.7589999
0.4033334 -0.093333334 1.7500001
0.39703143 -0.083761908 1.7589999
0.40333337 -0.083333336 1.7500001
0.41083336 -0.082500003 1.7500001
0.38642159 -0.072593652 1.7589999
0.39535621 -0.077060953 1.7590002
0.40333337 -0.07333333 1.7500001
0.41291672 -0.072916664 1.7500001
0.37860382 -0.06365905 1.7590002
0.38530475 -0.063659042 1.7589999
0.3949374 -0.063240238 1.7589999
0.4033334 -0.063333333 1.7500001
0.41291672 -0.063333333 1.7500001
0.42333332 -0.06666667 1.7500001
0.37860382 -0.053607624 1.7590002
0.38530475 -0.053607624 1.7589999
0.39535621 -0.05360762 1.7589999
0.40333337 -0.053333338 1.7500001
0.41291672 -0.053750005 1.7500001
0.42333335 -0.053333335 1.7500001
0.37860382 -0.046906669 1.7590001
0.38530478 -0.045566477 1.7590001
0.39535618 -0.043556191 1.7589999
0.40333337 -0.043333333 1.7500001
0.41166672 -0.043333337 1.7500001
0.39647302 -0.034621585 1.7589999
0.40333337 -0.033333335 1.7500001
0.41333339 -0.033333335 1.7500001
0.4228572 -0.032380957 1.7500001
0.435 -0.030000001 1.7500001
0.44000003 -0.030000001 1.7500001
0.40379244 -0.023356192 1.7520001
0.41333339 -0.023333333 1.7500001
0.42333338 -0.023333333 1.7500001
0.43333337 -0.023333333 1.7500001
0.44000003 -0.023333333 1.7500001
0.4051753 -0.013392382 1.7579999
0.41380197 -0.013346667 1.7520001
0.42333338 -0.013333333 1.7500001
0.43333337 -0.013333334 1.7500001
0.44166669 -0.016666668 1.7500001
0.40540764 -0.0050257142 1.7589999
0.41403624 -0.0050085713 1.7530001
0.42333338 -0.0050000004 1.7500001
0.43333337 -0.0050000004 1.7500001
0.45500001 -0.0033333334 1.7500001
0.46500003 -0.0033333334 1.7500001
0.47000003 -0.0033333334 1.7500001
0.75166667 -0.0033333334 1.7500001
0.40624526 0.00083761907 1.7590001
0.41587788 0.0029316666 1.7589999
0.42333338 0.0033333334 1.7500001
0.43375003 0.0029166667 1.7500001
0.44428572 0.003809524 1.7500001
0.45333332 0.0033333334 1.7500001
0.46333334 0.0033333334 1.7500001
0.47000003 0.0033333332 1.7500001
0.75519735 0.0040205712 1.7590001
0.763071 0.0058633336 1.7590001
0.77396005 0.006700953 1.7590002
0.41797191 0.012564287 1.7590001
0.42333338 0.013333334 1.7500001
0.43375003 0.013750001 1.7500001
0.44333336 0.013333333 1.7500001
0.45333332 0.013333334 1.7500001
0.4616667 0.012500001 1.7500001
0.74666667 0.010000001 1.7500001
0.75421298 0.012020573 1.7536001
0.76293147 0.010871906 1.7567501
0.77228481 0.010051429 1.7590001
0.41743618 0.024256669 1.7567501
0.42333338 0.023333337 1.7500001
0.43333337 0.023333333 1.7500001
0.44333336 0.023333333 1.7500001
0.45238096 0.022857143 1.7500001
0.41704082 0.032803811 1.7572
0.42381525 0.033375241 1.7520001
0.43333337 0.033333335 1.7500001
0.44333336 0.033333335 1.7500001
0.45238096 0.03380952 1.7500001
0.46333337 0.035333335 1.7500002
0.47000003 0.036666669 1.7500001
0.41880953 0.040205717 1.7590001
0.4261806 0.041545905 1.7590001
0.43432572 0.043438099 1.7540001
0.44333336 0.043333333 1.7500001
0.45333332 0.043333337 1.7500001
0.46333334 0.043333337 1.7500001
0.47166669 0.043333337 1.7500001
0.43556193 0.053188812 1.7589999
0.44383624 0.053396199 1.7520001
0.45333332 0.053333338 1.7500001
0.46333334 0.053333338 1.7500001
0.47333336 0.053333338 1.7500001
0.48000002 0.050000001 1.7500001
0.43807477 0.064496666 1.7590001
0.44408765 0.063441902 1.753
0.45333332 0.063333333 1.7500001
0.46333334 0.063333333 1.7500001
0.47238097 0.063333333 1.7500001
0.43891239 0.073710479 1.7590002
0.44459432 0.073540956 1.755
0.45333332 0.07333333 1.7500001
0.46333334 0.07333333 1.7500001
0.47333336 0.07333333 1.7500001
0.48375002 0.07333333 1.7500001
0.43816385 0.083624758 1.7560002
0.44459426 0.083573334 1.755
0.45333332 0.083333336 1.7500001
0.46333334 0.083333336 1.7500001
0.47333336 0.083333343 1.7500001
0.48333338 0.083333336 1.7500001
0.49000001 0.086666673 1.7500001
0.43816385 0.093653344 1.756
0.44484764 0.093653344 1.756
0.45384762 0.093441911 1.7520001
0.46386671 0.093438104 1.7520001
0.47468191 0.093598098 1.755
0.48333338 0.093333334 1.7500001
0.49083334 0.094166666 1.7500001
0.5 0.096666671 1.7500001
0.43891239 0.10218953 1.7590001
0.4451029 0.10374859 1.757
0.45488194 0.10368763 1.756
0.46386671 0.10344954 1.7520001
0.47414288 0.10350668 1.753
0.48333338 0.10333335 1.7500001
0.49333334 0.10666666 1.7500001
0.5 0.10666667 1.7500001
0.44574505 0.11342453 1.757875
0.45462289 0.11365715 1.755
0.46386474 0.11346667 1.7520001
0.47360384 0.11340001 1.751
0.48333335 0.115 1.7500001
0.49333337 0.115 1.7500001
0.5 0.11000001 1.7500001
0.4472886 0.12396763 1.7589999
0.45566478 0.12396762 1.7589999
0.46571615 0.12396762 1.7589999
0.47576761 0.12396762 1.7589999
0.48415622 0.12521429 1.7530001
0.49333334 0.125 1.7500001
0.5 0.125 1.7500001
0.44784698 0.13178541 1.7590002
0.45579004 0.13351667 1.757875
0.4654533 0.13394475 1.7579999
0.47576761 0.13401906 1.7589999
0.48360762 0.13340762 1.751
0.49333334 0.13333334 1.7500001
0.50484848 0.13363637 1.7500001
0.51500005 0.13333334 1.7500001
0.44896382 0.14742096 1.7590001
0.45662206 0.14454912 1.7589999
0.46571615 0.14407048 1.7589999
0.47495046 0.14382476 1.756
0.48333338 0.14333333 1.7500001
0.49333334 0.14333333 1.7500001
0.50500005 0.14333333 1.7500001
0.51500005 0.14333333 1.7500001
0.44896379 0.15412192 1.7590002
0.45566478 0.15077144 1.7590002
0.46655384 0.15160906 1.7590001
0.47522292 0.15394858 1.757
0.48360762 0.15342285 1.751
0.49333334 0.15333332 1.7500001
0.50454545 0.15303029 1.7500001
0.44896382 0.1624981 1.7590001
0.46906668 0.16752382 1.7590001
0.47576761 0.16459216 1.7589999
0.48415619 0.16361335 1.753
0.49333334 0.16333334 1.7500001
0.5025 0.16083334 1.7500001
0.46906668 0.17254953 1.7590001
0.47576767 0.17422476 1.7589999
0.48581907 0.17422479 1.7589999
0.49361336 0.17343427 1.751
0.50238097 0.17380953 1.7500001
0.51500005 0.17666668 1.7500001
0.46739143 0.18427619 1.7590001
0.47576761 0.18427619 1.7589999
0.48471239 0.18385907 1.755
0.49445528 0.18375431 1.7540001
0.50370371 0.18407409 1.7500001
0.51333338 0.185 1.7500001
0.47618642 0.19390881 1.7589999
0.48498476 0.19399621 1.756
0.49502671 0.19399619 1.756
0.505 0.19333337 1.7500001
0.51500005 0.19333334 1.7500001
0.52000004 0.19333334 1.7500001
0.55000001 0.19000001 1.7500001
0.47710782 0.20370896 1.7590001
0.48592505 0.20383169 1.757875
0.4950248 0.20403621 1.756
0.50500005 0.20333336 1.7500001
0.51500005 0.20333336 1.7500001
0.52266669 0.20466669 1.7500002
0.53333336 0.20500003 1.7500001
0.54133332 0.20266668 1.7500002
0.55000001 0.20166668 1.7500001
0.47744286 0.21275525 1.7590001
0.48554099 0.21431047 1.7579999
0.49389336 0.21357906 1.7520001
0.50500005 0.21333335 1.7500001
0.51500005 0.21333335 1.7500001
0.52333337 0.215 1.7500001
0.53400004 0.21466668 1.7500002
0.5422222 0.21444446 1.7500001
0.48665667 0.22196907 1.7590001
0.49502483 0.22410478 1.756
0.50542861 0.22352619 1.7515001
0.51500005 0.22333334 1.7500001
0.52333331 0.22333333 1.7500001
0.53333336 0.22333333 1.7500001
0.54166669 0.22333334 1.7500001
0.48916954 0.23118286 1.7590001
0.4967081 0.23202048 1.7590001
0.50592196 0.23453334 1.7589999
0.51597333 0.23453334 1.7589999
0.52572387 0.23440188 1.7579999
0.53333336 0.23333335 1.7500001
0.54083335 0.23416668 1.7500001
0.55666667 0.23666668 1.7500001
0.50759715 0.24458478 1.7589999
0.51597333 0.24458477 1.7589999
0.52602482 0.24458477 1.7589999
0.53333336 0.24333334 1.7500001
0.54000002 0.245 1.7500001
0.55666667 0.24666667 1.7500001
0.565 0.24666667 1.7500001
0.50843477 0.25379857 1.7590001
0.51764858 0.2537986 1.7590001
0.52602476 0.25463617 1.7589999
0.53363621 0.25347811 1.751
0.54285711 0.25428572 1.7500001
0.55388886 0.25333333 1.7500001
0.56666666 0.25190476 1.7500001
0.58333337 0.255 1.7500001
0.51932383 0.26468763 1.7590002
0.52602482 0.26468763 1.7589999
0.53394479 0.26363811 1.7520001
0.54364187 0.26348573 1.751
0.55291665 0.26375002 1.7500001
0.56541663 0.26416668 1.7500001
0.57533342 0.264 1.7500002
0.58333337 0.264 1.7500002
0.59666669 0.26666668 1.7500001
0.60000002 0.26666668 1.7500001
0.51798362 0.27540916 1.7590001
0.52602482 0.27473906 1.7589999
0.53577334 0.27458477 1.7579999
0.54519045 0.27427047 1.756
0.55333334 0.27333334 1.7500001
0.56484848 0.27363637 1.7500001
0.57500005 0.27333334 1.7500001
0.58500004 0.27333334 1.7500001
0.59444451 0.27333334 1.7500001
0.60238093 0.27380952 1.7500001
0.51764858 0.28311527 1.7590001
0.52560598 0.28437167 1.7589999
0.53607625 0.28437167 1.7589999
0.54668325 0.28410611 1.7577143
0.55459428 0.28398478 1.7540001
0.56523997 0.28345618 1.7507501
0.57500005 0.28333333 1.7500001
0.58428574 0.28333333 1.7500001
0.59333342 0.28333333 1.7500001
0.60333329 0.28333333 1.7500001
0.61000001 0.28500003 1.7500001
0.53272575 0.2931667 1.7590001
0.54780287 0.2931667 1.7590001
0.55554289 0.29450667 1.757
0.56547999 0.29358333 1.7515001
0.57333338 0.29333335 1.7500001
0.59000003 0.29000002 1.7500001
0.60000002 0.29333335 1.7500001
0.54612762 0.30489334 1.7589999
0.55459428 0.30402285 1.7540001
0.565 0.30333331 1.7500001
0.57416672 0.30416667 1.7500001
0.5866667 0.30666667 1.7500001
0.60266668 0.30533332 1.7500002
0.61380959 0.30428571 1.7500001
0.62333333 0.30533332 1.7500002
0.54612762 0.31494474 1.7589999
0.55396384 0.31369525 1.7520001
0.56548434 0.31360474 1.7515001
0.57500005 0.31333336 1.7500001
0.58375001 0.31375 1.7500001
0.59333336 0.31533331 1.7500002
0.60333329 0.3133333 1.7500001
0.6133334 0.31333333 1.7500001
0.62285715 0.3133333 1.7500001
0.63333338 0.31333333 1.7500001
0.64000005 0.315 1.7500001
0.53495938 0.32611302 1.7590002
0.54612762 0.32499623 1.7589999
0.55562067 0.32387939 1.7589999
0.56527323 0.32451758 1.7589999
0.5752933 0.32444194 1.756
0.58333331 0.32333335 1.7500001
0.59333336 0.32333335 1.7500001
0.60333329 0.32333335 1.7500001
0.6133334 0.32333335 1.7500001
0.62454545 0.32333332 1.7500001
0.63333338 0.32333335 1.7500001
0.64166671 0.32333335 1.7500001
0.53607619 0.33169717 1.7590001
0.55282861 0.33169717 1.7590001
0.56757069 0.33571774 1.7590001
0.57529336 0.3344762 1.756
0.58333331 0.33333331 1.7500001
0.59333342 0.33333331 1.7500001
0.60333329 0.33333334 1.7500001
0.61285716 0.33428571 1.7500001
0.625 0.33499998 1.7500001
0.63333338 0.33500001 1.7500001
0.54780287 0.34844953 1.7590001
0.55617905 0.34844956 1.7590002
0.56638759 0.3447569 1.7557273
0.57596821 0.3438637 1.7551429
0.58333337 0.34333333 1.7500001
0.59333342 0.34333336 1.7500001
0.60333329 0.34333333 1.7500001
0.6133334 0.34333333 1.7500001
0.625 0.34333336 1.7500001
0.63500005 0.34333336 1.7500001
0.64200008 0.34466666 1.7500002
0.5465464 0.35556927 1.7589999
0.55617905 0.35515046 1.7589999
0.56558669 0.35474861 1.757
0.5752933 0.35454479 1.756
0.58366477 0.35353333 1.751
0.59333342 0.35333332 1.7500001
0.60333335 0.35333335 1.7500001
0.6133334 0.35333335 1.7500001
0.625 0.35333332 1.7500001
0.63500005 0.35333335 1.7500001
0.64333338 0.35333335 1.7500001
0.65222222 0.35555556 1.7500001
0.66666669 0.35666668 1.7500001
0.67428571 0.35380957 1.7500001
0.68000001 0.35000002 1.7500001
0.54612762 0.36520195 1.7589999
0.55617905 0.36520192 1.7589999
0.56526667 0.36458096 1.756
0.57562286 0.36478862 1.757
0.58366477 0.36353907 1.751
0.59367049 0.36354098 1.751
0.60333335 0.36333334 1.7500001
0.6133334 0.36333334 1.7500001
0.625 0.36333337 1.7500001
0.63500005 0.36333334 1.7500001
0.64333332 0.36333334 1.7500001
0.65277785 0.36444446 1.7500001
0.66000003 0.36666667 1.7500001
0.67111111 0.36111113 1.7500001
0.54654646 0.37483454 1.7589999
0.55576026 0.37483457 1.7589999
0.56664932 0.3748346 1.7589999
0.57628196 0.3735781 1.7589999
0.58638102 0.37402424 1.7577143
0.59536475 0.37294385 1.756
0.60505337 0.3744038 1.755
0.61368197 0.37354857 1.751
0.625 0.37333333 1.7500001
0.63500005 0.37333333 1.7500001
0.64333338 0.37333333 1.7500001
0.65333343 0.37333336 1.7500001
0.66166669 0.37416667 1.7500001
0.67000002 0.37 1.7500001
0.69 0.37666669 1.7500001
0.53775144 0.38865525 1.7590001
0.54746783 0.38664493 1.7590001
0.55394536 0.38307115 1.7590002
0.56790572 0.38195431 1.7590001
0.58884621 0.38614237 1.7590001
0.59400767 0.38376957 1.7520001
0.60402477 0.38376766 1.7520001
0.61403435 0.38376957 1.7520001
0.625 0.38333336 1.7500001
0.63533342 0.384 1.7500002
0.64291668 0.38291672 1.7500001
0.65333337 0.38333338 1.7500001
0.66266668 0.384 1.7500002
0.67333335 0.38533336 1.7500002
0.6857143 0.38476196 1.7500001
0.69500005 0.38666669 1.7500001
0.70333338 0.38333336 1.7500001
0.71333337 0.38333336 1.7500001
0.72166669 0.38500002 1.7500001
0.58745015 0.39423934 1.7589999
0.59570479 0.39491048 1.757
0.60470855 0.3942343 1.7540001
0.61473715 0.39423621 1.7540001
0.62553144 0.3936719 1.7515001
0.63500005 0.39333335 1.7500001
0.64370096 0.39356005 1.751
0.65333343 0.39333338 1.7500001
0.66238099 0.39380956 1.7500001
0.67555553 0.39222226 1.7500001
0.68624997 0.39208338 1.7500001
0.69499999 0.39333335 1.7500001
0.70291674 0.39375004 1.7500001
0.71388894 0.39444447 1.7500001
0.72000003 0.39000002 1.7500001
0.58968383 0.40373242 1.7590001
0.5969432 0.40429083 1.7589999
0.60710633 0.40339738 1.7590001
0.6165157 0.40415651 1.7577143
0.62660146 0.40437338 1.7545
0.63609153 0.40402761 1.7530001
0.64664197 0.40540767 1.7589999
0.6542961 0.4040474 1.7551429
0.66304386 0.40420523 1.7524548
0.67333335 0.40500006 1.7500001
0.68733335 0.40466666 1.7500002
0.69500005 0.40500003 1.7500001
0.70333338 0.40333337 1.7500001
0.71333337 0.4033334 1.7500001
0.72000003 0.4066667 1.7500001
0.61983812 0.41545907 1.7590002
0.62688518 0.41491318 1.7580999
0.63619292 0.41535074 1.75675
0.64664197 0.41378388 1.7589999
0.65501809 0.41545907 1.7589999
0.66364384 0.41457477 1.7552501
0.67333335 0.41333339 1.7500001
0.68499994 0.41333333 1.7500001
0.69499999 0.41333339 1.7500001
0.70333344 0.41333339 1.7500001
0.7137391 0.41357148 1.751
0.72133338 0.41400003 1.7500002
0.62695783 0.42551047 1.7589999
0.6361717 0.42551053 1.7589999
0.65669334 0.42886096 1.7590001
0.66339427 0.42551053 1.7589999
0.67277533 0.42432296 1.7540909
0.68462664 0.42350081 1.7506925
0.69466674 0.42333335 1.7500002
0.703385 0.42376882 1.7518002
0.71333337 0.42333338 1.7500001
0.72291672 0.42375004 1.7500001
0.62720913 0.43355164 1.7590001
0.63592041 0.43355164 1.7590001
0.65669334 0.43556193 1.7590001
0.66421241 0.43500474 1.7567501
0.67333335 0.43333337 1.7500001
0.68399996 0.43300003 1.7500002
0.69484574 0.43578973 1.7572
0.70240009 0.43481907 1.756
0.71257526 0.43389046 1.7522501
0.72166663 0.43333337 1.7500001
0.63659048 0.44896382 1.7590001
0.64999241 0.44728857 1.7590001
0.65585572 0.44645095 1.7590001
0.66421241 0.44504336 1.7567501
0.67333335 0.44333336 1.7500001
0.68399996 0.44300002 1.7500002
0.6950829 0.44460931 1.7533751
0.70393121 0.44383433 1.7538573
0.71311396 0.44426128 1.7524548
0.72166663 0.44333336 1.7500001
0.63882416 0.45454797 1.7590002
0.64627242 0.45540386 1.7579999
0.65446097 0.45527339 1.7575001
0.6637215 0.4550983 1.7580999
0.67338955 0.45450419 1.7545
0.68364966 0.45415288 1.7508183
0.69597429 0.45437172 1.755625
0.70333338 0.45333332 1.7500001
0.7137391 0.45359242 1.751
0.72333336 0.45333332 1.7500001
0.64664191 0.46571615 1.7589999
0.65468311 0.46571621 1.7590001
0.66171908 0.46487856 1.7590001
0.67344576 0.4647589 1.7589999
0.68364877 0.46399468 1.7534617
0.6957435 0.4653219 1.7575001
0.70277268 0.46407118 1.7516365
0.71333337 0.46333334 1.7500001
0.72291672 0.4629167 1.7500001
0.73301983 0.46518335 1.7522501
0.74250001 0.46583337 1.7500001
0.64831716 0.47409239 1.7590001
0.65669334 0.47576764 1.7590001
0.66004384 0.47744286 1.7590001
0.67478591 0.47576761 1.7590001
0.68364877 0.47401455 1.7534617
0.69555885 0.47643772 1.7590001
0.70279622 0.47522858 1.757
0.71365142 0.47576761 1.7589999
0.72370285 0.47576767 1.7589999
0.73353958 0.47455049 1.7545003
0.74333328 0.47333336 1.7500001
0.66004384 0.48581907 1.7590002
0.67512095 0.48246858 1.7590001
0.68428957 0.48394552 1.75675
0.69354856 0.48623788 1.7589999
0.70360005 0.48581907 1.7589999
0.71324384 0.48554099 1.7579999
0.72399926 0.48590383 1.7580999
0.73348331 0.48393106 1.7532729
0.74333328 0.48333338 1.7500001
0.66004384 0.49587047 1.7590001
0.68684763 0.49252 1.7590001
0.694107 0.49531209 1.7589999
0.70192474 0.49503285 1.7590001
0.71365142 0.49587053 1.7589999
0.72382379 0.49481189 1.7552501
0.73333335 0.49333334 1.7500001
0.74333334 0.49285716 1.7500001
0.75 0.49166667 1.7500001
0.66004384 0.50424671 1.7590001
0.69522381 0.50257146 1.7590001
0.7019248 0.50592196 1.7590001
0.71365148 0.50592196 1.7589999
0.7242586 0.50447869 1.7563
0.73336703 0.50493938 1.7507501
0.74333334 0.50500005 1.7500001
0.75266665 0.50866663 1.7500002
0.76166672 0.50999999 1.7500001
0.71365148 0.51555455 1.7589999
0.72705334 0.51262289 1.7590001
0.73400176 0.51611364 1.7572
0.74333334 0.51500005 1.7500001
0.75333333 0.51333338 1.7500001
0.76166672 0.51333338 1.7500001
0.79666668 0.51666671 1.7500001
0.8037324 0.51631999 1.7545002
0.81081527 0.51597333 1.7590001
0.71365142 0.52267432 1.7590001
0.73354101 0.52467626 1.7545
0.74238098 0.52285713 1.7500001
0.75416672 0.52583337 1.7500001
0.76291674 0.52375001 1.7500001
0.79583335 0.52250004 1.7500001
0.80411434 0.52434957 1.7590001
0.73348486 0.53402925 1.7532729
0.74333328 0.53333336 1.7500001
0.75333339 0.53333336 1.7500001
0.76333344 0.53333336 1.7500001
0.77288508 0.53434891 1.7515001
0.78233242 0.53601557 1.7515001
0.79666668 0.53000003 1.7500001
0.80166668 0.53000003 1.7500001
0.73584193 0.54185146 1.756
0.745 0.54000002 1.7500001
0.75354284 0.54245102 1.7536001
0.76371694 0.5452019 1.756
0.77479768 0.54445237 1.7590001
0.7831738 0.5436148 1.7590001
0.45631242 -0.16164573 1.7680001
0.46473145 -0.16164573 1.7680001
0.40579811 -0.15154286 1.7680001
0.41421714 -0.15266539 1.7680001
0.42600381 -0.15491048 1.7680001
0.43307582 -0.15558401 1.768
0.39401147 -0.14312382 1.768
0.40327239 -0.14564952 1.7680001
0.3758263 -0.13403125 1.768
0.38348764 -0.13512573 1.7679999
0.39401141 -0.13807239 1.7680001
0.40074667 -0.13807239 1.7680001
0.35528386 -0.1229181 1.7680001
0.36370289 -0.1229181 1.768
0.37156066 -0.12684698 1.7680001
0.35317907 -0.1140781 1.7679999
0.36322179 -0.11353687 1.7679999
0.37296382 -0.11197333 1.7680001
0.38054097 -0.11113143 1.7680001
0.34551772 -0.10372267 1.768
0.35360003 -0.10439619 1.7679999
0.36201906 -0.10608 1.7680001
0.3758263 -0.10506971 1.768
0.38188803 -0.10372267 1.768
0.34349716 -0.094293334 1.7680001
0.35263783 -0.093812242 1.7679999
0.36033526 -0.090925716 1.7680001
0.37717333 -0.094293334 1.7680001
0.38559237 -0.094293334 1.768
0.39148575 -0.093451433 1.7680001
0.34349716 -0.087558098 1.7680001
0.35360003 -0.08419048 1.7679999
0.36328188 -0.08376953 1.7679999
0.37380573 -0.08376953 1.7679999
0.38432953 -0.083769538 1.7679999
0.39232764 -0.084190488 1.768
0.35416129 -0.075210162 1.768
0.36418393 -0.075049803 1.7679999
0.37380573 -0.074087627 1.7679999
0.38278604 -0.075210162 1.768
0.39569524 -0.072403811 1.7680001
0.40074667 -0.072403811 1.7680001
0.35360003 -0.067352384 1.7680001
0.36707053 -0.063984767 1.7680001
0.37380573 -0.063984767 1.7679999
0.40074667 -0.067352384 1.7680001
0.3670705 -0.055565715 1.7680001
0.37476793 -0.05436299 1.7679999
0.3670705 -0.045462858 1.7680001
0.37380573 -0.045462858 1.768
0.38475049 -0.04209524 1.7680001
0.39064384 -0.040411431 1.7680001
0.3855924 -0.03704381 1.7680001
0.39333794 -0.033002667 1.768
0.39603201 -0.02289981 1.768
0.40074667 -0.023573333 1.7680001
0.39653718 -0.014312381 1.7680001
0.40074667 -0.013470476 1.7680001
0.40074667 -0.0067352382 1.7680001
0.39569527 0 1.7680001
0.40478784 0.0040411432 1.768
0.41253334 0.0067352382 1.7680001
0.75434667 0.0050514285 1.7680001
0.76529151 0.00084190478 1.7680001
0.77342987 0.0022450795 1.7680001
0.40546137 0.012796953 1.768
0.41379619 0.01389143 1.7679999
0.4142172 0.023092246 1.7679999
0.40635934 0.031431112 1.7680001
0.41325498 0.03415728 1.7679999
0.41517931 0.043297958 1.7679999
0.42364651 0.04579962 1.768
0.43105525 0.047146667 1.7680001
0.40411431 0.057249527 1.7680001
0.41758478 0.052198097 1.7680001
0.42432001 0.053881902 1.7679999
0.43273908 0.054723814 1.7680001
0.42768764 0.063984767 1.7680001
0.43400192 0.063563816 1.7679999
0.43484384 0.07450857 1.7679999
0.42600381 0.085874289 1.7680001
0.43442288 0.08419048 1.7679999
0.42634058 0.093619809 1.768
0.43442288 0.094293334 1.7679999
0.42768764 0.10271238 1.7680001
0.43442288 0.10439619 1.7679999
0.44115812 0.10776381 1.7680001
0.43644342 0.11382552 1.768
0.44200003 0.11534096 1.7680001
0.4352648 0.1220762 1.7680001
0.44317865 0.12392838 1.768
0.44452572 0.13133715 1.7680001
0.45294476 0.13807239 1.7680001
0.44789335 0.14649144 1.7680001
0.45294476 0.14312381 1.7680001
0.43779048 0.15827811 1.7680001
0.44494668 0.15533143 1.7679999
0.45631242 0.15659429 1.7680001
0.46473145 0.15659429 1.768
0.47146669 0.15827811 1.7680001
0.43779048 0.16332954 1.7680001
0.44494668 0.1645924 1.7679999
0.45559078 0.16549443 1.7679999
0.46473148 0.16501334 1.7679999
0.47371176 0.16276826 1.7680001
0.44789335 0.1751162 1.7680001
0.45462859 0.17259048 1.7680001
0.46569365 0.1746351 1.7679999
0.47146669 0.17848381 1.7680001
0.46607852 0.18521905 1.768
0.47146669 0.18521905 1.7680001
0.46641529 0.19532192 1.768
0.47230858 0.19616382 1.7680001
0.46540499 0.20340419 1.768
0.47315052 0.20542477 1.768
0.48325336 0.20879239 1.7680001
0.47387213 0.21600871 1.7679999
0.48156953 0.21889524 1.7680001
0.47579646 0.22611158 1.7679999
0.48445606 0.22659266 1.7679999
0.4916724 0.22899811 1.7680001
0.47820193 0.23236573 1.7680001
0.48577908 0.23320763 1.7680001
0.49504003 0.23741715 1.768
0.50177526 0.23910096 1.7680001
0.48830479 0.24920382 1.7680001
0.49504 0.2458362 1.7679999
0.5034591 0.2458362 1.768
0.48695773 0.2566126 1.768
0.49504006 0.25593904 1.7679999
0.50472194 0.25635999 1.7679999
0.51726627 0.2566126 1.768
0.46809906 0.26940954 1.7680001
0.48662099 0.2660419 1.768
0.49504 0.2660419 1.7679999
0.50598478 0.26351622 1.7680001
0.51524574 0.2660419 1.7679999
0.48662096 0.27277714 1.7680001
0.49504003 0.27277714 1.7680001
0.50851047 0.27277714 1.7680001
0.51428354 0.27566367 1.7679999
0.4862842 0.28692114 1.768
0.4955211 0.28720981 1.7679999
0.50430095 0.28877336 1.7680001
0.51428354 0.28672871 1.7679999
0.521981 0.28961524 1.7680001
0.53545141 0.28961524 1.7680001
0.54555428 0.28793144 1.7680001
0.48662099 0.29635051 1.768
0.4945589 0.29635051 1.7679999
0.50514287 0.29586938 1.7679999
0.51692951 0.29635051 1.768
0.52534854 0.29635048 1.7679999
0.53545141 0.29683158 1.7679999
0.54459208 0.29683158 1.7679999
0.55228955 0.29971811 1.7680001
0.48493716 0.30476952 1.7680001
0.49504003 0.30308571 1.7680001
0.50514287 0.30308571 1.7680001
0.51608759 0.30729523 1.7680001
0.52534866 0.30645335 1.7679999
0.53545147 0.30645335 1.7679999
0.54420727 0.30645335 1.768
0.55228955 0.30645335 1.7680001
0.49616256 0.31880128 1.7680001
0.50851047 0.31655622 1.7680001
0.51566666 0.31697717 1.7679999
0.52534866 0.31655622 1.7679999
0.53545147 0.31655622 1.7679999
0.54218668 0.31655622 1.7680001
0.82675052 0.31655622 1.7680001
0.49672383 0.32497525 1.7680001
0.50514287 0.32497528 1.768
0.51524574 0.32497525 1.768
0.5253486 0.32497528 1.768
0.5346095 0.32413337 1.7680001
0.54218668 0.32497525 1.7680001
0.55902481 0.32665905 1.7680001
0.57249528 0.32665905 1.7680001
0.4960022 0.33339429 1.7679999
0.50514287 0.33339429 1.7679999
0.51524574 0.33171049 1.768
0.52534854 0.33339429 1.7679999
0.53448927 0.33387539 1.7679999
0.54507321 0.33435649 1.7679999
0.55621845 0.33451685 1.768
0.56373942 0.33406782 1.768
0.57249528 0.33171049 1.7680001
0.49672383 0.34012952 1.7680001
0.50514287 0.34012952 1.7680001
0.53881907 0.34349713 1.7680001
0.54555434 0.34349713 1.7679999
0.55565715 0.34349716 1.7679999
0.56323433 0.34265524 1.7680001
0.53881907 0.35360003 1.7680001
0.54353368 0.35292649 1.768
0.53881907 0.36370286 1.7680001
0.54218668 0.36370286 1.7680001
0.53657395 0.37492827 1.768
0.54218668 0.37380573 1.7680001
0.53797716 0.3839086 1.7680001
0.54513335 0.38432956 1.7679999
0.55902481 0.3872762 1.7680001
0.56479782 0.38438967 1.7679999
0.57682508 0.38438967 1.7679999
0.58638674 0.38348764 1.7679999
0.59775245 0.38054097 1.7680001
0.60280383 0.38054097 1.7680001
0.52871621 0.39064384 1.7680001
0.53612494 0.39333791 1.768
0.54555422 0.3956953 1.768
0.55607814 0.3944324 1.7679999
0.56519872 0.39457273 1.768
0.57518935 0.39603201 1.768
0.58372062 0.39625654 1.7680001
0.53881907 0.40243047 1.7680001
0.54597527 0.40369335 1.7679999
0.55565715 0.40411431 1.7679999
0.56441295 0.40546137 1.768
0.57720995 0.40546131 1.768
0.58596581 0.40411425 1.7679999
0.59606862 0.40748191 1.7680001
0.60617143 0.40748191 1.7680001
0.54892194 0.41253334 1.7680001
0.55565715 0.41421717 1.7679999
0.56575996 0.41463813 1.7679999
0.57586288 0.41463813 1.7679999
0.58596575 0.41421717 1.7679999
0.59564763 0.41463816 1.7679999
0.60569042 0.41325498 1.7679999
0.61723644 0.41373608 1.7679999
0.56912762 0.42095241 1.7680001
0.57249528 0.42095241 1.7680001
0.58500355 0.42383891 1.7679999
0.59606862 0.42095241 1.7680001
0.60280383 0.42095241 1.7680001
0.61829484 0.42364651 1.768
0.6241321 0.42656508 1.7680001
0.64754504 0.42480108 1.7679999
0.65466517 0.42499352 1.768
0.66005337 0.42600381 1.7680001
0.58596575 0.43105525 1.7680001
0.61795813 0.43442285 1.768
0.62385148 0.43526477 1.7680001
0.64754504 0.43490395 1.7679999
0.65500194 0.43442288 1.768
0.66005337 0.43442288 1.7680001
0.58933336 0.44452572 1.7680001
0.6196419 0.44115812 1.7680001
0.62679809 0.44410476 1.7679999
0.63648003 0.44452572 1.7679999
0.64658284 0.44452572 1.7679999
0.65533864 0.44385219 1.768
0.66005337 0.44115812 1.7680001
0.6196419 0.45799622 1.7680001
0.62806094 0.45294476 1.7680001
0.6355179 0.45510966 1.7679999
0.64574099 0.45294476 1.7680001
0.60280383 0.46136382 1.7680001
0.6162743 0.46473143 1.7679999
0.62525463 0.46473145 1.7680001
0.63816386 0.46473145 1.768
0.64321524 0.46641526 1.7680001
0.66454351 0.46697652 1.7680001
0.67015624 0.46809906 1.7680001
0.60617143 0.47736004 1.7680001
0.61627436 0.47483429 1.7679999
0.62300956 0.47651809 1.7680001
0.63850057 0.47416076 1.768
0.6445623 0.47550783 1.768
0.65668571 0.47651809 1.7680001
0.66476804 0.47483429 1.768
0.67184001 0.47483429 1.768
0.68025905 0.47483432 1.7680001
0.60280383 0.48156953 1.7680001
0.61290669 0.48156953 1.7680001
0.63984764 0.48325336 1.7680001
0.64658284 0.48493713 1.7679999
0.65500188 0.48493716 1.768
0.66342098 0.48493719 1.768
0.67256165 0.48541826 1.7679999
0.68025905 0.48830479 1.7680001
0.64742482 0.49251431 1.7680001
0.65500194 0.49504003 1.768
0.66342098 0.4955211 1.7679999
0.67352378 0.49504 1.7679999
0.68362677 0.49504 1.7679999
0.69204569 0.49840763 1.7680001
0.70495492 0.4972851 1.7680001
0.71056765 0.49840763 1.7680001
0.6499505 0.50851047 1.7680001
0.65500194 0.50514287 1.768
0.66342092 0.50514287 1.768
0.67256165 0.50466186 1.7679999
0.68430018 0.50312233 1.768
0.69372952 0.50514287 1.768
0.70551622 0.50598478 1.7680001
0.71056765 0.5034591 1.7680001
0.6499505 0.51861334 1.7680001
0.65500188 0.51187813 1.7680001
0.66342098 0.51272005 1.7680001
0.67015624 0.51187813 1.7680001
0.69541335 0.51524568 1.768
0.70383239 0.51389867 1.768
0.71056765 0.51356196 1.7680001
0.72538519 0.51591927 1.768
0.73077339 0.51861334 1.7680001
0.63816381 0.52871621 1.7680001
0.6499505 0.5253486 1.7680001
0.68699431 0.521981 1.7680001
0.69372952 0.52366483 1.7680001
0.70720005 0.5253486 1.7680001
0.71646094 0.52619052 1.7680001
0.72500032 0.52582967 1.7679999
0.73077339 0.5253486 1.7680001
0.81159621 0.521981 1.7680001
0.71561909 0.53208381 1.7680001
0.72067052 0.53208381 1.7680001
0.73077339 0.53545141 1.7680001
0.80822861 0.53208381 1.7680001
0.81159621 0.53208381 1.7680001
0.73414099 0.54387045 1.7680001
0.75771433 0.54892194 1.7680001
0.77792001 0.54892194 1.7680001
0.78802288 0.54892194 1.7680001
0.79588062 0.54667687 1.768
0.80149335 0.54555434 1.7680001
0.76360768 0.55481523 1.7680001
0.77497327 0.55607814 1.7679999
0.78465533 0.55397332 1.7680001
0.79475808 0.55228955 1.7680001
0.45694289 -0.16585334 1.7770001
0.46032763 -0.16585334 1.7770001
0.4078638 -0.15739144 1.7770001
0.4180181 -0.15739143 1.7770001
0.42563382 -0.15823762 1.7770001
0.37655479 -0.14300619 1.7770001
0.38586286 -0.14385238 1.7770001
0.39601716 -0.14892954 1.7770001
0.40278667 -0.14892954 1.7770001
0.35709238 -0.13539048 1.7770001
0.3655543 -0.13539046 1.7770002
0.37317002 -0.13623667 1.7770001
0.34580985 -0.12410795 1.7770001
0.35404611 -0.1265901 1.7770001
0.3655543 -0.12862095 1.7770001
0.34621283 -0.11556544 1.7770002
0.33763003 -0.10408143 1.7770001
0.34270716 -0.10577381 1.7770001
0.36690819 -0.10357372 1.7770001
0.37317002 -0.10408144 1.7770001
0.33712229 -0.095450297 1.7770001
0.34524572 -0.094773345 1.7770001
0.35878477 -0.096465722 1.7770001
0.3655543 -0.095256872 1.7770002
0.3740162 -0.09477333 1.7770001
0.38247812 -0.09477333 1.7770001
0.33763 -0.085465237 1.7770001
0.34524572 -0.082926668 1.7770001
0.36893907 -0.088003814 1.7770001
0.37570858 -0.088003814 1.7770001
0.38247812 -0.088003814 1.7770001
0.33847621 -0.07784953 1.7770001
0.3462128 -0.074948311 1.7770002
0.35427177 -0.072208256 1.7770001
0.36386192 -0.071079999 1.7770001
0.33847621 -0.067695238 1.7770001
0.34524575 -0.067695238 1.7770001
0.35540003 -0.063887388 1.7770002
0.36386192 -0.064310476 1.7770001
0.35709241 -0.055848569 1.7770001
0.36499014 -0.054156188 1.7770001
0.37232381 -0.052463811 1.7770001
0.3649902 -0.044001907 1.7770001
0.37570858 -0.040617146 1.7770001
0.38247812 -0.040617146 1.7770001
0.36724669 -0.037232384 1.7770001
0.37619212 -0.034331158 1.7770002
0.38537931 -0.032880541 1.7770002
0.3926324 -0.030462857 1.7770001
0.38755524 -0.023693332 1.7770001
0.39347857 -0.024539523 1.7770001
0.38811937 -0.015795557 1.7770001
0.39398628 -0.012862096 1.7770001
0.39601716 -0.0050771427 1.7770001
0.40278667 -0.003384762 1.7770001
0.39553362 0.0043518366 1.7770002
0.40278667 0.0050771432 1.7770001
0.78300828 0.001128254 1.7770001
0.39714542 0.012410793 1.7770001
0.40447909 0.014385238 1.7770001
0.40786383 0.023693336 1.7770001
0.41294098 0.023693334 1.7770001
0.40729967 0.036104128 1.7770001
0.40786386 0.044001907 1.7770001
0.41294098 0.045694288 1.7770001
0.40820226 0.053479243 1.7770001
0.41535863 0.054639731 1.7770002
0.40786386 0.064310469 1.7770001
0.41632572 0.064310484 1.7770002
0.42478764 0.064310469 1.7770001
0.40786383 0.074464768 1.7770001
0.41632572 0.074464761 1.7770002
0.42648 0.074464761 1.7770002
0.43324953 0.071079999 1.7770001
0.40786383 0.084619045 1.7770001
0.41632572 0.084619045 1.7770002
0.42512614 0.083265148 1.7770001
0.40955624 0.09477333 1.7770001
0.41632569 0.094773337 1.7770002
0.42394143 0.095619529 1.7770001
0.40955624 0.10492762 1.7770001
0.41632572 0.10492762 1.7770002
0.42551294 0.10541116 1.7770002
0.40955624 0.11508191 1.7770001
0.41632572 0.11508191 1.7770002
0.42648003 0.11508191 1.7770002
0.43409574 0.1159281 1.7770001
0.40955624 0.1252362 1.7770001
0.41632575 0.12523621 1.7770002
0.42648003 0.1252362 1.7770002
0.43494189 0.12692857 1.7770001
0.44171146 0.12862095 1.7770001
0.40955624 0.13539048 1.7770001
0.41632575 0.13539046 1.7770002
0.42648 0.13539048 1.7770002
0.43494192 0.13539048 1.7770001
0.44298077 0.13581356 1.7770002
0.45017335 0.13708286 1.7770001
0.41632572 0.14554477 1.7770002
0.42648003 0.14554477 1.7770002
0.43494192 0.14554477 1.7770001
0.44340384 0.14554477 1.7770002
0.45017335 0.14216 1.7770001
0.41463333 0.15231429 1.7770001
0.42744711 0.15521552 1.7770002
0.43494189 0.15569906 1.7770001
0.44114733 0.15344255 1.7770001
0.42817241 0.16416095 1.7770001
0.43494189 0.16585334 1.7770001
0.44171146 0.16923811 1.7770001
0.42851084 0.17668459 1.7770001
0.43494189 0.17600763 1.7770001
0.44340384 0.17600761 1.7770002
0.45288116 0.17736152 1.7770001
0.46202004 0.17770001 1.7770001
0.41632572 0.18954667 1.7770001
0.42817238 0.18616189 1.7770001
0.43494189 0.18616192 1.7770001
0.44340384 0.18616191 1.7770002
0.45355812 0.18616191 1.7770002
0.46202001 0.18616192 1.7770001
0.41971049 0.1963162 1.7770001
0.42648 0.1963162 1.7770002
0.43494189 0.1963162 1.7770001
0.44340381 0.19631618 1.7770002
0.45355809 0.19631618 1.7770002
0.46202004 0.1963162 1.7770001
0.41971049 0.20647049 1.7770001
0.42744708 0.20598695 1.7770002
0.43494192 0.20647049 1.7770001
0.44340384 0.20647046 1.7770002
0.45355812 0.20647046 1.7770002
0.46258414 0.20759873 1.7770001
0.47048193 0.20985524 1.7770001
0.42986476 0.21493238 1.7770001
0.43494192 0.21493238 1.7770001
0.44340384 0.2149324 1.7770001
0.45355809 0.21493238 1.7770001
0.46371236 0.2149324 1.7770001
0.47048193 0.21493238 1.7770001
0.42986476 0.22000954 1.7770001
0.43409574 0.2225481 1.7770001
0.44382691 0.2229712 1.7770002
0.45355812 0.22339432 1.7770002
0.46371236 0.22339432 1.7770002
0.47183579 0.22407123 1.7770001
0.45609668 0.23270239 1.7770001
0.46371242 0.23354858 1.7770002
0.47338316 0.23451567 1.7770002
0.48402095 0.23693334 1.7770001
0.44678858 0.24539524 1.7770001
0.45525053 0.24370284 1.7770001
0.46371236 0.24370286 1.7770002
0.47386667 0.24370286 1.7770002
0.48402098 0.24370286 1.7770002
0.49079049 0.24370287 1.7770001
0.43494192 0.25554955 1.7770001
0.44396797 0.25498542 1.7770001
0.45398122 0.25428024 1.7770002
0.46371236 0.25385714 1.7770002
0.47386667 0.25385717 1.7770002
0.48359787 0.25343409 1.7770002
0.43550602 0.26175493 1.7770001
0.44388741 0.26304436 1.7770002
0.45355812 0.26401144 1.7770002
0.46371236 0.26401144 1.7770002
0.47386667 0.26401144 1.7770002
0.48232856 0.26401141 1.7770001
0.50602198 0.26739621 1.7770001
0.44678858 0.27416572 1.7770001
0.45355812 0.27416575 1.7770002
0.46371242 0.27416572 1.7770002
0.47428977 0.27458882 1.7770002
0.48305389 0.27464923 1.7770002
0.49417529 0.27755049 1.7770001
0.50529665 0.27464926 1.7770002
0.51109904 0.27416572 1.7770001
0.4552505 0.28093526 1.7770001
0.46438932 0.28228918 1.7770001
0.47386667 0.28432 1.7770001
0.48305386 0.28383648 1.7770002
0.49417523 0.28262764 1.7770001
0.50545782 0.28319177 1.7770001
0.51109904 0.28432 1.7770001
0.47640523 0.29532051 1.7770001
0.48232856 0.29447433 1.7770001
0.49756002 0.29785907 1.7770001
0.50263715 0.29785907 1.7770001
0.51448381 0.29616669 1.7770001
0.44678858 0.30801335 1.7770001
0.45423508 0.30665943 1.7770001
0.46540478 0.30547479 1.7770001
0.47386667 0.30462858 1.7770002
0.48232856 0.30462858 1.7770001
0.49332905 0.30716714 1.7770001
0.50432956 0.30716714 1.7770001
0.51279145 0.30462858 1.7770001
0.52125335 0.30632097 1.7770001
0.45440429 0.31562907 1.7770001
0.46371242 0.3152664 1.7770002
0.47483376 0.31429932 1.7770002
0.48402092 0.31478286 1.7770002
0.49375215 0.31435978 1.7770002
0.50432956 0.31478289 1.7770002
0.51335555 0.31252638 1.7770001
0.82926673 0.31478286 1.7770001
0.83265144 0.31478286 1.7770001
0.45694289 0.3215524 1.7770001
0.46484065 0.32268065 1.7770001
0.47640523 0.32493716 1.7770001
0.48402098 0.32493716 1.7770002
0.49248287 0.32493713 1.7770001
0.50602198 0.3215524 1.7770001
0.47725144 0.33339906 1.7770001
0.48402098 0.33509147 1.7770002
0.49214441 0.33509141 1.7770001
0.51617622 0.33847621 1.7770001
0.52125335 0.33847621 1.7770001
0.48655957 0.34439951 1.7770001
0.49375218 0.34566879 1.7770002
0.5043295 0.3469381 1.7770001
0.51490688 0.34566885 1.7770002
0.52463818 0.34524572 1.7770002
0.53479242 0.34524572 1.7770002
0.48740572 0.35201526 1.7770001
0.49459833 0.35497695 1.7770002
0.50432956 0.3554 1.7770002
0.51448381 0.3554 1.7770002
0.52463806 0.35540003 1.7770002
0.53479242 0.35540006 1.7770002
0.49756002 0.36386192 1.7770001
0.5043295 0.36555433 1.7770002
0.51448381 0.36555433 1.7770002
0.52463806 0.3655543 1.7770002
0.53479242 0.3655543 1.7770002
0.50263715 0.37232381 1.7770001
0.51490688 0.37570858 1.7770002
0.52463812 0.37570855 1.7770002
0.53366417 0.37458029 1.7770001
0.48402098 0.38924763 1.7770001
0.51490688 0.38543981 1.7770002
0.52463812 0.38586289 1.7770002
0.53436935 0.38586289 1.7770002
0.58556384 0.38924763 1.7770001
0.48740572 0.3926324 1.7770001
0.49756002 0.3926324 1.7770001
0.51702237 0.39517099 1.7770001
0.52463812 0.39601719 1.7770002
0.53411543 0.39804801 1.7770001
0.56863999 0.39601716 1.7770001
0.57540959 0.3926324 1.7770001
0.58471763 0.39347857 1.7770001
0.51702237 0.40617144 1.7770001
0.52512169 0.40520436 1.7770002
0.53479242 0.40617141 1.7770002
0.54325426 0.40955621 1.7770001
0.56863999 0.40447906 1.7770001
0.57540953 0.40447906 1.7770001
0.52802289 0.41294098 1.7770001
0.53479248 0.41632572 1.7770002
0.54494667 0.41632575 1.7770002
0.55171621 0.41971049 1.7770001
0.56863999 0.41294098 1.7770001
0.5787943 0.41294098 1.7770001
0.60925716 0.41971049 1.7770001
0.61489844 0.41858223 1.7770001
0.53592068 0.42535177 1.7770001
0.54494667 0.42648003 1.7770002
0.55510098 0.42648003 1.7770002
0.56525528 0.42648003 1.7770002
0.57589304 0.42744711 1.7770002
0.58217907 0.42648003 1.7770001
0.5962016 0.42744708 1.7770002
0.60635597 0.42744711 1.7770002
0.61505955 0.4269636 1.7770002
0.537049 0.43550602 1.7770001
0.54494667 0.43494192 1.7770001
0.55510098 0.43494189 1.7770001
0.56525522 0.43494192 1.7770001
0.57540953 0.43494189 1.7770001
0.58488691 0.43528038 1.7770001
0.59571809 0.43494192 1.7770001
0.60587239 0.43494189 1.7770001
0.61433434 0.43494192 1.7770001
0.52633047 0.44678858 1.7770001
0.53592068 0.44396797 1.7770001
0.54494667 0.44340384 1.7770002
0.55510098 0.44340384 1.7770002
0.56525528 0.44340384 1.7770002
0.57540959 0.44340384 1.7770002
0.58556384 0.44340384 1.7770002
0.59614122 0.44298071 1.7770002
0.60587239 0.44340384 1.7770002
0.61560363 0.44382691 1.7770002
0.62279624 0.44678858 1.7770001
0.52576637 0.45242986 1.7770001
0.53479242 0.45017335 1.7770001
0.54543024 0.45259103 1.7770002
0.55510098 0.45355812 1.7770002
0.56525528 0.45355812 1.7770002
0.57583266 0.45313501 1.7770002
0.58556384 0.45355812 1.7770002
0.59571815 0.45355812 1.7770002
0.60587239 0.45355812 1.7770002
0.6160267 0.45355812 1.7770002
0.62448859 0.45355809 1.7770001
0.556068 0.46419594 1.7770002
0.56525528 0.46371242 1.7770002
0.57540953 0.4641355 1.7770002
0.58556384 0.46371242 1.7770002
0.59571815 0.46371242 1.7770002
0.60587239 0.46371245 1.7770002
0.61467278 0.46235847 1.7770001
0.6282118 0.46371239 1.7770001
0.63464284 0.46371239 1.7770001
0.55645484 0.4738667 1.7770001
0.56694764 0.4738667 1.7770001
0.57540953 0.47386667 1.7770002
0.58598691 0.4734436 1.7770002
0.59571815 0.47386667 1.7770002
0.60544932 0.47344357 1.7770002
0.61264193 0.4738667 1.7770001
0.62871951 0.4738667 1.7770001
0.63464284 0.47386667 1.7770001
0.55510098 0.48232859 1.7770001
0.56694764 0.48063621 1.7770001
0.57676339 0.48266706 1.7770001
0.58653086 0.48353744 1.7770002
0.59571815 0.48402098 1.7770002
0.60530829 0.48514923 1.7770001
0.6160267 0.4860518 1.7770001
0.62666452 0.48498803 1.7770002
0.63633525 0.48402098 1.7770002
0.58894861 0.49417529 1.7770001
0.59571815 0.49417523 1.7770002
0.60587239 0.49417529 1.7770002
0.61602664 0.49417523 1.7770002
0.62618095 0.49417529 1.7770002
0.63633525 0.49417523 1.7770002
0.64513564 0.49552917 1.7770001
0.58894861 0.50094479 1.7770001
0.59571815 0.50432956 1.7770002
0.60587239 0.50432956 1.7770002
0.61602664 0.50432956 1.7770002
0.62618095 0.50432956 1.7770002
0.63633519 0.50432956 1.7770002
0.64648956 0.5043295 1.7770002
0.6532591 0.5043295 1.7770001
0.6820296 0.50771433 1.7770001
0.69387621 0.50771433 1.7770001
0.57540953 0.51786858 1.7770001
0.58217907 0.51786858 1.7770001
0.59571815 0.51279145 1.7770001
0.60654938 0.51448381 1.7770001
0.61546254 0.51335555 1.7770001
0.62575787 0.51406074 1.7770002
0.63675833 0.51406068 1.7770002
0.64648956 0.51448381 1.7770002
0.6543873 0.51674032 1.7770001
0.66172099 0.51786858 1.7770001
0.67441386 0.51702237 1.7770001
0.68372196 0.51448381 1.7770002
0.69218379 0.51448375 1.7770001
0.57710195 0.52125335 1.7770001
0.60654938 0.52260727 1.7770001
0.61264193 0.52294576 1.7770001
0.62279624 0.52125335 1.7770001
0.63887382 0.52548432 1.7770001
0.64648956 0.52463812 1.7770002
0.6557976 0.52463812 1.7770001
0.66341335 0.52463812 1.7770002
0.67356759 0.52463812 1.7770002
0.68372196 0.52463812 1.7770002
0.69252235 0.52463812 1.7770001
0.70445365 0.52506119 1.7770002
0.7128309 0.52396119 1.7770001
0.81911242 0.52463812 1.7770001
0.82249719 0.52463812 1.7770001
0.64818192 0.53140765 1.7770001
0.65495145 0.53310001 1.7770001
0.66341335 0.53276157 1.7770001
0.67469597 0.53253591 1.7770001
0.68372196 0.53140765 1.7770001
0.69472241 0.53648478 1.7770001
0.7049976 0.535276 1.7770002
0.71305656 0.53479242 1.7770001
0.72518528 0.53733099 1.7770001
0.73110861 0.53648484 1.7770001
0.69726098 0.5415619 1.7770001
0.70741528 0.54325426 1.7770001
0.72772384 0.5415619 1.7770001
0.73246253 0.54562366 1.7770001
0.73618579 0.55171621 1.7770001
0.76157147 0.55510098 1.7770001
0.78864956 0.55679333 1.7770001
0.79711151 0.55848575 1.7770001
0.80218858 0.55848575 1.7770001
0.76664865 0.56187052 1.7770001
0.77172571 0.56187052 1.7770001
0.78695714 0.56187052 1.7770001
0.79541916 0.56187052 1.7770001
0.80218858 0.56187052 1.7770001
0.38781714 -0.16329144 1.7860001
0.39292002 -0.16329144 1.7860001
0.36570477 -0.15308572 1.7860001
0.37488991 -0.1544465 1.786
0.38441524 -0.15478666 1.7860001
0.39462095 -0.15551567 1.7860001
0.4034659 -0.15580726 1.786
0.41503239 -0.15988953 1.7860001
0.34359241 -0.14288001 1.7860001
0.3549321 -0.14514793 1.7860001
0.36400384 -0.14628193 1.7860001
0.37372354 -0.14725389 1.7860001
0.38441524 -0.14968382 1.7860001
0.39121905 -0.14968382 1.7860001
0.30957335 -0.13267429 1.7860001
0.31637716 -0.13267429 1.7860001
0.32794362 -0.13471542 1.786
0.33508766 -0.1360762 1.7860001
0.34359241 -0.1360762 1.7860001
0.35209715 -0.1360762 1.7860001
0.29596573 -0.12757143 1.7860001
0.30617145 -0.12587048 1.7860001
0.31680241 -0.12587048 1.7860001
0.32658288 -0.12587048 1.7860001
0.33508766 -0.12587048 1.7860001
0.34302545 -0.12700446 1.7860001
0.28916192 -0.11736572 1.7860001
0.29653272 -0.11509778 1.7860001
0.30568546 -0.11663675 1.7860001
0.31680241 -0.11609001 1.7860001
0.32658288 -0.11566476 1.7860001
0.33508766 -0.11566477 1.7860001
0.34155127 -0.11498439 1.786
0.3180781 -0.10545904 1.7860001
0.32658285 -0.10545905 1.7860001
0.33474746 -0.10613944 1.786
0.3180781 -0.095253341 1.7860001
0.32658288 -0.095253333 1.7860001
0.33423716 -0.094402865 1.7860001
0.37080762 -0.095253333 1.7860001
0.31637716 -0.085047625 1.786
0.32658291 -0.085047618 1.7860001
0.33474746 -0.084367245 1.786
0.31540519 -0.075327896 1.7860001
0.32658288 -0.074841902 1.7860001
0.33508766 -0.074841909 1.7860001
0.34189147 -0.073140956 1.7860001
0.31637716 -0.064636201 1.7860001
0.32658285 -0.064636201 1.7860001
0.33508766 -0.064636193 1.7860001
0.34359241 -0.062935241 1.7860001
0.35039622 -0.062935241 1.7860001
0.3180781 -0.054430481 1.7860001
0.32658285 -0.054430481 1.7860001
0.33508763 -0.054430481 1.7860001
0.34359241 -0.054430481 1.7860001
0.35282615 -0.053944495 1.7860001
0.3623029 -0.051028572 1.7860001
0.3180781 -0.047626667 1.7860001
0.32658285 -0.046265908 1.786
0.33508766 -0.044224765 1.7860001
0.34359241 -0.044650003 1.7860001
0.35379812 -0.044224765 1.7860001
0.3614524 -0.043374285 1.7860001
0.33508766 -0.032318097 1.7860001
0.34359241 -0.03333867 1.786
0.3542234 -0.034444287 1.7860001
0.36357859 -0.033593811 1.7860001
0.37335905 -0.032318097 1.7860001
0.33542785 -0.023813333 1.786
0.34359241 -0.023327349 1.7860001
0.35379809 -0.023813335 1.7860001
0.36400384 -0.023813335 1.7860001
0.37420952 -0.023813335 1.7860001
0.38271427 -0.023813335 1.7860001
0.32998478 -0.013607619 1.7860001
0.33542785 -0.014288001 1.786
0.34359241 -0.01360762 1.7860001
0.35379812 -0.01360762 1.7860001
0.36400381 -0.01360762 1.7860001
0.37420952 -0.01360762 1.7860001
0.38398999 -0.013182382 1.7860001
0.39121905 -0.010205715 1.7860001
0.33678859 -0.0068038097 1.7860001
0.34359241 -0.0051028575 1.7860001
0.35294765 -0.0059533333 1.7860001
0.36485434 -0.0059533333 1.7860001
0.37420952 -0.0051028575 1.7860001
0.38441524 -0.0051028575 1.7860001
0.39121905 -0.005102857 1.7860001
0.34495315 0.0027215239 1.786
0.35266414 0.0022679365 1.7860001
0.3657048 0.0034019051 1.7860001
0.37420952 0.0034019048 1.7860001
0.38441524 0.0034019048 1.7860001
0.39121905 0.0034019046 1.7860001
0.78924191 0.0034019048 1.7860001
0.79264385 0.0034019048 1.7860001
0.36570477 0.01360762 1.7860001
0.37420952 0.01360762 1.7860001
0.38441524 0.01360762 1.7860001
0.39348701 0.014741588 1.7860001
0.36570477 0.022112381 1.7860001
0.37420952 0.023813335 1.7860001
0.38441524 0.023813335 1.7860001
0.39462098 0.023813335 1.7860001
0.40312567 0.023813335 1.7860001
0.37761143 0.034019049 1.7860001
0.38441527 0.034019049 1.7860001
0.39462098 0.034019049 1.7860001
0.40312573 0.034019049 1.7860001
0.37591046 0.04082286 1.7860001
0.38484046 0.043799527 1.7860001
0.39462098 0.044224765 1.7860001
0.40312573 0.044224765 1.7860001
0.37761143 0.054430477 1.7860001
0.38441524 0.054430481 1.7860001
0.39462098 0.054430481 1.7860001
0.40312567 0.054430481 1.7860001
0.38538721 0.064150207 1.7860001
0.39462098 0.064636201 1.7860001
0.40312567 0.064636193 1.7860001
0.38781714 0.071440004 1.7860001
0.39510697 0.073869936 1.7860001
0.40312567 0.074841909 1.7860001
0.39802286 0.08844953 1.7860001
0.40482667 0.085047625 1.7860001
0.38781714 0.095253333 1.7860001
0.39462095 0.095933713 1.786
0.40579867 0.094767347 1.7860001
0.38781714 0.10205714 1.7860001
0.39530134 0.10477866 1.786
0.40482667 0.10545905 1.7860001
0.39632189 0.11226286 1.7860001
0.4048267 0.11566476 1.7860001
0.40737808 0.12502001 1.7860001
0.41163048 0.14628191 1.7860001
0.4145464 0.1574596 1.7860001
0.42319694 0.157168 1.786
0.41503236 0.16499239 1.7860001
0.42353714 0.16499239 1.7860001
0.41503239 0.17349717 1.7860001
0.42481285 0.17307192 1.7860001
0.43204191 0.17009525 1.7860001
0.41503236 0.18370284 1.7860001
0.42353716 0.18370287 1.7860001
0.41460711 0.19433381 1.7860001
0.42353714 0.19050667 1.7860001
0.41503236 0.20411427 1.7860001
0.42353714 0.20581524 1.7860001
0.41545764 0.21389477 1.7860001
0.42481285 0.21474522 1.7860001
0.41843429 0.22112381 1.7860001
0.42566335 0.22410047 1.7860001
0.43544382 0.22622667 1.7860001
0.44224763 0.22792763 1.7860001
0.41551837 0.23570339 1.7860001
0.4252381 0.23473141 1.7860001
0.43544379 0.23473144 1.7860001
0.44564956 0.23473144 1.7860001
0.45381412 0.23541181 1.786
0.41503239 0.24396515 1.7860001
0.4252381 0.24493715 1.7860001
0.43544382 0.24493715 1.7860001
0.44467759 0.24445118 1.7860001
0.45245335 0.24493714 1.7860001
0.4269391 0.25514284 1.7860001
0.43408304 0.25378209 1.786
0.44451556 0.25287494 1.7860001
0.45245335 0.25174096 1.7860001
0.42778954 0.26449811 1.7860001
0.43430984 0.2664825 1.7860001
0.44394857 0.26875049 1.7860001
0.42864001 0.2755543 1.7860001
0.43544382 0.2755543 1.7860001
0.44467759 0.2755543 1.7860001
0.42864001 0.28235811 1.7860001
0.43544379 0.28575999 1.7860001
0.44564956 0.28576005 1.7860001
0.45536929 0.28673199 1.7860001
0.4652105 0.28831145 1.7860001
0.47626671 0.28576002 1.7860001
0.42778954 0.29681623 1.7860001
0.43544379 0.29596579 1.7860001
0.44564956 0.29596573 1.7860001
0.45585525 0.29596576 1.7860001
0.46606097 0.29596576 1.7860001
0.47422552 0.29528534 1.786
0.42778954 0.30532098 1.7860001
0.43544379 0.30617148 1.7860001
0.44522431 0.3057462 1.7860001
0.45500475 0.30362001 1.7860001
0.46470022 0.30549103 1.786
0.43641576 0.31589118 1.7860001
