# .PCD v0.7 - Point Cloud Data file format
VERSION 0.7
FIELDS x y z
SIZE 4 4 4
TYPE F F F
COUNT 1 1 1
WIDTH 1508
HEIGHT 1
VIEWPOINT 0 0 0 1 0 0 0
POINTS 1508
DATA ascii
0.078120001 0.11284 1.5190001
0.08511778 0.11542336 1.5149168
0.092160001 0.11520001 1.5120001
0.455616 0.116928 1.5120001
0.46535259 0.11561481 1.5174445
0.086573333 0.1240963 1.5151112
0.092735991 0.12614401 1.5120001
0.45530185 0.12567273 1.512
0.46446937 0.12470402 1.5155001
0.088246658 0.13454001 1.5190001
0.093600005 0.13536 1.5120001
0.45504004 0.13536 1.5120001
0.4636724 0.13489142 1.516
0.088536009 0.144088 1.5190001
0.093866661 0.14492001 1.5130001
0.45504007 0.14515202 1.5120001
0.46366894 0.14444667 1.5166668
0.089693338 0.15479334 1.5190001
0.094542228 0.15543851 1.5143334
0.44928002 0.15264 1.5120001
0.45451811 0.15521334 1.5130001
0.46221 0.15479334 1.5190001
0.095588014 0.16519199 1.5162001
0.44870406 0.16646402 1.5120001
0.45439005 0.165885 1.5146251
0.46293333 0.16636668 1.5190001
0.096525714 0.17531811 1.516
0.44928002 0.17568 1.5120001
0.45395115 0.17581557 1.5131668
0.46337849 0.17538053 1.5190002
0.096943997 0.18524002 1.5148001
0.1008 0.18144001 1.5120001
0.44928002 0.18144001 1.5120001
0.45456001 0.18432002 1.5120001
0.46389782 0.18453039 1.5190001
0.096242964 0.19473927 1.5158889
0.1008 0.19728 1.5120001
0.44722667 0.19562933 1.5148001
0.45425335 0.19385335 1.5190001
0.096177153 0.20474479 1.5170001
0.1008 0.20448001 1.5120001
0.44328573 0.20475237 1.5140001
0.097333334 0.21442445 1.5178334
0.1008 0.21456002 1.5120001
0.44419518 0.21540365 1.5151818
0.098373331 0.22568001 1.5190001
0.10187 0.22614001 1.5172501
0.44439667 0.22525835 1.5137501
0.45425335 0.22568001 1.5190001
0.46004 0.22568001 1.5190001
0.098373339 0.23146668 1.5190001
0.10449201 0.23526135 1.5155001
0.43776003 0.23040001 1.5120001
0.44378182 0.23432727 1.512
0.45425335 0.23436001 1.5190001
0.46004 0.23436001 1.5190001
0.10608122 0.2444703 1.5164546
0.44491002 0.24573001 1.5155001
0.45232448 0.24352224 1.5190001
0.10747112 0.25473186 1.5158889
0.43718401 0.25574401 1.5120001
0.44289336 0.25504667 1.5172501
0.10574769 0.26504615 1.5163078
0.43632004 0.26495999 1.5120001
0.44412673 0.26618668 1.5190001
0.10573428 0.27496573 1.5150002
0.11376001 0.27504 1.5120001
0.43632001 0.27215999 1.5120001
0.44414002 0.27455601 1.5141001
0.45136002 0.27486667 1.5190001
0.10656445 0.28439558 1.5166668
0.11232001 0.28512001 1.5120001
0.43632001 0.28656 1.5120001
0.44507852 0.2853837 1.5151112
0.45136002 0.28354669 1.5190001
0.10898223 0.29415557 1.5190001
0.11336667 0.29446667 1.5131668
0.41760001 0.29952002 1.5120001
0.42552003 0.29772004 1.5120001
0.43487999 0.29471999 1.5120001
0.44444501 0.29425168 1.5163751
0.45136002 0.29222667 1.5190001
0.10848953 0.30526096 1.516
0.41554287 0.30528 1.5120001
0.42480001 0.30528003 1.5120001
0.43642548 0.30513093 1.5164546
0.44383734 0.30322134 1.5190001
0.108688 0.31450665 1.5176001
0.11232001 0.31823999 1.5120001
0.41664001 0.31584001 1.5120001
0.42473426 0.31546378 1.5125002
0.43448225 0.31440887 1.5190001
0.10994667 0.32550001 1.5190001
0.11460001 0.32608572 1.5150001
0.41664001 0.32448003 1.5120001
0.4245964 0.32545817 1.5145454
0.43400002 0.32550001 1.5190001
0.10994667 0.33852002 1.5190001
0.11537334 0.33523554 1.5143334
0.41616002 0.33552 1.5120001
0.42488742 0.3352845 1.5174445
0.43255338 0.33562669 1.5190001
0.11441714 0.34490284 1.518
0.41587201 0.34502402 1.5120001
0.42495835 0.343945 1.5190001
0.11385143 0.35435051 1.516
0.40896001 0.35424 1.5120001
0.41616529 0.35464668 1.5162001
0.42300534 0.35414404 1.5190001
0.10994667 0.36745334 1.5190001
0.11411428 0.36418098 1.5140001
0.40607998 0.36493713 1.5120001
0.41587067 0.36468267 1.5183001
0.42242667 0.36456001 1.5190001
0.11632763 0.37456387 1.516
0.40591332 0.37421116 1.5131668
0.41519332 0.37427336 1.5190002
0.11699811 0.38437143 1.5140001
0.40607998 0.38544002 1.5120001
0.41230002 0.38336667 1.5190001
0.11673905 0.39477715 1.516
0.12096 0.39744002 1.5120001
0.40320003 0.39456001 1.5120001
0.41157669 0.39566338 1.5190001
0.11607409 0.40498963 1.5151112
0.12096 0.40464002 1.5120001
0.38880002 0.40608001 1.5120001
0.39497143 0.40566859 1.5120001
0.40465334 0.4046548 1.5174445
0.41085336 0.40362 1.5190001
0.11632 0.41471165 1.5172501
0.12168 0.41400003 1.5120001
0.38880002 0.41472 1.5120001
0.39558402 0.41490936 1.5148001
0.40506664 0.41519332 1.5190001
0.11862668 0.42532003 1.5190001
0.12288 0.42576003 1.5120001
0.38880002 0.42048001 1.5120001
0.39496604 0.42512 1.5145454
0.40410221 0.4248378 1.5190001
0.118048 0.43631467 1.5190001
0.1224343 0.43491432 1.5150001
0.39740005 0.43492222 1.5155001
0.40356192 0.43495241 1.518
0.11718 0.44557336 1.5190001
0.12239999 0.44496003 1.5120001
0.38419202 0.44755203 1.5120001
0.39560574 0.44469526 1.516
0.40217334 0.4441267 1.5190001
0.11790334 0.45353001 1.5190001
0.12434 0.45520502 1.5137501
0.38371003 0.45438501 1.5146251
0.39266667 0.45384005 1.5190001
0.11862667 0.46438 1.5190001
0.12450778 0.46487555 1.5143334
0.38465109 0.46450782 1.5155001
0.39117867 0.46524802 1.5190001
0.11862667 0.4774 1.5190001
0.12514426 0.47436002 1.5151818
0.37728003 0.47808 1.5120001
0.38303998 0.47520003 1.5120001
0.39132333 0.47378331 1.5190001
0.12487201 0.48488271 1.5152669
0.37670404 0.48614401 1.5120001
0.38457471 0.48482934 1.5169001
0.12562817 0.49516004 1.5143334
0.37590134 0.49524269 1.5134001
0.38439998 0.49393335 1.5190001
0.12713818 0.50489455 1.5139091
0.13248001 0.50976002 1.5120001
0.37832803 0.50539201 1.5162001
0.38192001 0.50778002 1.5190001
0.12797111 0.51623112 1.5155001
0.13248001 0.51552004 1.5120001
0.37488005 0.51648003 1.5120001
0.38373524 0.51508576 1.518
0.12688003 0.52487272 1.5170909
0.13412572 0.52704006 1.5120001
0.36576 0.52896005 1.5120001
0.37584224 0.52473557 1.5178334
0.38249868 0.52542937 1.5190001
0.12586002 0.5352667 1.5190001
0.13369092 0.53556728 1.5139091
0.36345601 0.53596801 1.5120001
0.37152001 0.53711998 1.5120001
0.38192001 0.53671336 1.5190001
0.11862667 0.54394668 1.5190001
0.12499203 0.54539335 1.5190001
0.13377231 0.54465032 1.514154
0.14112 0.54432005 1.5120001
0.36518401 0.544608 1.5120001
0.37556005 0.54535705 1.5166668
0.38288447 0.54201776 1.5190001
0.1296 0.55008 1.5120001
0.13618934 0.55225599 1.5148001
0.14208001 0.55103999 1.5120001
0.36460802 0.55065602 1.5120001
0.37902668 0.55262667 1.5190001
0.087142862 -0.122 1.5250001
0.094404764 -0.12272619 1.5250001
0.10457143 -0.12780952 1.5250001
0.078428574 -0.11038096 1.5250001
0.084238097 -0.11546429 1.5250001
0.06874603 -0.10263491 1.5250001
0.07407143 -0.10602382 1.5250001
0.063178569 -0.094404764 1.5250001
0.057126988 -0.084238105 1.5250001
0.061000001 -0.087142862 1.5250001
0.055190478 -0.075523816 1.5250001
0.055916667 -0.065357141 1.5250001
0.058095235 -0.055190478 1.5250001
0.058095239 -0.04502381 1.5250001
0.061000001 -0.043571431 1.5250001
0.058095235 -0.034857143 1.5250001
0.061000001 -0.037761904 1.5250001
0.058095239 -0.024690479 1.5250001
0.061000001 -0.020333335 1.5250001
0.058095235 -0.014523809 1.5250001
0.061000001 -0.014523809 1.5250001
0.058095239 -0.0087142857 1.5250001
0.061000001 -0.0058095246 1.5250001
0.063904762 0.0034857143 1.5250001
0.068552382 0.013942857 1.5250001
0.069714285 0.02420635 1.5250001
0.4589524 0.02904762 1.5250001
0.4662143 0.02904762 1.5250001
0.47202384 0.02904762 1.5250001
0.072619051 0.034857143 1.5250001
0.40811908 0.03340476 1.5250001
0.41538095 0.034857143 1.5250001
0.42506352 0.034373011 1.5250001
0.43426192 0.034857143 1.5250001
0.45604762 0.036019046 1.5250001
0.46418101 0.036600001 1.5250001
0.47396037 0.035825398 1.5250001
0.075523801 0.045023814 1.5250001
0.46476194 0.04066667 1.5250001
0.47492859 0.042119052 1.5250001
0.48509523 0.045646258 1.5250002
0.49308336 0.048654765 1.5250001
0.074361905 0.055771429 1.5250001
0.48703179 0.057126984 1.5250001
0.49380955 0.055190478 1.5250001
0.074797615 0.065357141 1.5250001
0.47928575 0.066809528 1.5250001
0.48675513 0.065979593 1.5250002
0.49339458 0.063074827 1.5250002
0.075523809 0.075523809 1.5250001
0.48654762 0.075523809 1.5250001
0.49090478 0.078428574 1.5250001
0.076685712 0.083657146 1.5250001
0.48654762 0.084238105 1.5250001
0.49163097 0.084238097 1.5250001
0.075523809 0.094404772 1.5250001
0.47638097 0.09730953 1.5250001
0.48509526 0.094404757 1.525
0.49148574 0.09469524 1.5250001
0.075523809 0.10457143 1.5250001
0.47638097 0.10457142 1.5250001
0.48509523 0.10457143 1.5250001
0.49090478 0.10457143 1.5250001
0.076685712 0.11502858 1.5250001
0.47638097 0.1147381 1.525
0.48509526 0.11473811 1.525
0.49148574 0.11560953 1.5250001
0.078428574 0.12345238 1.5250001
0.081333339 0.12490476 1.5250001
0.47638097 0.12490477 1.5250001
0.48509523 0.12490475 1.5250001
0.49090478 0.122 1.5250001
0.083657146 0.13420001 1.5250001
0.47492862 0.13507143 1.5249999
0.48477247 0.13491006 1.5250001
0.083753973 0.1452381 1.5250001
0.47492859 0.14523812 1.525
0.48436907 0.14305952 1.5250001
0.085690483 0.15540476 1.5250001
0.46766672 0.15588889 1.5250001
0.47492862 0.15540476 1.5249999
0.48315874 0.15492065 1.5250001
0.087142862 0.16557144 1.5250001
0.09004762 0.16557144 1.5250001
0.46476188 0.16440953 1.5250001
0.47492862 0.16557145 1.525
0.48219049 0.16702381 1.5250001
0.087142862 0.17138095 1.5250001
0.091500007 0.17428571 1.5250001
0.47492862 0.17428572 1.525
0.092226192 0.18445237 1.5250001
0.4752638 0.18478754 1.5249999
0.091209523 0.19461906 1.5250001
0.4589524 0.19752382 1.5250001
0.46476188 0.19461906 1.5250001
0.47492859 0.19461906 1.525
0.48219049 0.19461906 1.5250001
0.087142862 0.20333335 1.5250001
0.091292515 0.20499322 1.5250002
0.45521769 0.20499322 1.5249999
0.46476188 0.20478575 1.525
0.47321221 0.20491777 1.525
0.092952386 0.21553335 1.5250001
0.45546669 0.21466191 1.525
0.46476188 0.21495238 1.5250001
0.47311312 0.21458928 1.5250001
0.095276192 0.22424762 1.5250001
0.45604762 0.22076191 1.5250001
0.46573019 0.22463495 1.5250001
0.47275004 0.22148809 1.5250001
0.097019054 0.2358667 1.5250001
0.46524608 0.23576985 1.5250001
0.098035723 0.24327382 1.5250001
0.10166667 0.24690478 1.5250001
0.45798412 0.24642062 1.5250001
0.46282542 0.24448414 1.5250001
0.098761909 0.25271431 1.5250001
0.10311905 0.25416666 1.5250001
0.44733334 0.25416666 1.5250001
0.45372382 0.2553286 1.525
0.098761909 0.26723811 1.5250001
0.10166667 0.26433334 1.5250001
0.44733334 0.26433334 1.5250001
0.45314288 0.26505953 1.5250001
0.097517014 0.27429253 1.5250002
0.45701587 0.27401587 1.5250001
0.46185717 0.27740479 1.5250001
0.098761909 0.28176191 1.5250001
0.10457143 0.28757143 1.5250001
0.45750001 0.28466666 1.5250001
0.46185717 0.28466666 1.5250001
0.10573335 0.29570478 1.5250001
0.11038096 0.29628572 1.5250001
0.45580557 0.2953175 1.525
0.46185717 0.2904762 1.5250001
0.10457144 0.30500001 1.5250001
0.44733334 0.30790478 1.5250001
0.45372382 0.30470949 1.525
0.10553969 0.31468251 1.5250001
0.43861908 0.31952381 1.5250001
0.44469264 0.31556278 1.525
0.45120636 0.3117778 1.5250001
0.1074762 0.32533336 1.5250001
0.43861908 0.32533336 1.5250001
0.44359866 0.32491842 1.5250002
0.10602382 0.33550003 1.5250001
0.11038096 0.3355 1.5250001
0.43861908 0.3355 1.5250001
0.44152382 0.3355 1.5250001
0.10675 0.34494048 1.5250001
0.11038097 0.34566668 1.5250001
0.42990479 0.34857145 1.5250001
0.43571433 0.34566668 1.5250001
0.4424921 0.34373018 1.5250001
0.1074762 0.35438097 1.5250001
0.11038097 0.35438097 1.5250001
0.42874289 0.35438097 1.5250001
0.43571433 0.35438097 1.5250001
0.44297621 0.35583335 1.5250001
0.10675001 0.36527383 1.5250001
0.11038097 0.36309525 1.5250001
0.42758092 0.36483812 1.525
0.43571427 0.36454764 1.525
0.44225001 0.36382145 1.5250001
0.10602382 0.37180954 1.5250001
0.11154287 0.37529522 1.5250001
0.42699999 0.37471429 1.5250001
0.43513337 0.37297145 1.5250001
0.11183334 0.38342857 1.5250001
0.41755953 0.38705954 1.5250001
0.4243373 0.3841548 1.525
0.11328572 0.39504763 1.5250001
0.41621089 0.39546257 1.5250002
0.42191669 0.39432144 1.5250001
0.1074762 0.40957144 1.5250001
0.11154287 0.40492383 1.5250001
0.41647029 0.40630361 1.5250001
0.423127 0.40473017 1.5250001
0.1074762 0.41247621 1.5250001
0.11154287 0.41596192 1.5250001
0.41538095 0.41538098 1.5250001
0.42264286 0.41538098 1.5250001
0.11502858 0.42525715 1.5250001
0.40860319 0.42796826 1.5250001
0.41538098 0.42554769 1.525
0.4211905 0.42554766 1.5250001
0.11619047 0.43571433 1.5250001
0.40860319 0.43474603 1.5250001
0.41538098 0.4357143 1.5250001
0.4211905 0.43571433 1.5250001
0.11328572 0.44442856 1.5250001
0.40811908 0.44442859 1.5250001
0.41441274 0.44394445 1.5250001
0.11444763 0.45488572 1.5250001
0.39795241 0.45750001 1.5250001
0.40521431 0.45459527 1.5249999
0.41247621 0.45459527 1.5250001
0.11502858 0.46418101 1.5250001
0.39650002 0.46476194 1.5250001
0.40508226 0.46476191 1.525
0.41247621 0.46185717 1.5250001
0.11715874 0.47492862 1.5250001
0.39698413 0.47589687 1.5250001
0.40318099 0.47434765 1.525
0.11836905 0.48436907 1.5250001
0.39504761 0.48509523 1.5250001
0.40085712 0.48509526 1.5250001
0.11909524 0.49526191 1.5250001
0.122 0.49961907 1.5250001
0.38778573 0.49961907 1.5250001
0.39504763 0.49526188 1.525
0.40143809 0.49613333 1.5250001
0.11909524 0.50252384 1.5250001
0.122 0.50397623 1.5250001
0.38669646 0.5050655 1.5250001
0.39468452 0.5050655 1.5250001
0.40085715 0.50397623 1.5250001
0.12417857 0.51559526 1.5250001
0.38851193 0.51341665 1.5250001
0.39407936 0.51607937 1.5250001
0.40085715 0.51995242 1.5250001
0.122 0.52285719 1.5250001
0.38807622 0.52518094 1.5250001
0.39504763 0.5257619 1.5250002
0.3750774 0.53483933 1.5250001
0.38124999 0.53447622 1.5250001
0.37568256 0.5422222 1.5250001
0.38467345 0.54568022 1.5250002
0.39214286 0.54900002 1.5250001
0.38488096 0.5519048 1.5250001
0.087942861 -0.13191429 1.539
0.096173026 -0.13279141 1.5378333
0.10443857 -0.13219714 1.5337501
0.11566325 -0.13202058 1.5334001
0.12018858 -0.13484572 1.539
0.085440382 -0.12465219 1.5362
0.095524348 -0.12722939 1.5330001
0.11234666 -0.1283962 1.5320001
0.067422859 -0.11139429 1.539
0.074576765 -0.11406706 1.5354999
0.08316572 -0.11818286 1.5320001
0.05765143 -0.10357714 1.539
0.063940004 -0.10559954 1.5346251
0.071493335 -0.10796953 1.5320001
0.049834289 -0.090874292 1.539
0.055566031 -0.095056988 1.5354999
0.061280001 -0.096297145 1.5320001
0.049834292 -0.08501143 1.539
0.053740956 -0.085288391 1.5334001
0.048368573 -0.074751429 1.539
0.052525718 -0.074411429 1.5320001
0.049834292 -0.064491428 1.539
0.053255241 -0.063468575 1.5320001
0.049834289 -0.057162859 1.539
0.054024767 -0.055483814 1.5331668
0.054104768 -0.045333814 1.5355
0.054104764 -0.035097145 1.5355
0.054296058 -0.025480548 1.5350001
0.054473907 -0.015227431 1.5376
0.055620957 -0.0050195917 1.5370001
0.055608258 0.0043904763 1.5366665
0.062009525 0.0065657147 1.5320001
0.056496602 0.01423075 1.5380001
0.063364364 0.015007349 1.5320002
0.058628574 0.024917144 1.539
0.064291425 0.02484159 1.5343332
0.070034288 0.026262859 1.5320001
0.45814097 0.029180953 1.5320001
0.46397716 0.029180953 1.5320001
0.47856763 0.029180953 1.5320001
0.48477492 0.027741907 1.5331668
0.058628574 0.035177145 1.539
0.064324029 0.035089739 1.5351111
0.070034288 0.035017144 1.5320001
0.41728765 0.03209905 1.5320001
0.42020574 0.03209905 1.5320001
0.45619556 0.033071745 1.5320001
0.46631163 0.032682668 1.5320001
0.47637904 0.03428762 1.5320001
0.48532522 0.034690715 1.5337501
0.49423885 0.036349714 1.539
0.058628574 0.045437142 1.539
0.064340316 0.045336034 1.5354999
0.071284905 0.045855787 1.5320002
0.48732191 0.040853336 1.5320001
0.49453571 0.043430001 1.5328751
0.50441396 0.046175878 1.5366666
0.51417261 0.048661716 1.539
0.058628574 0.055697143 1.539
0.064324021 0.055557881 1.5351111
0.070763811 0.054714289 1.5320001
0.50483048 0.055443816 1.5320001
0.51373285 0.056430001 1.539
0.064389206 0.064393654 1.5366666
0.070763811 0.064927623 1.5320001
0.49753523 0.067116193 1.5320001
0.50483054 0.064198107 1.5320001
0.51446569 0.064491428 1.539
0.06536635 0.074150264 1.5366666
0.071006991 0.075384133 1.5320001
0.49634144 0.074013509 1.5319999
0.50423646 0.074539766 1.5346251
0.51132494 0.074123263 1.5390002
0.065906033 0.084944762 1.5378333
0.071493335 0.084624767 1.5320001
0.49782705 0.084624767 1.5320001
0.50491965 0.084350482 1.5376
0.5100686 0.082080007 1.539
0.066122726 0.094584219 1.5380001
0.071493335 0.094838098 1.5320001
0.49774367 0.09462966 1.5320002
0.50518292 0.096248575 1.539
0.5100686 0.098202862 1.539
0.067422859 0.10553143 1.539
0.071493335 0.10505144 1.5320001
0.49753526 0.10505144 1.5320001
0.50452477 0.10529143 1.5355
0.5100686 0.1026 1.539
0.067422859 0.11432572 1.539
0.072222859 0.11526476 1.5320001
0.49774364 0.11463945 1.5320002
0.50415158 0.11486232 1.5350001
0.5100686 0.11139429 1.539
0.067422859 0.12165429 1.539
0.073334031 0.12541889 1.5345454
0.49644095 0.12584287 1.5320001
0.5049386 0.12458572 1.539
0.075352192 0.13406324 1.5333999
0.081706673 0.13569143 1.5320001
0.48732191 0.13569143 1.5320001
0.49399182 0.13464926 1.5320002
0.50274003 0.13484572 1.539
0.076010473 0.14471905 1.5349165
0.081706673 0.14444572 1.5320001
0.4863492 0.14785016 1.5320001
0.49374169 0.14502934 1.5319999
0.50186062 0.14422628 1.539
0.076097146 0.15513018 1.5366666
0.081706673 0.15465905 1.5320001
0.4863492 0.15368634 1.5320001
0.49421921 0.15439376 1.5319999
0.5042057 0.15536572 1.539
0.076850884 0.16331647 1.5350001
0.082957283 0.16549771 1.5320002
0.48634923 0.1638997 1.5320001
0.49286628 0.16399696 1.5319999
0.50274003 0.16416001 1.539
0.07768286 0.17442 1.539
0.084306672 0.17555216 1.5328751
0.48586288 0.17508574 1.5320001
0.49541146 0.17500629 1.5389999
0.07768286 0.18468 1.539
0.084991865 0.18513022 1.533909
0.090460956 0.18384001 1.5320001
0.48537648 0.18546116 1.5320001
0.49376446 0.18495515 1.5358889
0.078562297 0.19406058 1.539
0.08448229 0.19528343 1.5347999
0.48615465 0.19551238 1.5320001
0.49473944 0.194672 1.5368999
0.079148576 0.20520002 1.539
0.084260002 0.20426667 1.5320001
0.47856763 0.20426667 1.5320001
0.48440382 0.20426667 1.5320001
0.49275661 0.20424306 1.5362
0.079148576 0.21546002 1.539
0.084781431 0.21489 1.5349165
0.090460956 0.21593906 1.5320001
0.47856763 0.21885715 1.5320001
0.48440382 0.21447998 1.5319999
0.49306631 0.21633944 1.539
0.085791841 0.22515647 1.5380001
0.091628194 0.22527698 1.5320001
0.47623315 0.2264442 1.5320001
0.48440382 0.22469336 1.5320001
0.494205 0.22496858 1.536375
0.086770289 0.23510058 1.539
0.091920003 0.23490667 1.5320001
0.46981335 0.23344763 1.5320001
0.47506586 0.23432305 1.5319999
0.48514685 0.23438478 1.5361999
0.49394572 0.2345143 1.539
0.087356582 0.24389486 1.539
0.093117617 0.24576643 1.5337501
0.46908382 0.24584953 1.5320001
0.47527716 0.24568002 1.5355
0.48421878 0.24330856 1.5389999
0.49248001 0.24037716 1.539
0.087942861 0.25356859 1.539
0.095078535 0.25513014 1.5341537
0.10213333 0.25825143 1.5320001
0.46622184 0.25611898 1.5319998
0.47563717 0.25464764 1.5366668
0.48148715 0.25576714 1.539
0.087942861 0.26822573 1.539
0.094245277 0.26497918 1.5352306
0.10213333 0.26262859 1.5320001
0.45814097 0.26408762 1.5320001
0.46583414 0.26528141 1.5319999
0.47608712 0.26514095 1.538125
0.48201063 0.26592246 1.5390002
0.087942861 0.27262285 1.539
0.092722461 0.27525496 1.5350001
0.46726 0.27393621 1.5320001
0.47491491 0.27471653 1.5343333
0.4828482 0.27513552 1.5390002
0.094519459 0.28398097 1.5370001
0.10213333 0.28743237 1.5320001
0.46835431 0.28451431 1.5320001
0.47429255 0.28407186 1.5330001
0.48075429 0.28434858 1.539
0.087942861 0.29754001 1.539
0.095690213 0.29523677 1.5389998
0.10286286 0.29545715 1.5320001
0.46726 0.2950924 1.5320001
0.47599712 0.29487494 1.5378333
0.48075432 0.29314286 1.539
0.095529251 0.30520707 1.5364999
0.10213333 0.30348191 1.5320001
0.46606153 0.30535778 1.5319998
0.47635713 0.30486858 1.539
0.095855244 0.31526771 1.5377272
0.10286286 0.31588382 1.5320001
0.45619559 0.31612697 1.5320001
0.46456081 0.31486249 1.5319999
0.47489145 0.31512856 1.539
0.096939623 0.32567486 1.5375999
0.10359239 0.32536766 1.5320001
0.44938669 0.32828575 1.5320001
0.45463929 0.32536766 1.5319999
0.46406877 0.32498601 1.5358181
0.47196001 0.32392287 1.539
0.095178038 0.33460265 1.5357691
0.10213333 0.33558097 1.5320001
0.44792768 0.33558097 1.5320001
0.45445716 0.33608985 1.5343333
0.46414286 0.33418286 1.539
0.095054068 0.34441802 1.5373845
0.10286286 0.34506479 1.5320001
0.44821948 0.34433526 1.5320001
0.45471734 0.34469563 1.5362
0.46199316 0.34180456 1.539
0.097574703 0.35428408 1.5390002
0.10359239 0.3545486 1.5320001
0.44719812 0.35308957 1.5320001
0.45437145 0.35470286 1.539
0.097278103 0.36538249 1.5382999
0.1042177 0.36517882 1.5320002
0.44744131 0.36524829 1.5320001
0.45495772 0.36525601 1.539
0.098127306 0.3749384 1.5378333
0.10463457 0.37601742 1.5320002
0.43625528 0.37935239 1.5320001
0.44452319 0.37513739 1.5320001
0.45319885 0.37580913 1.539
0.098412253 0.38527349 1.5390002
0.10489963 0.385129 1.5340999
0.43516099 0.3855533 1.5320001
0.44465834 0.3853063 1.5347999
0.45437145 0.38548288 1.5389999
0.46023431 0.38694859 1.539
0.098202862 0.39574289 1.539
0.10548761 0.39565733 1.5345454
0.11147124 0.39452648 1.5320001
0.42798734 0.39637461 1.5320001
0.43512842 0.39570192 1.5331665
0.44457731 0.39614946 1.5364544
0.45261258 0.39515656 1.539
0.098202854 0.40453717 1.539
0.10485296 0.40539828 1.5333999
0.11088762 0.40269715 1.5320001
0.42896003 0.40707427 1.5320001
0.43479621 0.40561524 1.5320001
0.44454208 0.404816 1.5333999
0.45378518 0.40512341 1.539
0.098412253 0.41416901 1.5390002
0.10428436 0.41505879 1.5330001
0.42896 0.41436955 1.5320001
0.43501842 0.41458139 1.5327778
0.44506231 0.41492191 1.5361999
0.45269635 0.41416898 1.5390002
0.099668585 0.42505717 1.539
0.10548325 0.42428747 1.5340999
0.11161714 0.42677146 1.5320001
0.42770943 0.42520818 1.5320002
0.43509772 0.42381361 1.5360001
0.44411144 0.42212573 1.539
0.1056927 0.43449208 1.5366666
0.11234667 0.43479621 1.5320001
0.42750096 0.43479624 1.5320001
0.43443775 0.43443769 1.539
0.10691493 0.44523939 1.5378333
0.11147124 0.44413415 1.5320001
0.41728765 0.44646859 1.5320001
0.42431283 0.44539833 1.5327778
0.43238574 0.44557714 1.539
0.10699715 0.45437145 1.539
0.11088762 0.45522287 1.5320001
0.41728768 0.45522285 1.5320001
0.42377272 0.4549391 1.5343333
0.43092 0.45437145 1.539
0.10699715 0.46463144 1.539
0.11186031 0.46543619 1.5320001
0.40853333 0.46689525 1.5320001
0.41631493 0.46640888 1.5320001
0.42377269 0.46516797 1.5343332
0.43092 0.46463144 1.539
0.10699715 0.47489142 1.539
0.11243111 0.47601172 1.5331668
0.40853333 0.47856763 1.5320001
0.41436952 0.47564951 1.5320001
0.42385384 0.47500047 1.5346251
0.43092 0.47196001 1.539
0.10699715 0.48515144 1.539
0.11297197 0.48482069 1.5320002
0.4073661 0.48498744 1.5320001
0.41521394 0.48539051 1.5351111
0.42447719 0.4844915 1.5368999
0.43238574 0.48368573 1.539
0.10699715 0.49541149 1.539
0.11380573 0.49461713 1.5319999
0.4070743 0.49461716 1.5320001
0.4152177 0.49509367 1.5361999
0.42212573 0.49248001 1.539
0.10773001 0.50347292 1.539
0.11477841 0.50483048 1.5320001
0.4073661 0.50541413 1.5320001
0.41532022 0.50451672 1.5354999
0.10787658 0.51534522 1.539
0.11539144 0.51489925 1.5337498
0.12256 0.5150438 1.5320001
0.39977905 0.51504385 1.5320001
0.40561524 0.51504385 1.5319999
0.41516176 0.51504558 1.5349165
0.42310286 0.51397717 1.539
0.10846286 0.52179432 1.539
0.11563014 0.52528208 1.5351818
0.12256 0.52817523 1.5320001
0.39394286 0.52525717 1.5320001
0.40653858 0.52499807 1.5355
0.41497239 0.52481651 1.5378333
0.42212573 0.52179432 1.539
0.11727829 0.53493702 1.5354999
0.12256 0.53547049 1.5320001
0.38810667 0.53692955 1.5320001
0.39573863 0.53648055 1.5319998
0.40522519 0.53628212 1.5366666
0.41165632 0.53561389 1.5390002
0.11658857 0.54441458 1.5366668
0.12176953 0.54456508 1.5343333
0.39540192 0.5456838 1.5319999
0.40461951 0.54484481 1.5337501
0.41137716 0.54329139 1.539
0.094232388 -0.13545905 1.5460001
0.076563813 -0.12073525 1.5460001
0.082453333 -0.12368 1.5460001
0.064784765 -0.11288255 1.5460001
0.070674285 -0.11779048 1.5460001
0.057422861 -0.10748382 1.5460001
0.047116194 -0.092760004 1.5460001
0.050060954 -0.095704764 1.5460001
0.046380002 -0.084661908 1.5460001
0.04417143 -0.075091437 1.5460001
0.04564381 -0.064784765 1.5460001
0.047116194 -0.054478101 1.5460001
0.050060954 -0.051533334 1.5460001
0.047116194 -0.044171434 1.5460001
0.050060954 -0.044171434 1.5460001
0.050060954 -0.035337146 1.5460001
0.050797146 -0.025030477 1.5460001
0.051042542 -0.01472381 1.5460001
0.051042542 -0.0058895238 1.5460001
0.050060954 0.0044171428 1.5460001
0.051238857 0.015312763 1.5460001
0.054968894 0.024048889 1.5460001
0.4961924 0.029447621 1.5460001
0.055950478 0.035337146 1.5460001
0.49766478 0.033864763 1.5460001
0.50296533 0.035926096 1.5460001
0.055950478 0.044171434 1.5460001
0.50797141 0.041226666 1.5460001
0.51533335 0.043680638 1.5460001
0.52220446 0.046134606 1.5460001
0.53152955 0.047116194 1.5460001
0.055950478 0.054478101 1.5460001
0.51827812 0.054478098 1.5460001
0.5244354 0.054879654 1.5460002
0.53005719 0.054478098 1.5460001
0.057717334 0.064195812 1.5460001
0.52416766 0.064784765 1.5460002
0.53103876 0.062821589 1.5460001
0.058895241 0.075091429 1.5460001
0.061840001 0.076563813 1.5460001
0.51768917 0.075974867 1.5460001
0.52389997 0.07468988 1.5460002
0.5330019 0.075827628 1.5460002
0.058895241 0.0853981 1.5460001
0.061840001 0.0853981 1.5460001
0.50944382 0.08834286 1.5460001
0.51533335 0.084907301 1.5460001
0.52122289 0.083925717 1.5460001
0.53447425 0.082453333 1.5460001
0.058895241 0.09128762 1.5460001
0.061840001 0.09423238 1.5460001
0.50944382 0.092760004 1.5460001
0.51337016 0.09423238 1.5460001
0.064784765 0.10453906 1.5460001
0.51415551 0.10542248 1.5460001
0.065520957 0.11484572 1.5460001
0.51570147 0.11521383 1.5460002
0.52122289 0.11779048 1.5460001
0.066257149 0.12515238 1.5460001
0.50944382 0.12662476 1.5460001
0.51503885 0.12485792 1.5460002
0.067729525 0.13398668 1.5460001
0.070674285 0.13693143 1.5460001
0.50944382 0.13545905 1.5460001
0.51238859 0.13840382 1.5460001
0.070674285 0.14429334 1.5460001
0.50826585 0.14488229 1.5460001
0.51238859 0.14282095 1.5460001
0.50870764 0.1538638 1.5460001
0.51422906 0.15496811 1.5460002
0.50944382 0.16490667 1.5460001
0.51238859 0.1634343 1.5460001
0.073619053 0.17668574 1.5460001
0.50429046 0.17521334 1.5460002
0.073619053 0.18846478 1.5460001
0.5050267 0.1858881 1.5460002
0.5050267 0.1943543 1.5460001
0.076563813 0.20760572 1.5460001
0.49766478 0.2090781 1.5460001
0.50119847 0.20377752 1.5460001
0.076563813 0.21496762 1.5460001
0.49766478 0.21496762 1.5460001
0.50060952 0.21496762 1.5460001
0.079508573 0.22380191 1.5460001
0.082453333 0.22821906 1.5460001
0.5030635 0.22576509 1.5460001
0.083925717 0.23558095 1.5460001
0.50178742 0.2361699 1.5460001
0.083925717 0.24294287 1.5460001
0.48883051 0.24736001 1.5460001
0.49570158 0.24539685 1.5460001
0.50134569 0.24367905 1.5460001
0.086134285 0.25693047 1.5460001
0.48756853 0.25409088 1.5460002
0.49324763 0.25472191 1.5460001
0.086576 0.26443964 1.5460001
0.48809433 0.26429239 1.5460001
0.49177524 0.2650286 1.5460001
0.086870484 0.27533525 1.5460001
0.48883048 0.27582607 1.5460001
0.49236423 0.27504078 1.5460001
0.088342868 0.28564191 1.5460001
0.092760004 0.28858668 1.5460001
0.48662195 0.28490573 1.5460001
0.08834286 0.29300383 1.5460001
0.092760004 0.29153144 1.5460001
0.4799962 0.29742095 1.5460001
0.48441336 0.29374 1.5460001
0.08834286 0.30331048 1.5460001
0.48420301 0.3054139 1.5460002
0.09128762 0.31656191 1.5460001
0.4799962 0.31803429 1.5460001
0.48441339 0.31508952 1.5460001
0.09128762 0.32539618 1.5460001
0.47789282 0.32602721 1.5460002
0.48490414 0.32196066 1.5460001
0.47361588 0.33570287 1.5460001
0.46674478 0.34600952 1.5460001
0.47337049 0.34232861 1.5460001
0.094232388 0.35778859 1.5460001
0.45938286 0.35484383 1.5460001
0.46401039 0.35337144 1.5460002
0.094232388 0.3636781 1.5460001
0.45938286 0.3636781 1.5460001
0.46306381 0.36588666 1.5460001
0.45938286 0.37545717 1.5460001
0.46380004 0.37545717 1.5460002
0.097177148 0.38870859 1.5460001
0.46478161 0.38576385 1.5460001
0.45938286 0.39607048 1.5460001
0.46350557 0.39400917 1.5460001
0.094232388 0.40637717 1.5460001
0.45820498 0.40343243 1.5460001
0.46232763 0.4034324 1.5460001
0.094232388 0.41521144 1.5460001
0.45938286 0.41521144 1.5460001
0.46350551 0.41580039 1.5460001
0.097177148 0.4255181 1.5460001
0.44465908 0.42846286 1.5460001
0.45459762 0.42441386 1.5460002
0.46232763 0.42110097 1.5460001
0.097177148 0.43288001 1.5460001
0.10110349 0.43582478 1.5460001
0.43876955 0.43729717 1.5460001
0.44423836 0.43498343 1.5460002
0.10306666 0.44465908 1.5460001
0.43876955 0.44465908 1.5460001
0.44423839 0.44550037 1.5460002
0.43641371 0.45584917 1.5460001
0.44564065 0.45447493 1.5460001
0.43656096 0.46453622 1.5460001
0.43582478 0.47705144 1.5460002
0.43582478 0.48539495 1.5460001
0.44171432 0.48588574 1.5460001
0.10306667 0.4961924 1.5460001
0.42797208 0.49570164 1.5460001
0.43288001 0.49324763 1.5460001
0.10404826 0.50600827 1.5460001
0.42640156 0.50443769 1.5460002
0.10601144 0.51533335 1.5460001
0.42919904 0.51533335 1.5460001
0.10601144 0.52490389 1.5460001
0.42797208 0.52416766 1.5460001
0.10769416 0.5346846 1.5460002
0.11190096 0.53594667 1.5460001
0.40932193 0.5330019 1.5460001
0.41756725 0.53417981 1.5460001
0.42515001 0.53521049 1.5460002
0.11484572 0.5418362 1.5460001
0.41742003 0.54551715 1.5460001
0.42110097 0.54478097 1.5460001
0.085784763 -0.13015619 1.5530001
0.075431429 -0.12350048 1.5530001
0.082826667 -0.1271981 1.5530001
0.059161905 -0.11240762 1.5530001
0.065078102 -0.11635175 1.5530001
0.052654099 -0.10471658 1.5530001
0.04437143 -0.093919531 1.5530001
0.042596571 -0.086376384 1.5530001
0.03845524 -0.075431436 1.5530001
0.041413333 -0.075431436 1.5530001
0.03845524 -0.068036191 1.5530001
0.041413333 -0.065078102 1.5530001
0.043103673 -0.055358641 1.5530002
0.04437143 -0.04437143 1.5530001
0.047329526 -0.035497144 1.5530001
0.047329526 -0.02514381 1.5530001
0.050287619 -0.020706667 1.5530001
0.047329526 -0.016269524 1.5530001
0.050287619 -0.011832382 1.5530001
0.047329526 -0.004437143 1.5530001
0.050287619 -0.008874286 1.5530001
0.046343494 0.0034511115 1.5530001
0.047329526 0.013311429 1.5530001
0.051273655 0.026129842 1.5530001
0.49843907 0.026622858 1.5530001
0.50524271 0.028397715 1.5530001
0.053245712 0.035497144 1.5530001
0.50780636 0.033525079 1.5530001
0.51411694 0.037272003 1.5530001
0.52506196 0.03845524 1.5530001
0.053245712 0.04437143 1.5530001
0.52654094 0.043103673 1.5530002
0.53442925 0.04437143 1.5530001
0.5428105 0.047329526 1.5530001
0.053245716 0.05472476 1.5530001
0.53689426 0.05472476 1.5530002
0.54133147 0.05472476 1.5530001
0.054231748 0.065078102 1.5530001
0.53640121 0.066064127 1.5530001
0.54133147 0.065078102 1.5530001
0.056203812 0.075431429 1.5530001
0.52949905 0.079868577 1.5530001
0.53541523 0.073952384 1.5530001
0.5428105 0.075431429 1.5530002
0.056203812 0.085784763 1.5530001
0.5176667 0.08874286 1.5530001
0.52654099 0.086524293 1.5530002
0.53499269 0.086629935 1.5530002
0.5428105 0.085784763 1.5530001
0.058175873 0.094659053 1.5530001
0.5176667 0.093180001 1.5530001
0.52506196 0.094659053 1.5530001
0.53541523 0.09465906 1.5530002
0.54231745 0.092686988 1.5530001
0.059161905 0.10205429 1.5530001
0.062120002 0.10501239 1.5530001
0.5176667 0.10649143 1.5530001
0.52299124 0.10442076 1.5530002
0.5339362 0.10205428 1.5530001
0.062120002 0.11536571 1.5530001
0.526048 0.11536571 1.5530001
0.062859528 0.12497953 1.5530001
0.5176667 0.1271981 1.5530001
0.52506191 0.12497953 1.5530002
0.065817624 0.13459334 1.5530001
0.51648343 0.13548076 1.5530001
0.52535766 0.13488916 1.553
0.5339362 0.13459334 1.5530002
0.068036191 0.14494668 1.5530001
0.51692718 0.14568619 1.5530001
0.52506191 0.14494666 1.5530001
0.5339362 0.14494666 1.5530001
0.068036191 0.15480699 1.5530001
0.070994288 0.15530001 1.5530001
0.5176667 0.15086286 1.5530001
0.52535766 0.15539861 1.553
0.53304875 0.1550042 1.5530001
0.072177522 0.16624495 1.5530001
0.51692718 0.16639286 1.5530001
0.52391154 0.16499598 1.5530002
0.07173381 0.1737881 1.5530001
0.5087924 0.17452763 1.5530001
0.51433885 0.17452762 1.5530002
0.52062476 0.17156953 1.5530001
0.07198032 0.18488097 1.5530001
0.51470858 0.18537396 1.5530002
0.52062476 0.18931811 1.5530001
0.072966352 0.19424826 1.5530001
0.51470858 0.19523431 1.5530002
0.52062476 0.19375524 1.5530001
0.075135626 0.20351696 1.5530001
0.50760919 0.20470019 1.5530001
0.51470858 0.20410855 1.5530002
0.52210379 0.20115048 1.5530001
0.073952384 0.21446191 1.5530001
0.50731337 0.21446192 1.5530002
0.51386338 0.21298288 1.5530002
0.077650003 0.22555476 1.5530001
0.50780636 0.22382921 1.5530001
0.51249003 0.22481525 1.5530001
0.079868577 0.23516858 1.5530001
0.082826667 0.23368953 1.5530001
0.50820076 0.23487277 1.5530001
0.51175052 0.23516858 1.5530001
0.50760919 0.24611354 1.5530001
0.51175052 0.2455219 1.5530001
0.49814326 0.25498781 1.5530001
0.50583434 0.2543962 1.5530002
0.51175052 0.2543962 1.5530001
0.079868577 0.26918668 1.5530001
0.082826667 0.26474953 1.5530001
0.49865031 0.26538342 1.5530002
0.50553846 0.26386207 1.5530002
0.51175052 0.26031238 1.5530001
0.079868577 0.27510285 1.5530001
0.083566189 0.27584237 1.5530001
0.49873486 0.27510285 1.5530001
0.50435525 0.27510285 1.5530001
0.084601529 0.28338555 1.5530001
0.49531662 0.28529182 1.5530002
0.50287622 0.28249812 1.5530001
0.085784763 0.29433048 1.5530001
0.48808575 0.29876763 1.5530001
0.49222708 0.29521793 1.5530001
0.086524285 0.30542335 1.5530001
0.48808575 0.30172572 1.5530001
0.49433056 0.30534115 1.5530002
0.088151239 0.31414974 1.5530001
0.49231157 0.31440327 1.5530002
0.08874286 0.3224324 1.5530001
0.48611367 0.32736254 1.5530001
0.49222708 0.32598212 1.5530001
0.47921145 0.33722287 1.5530001
0.48512766 0.33426476 1.5530002
0.49178338 0.33352527 1.5530001
0.08874286 0.34461811 1.5530001
0.47723937 0.34659016 1.5530001
0.4836486 0.34461814 1.5530002
0.091700949 0.35497141 1.5530001
0.46737906 0.35792953 1.5530001
0.47517768 0.35524035 1.5530002
0.48216954 0.35497141 1.5530001
0.091700949 0.36384574 1.5530001
0.46737906 0.36384574 1.5530001
0.47414044 0.3649022 1.5530001
0.48216954 0.36236668 1.5530001
0.094659053 0.37715715 1.5530001
0.47181618 0.37567809 1.5530001
0.094659053 0.38455239 1.5530001
0.47181618 0.38455239 1.5530001
0.094659053 0.39342669 1.5530001
0.46737906 0.39934286 1.5530001
0.47181618 0.39490572 1.5530001
0.08874286 0.40525907 1.5530001
0.46737906 0.40525904 1.5530001
0.47033715 0.40525904 1.5530001
0.091700949 0.41413331 1.5530001
0.46639302 0.41216126 1.5530001
0.47033715 0.41709143 1.5530001
0.093475819 0.42419085 1.5530001
0.46484354 0.42681092 1.5530002
0.47033715 0.42300764 1.5530001
0.095398583 0.43557957 1.5530001
0.45554665 0.43484002 1.5530002
0.46343496 0.43385398 1.5530001
0.097617149 0.44371429 1.5530001
0.10057524 0.44371429 1.5530001
0.44815147 0.44223526 1.5530001
0.45527774 0.44478998 1.5530002
0.10353335 0.45554665 1.5530001
0.4443059 0.45584249 1.5530002
0.45406762 0.45554665 1.5530001
0.10205428 0.464421 1.5530001
0.44634375 0.46507835 1.5530002
0.45258859 0.46294194 1.5530001
0.10226558 0.47414044 1.5530002
0.44404301 0.4736239 1.5530002
0.10353334 0.48808575 1.5530001
0.44608077 0.48571929 1.5530001
0.10205428 0.49548095 1.5530001
0.43705857 0.49769953 1.5530001
0.44244656 0.49400192 1.5530002
0.097617149 0.50435525 1.5530001
0.10057524 0.50583434 1.5530001
0.43533301 0.50583428 1.5530001
0.4407562 0.50287622 1.5530001
0.10205428 0.51470864 1.5530001
0.43484002 0.51411694 1.5530001
0.10353335 0.52555496 1.5530001
0.42892382 0.52949905 1.5530001
0.43610772 0.52485067 1.5530002
0.10427286 0.53541529 1.5530001
0.42714897 0.5348236 1.5530001
0.43533301 0.53541523 1.5530001
0.44174221 0.53640127 1.5530001
0.10471658 0.54310632 1.5530001
0.11240762 0.54428953 1.5530001
0.42744479 0.54428953 1.5530001
0.43520978 0.54465932 1.5530002
0.44174221 0.54231745 1.5530001
0.42744476 0.55020571 1.5530001
0.083383337 -0.13252524 1.5635
0.05969524 -0.12237524 1.567
0.066334285 -0.12298477 1.56525
0.074512385 -0.12716317 1.5646667
0.080228575 -0.12777144 1.5600001
0.047756191 -0.11043619 1.567
0.056209799 -0.11583266 1.5650002
0.063885719 -0.11885715 1.5600001
0.036414094 -0.10267581 1.567
0.044991191 -0.10374691 1.5617502
0.051504761 -0.10895238 1.5600001
0.028653715 -0.094915435 1.567
0.035691217 -0.095183484 1.5615557
0.04259048 -0.097066671 1.5600001
0.02830524 -0.084925719 1.5643752
0.035387013 -0.085090905 1.5600002
0.028288573 -0.074452385 1.5635
0.034171432 -0.074285723 1.5600001
0.028310796 -0.065564767 1.5646667
0.035285715 -0.064999998 1.5600002
0.02984762 -0.055218097 1.567
0.03568159 -0.055010319 1.5611668
0.0416 -0.050514288 1.5600001
0.02984762 -0.044771429 1.567
0.035759367 -0.044704765 1.5646669
0.0416 -0.044571429 1.5600001
0.035759367 -0.035763811 1.5646669
0.043085713 -0.035657149 1.5600001
0.02984762 -0.026862858 1.567
0.035760481 -0.025330476 1.5646667
0.043085713 -0.025257144 1.5600002
0.035817143 -0.014923809 1.5670002
0.043722451 -0.014432654 1.5600002
0.036190238 -0.0063426192 1.5670002
0.043749116 -0.0063730618 1.5610001
0.037806984 0.0034822223 1.567
0.04259048 0.0054476191 1.5600001
0.038801905 0.01492381 1.567
0.043775786 0.015302585 1.5620002
0.038801905 0.025370477 1.567
0.044633653 0.025294922 1.5623335
0.51554286 0.028228574 1.5600001
0.52336478 0.028248573 1.5611668
0.53427237 0.028355239 1.567
0.038801905 0.035817143 1.567
0.044700321 0.035763811 1.5646669
0.050514292 0.035657149 1.5600001
0.51554286 0.032685716 1.5600001
0.52445716 0.034171429 1.5600002
0.53485715 0.035657145 1.5600002
0.54418051 0.036126904 1.5643752
0.038801905 0.043279048 1.567
0.044700321 0.044704765 1.5646669
0.050514292 0.044571429 1.5600001
0.53782856 0.043085717 1.5600001
0.54497093 0.043749116 1.5610001
0.55452353 0.0451064 1.5640001
0.56471694 0.045965336 1.567
0.57008952 0.047756191 1.567
0.045864049 0.054070476 1.5661252
0.050514288 0.054971434 1.5600001
0.54822862 0.05497143 1.5600002
0.55565721 0.05497143 1.5600001
0.56561238 0.055218097 1.5670002
0.57008952 0.050740954 1.567
0.047756191 0.065664768 1.567
0.051257141 0.066114284 1.5600001
0.54822862 0.065371431 1.5600001
0.55541807 0.065518096 1.5635
0.56292611 0.064470865 1.567
0.047756191 0.074619047 1.567
0.052000001 0.074285716 1.5600001
0.54971433 0.074285723 1.5600001
0.55516571 0.074619047 1.567
0.04626381 0.085065715 1.5670002
0.052028336 0.084734045 1.5608752
0.54971433 0.084685713 1.5600001
0.55392575 0.084875718 1.5635
0.047756191 0.095512383 1.567
0.053170957 0.095565476 1.5617502
0.54773337 0.09607619 1.5600001
0.55516571 0.095512383 1.567
0.054820478 0.10543365 1.5629168
0.52891433 0.10845715 1.5600001
0.5341143 0.10697143 1.5600002
0.54372436 0.10512416 1.5606365
0.55218095 0.10446667 1.567
0.056593437 0.11518117 1.563889
0.53522855 0.11551429 1.5600002
0.54602462 0.11570477 1.5656002
0.55317587 0.11441588 1.567
0.056565292 0.12504889 1.5631113
0.53522861 0.12442857 1.5600002
0.5449267 0.12551977 1.5643752
0.55337489 0.12595697 1.567
0.056851618 0.1345499 1.5628002
0.062994286 0.13609144 1.5600001
0.54421031 0.13448858 1.5621002
0.55292714 0.13356809 1.567
0.056414891 0.14510979 1.5663638
0.063885719 0.14560001 1.5600001
0.54559916 0.14492919 1.5644547
0.55218095 0.14476095 1.567
0.057083573 0.15483452 1.5670002
0.064642452 0.15523592 1.5630001
0.53782856 0.15451428 1.5600001
0.54431665 0.15466985 1.5615557
0.55397183 0.15401372 1.567
0.058501333 0.16416191 1.567
0.065455437 0.16513428 1.5621002
0.52891433 0.16937144 1.5600001
0.53551745 0.16606985 1.5600002
0.54426461 0.16376656 1.5606365
0.55317587 0.16416191 1.567
0.05969524 0.17460857 1.567
0.065158293 0.174952 1.5621002
0.52561271 0.17564446 1.5600002
0.53485709 0.17531429 1.5600002
0.54582095 0.17480105 1.565091
0.55218095 0.17460857 1.567
0.05969524 0.18356286 1.567
0.065433651 0.18441376 1.5615557
0.51702857 0.18125714 1.5600001
0.52534854 0.18393144 1.5600002
0.53485715 0.18422858 1.5600002
0.54513144 0.18468636 1.563889
0.55292714 0.18580143 1.567
0.05969524 0.19699429 1.567
0.065513656 0.19506747 1.5635
0.074285716 0.19730286 1.5600001
0.52693343 0.19512382 1.5600002
0.53439999 0.19465758 1.5615557
0.54423088 0.19479561 1.5659231
0.55218095 0.19102477 1.567
0.05969524 0.20594858 1.567
0.06552995 0.20553821 1.563889
0.07131429 0.20502858 1.5600001
0.52636737 0.20587754 1.5600002
0.53457141 0.20548856 1.5635
0.54098809 0.20520239 1.567
0.05969524 0.21341048 1.567
0.065497361 0.21437103 1.5631113
0.07131429 0.21542858 1.5600001
0.51702857 0.2169143 1.5600001
0.52453667 0.21511188 1.5606365
0.53437209 0.21474509 1.5658334
0.5402419 0.2119181 1.567
0.066659681 0.22485206 1.5670002
0.072853334 0.22599967 1.5611668
0.51702857 0.22582859 1.5600001
0.52374053 0.22543564 1.5614002
0.53228253 0.22584699 1.567
0.06745562 0.23519924 1.567
0.074504979 0.23544805 1.5646669
0.081339054 0.23707938 1.5623335
0.51702857 0.23474286 1.5600001
0.52323365 0.23485844 1.560778
0.53277999 0.2357962 1.567
0.068649523 0.24475048 1.567
0.074580528 0.24462898 1.5662224
0.08220952 0.24761908 1.5600001
0.51702857 0.24514286 1.5600001
0.52336478 0.24532618 1.5611668
0.5320338 0.24400429 1.567
0.068649523 0.25519717 1.567
0.074561276 0.25500605 1.5658334
0.082351021 0.25511837 1.5600002
0.51702857 0.25554287 1.5600001
0.52323365 0.25567025 1.560778
0.53188455 0.25609261 1.567
0.068649523 0.26564381 1.567
0.074503496 0.26524827 1.5646669
0.080228575 0.26445717 1.5600001
0.51583999 0.26505142 1.5600001
0.52349591 0.26472235 1.5615557
0.53128761 0.26564381 1.567
0.068649523 0.27459809 1.567
0.07481353 0.27482575 1.5649002
0.080228575 0.27634287 1.5600001
0.50811428 0.27040002 1.5600001
0.51399797 0.27456471 1.5606365
0.52382571 0.27459809 1.567
0.068649523 0.28206 1.567
0.074316196 0.28533664 1.5663638
0.080971427 0.28600001 1.5600001
0.49920002 0.28822857 1.5600001
0.50633144 0.28644571 1.5600001
0.51559937 0.28544721 1.5646669
0.52531809 0.28504476 1.567
0.074992143 0.29511833 1.5670002
0.082351021 0.29374695 1.5600002
0.49920002 0.29417145 1.5600001
0.50514293 0.29417145 1.5600002
0.51508534 0.29475513 1.5631113
0.52446532 0.29591781 1.5670002
0.076275103 0.30510041 1.5660001
0.08220952 0.30407622 1.5600002
0.49820951 0.30110478 1.5600001
0.505413 0.30416629 1.5600002
0.51462948 0.30465961 1.5625457
0.52382571 0.30444571 1.567
0.074912168 0.31457102 1.5662224
0.082828574 0.31534287 1.5600002
0.49920002 0.31497145 1.5600001
0.50514287 0.31497145 1.5600002
0.51536888 0.31489238 1.567
0.52233332 0.31041524 1.567
0.076608889 0.32334921 1.567
0.08455921 0.32560936 1.5623335
0.49820951 0.32438096 1.5600001
0.50376874 0.32494423 1.5610001
0.51337904 0.32533905 1.5670002
0.086295873 0.33527872 1.5623336
0.49801144 0.33636573 1.5600001
0.50576496 0.33459163 1.5656
0.51449835 0.33503953 1.5670002
0.084742047 0.3449358 1.5650002
0.49474287 0.34468576 1.5600001
0.50465465 0.3433727 1.5615557
0.51365036 0.34487569 1.5670002
0.085334294 0.35574797 1.5629168
0.48731431 0.35657144 1.5600001
0.49474287 0.3550857 1.5599999
0.50473827 0.35535568 1.5640001
0.51039428 0.35518667 1.567
0.07760381 0.36563334 1.567
0.084869049 0.36481333 1.5635
0.48553142 0.36667427 1.5600001
0.4947429 0.3654857 1.5600001
0.50591713 0.36414096 1.567
0.07760381 0.37458763 1.567
0.084470749 0.37450719 1.564
0.092114292 0.37440002 1.5600001
0.47840002 0.37588573 1.5600001
0.48434284 0.37439999 1.5600002
0.49448824 0.37533775 1.563889
0.50342989 0.37409016 1.567
0.086177662 0.38483533 1.565091
0.092114292 0.38480002 1.5600001
0.47840002 0.38480002 1.5600001
0.48491907 0.38459796 1.5628002
0.49367961 0.38443735 1.567
0.08525832 0.39514226 1.5643077
0.092114292 0.39520001 1.5600001
0.47840002 0.39520001 1.5600001
0.48560572 0.39492071 1.563182
0.49248573 0.39100382 1.567
0.086502858 0.40524027 1.5660001
0.093302861 0.40352002 1.5600001
0.47691429 0.40411428 1.5600001
0.48411676 0.40420792 1.5620002
0.087043606 0.41471854 1.563889
0.092114292 0.41005716 1.5600001
0.4760229 0.4145143 1.5600002
0.48535484 0.41419268 1.5660001
0.086800843 0.42540383 1.5654446
0.092114292 0.42788574 1.5600001
0.47691429 0.42491433 1.5600001
0.48481062 0.42468899 1.5670002
0.088050477 0.43577525 1.567
0.092114292 0.4353143 1.5600001
0.46849525 0.43878093 1.5600001
0.47394288 0.4353143 1.5600002
0.48054668 0.43577525 1.567
0.088348955 0.44413257 1.567
0.093600005 0.44571432 1.5600001
0.46651432 0.44571427 1.5600002
0.47429845 0.44604763 1.5611668
0.48174056 0.44532648 1.567
0.088050477 0.4551762 1.5670002
0.095223501 0.45530859 1.5623336
0.10102858 0.45462859 1.5600001
0.46502861 0.45462859 1.5600001
0.47429845 0.45497081 1.5611668
0.48182586 0.45453662 1.5670002
0.088050477 0.46562287 1.567
0.095468573 0.46519068 1.5619092
0.10102858 0.46057144 1.5600001
0.45685714 0.46725714 1.5600001
0.46400002 0.46468571 1.5600001
0.47442028 0.46547765 1.5652502
0.48054668 0.46413049 1.567
0.088050477 0.47457716 1.567
0.095177568 0.47490925 1.5615557
0.44868574 0.47542858 1.5600001
0.45547757 0.47585312 1.5600002
0.46384194 0.47488436 1.5610001
0.47420406 0.47420406 1.5670002
0.48054668 0.4715924 1.567
0.088547938 0.48402891 1.567
0.09495391 0.48461524 1.5628002
0.10221715 0.48493719 1.5600001
0.44868574 0.48285717 1.5600001
0.45508492 0.48482433 1.5615557
0.46524465 0.48503569 1.5657274
0.47258732 0.48552129 1.567
0.089542858 0.49696288 1.567
0.095189057 0.49529615 1.5617501
0.10102858 0.49325716 1.5600001
0.44769526 0.49820951 1.5600001
0.45483392 0.49496549 1.5607002
0.46539322 0.49522606 1.5662224
0.47233859 0.4947243 1.567
0.089542858 0.50442481 1.567
0.094236739 0.50471842 1.5600002
0.44656327 0.50556737 1.5600002
0.4562245 0.50430995 1.5640001
0.46562284 0.50442481 1.5670002
0.08894591 0.51397598 1.567
0.095131643 0.51431495 1.560778
0.43977144 0.51257145 1.5600001
0.44571427 0.51405716 1.5600002
0.45633081 0.5144859 1.5658334
0.46413049 0.51039428 1.567
0.089542858 0.52233332 1.567
0.095634863 0.52497375 1.5642002
0.10102858 0.52445716 1.5600001
0.43977144 0.52445722 1.5600001
0.44571427 0.52445716 1.5600001
0.4549472 0.52388602 1.5640001
0.088050477 0.53725713 1.567
0.095337719 0.53480345 1.5642002
0.10102858 0.53485715 1.5600001
0.43977144 0.53485715 1.5600001
0.44613877 0.5340082 1.5600002
0.45525962 0.53480339 1.5642002
0.098057143 0.54080003 1.5600001
0.10102858 0.54080003 1.5600001
0.44749719 0.54377145 1.5600001
0.45592239 0.54322666 1.567
0.46413049 0.54322666 1.567
0.077950478 -0.1319162 1.5740001
0.056963813 -0.12292191 1.5740001
0.067457147 -0.12741905 1.5740001
0.071954288 -0.1289181 1.5740001
0.044971429 -0.11242858 1.5740001
0.052466668 -0.11692572 1.5740001
0.029980954 -0.10343429 1.5740001
0.035977144 -0.10693207 1.574
0.041973334 -0.10793144 1.5740001
0.024984127 -0.095939048 1.574
0.023984762 -0.080948576 1.5740001
0.022785524 -0.074352764 1.5740001
0.023984762 -0.065958098 1.574
0.025983492 -0.056464132 1.5740002
0.026982859 -0.044971425 1.574
0.028481906 -0.035977144 1.5740002
0.027582478 -0.024584381 1.5740001
0.028781716 -0.015590096 1.5740001
0.029980954 -0.0089942859 1.5740001
0.032979049 -0.0029980952 1.5740001
0.035977144 0.0074952384 1.5740001
0.035977144 0.014990476 1.574
0.035977144 0.025483809 1.5740001
0.54565334 0.028481906 1.5740002
0.55464768 0.029980952 1.574
0.54865146 0.032979049 1.5740001
0.55550426 0.035548843 1.5740002
0.56214285 0.037476189 1.5740001
0.038975239 0.047969524 1.5740001
0.56424159 0.042572953 1.5740001
0.57413524 0.046470478 1.5740001
0.038975239 0.053965718 1.574
0.042722858 0.057713337 1.5740001
0.57383543 0.055164956 1.5740001
0.044971425 0.065958098 1.574
0.56813908 0.067457147 1.5740001
0.57363558 0.063959368 1.574
0.043472379 0.074952386 1.5740002
0.56364191 0.074202858 1.5740002
0.041973334 0.085445724 1.5740001
0.56264257 0.084946044 1.5740002
0.043472383 0.095939048 1.5740002
0.5618431 0.095339432 1.5740001
0.045828026 0.10450504 1.5740002
0.55764574 0.10493334 1.574
0.56064385 0.10493334 1.574
0.046770286 0.113328 1.5740001
0.051567238 0.11632611 1.5740001
0.55764574 0.11692573 1.5740001
0.56289238 0.11692572 1.5740002
0.047969524 0.12592 1.5740001
0.050967623 0.12592001 1.574
0.55464768 0.12292191 1.5740001
0.56244272 0.12592 1.5740001
