# .PCD v0.7 - Point Cloud Data file format
VERSION 0.7
FIELDS x y z
SIZE 4 4 4
TYPE F F F
COUNT 1 1 1
WIDTH 1495
HEIGHT 1
VIEWPOINT 0 0 0 1 0 0 0
POINTS 1495
DATA ascii
-0.11888 -0.065100953 1.4860001
-0.20217685 -0.055800814 1.4860001
-0.19530286 -0.055194288 1.4860001
-0.18506475 -0.055099282 1.4833748
-0.17548953 -0.055194285 1.4860001
-0.16558288 -0.055194292 1.4860001
-0.15426096 -0.055194292 1.4860001
-0.14435428 -0.055194292 1.4860001
-0.13444762 -0.058024764 1.4860001
-0.12312572 -0.059440002 1.4860001
-0.11888 -0.058024764 1.4860001
-0.19530286 -0.045287617 1.4860001
-0.18539619 -0.045287613 1.4860001
-0.17548953 -0.045287617 1.4860001
-0.16558285 -0.04528762 1.4860001
-0.15426095 -0.04528762 1.4860001
-0.14435428 -0.045287617 1.4860001
-0.13869333 -0.043872382 1.4860001
-0.19530286 -0.035380948 1.4860001
-0.18539619 -0.035380952 1.4860001
-0.17548954 -0.035380948 1.4860001
-0.16558288 -0.035380952 1.4860001
-0.1543553 -0.035664 1.4860001
-0.14364666 -0.03644238 1.4860001
-0.19577461 -0.026417777 1.4860001
-0.18492445 -0.025474288 1.4860001
-0.17513572 -0.025474284 1.4860001
-0.1669981 -0.025474284 1.4860001
-0.15496857 -0.027597144 1.4860001
-0.14435428 -0.028304763 1.4860001
-0.19247238 0 1.4860001
-0.18822667 0 1.4860001
0.13303238 0.039626669 1.4860001
0.1465905 0.037775241 1.48
0.15598857 0.038435049 1.4836
0.16242382 0.038137145 1.483
0.17737651 0.038683176 1.4860001
0.18468858 0.03891905 1.4860001
0.19517143 0.038184766 1.485
0.20096381 0.038211431 1.4860001
0.24625142 0.039626669 1.4860001
0.2556324 0.039546669 1.483
0.37503809 0.036796194 1.4860001
0.38777524 0.038211431 1.4860001
0.39060572 0.036796194 1.4860001
-0.17265905 0.048118096 1.4860001
-0.16533428 0.046629995 1.4837501
-0.15818667 0.046605714 1.483
-0.14396191 0.047988575 1.482
-0.13586286 0.048118096 1.4860001
-0.12420952 0.047988575 1.482
-0.11522191 0.047361903 1.4845001
-0.10472763 0.048118096 1.4860001
-0.093158096 0.047988575 1.482
-0.073295243 0.047923811 1.48
-0.055194288 0.048118096 1.4860001
-0.039466668 0.047923811 1.48
0.0084571429 0.042285714 1.48
0.012685714 0.042285714 1.48
0.10994286 0.043695241 1.48
0.11614476 0.043413334 1.48
0.12549904 0.045121908 1.4805998
0.13491276 0.044874288 1.4817998
0.14433953 0.0448181 1.48225
0.15581279 0.044400543 1.4834287
0.16508143 0.045149047 1.4814999
0.17501904 0.045633655 1.482
0.18498044 0.045407791 1.4816364
0.19468953 0.045142859 1.4813334
0.20479716 0.04519238 1.4829999
0.21502095 0.045266028 1.4853333
0.22540884 0.045544934 1.4860001
0.23492953 0.045287617 1.4860001
0.2448362 0.04528762 1.4860001
0.25433853 0.046096325 1.4860001
0.26464954 0.047174603 1.4860001
0.27455619 0.047410477 1.4860001
0.28361371 0.047552001 1.4860001
0.29436955 0.048118096 1.4860001
0.30342707 0.047552001 1.4860001
0.31559813 0.048118096 1.4860001
0.32607087 0.046985906 1.4860001
0.33470386 0.046349045 1.4860001
0.36230096 0.04528762 1.4860001
0.37503809 0.048118096 1.4860001
0.38706762 0.045995239 1.4860001
0.3928701 0.046419811 1.4860001
0.42457145 0.048118096 1.4860001
-0.18398096 0.059440002 1.4860001
-0.17513524 0.053196829 1.4830002
-0.16914286 0.050742857 1.48
-0.056380954 0.050742857 1.48
0.15504763 0.050742857 1.48
0.16773334 0.050742857 1.48
0.17384128 0.051682543 1.48
0.1832381 0.050742857 1.48
0.19733334 0.050742857 1.48
0.20485082 0.052935448 1.48
0.21622095 0.052998096 1.4799999
0.22560096 0.054988578 1.4804997
0.23536226 0.055308957 1.4815998
0.24520499 0.05472615 1.4823076
0.25503486 0.055481095 1.4829999
0.26471892 0.054674011 1.483
0.27509177 0.055353142 1.4827999
0.28464353 0.054709442 1.481846
0.29518619 0.055080712 1.4829999
0.30456099 0.054988567 1.4804997
0.31456313 0.055009995 1.4811249
0.32584155 0.055340189 1.4823998
0.33597362 0.0547956 1.4841537
0.34531811 0.056609526 1.4860001
0.35522479 0.059440002 1.4860001
0.36553577 0.057418235 1.4860001
0.37491429 0.055414863 1.4843999
0.38513985 0.05533791 1.4824001
0.39533976 0.054794721 1.4841539
0.40504113 0.056043427 1.4860001
0.41284519 0.055800814 1.4860001
0.4248288 0.054808319 1.4860001
0.43419504 0.05547734 1.4860001
0.47835049 0.053779051 1.4860001
-0.19169524 0.064838096 1.48
-0.18964191 0.062270477 1.4860001
0.22834286 0.06201905 1.48
0.23623617 0.064556196 1.4799999
0.24525714 0.064838096 1.48
0.25512385 0.064838096 1.4799999
0.26511112 0.064868584 1.4806666
0.27477506 0.064656623 1.4816364
0.2843886 0.065174863 1.4812
0.29518762 0.064969517 1.4829999
0.30445716 0.064838096 1.48
0.31432387 0.064838096 1.4799999
0.3256 0.064838104 1.4799999
0.33561778 0.064868577 1.4806665
0.34531808 0.065100946 1.4860001
0.35509613 0.065100946 1.4860001
0.36555621 0.064925708 1.4819999
0.37493336 0.064838096 1.48
0.38339049 0.064838096 1.48
0.39378572 0.064925723 1.4819999
0.40439495 0.065042533 1.4846666
0.41395715 0.065454759 1.4860001
0.42457148 0.065100946 1.4860001
0.43341666 0.065454759 1.4860001
-0.19530286 0.070761904 1.4860001
0.22834286 0.077523813 1.48
0.23623617 0.075268582 1.4799999
0.24525715 0.074704774 1.4799999
0.25512382 0.074704766 1.4799998
0.26562095 0.074882858 1.4835
0.2744638 0.074980959 1.4855
0.2844629 0.075007617 1.4860001
0.29548192 0.074931905 1.4844999
0.30445716 0.074704766 1.4799999
0.31432387 0.074704774 1.4799998
0.32560003 0.074704766 1.4799998
0.33546665 0.074704759 1.4799999
0.34532684 0.075232394 1.4825714
0.35531703 0.074490614 1.4838572
0.36506662 0.074704766 1.4799998
0.37493333 0.074704759 1.4799999
0.38339046 0.074704759 1.4799999
0.39395213 0.074839048 1.4826249
0.40421525 0.074910477 1.4840001
0.41324952 0.073592387 1.4860001
0.42551497 0.074535877 1.4860001
0.4342759 0.074401088 1.4860001
0.45287621 0.076422863 1.4860001
0.20297143 0.084571429 1.48
0.22721525 0.085135236 1.48
0.23539047 0.084571429 1.4799999
0.24525714 0.084571421 1.48
0.25512382 0.084571421 1.4799999
0.26571047 0.084800005 1.4840001
0.27406475 0.084760636 1.4833333
0.2844629 0.084914289 1.4860001
0.2948145 0.084598094 1.4854
0.30539683 0.083631754 1.48
0.31432387 0.084571421 1.4799999
0.3256 0.084571429 1.4799999
0.33546665 0.084571429 1.48
0.34533334 0.084571421 1.4799999
0.35520002 0.084571421 1.48
0.36506668 0.084571421 1.4799999
0.37493336 0.084571429 1.48
0.38390985 0.084688246 1.4819999
0.39432001 0.084800005 1.4839998
0.40381464 0.084442548 1.4860001
0.4266943 0.084206671 1.4860001
0.43447813 0.084914289 1.4860001
0.44438478 0.086329527 1.4860001
0.45146096 0.084914289 1.4860001
0.1888762 0.098666668 1.48
0.20720002 0.098666668 1.48
0.21988572 0.095847629 1.48
0.2264635 0.094907932 1.48
0.23539045 0.094438091 1.4799998
0.24525714 0.094438098 1.4799999
0.25512385 0.094438091 1.4799998
0.26508003 0.094468564 1.4804999
0.27372763 0.094533332 1.4814998
0.28446287 0.094820961 1.4860001
0.29517943 0.095001914 1.4844
0.30445716 0.096787304 1.48
0.31432387 0.094438091 1.4799998
0.32560003 0.094438098 1.4799998
0.33546665 0.094438098 1.4799999
0.34533328 0.094438091 1.4799998
0.35532001 0.094471425 1.4804997
0.36537448 0.094313912 1.4824001
0.37566888 0.095062271 1.4846154
0.38468745 0.094949603 1.4860001
0.39485139 0.094820954 1.4860001
0.40287113 0.092462219 1.4860001
0.43759164 0.093971811 1.4860001
0.44464207 0.094434977 1.4860001
0.45004573 0.093405716 1.4860001
0.1888762 0.10524445 1.48
0.19491699 0.10631837 1.4800001
0.20478369 0.10591566 1.4799998
0.21565717 0.10571431 1.4799998
0.22552378 0.10571429 1.4799999
0.23539045 0.10571431 1.4799998
0.24525714 0.10571429 1.4799999
0.25512385 0.1057143 1.4799998
0.26493165 0.1054078 1.4810907
0.27487478 0.1052284 1.4821817
0.28464001 0.10439134 1.4849091
0.29548192 0.10462192 1.4844999
0.3042987 0.10491201 1.4805998
0.31432387 0.10571429 1.4799998
0.32484877 0.10508344 1.483
0.33399624 0.10391891 1.4860001
0.34553197 0.10321905 1.4817142
0.35628623 0.10402001 1.4860001
0.36513144 0.10302935 1.4860001
0.37519538 0.10378412 1.4860001
0.38494474 0.10302935 1.4860001
0.39202094 0.10189715 1.4860001
0.44580001 0.10189715 1.4860001
0.45004573 0.10189715 1.4860001
0.1888762 0.11417143 1.48
0.19486666 0.11522857 1.48
0.20522669 0.11558095 1.4799999
0.21565716 0.11558094 1.4799999
0.22552381 0.11558095 1.48
0.23539044 0.11558095 1.4799999
0.24525717 0.11558095 1.48
0.25512382 0.11558095 1.4799999
0.26581413 0.11525027 1.483
0.27455619 0.1146343 1.4860001
0.2847459 0.11491732 1.4860001
0.29248258 0.11369079 1.4860001
0.30379304 0.11469942 1.4832
0.31432387 0.11558094 1.4799999
0.3253853 0.11497872 1.4854546
0.33508489 0.11496089 1.4860001
0.34563258 0.11542053 1.4860001
0.35522479 0.11640334 1.4860001
0.36230096 0.11604953 1.4860001
0.38777527 0.11416254 1.4860001
0.39343619 0.11888 1.4860001
0.19592381 0.12121905 1.48
0.20649526 0.1219238 1.48
0.21565719 0.12544763 1.4799998
0.22552378 0.12544763 1.4799999
0.23510855 0.12516573 1.4799998
0.24525714 0.12544763 1.4799999
0.254287 0.12432126 1.4833333
0.26456097 0.12449998 1.4855
0.27455619 0.12454095 1.4860001
0.2844629 0.12454096 1.4860001
0.29490924 0.12531301 1.4840001
0.30411667 0.12516016 1.4804612
0.31404197 0.12516573 1.4799998
0.32540366 0.1251716 1.4843636
0.33542654 0.12414338 1.4843636
0.34531811 0.12454095 1.4860001
0.35506758 0.12485545 1.4860001
0.36371619 0.12595619 1.4860001
0.37564465 0.12615837 1.4860001
0.38616678 0.12599789 1.4846666
0.39343619 0.12454094 1.4860001
0.21622095 0.13475049 1.4799999
0.22552381 0.13531429 1.48
0.23500603 0.13557054 1.4799999
0.24485961 0.13489144 1.4838182
0.25501919 0.13447209 1.4850769
0.2649326 0.13435327 1.4860001
0.27446377 0.13440095 1.4855
0.28446287 0.1344476 1.4860001
0.29477432 0.13431048 1.4844999
0.30473018 0.13543874 1.4813333
0.31592467 0.1354274 1.4860001
0.32635185 0.1348166 1.4834286
0.33639124 0.13412102 1.4860001
0.34531811 0.13444762 1.4860001
0.35475302 0.13350414 1.4860001
0.36432272 0.1346498 1.4860001
0.37503812 0.1344476 1.4860001
0.38524419 0.13443658 1.4827999
0.39485145 0.13444762 1.4860001
0.1888762 0.14377144 1.48
0.19395046 0.14715429 1.48
0.20438097 0.14518094 1.4799998
0.21565717 0.14518094 1.4799998
0.2253345 0.14439467 1.4805998
0.2345092 0.14409906 1.4833333
0.2448362 0.1443543 1.4860001
0.25474286 0.14435428 1.4860001
0.26472735 0.14465174 1.4846153
0.27361256 0.14456955 1.4823999
0.2844629 0.1443543 1.4860001
0.2936959 0.14472508 1.485
0.30432549 0.14499322 1.4842856
0.31503955 0.14550668 1.4833748
0.32560006 0.14518096 1.4799998
0.33642858 0.14462896 1.483
0.34531808 0.14435428 1.4860001
0.35569656 0.14529777 1.4860001
0.36513141 0.14435428 1.4860001
0.37501219 0.14465523 1.4846153
0.38355914 0.14495653 1.4816362
0.39343619 0.14435428 1.4860001
0.19451427 0.15545036 1.4800001
0.20438097 0.15504764 1.4799999
0.21565716 0.15504764 1.4799999
0.22653125 0.15453266 1.4849091
0.23492955 0.15426095 1.4860001
0.24483621 0.15426096 1.4860001
0.25474286 0.15426096 1.4860001
0.26429409 0.15450287 1.4856
0.27461404 0.15453266 1.4849091
0.28446287 0.15426095 1.4860001
0.29512081 0.15473281 1.4847143
0.30429754 0.15454438 1.4806
0.31432387 0.15504764 1.4799999
0.3256 0.15504764 1.4799999
0.33607587 0.15441734 1.4838182
0.34532279 0.15439063 1.4841539
0.35531655 0.15389256 1.4852
0.36513141 0.15426095 1.4860001
0.37465295 0.15450211 1.4856
0.38514945 0.15493299 1.4838182
0.39502853 0.15412471 1.4856
0.40475813 0.15709144 1.4860001
0.41289571 0.15567622 1.4860001
0.19507809 0.16463239 1.4799999
0.20438097 0.1649143 1.4799998
0.21565717 0.16491431 1.4799998
0.22598381 0.16524762 1.4829999
0.23492955 0.16558287 1.4860001
0.2448362 0.16558287 1.4860001
0.25474286 0.16558285 1.4860001
0.26464951 0.16558288 1.4860001
0.27455619 0.16558285 1.4860001
0.2844629 0.16558285 1.4860001
0.29548195 0.16541573 1.4844999
0.30445716 0.16491427 1.4799999
0.31432387 0.16491428 1.4799998
0.32484862 0.16525334 1.4829999
0.33446798 0.16463937 1.4860001
0.3459076 0.16482097 1.4855
0.35531726 0.16577831 1.4852
0.36432272 0.16416763 1.4860001
0.3752403 0.16295457 1.4860001
0.38494477 0.16275239 1.4860001
0.39555904 0.1631062 1.4860001
0.40447503 0.16473372 1.4860001
0.41324952 0.16416763 1.4860001
0.1888762 0.17760001 1.48
0.19451429 0.17478096 1.48
0.20438097 0.17478096 1.4799999
0.21565716 0.17478096 1.4799999
0.22623618 0.17533462 1.4846667
0.23492953 0.17548954 1.4860001
0.24483617 0.17548954 1.4860001
0.25474286 0.17548953 1.4860001
0.26464954 0.17548954 1.4860001
0.27491 0.17513572 1.4860001
0.2838563 0.17387211 1.4860001
0.2940667 0.17319238 1.4845001
0.30454895 0.17568348 1.4854546
0.31485528 0.17507811 1.4825
0.32550478 0.17548952 1.4860001
0.33505765 0.17655095 1.4860001
0.34645027 0.17492343 1.4860001
0.35412404 0.17486054 1.4860001
0.36513147 0.17548953 1.4860001
0.16478612 0.18631344 1.4799999
0.1888762 0.18605715 1.48
0.1950781 0.18492953 1.4799999
0.20438097 0.18464762 1.4799998
0.21505308 0.1846476 1.4799998
0.2256294 0.18539621 1.4860001
0.23492955 0.18539619 1.4860001
0.2448362 0.18539621 1.4860001
0.25474286 0.18539619 1.4860001
0.26366973 0.18506959 1.4860001
0.27738667 0.18822667 1.4860001
0.28587809 0.18822667 1.4860001
0.29153907 0.18964191 1.4860001
0.30419832 0.18535049 1.485625
0.31504169 0.1850719 1.483375
0.32550478 0.18539619 1.4860001
0.33541149 0.18539621 1.4860001
0.34343112 0.18586795 1.4860001
0.35324341 0.18624534 1.4860001
0.36654669 0.18115048 1.4860001
0.14753017 0.19639365 1.48
0.15545034 0.19531973 1.4800001
0.16491428 0.19451429 1.4799999
0.17196192 0.19733334 1.48
0.18746668 0.19451429 1.48
0.19451429 0.19451429 1.48
0.20438097 0.19451427 1.4799999
0.21565716 0.19451429 1.4799999
0.22633778 0.19521397 1.4853333
0.23482415 0.19521397 1.4853333
0.24483617 0.19530286 1.4860001
0.25438905 0.19494903 1.4860001
0.26323429 0.19360457 1.4860001
0.27597141 0.19388762 1.4860001
0.28446287 0.19586895 1.4860001
0.29500517 0.19680598 1.4851428
0.30410218 0.19468397 1.4832727
0.31559813 0.19530286 1.4860001
0.32503304 0.19483112 1.4860001
0.33576527 0.19424142 1.4860001
0.34390289 0.19247238 1.4860001
0.1482819 0.20297143 1.48
0.15504764 0.20438097 1.4799999
0.1649143 0.20438097 1.4799998
0.17478096 0.20438097 1.4799999
0.18492953 0.20466287 1.4799998
0.19451427 0.20438097 1.4799999
0.20438097 0.20438097 1.4799998
0.21511431 0.20403865 1.4804285
0.2254996 0.20549797 1.4851428
0.23492955 0.20520951 1.4860001
0.2448362 0.20520951 1.4860001
0.27738667 0.20096381 1.4860001
0.28540632 0.20190732 1.4860001
0.29561684 0.20375399 1.4839998
0.30456099 0.2044486 1.4804997
0.31544095 0.20510523 1.48525
0.32493868 0.20549257 1.4860001
0.33373892 0.20508088 1.4860001
0.12967619 0.21424763 1.48
0.13503239 0.21650286 1.4799999
0.14095239 0.21988572 1.48
0.15786667 0.21424763 1.48
0.1651962 0.21537527 1.4799998
0.17478096 0.21565717 1.4799999
0.18514432 0.21488442 1.4813844
0.19477715 0.21454094 1.4819999
0.20458764 0.21446763 1.4814998
0.21492192 0.21492574 1.4846667
0.22502287 0.2151162 1.4860001
0.23492953 0.21476242 1.4860001
0.24483621 0.2151162 1.4860001
0.25191239 0.21794668 1.4860001
0.29517907 0.21185715 1.483
0.30410117 0.2149808 1.4832727
0.3155981 0.21511622 1.4860001
0.32550478 0.2151162 1.4860001
0.33258095 0.2151162 1.4860001
0.1240381 0.22834286 1.48
0.13531429 0.22552381 1.48
0.14659049 0.22665143 1.48
0.15673904 0.22608764 1.48
0.1649143 0.22552378 1.4799999
0.17478096 0.22552381 1.48
0.18451427 0.22457451 1.4811997
0.19504286 0.22471809 1.4839998
0.20520952 0.22502282 1.4860001
0.21511622 0.22502284 1.4860001
0.22482069 0.22542718 1.4860001
0.23492953 0.22518009 1.4860001
0.24483621 0.22502282 1.4860001
0.25474286 0.22502285 1.4860001
0.26181906 0.22926858 1.4860001
0.28587809 0.22832508 1.4860001
0.29295433 0.22643811 1.4860001
0.3035686 0.2238435 1.4860001
0.31559813 0.22219239 1.4860001
0.32550478 0.22219239 1.4860001
0.33352447 0.22313589 1.4860001
0.087390482 0.23820955 1.48
0.13531429 0.23257144 1.48
0.14607793 0.23423721 1.4799999
0.15504764 0.23539047 1.4799999
0.16469361 0.23456234 1.4809228
0.17501716 0.23430096 1.4819999
0.18492952 0.23510855 1.4799998
0.19440347 0.23517852 1.4810909
0.20520954 0.23492956 1.4860001
0.2151162 0.23492956 1.4860001
0.22417369 0.23464648 1.4860001
0.24483618 0.23436347 1.4860001
0.25438905 0.23457572 1.4860001
0.26040381 0.23209906 1.4860001
0.33116573 0.23776001 1.4860001
0.10461799 0.2458836 1.48
0.11370159 0.24713652 1.48
0.14659047 0.24525714 1.48
0.15504764 0.24525714 1.48
0.16577907 0.24498744 1.4852
0.17548953 0.24483617 1.4860001
0.18489377 0.24558827 1.4846153
0.19527277 0.24528992 1.4836
0.20520952 0.24483618 1.4860001
0.2151162 0.2448362 1.4860001
0.22239457 0.24342096 1.4860001
0.25191239 0.24059048 1.4860001
0.087390482 0.25371429 1.48
0.094438098 0.25606349 1.48
0.10641906 0.25488892 1.4799999
0.11558095 0.25512385 1.4799999
0.12512235 0.25609967 1.4799998
0.1358781 0.25822479 1.48
0.14518096 0.25512385 1.4799998
0.15517564 0.25448269 1.4811999
0.16589008 0.25540134 1.4851428
0.17513525 0.25563526 1.4829999
0.1851525 0.25566477 1.4848
0.19486438 0.25509983 1.4848
0.20520954 0.25474286 1.4860001
0.2151162 0.25474286 1.4860001
0.22077715 0.25474286 1.4860001
0.30852193 0.25757334 1.4860001
0.31276762 0.25757334 1.4860001
0.32833526 0.25757334 1.4860001
0.087390482 0.26217145 1.48
0.10853334 0.26217145 1.48
0.11614476 0.26329908 1.48
0.12544763 0.26499051 1.4799999
0.13531429 0.26499051 1.48
0.14484954 0.26508918 1.4805454
0.15437013 0.26401469 1.481846
0.16460545 0.26433527 1.4808569
0.17494096 0.26523051 1.4813333
0.18527913 0.26529965 1.4841539
0.19548954 0.26493886 1.4854546
0.20460299 0.26444739 1.4860001
0.2151162 0.26323429 1.4860001
0.22396144 0.26217288 1.4860001
0.30594876 0.26503551 1.4860001
0.3132394 0.26480675 1.4860001
0.32833526 0.26040381 1.4860001
0.33965716 0.26323429 1.4860001
0.34248763 0.26323429 1.4860001
0.087390482 0.27626666 1.48
0.091619059 0.27767619 1.48
0.10712381 0.27661908 1.48
0.11558095 0.27524155 1.4799999
0.12572953 0.275139 1.4799998
0.13549967 0.27381968 1.4819999
0.1442908 0.27443427 1.4853333
0.15412632 0.27456525 1.4836922
0.16541524 0.27428189 1.4845001
0.17525333 0.27419049 1.4839998
0.18514664 0.27419046 1.4839998
0.19521651 0.2744343 1.4853333
0.20482355 0.27481347 1.4860001
0.2151162 0.27491 1.4860001
0.22304153 0.27625448 1.4860001
0.30569148 0.27314094 1.4860001
0.31229588 0.27266923 1.4860001
0.085980952 0.28472385 1.48
0.093592383 0.28500569 1.4799999
0.10599619 0.28472382 1.4799999
0.11584381 0.28536761 1.4833333
0.12454094 0.28587809 1.4860001
0.13473067 0.2847459 1.4860001
0.14435428 0.2844629 1.4860001
0.15416661 0.2847459 1.4860001
0.16558287 0.2844629 1.4860001
0.17548954 0.2844629 1.4860001
0.18549055 0.28417981 1.4860001
0.19530284 0.2844629 1.4860001
0.20414811 0.28304762 1.4860001
0.21653144 0.28304762 1.4860001
0.22441633 0.28486723 1.4860001
0.23422192 0.28800094 1.4860001
0.035801906 0.2965638 1.4799999
0.045104761 0.29769143 1.48
0.053561907 0.29740953 1.48
0.076114289 0.29646984 1.48
0.084827706 0.29471862 1.4799999
0.094438083 0.29459047 1.4799998
0.1057143 0.29459047 1.4799998
0.1158451 0.29384252 1.4833333
0.12454095 0.29436955 1.4860001
0.13444762 0.29436955 1.4860001
0.14435428 0.29436955 1.4860001
0.15426098 0.29436952 1.4860001
0.16558287 0.29436955 1.4860001
0.17468083 0.29477388 1.4860001
0.19530286 0.29720002 1.4860001
0.20591715 0.2964924 1.4860001
0.21794668 0.29295433 1.4860001
0.22518012 0.29342604 1.4860001
0.23492952 0.29295433 1.4860001
-0.20391111 0.30633649 1.48
0.026311113 0.30633649 1.48
0.035238098 0.30445716 1.4799999
0.045104761 0.30445716 1.48
0.05497143 0.30445716 1.4799999
0.064838096 0.30445716 1.48
0.074704766 0.30445716 1.4799999
0.084571429 0.30445716 1.48
0.094500951 0.30466479 1.4809998
0.10532988 0.30471346 1.4799999
0.11547165 0.30378756 1.4841537
0.1248586 0.30388516 1.4846154
0.13473065 0.30437055 1.4860001
0.14435428 0.30427623 1.4860001
0.15426095 0.3042762 1.4860001
0.16558288 0.30427623 1.4860001
0.17548954 0.3042762 1.4860001
0.18185809 0.30215335 1.4860001
0.19530286 0.3007381 1.4860001
0.20709652 0.30286098 1.4860001
0.21299335 0.30498382 1.4860001
-0.20562939 0.31246969 1.4817142
0.012685714 0.31009525 1.48
0.026311113 0.31479371 1.48
0.035238095 0.31432387 1.4799998
0.045104761 0.31432384 1.4799999
0.055029288 0.31464598 1.4814998
0.06488096 0.3145391 1.4809998
0.07476119 0.3145653 1.4811248
0.084659047 0.31464002 1.4815
0.094508097 0.31456029 1.4811248
0.1049354 0.31459108 1.4827691
0.11488687 0.3157973 1.4856
0.12454095 0.3155981 1.4860001
0.1344476 0.3155981 1.4860001
0.14461161 0.31572679 1.4860001
0.15438962 0.31444022 1.4860001
0.16577829 0.31514743 1.4852
0.17407429 0.31418288 1.4860001
0.026982313 0.32499593 1.4800001
0.034912825 0.32527468 1.4799998
0.045104761 0.3256 1.4799999
0.054684632 0.3256523 1.4829999
0.064956196 0.32477844 1.4826666
0.074956201 0.32528767 1.485
0.084982507 0.32581511 1.4827272
0.094535232 0.32592791 1.4814998
0.10472763 0.32550478 1.4860001
0.11493661 0.32602778 1.4847143
0.12414856 0.32617038 1.4843636
0.13444762 0.32550478 1.4860001
0.14435428 0.32515097 1.4860001
0.15850668 0.3226743 1.4860001
0.16133715 0.3226743 1.4860001
-0.050742857 0.33546668 1.48
-0.037352383 0.33546668 1.48
-0.014095238 0.33828571 1.48
-0.0056380951 0.33828571 1.48
0 0.33828571 1.48
0.028190477 0.33264762 1.48
0.033828571 0.33335239 1.48
0.045457143 0.33511427 1.48
0.055407617 0.33485225 1.480857
0.065059043 0.33518386 1.485
0.075007617 0.33541149 1.4860001
0.084322661 0.33503658 1.4806
0.09469524 0.33637622 1.4839998
0.10472763 0.33541146 1.4860001
0.11416217 0.33582538 1.4851428
0.1247257 0.33598971 1.4848
0.13444762 0.33541149 1.4860001
0.14576954 0.33328861 1.4860001
0.15001525 0.33682668 1.4860001
-0.084571429 0.34392384 1.48
-0.043225396 0.34580317 1.48
-0.037775241 0.34448761 1.48
-0.025371429 0.34533334 1.48
-0.015222858 0.34505144 1.4799998
-0.0056380951 0.34533334 1.4799999
0.0030753247 0.34443638 1.4799999
0.017478095 0.3484343 1.48
0.026311113 0.34768257 1.48
0.034341123 0.34674287 1.4799999
0.045668572 0.34589714 1.4799999
0.054971427 0.34533331 1.4799998
0.064905711 0.34568095 1.4814998
0.07483834 0.34594053 1.4826249
0.084394664 0.34490478 1.4817998
0.094820946 0.34531808 1.4860001
0.10472763 0.34531811 1.4860001
0.11463428 0.34531808 1.4860001
0.12454095 0.34531811 1.4860001
0.13303238 0.34531808 1.4860001
-0.085980952 0.35238096 1.48
-0.078933336 0.35238096 1.48
-0.025371429 0.35801905 1.48
-0.015120346 0.35494375 1.4799999
-0.0056380951 0.35520002 1.48
0.0038441562 0.35494375 1.4799999
0.018323809 0.35520002 1.48
0.02537143 0.35520002 1.48
0.035238098 0.35520002 1.4799999
0.045104761 0.35520002 1.48
0.054971427 0.35520002 1.4799999
0.064838096 0.35520002 1.48
0.074809529 0.35568002 1.4819999
0.085111342 0.35534999 1.4849091
0.094820946 0.35522476 1.4860001
0.10512879 0.35543969 1.4855385
0.11491732 0.3549417 1.4860001
0.12454095 0.35522482 1.4860001
0.1330324 0.35522482 1.4860001
0.14223143 0.35734764 1.4860001
-0.042285714 0.36083812 1.48
-0.039466668 0.36083812 1.48
-0.028190477 0.36929524 1.48
-0.014095238 0.36506668 1.4799999
-0.0058943722 0.36545113 1.4799999
0.0039466666 0.36704001 1.4799999
0.016263736 0.36582565 1.4799998
0.02537143 0.36506668 1.4799999
0.035238098 0.36506662 1.4799998
0.045104761 0.36506668 1.4799999
0.05460218 0.36467484 1.480857
0.064838096 0.36506668 1.4799999
0.074645571 0.36431855 1.4809228
0.084914289 0.36513141 1.4860001
0.094820946 0.36513141 1.4860001
0.10603144 0.36476281 1.4844999
0.11589715 0.36464003 1.4839998
0.12406921 0.36418796 1.4860001
0.13161714 0.36230096 1.4860001
-0.20237906 0.37503812 1.4860001
-0.19733334 0.37493336 1.48
-0.043977141 0.37606099 1.48
-0.035842177 0.37573877 1.4800001
-0.028190477 0.37493336 1.48
-0.013742858 0.3749333 1.48
-0.0039466666 0.37436956 1.48
0.0042285714 0.37493333 1.4799999
0.015504762 0.37493333 1.4799999
0.02537143 0.37493336 1.48
0.035238098 0.37493333 1.4799999
0.045147941 0.37527111 1.4813333
0.055567622 0.37542835 1.4851428
0.064984128 0.37578037 1.4833333
0.075101972 0.37532118 1.4860001
0.084914289 0.37503812 1.4860001
0.094820954 0.37503812 1.4860001
0.10447031 0.37465218 1.4860001
0.11321906 0.37240982 1.4860001
-0.20206097 0.38552815 1.4851428
-0.19451429 0.38339049 1.48
-0.070476197 0.38761908 1.48
-0.065120004 0.38479999 1.4799999
-0.055065397 0.38508189 1.4799998
-0.045910206 0.38298777 1.4800001
-0.036647618 0.38339052 1.48
-0.028190477 0.38480002 1.48
-0.014528937 0.38490841 1.4799998
-0.0053818184 0.38518441 1.4799999
0.0042285714 0.38479999 1.4799998
0.015522721 0.38464162 1.4817141
0.02538 0.38493046 1.4804997
0.035285715 0.38391235 1.4819999
0.045287617 0.38494477 1.4860001
0.05515619 0.38468763 1.485
0.065100946 0.38494477 1.4860001
0.074158475 0.38522783 1.4860001
0.084914289 0.38400126 1.4860001
0.092933975 0.384473 1.4860001
0.10331239 0.38211429 1.4860001
-0.20160684 0.39587507 1.4824001
-0.19733334 0.39748573 1.48
-0.10289524 0.39466667 1.48
-0.093028575 0.39325714 1.48
-0.074704766 0.39748573 1.48
-0.064890668 0.39442173 1.4811999
-0.054971434 0.39466667 1.48
-0.045104761 0.39466667 1.48
-0.034634013 0.39587483 1.4800001
-0.028190477 0.39466667 1.48
-0.01550476 0.39466667 1.4799999
-0.0056380951 0.39466667 1.48
0.0042285714 0.39466667 1.4799999
0.015558639 0.39523104 1.4851428
0.025442543 0.39573589 1.4839998
0.035380952 0.39485148 1.4860001
0.045691971 0.39303184 1.4860001
0.055288635 0.39456838 1.4860001
0.064843632 0.39472276 1.4860001
0.075007625 0.39060572 1.4860001
0.082083814 0.39060572 1.4860001
0.091990478 0.39272857 1.4860001
0.1075581 0.39768189 1.4860001
-0.2028508 0.4028711 1.4860001
-0.19733334 0.40453333 1.48
-0.075409532 0.40277144 1.48
-0.065777779 0.40406352 1.48
-0.045457143 0.4055905 1.48
-0.034084853 0.40466148 1.4799999
-0.025958097 0.40514439 1.4812
-0.015504762 0.40312383 1.48
-0.0063428571 0.40312383 1.48
0.0045104763 0.40443939 1.4799998
0.015230475 0.4048138 1.4846153
0.025474284 0.4047581 1.4860001
0.035380952 0.40475807 1.4860001
0.04528762 0.40617332 1.4860001
0.055666029 0.40334287 1.4860001
0.064393334 0.40263522 1.4860001
0.1075581 0.4075886 1.4860001
-0.074234925 0.41580954 1.48
-0.064867303 0.41458672 1.4806665
-0.054843295 0.41465634 1.4799999
-0.045104761 0.41440007 1.48
-0.03516132 0.4143514 1.4813844
-0.026225852 0.41390702 1.4825715
-0.015508573 0.41454101 1.4804999
-0.0056419051 0.41477591 1.4813333
0.0042342856 0.41496387 1.482
0.015829332 0.4142766 1.4836
0.025474282 0.41466478 1.4860001
0.035380952 0.41466475 1.4860001
0.04528762 0.41466478 1.4860001
0.055288635 0.41494784 1.4860001
0.064534858 0.41381565 1.4860001
0.072177142 0.41466478 1.4860001
-0.18436572 0.42567617 1.4799999
-0.17534478 0.42736763 1.48
-0.071684361 0.42446801 1.4800001
-0.064838104 0.42426667 1.4799999
-0.055099044 0.42385817 1.4835
-0.045126349 0.42304891 1.4806665
-0.034298413 0.4242667 1.4799999
-0.025135932 0.42419291 1.4810907
-0.015864322 0.42434675 1.4836923
-0.0052565983 0.42376277 1.4860001
0.0042457138 0.42457148 1.4860001
0.015563809 0.42442957 1.4855
0.025474284 0.42457148 1.4860001
0.035380948 0.42457148 1.4860001
0.045287617 0.42457148 1.4860001
0.054093547 0.42488599 1.4860001
0.11321905 0.42598671 1.4860001
-0.18404354 0.43292516 1.4800001
-0.17478096 0.43272379 1.48
-0.083866671 0.43695238 1.48
-0.074000008 0.43530798 1.4799999
-0.064951107 0.43491682 1.4826666
-0.055194288 0.43447819 1.4860001
-0.04528762 0.43447816 1.4860001
-0.035785306 0.43508467 1.4860001
-0.025409525 0.43518797 1.4819999
-0.015292324 0.43493655 1.4838823
-0.0056609516 0.43447813 1.4860001
0.0045287614 0.4347612 1.4860001
0.01611194 0.43371609 1.4860001
0.025474282 0.43447813 1.4860001
0.034673329 0.4332988 1.4860001
0.044721525 0.4313646 1.4860001
0.056609526 0.43023241 1.4860001
0.062270477 0.43023241 1.4860001
0.072177142 0.43023241 1.4860001
0.11321905 0.43023241 1.4860001
-0.11370159 0.4472889 1.48
-0.10712381 0.4482286 1.48
-0.083161905 0.44540954 1.48
-0.074880764 0.44507891 1.4836
-0.065100953 0.44438481 1.4860001
-0.055194288 0.44438472 1.4860001
-0.045641426 0.444031 1.4860001
-0.035223704 0.44375581 1.4860001
-0.025409527 0.44506794 1.4819999
-0.01551374 0.44485882 1.480857
-0.0059099565 0.4449195 1.4843636
0.0042457138 0.44438478 1.4860001
0.015567618 0.44438478 1.4860001
0.025474284 0.44438478 1.4860001
0.031135239 0.44438478 1.4860001
0.057553019 0.44627175 1.4860001
0.062270477 0.44721526 1.4860001
-0.19612516 0.45588031 1.4800001
-0.12215873 0.45621589 1.48
-0.11515428 0.45554972 1.4817998
-0.10618413 0.45598093 1.4799999
-0.098666668 0.45809525 1.48
-0.081752382 0.45386666 1.48
-0.074665777 0.45482978 1.4842353
-0.065080732 0.45469248 1.4855385
-0.055194288 0.4542914 1.4860001
-0.046231106 0.4544487 1.4860001
-0.031135239 0.45004573 1.4860001
-0.024637822 0.45437548 1.4842857
-0.015523811 0.45448282 1.4819999
-0.0053721899 0.45477486 1.4848001
0.0042457138 0.4542914 1.4860001
0.015567617 0.45429137 1.4860001
0.025474282 0.45429143 1.4860001
0.032348298 0.45449358 1.4860001
0.056609526 0.45146096 1.4860001
-0.19385752 0.46684271 1.4836
-0.18793653 0.46702221 1.48
-0.12553048 0.46545902 1.4809998
-0.1156239 0.46531466 1.4838182
-0.10571429 0.46514282 1.4799999
-0.095042184 0.46554559 1.4800001
-0.084571429 0.46725714 1.48
-0.073323816 0.46504721 1.4805998
-0.064931601 0.46479833 1.4821817
-0.055149283 0.46525976 1.484875
-0.045853712 0.46617943 1.4860001
-0.02405905 0.46561334 1.4860001
-0.015567617 0.46561337 1.4860001
-0.0056609516 0.46561337 1.4860001
0.0042457138 0.46561337 1.4860001
0.015567617 0.46561337 1.4860001
0.02264381 0.46561337 1.4860001
-0.19417068 0.4766522 1.4860001
-0.18530945 0.47506806 1.4821817
-0.13505802 0.47539389 1.4799999
-0.12592915 0.47549409 1.4823998
-0.11583967 0.47567236 1.4832727
-0.10564929 0.47485635 1.4803998
-0.09432967 0.4742505 1.4799998
-0.084571421 0.47500947 1.4799999
-0.07514257 0.47477391 1.4823076
-0.065042533 0.47509465 1.4846666
-0.055580258 0.47526273 1.4860001
-0.046096325 0.47511569 1.4860001
-0.02405905 0.47552001 1.4860001
-0.015567618 0.47552004 1.4860001
-0.0056609521 0.47552001 1.4860001
0.0042457138 0.4755201 1.4860001
0.015567617 0.47552001 1.4860001
0.023351429 0.47552001 1.4860001
-0.19388762 0.48754954 1.4860001
-0.18553296 0.48531663 1.4848
-0.17760001 0.48628575 1.48
-0.13249524 0.48346668 1.48
-0.12527356 0.48504558 1.481846
-0.11470624 0.48625442 1.4855385
-0.10480268 0.48529297 1.483
-0.096411429 0.48374858 1.48
-0.084681906 0.48553139 1.4819999
-0.075116485 0.48510015 1.4860001
-0.065100946 0.48401144 1.4860001
-0.056137782 0.48212445 1.4860001
-0.045995239 0.48330379 1.4860001
-0.035380948 0.4840115 1.4860001
-0.024530794 0.48526943 1.4860001
-0.015661966 0.48552105 1.4860001
-0.0056609516 0.48542666 1.4860001
0.0036391835 0.4850224 1.4860001
0.015095873 0.48306793 1.4860001
0.023587301 0.48637021 1.4860001
-0.19494905 0.49497956 1.4860001
-0.18444479 0.4951365 1.4840001
-0.1761905 0.4961524 1.48
-0.14518097 0.49897143 1.48
-0.13390476 0.49897143 1.48
-0.12544763 0.49474287 1.4799998
-0.1152167 0.49472353 1.4809229
-0.10551848 0.49542326 1.4811997
-0.096160844 0.49583918 1.48
-0.084987052 0.49469829 1.4823999
-0.0778381 0.49533334 1.4860001
-0.066516191 0.49816382 1.4860001
-0.035380956 0.49250287 1.4860001
-0.024342097 0.49476725 1.4860001
-0.014556734 0.49412033 1.4860001
-0.0056609521 0.49533334 1.4860001
0.0033965714 0.49561635 1.4860001
0.011321905 0.49533334 1.4860001
0.025474288 0.49816382 1.4860001
-0.19368544 0.50503778 1.4860001
-0.18548344 0.50497675 1.4843999
-0.1761905 0.50460958 1.48
-0.14377142 0.50460958 1.48
-0.13496761 0.5057143 1.4824001
-0.1250632 0.50435328 1.4799999
-0.11563175 0.50483817 1.4806666
-0.10574857 0.50478101 1.4804999
-0.094693333 0.50597715 1.4840001
-0.085228786 0.50508279 1.4860001
-0.074535869 0.50476819 1.4860001
-0.066718362 0.50544214 1.4860001
-0.024530796 0.50476831 1.4860001
-0.015567618 0.50417858 1.4860001
-0.0044478914 0.5054422 1.4860001
0.0045287614 0.50533432 1.4860001
0.015567617 0.50523996 1.4860001
0.025159789 0.50476825 1.4860001
-0.19388762 0.51231623 1.4860001
-0.18405038 0.51382697 1.4840001
-0.17548573 0.51377147 1.48
-0.16181335 0.51532191 1.48
-0.15405656 0.51512241 1.4809229
-0.14485981 0.51465678 1.4854
-0.13444762 0.51514673 1.4860001
-0.12443174 0.51468575 1.4846666
-0.11493402 0.51502794 1.4849091
-0.10520686 0.51444995 1.4848
-0.094820954 0.51514667 1.4860001
-0.086329527 0.51514673 1.4860001
-0.075007617 0.51514667 1.4860001
-0.066516191 0.51514673 1.4860001
-0.0056609525 0.51231623 1.4860001
0.0053464547 0.51451772 1.4860001
0.013748026 0.51433802 1.4860001
-0.18115048 0.52222288 1.4860001
-0.17529906 0.52588266 1.4821817
-0.16406856 0.5265981 1.48
-0.15365389 0.52510136 1.4821428
-0.14435428 0.52505344 1.4860001
-0.13433278 0.52534324 1.4856471
-0.12507321 0.52575743 1.4851428
-0.11463429 0.52505338 1.4860001
-0.10472763 0.52505344 1.4860001
-0.092462219 0.52175111 1.4860001
-0.086801268 0.52175111 1.4860001
-0.075007617 0.52363813 1.4860001
-0.065505311 0.52727729 1.4860001
-0.17502098 0.53539932 1.4819999
-0.16350476 0.53561908 1.48
-0.1526362 0.5354929 1.4840001
-0.14485982 0.53530777 1.4854
-0.13495998 0.53531009 1.4854
-0.12418714 0.53531384 1.4860001
-0.11463428 0.53495997 1.4860001
-0.10508144 0.53496003 1.4860001
-0.063685715 0.53212953 1.4860001
-0.059440002 0.53212953 1.4860001
-0.18327335 0.54628187 1.4860001
-0.17502098 0.54527932 1.4819999
-0.16585398 0.5464254 1.48
-0.1547344 0.54658198 1.48
-0.14554524 0.54474497 1.4837499
-0.13455649 0.54454005 1.4860001
-0.12454095 0.54309762 1.4860001
-0.11476295 0.54319412 1.4860001
-0.10529373 0.54430056 1.4860001
-0.099066667 0.54345143 1.4860001
-0.02405905 0.54911238 1.4860001
-0.016174149 0.54506886 1.4860001
-0.18511315 0.55307508 1.4860001
-0.17579429 0.55526203 1.4851428
-0.16545779 0.55466288 1.4806665
-0.15442014 0.55478752 1.4817142
-0.14485981 0.55454934 1.4854
-0.13869333 0.55194288 1.4860001
-0.025474288 0.55194288 1.4860001
-0.019813335 0.55194288 1.4860001
-0.17360254 0.56137776 1.4860001
-0.16558287 0.56114191 1.4860001
-0.15426096 0.56043428 1.4860001
-0.084914289 0.56821811 1.4860001
-0.079253338 0.56892574 1.4860001
-0.084914289 0.57175618 1.4860001
-0.076422863 0.57175618 1.4860001
-0.16133715 0.5887391 1.4860001
-0.1556762 0.5887391 1.4860001
-0.16204476 0.59510767 1.4860001
-0.15453832 0.59464908 1.4855385
-0.14435428 0.59723049 1.4860001
-0.16184254 0.60268003 1.482
-0.1552195 0.60266376 1.4846667
-0.14718477 0.600061 1.4860001
-0.15709144 0.61421335 1.4860001
-0.15001525 0.65667051 1.4860001
-0.14435428 0.65525526 1.4860001
-0.13869333 0.65525526 1.4860001
-0.15474363 -0.12288763 1.4934001
-0.14561714 -0.12277523 1.4990001
-0.13419619 -0.12277523 1.4990001
-0.12563048 -0.12277523 1.4990001
-0.15381809 -0.11758383 1.4920001
-0.14508529 -0.11664106 1.4935557
-0.13551326 -0.11625319 1.4941541
-0.12511048 -0.11658033 1.4927779
-0.11495518 -0.11552978 1.493867
-0.10589164 -0.11411195 1.4935557
-0.094222859 -0.11135429 1.4990001
-0.19893335 -0.10230858 1.4920001
-0.1117816 -0.10704508 1.4920001
-0.10515048 -0.10515048 1.4920001
-0.096708991 -0.10559048 1.4982224
-0.21101144 -0.093072385 1.4920001
-0.20583512 -0.096624769 1.492
-0.10451894 -0.096308999 1.4920001
-0.095311299 -0.095317975 1.4937503
-0.088512383 -0.094222866 1.4990001
-0.21598478 -0.086204447 1.4920001
-0.10401372 -0.08468876 1.4920001
-0.095203809 -0.085257143 1.4920002
-0.087591909 -0.085460477 1.4955001
-0.21825831 -0.075026289 1.4920001
-0.12646475 -0.071047619 1.4920001
-0.11310782 -0.074742094 1.4920002
-0.10515049 -0.075468354 1.4920001
-0.095257975 -0.075352147 1.4928753
-0.087941334 -0.075378284 1.4990001
-0.21537822 -0.065466031 1.4943335
-0.20745906 -0.062521905 1.4920001
-0.12788571 -0.063942857 1.4920001
-0.11367621 -0.065363802 1.4920001
-0.10515048 -0.065363809 1.4920001
-0.095459364 -0.065543823 1.4960836
-0.21337447 -0.058761906 1.4976001
-0.20708534 -0.054612577 1.4934001
-0.13499048 -0.052575242 1.4920001
-0.12532799 -0.054564577 1.4920002
-0.11448816 -0.055011164 1.4920003
-0.10523271 -0.055457149 1.4931669
-0.09547881 -0.055575479 1.4963753
-0.088512383 -0.059960004 1.4990001
-0.20450525 -0.045880713 1.4937501
-0.1341379 -0.045754664 1.4920002
-0.12504381 -0.045470469 1.4920001
-0.11536048 -0.045577142 1.4955002
-0.10564381 -0.047111433 1.4990001
-0.095650472 -0.047111426 1.4990001
-0.21128763 -0.032835238 1.4990001
-0.20462428 -0.035179917 1.4939094
-0.15346286 -0.031260952 1.4920001
-0.1463581 -0.033392381 1.4920001
-0.13499047 -0.035523809 1.4920003
-0.12504381 -0.035523813 1.4920002
-0.11573689 -0.035350733 1.496667
-0.21128763 -0.027124763 1.4990001
-0.20426193 -0.025932383 1.4920001
-0.19514413 -0.02368254 1.4920001
-0.18756573 -0.025577143 1.4920001
-0.17904 -0.025577145 1.4920001
-0.16340953 -0.025577143 1.4920001
-0.15452857 -0.024511429 1.4920001
-0.14493713 -0.025221905 1.4920001
-0.13504159 -0.025586031 1.4925836
-0.12561905 -0.025974048 1.4946251
-0.11599006 -0.026619261 1.4974446
-0.21030097 -0.011367619 1.4920001
-0.20453143 -0.015094096 1.4955002
-0.19467047 -0.015630476 1.4920003
-0.18472381 -0.015630476 1.4920002
-0.17477715 -0.015630476 1.4920003
-0.16483048 -0.015630476 1.4920002
-0.1548838 -0.015630476 1.4920003
-0.14504826 -0.015640477 1.4931669
-0.13670571 -0.016402062 1.4978336
-0.1270581 -0.019986667 1.4990001
-0.21203506 -0.0051260954 1.4962001
-0.20493716 -0.0056971428 1.4943335
-0.19467048 -0.0056838095 1.4920002
-0.18472379 -0.0056838095 1.4920001
-0.17477715 -0.0056838095 1.4920002
-0.16483048 -0.0056838095 1.4920001
-0.1548838 -0.0056838095 1.4920002
-0.14531049 -0.0057001063 1.4958891
-0.1375273 -0.0052346033 1.4990001
-0.21300077 0.0022841906 1.4990001
-0.2049697 0.0038922944 1.4964547
-0.1952755 0.004879456 1.4935004
-0.18446545 0.0046503898 1.4920002
-0.17477714 0.0042628571 1.4920003
-0.16483048 0.0042628571 1.4920002
-0.1548838 0.0042628571 1.4920003
-0.14515938 0.0042695235 1.4943336
-0.13562381 0.0042828573 1.4990003
-0.12848572 0.0042828573 1.4990001
-0.20343572 0.016417619 1.4990001
-0.19499785 0.015396954 1.496667
-0.18472379 0.015630476 1.4920002
-0.17477714 0.015630476 1.4920003
-0.16483049 0.015630476 1.4920002
-0.15510798 0.015655477 1.4941878
-0.14714965 0.015084354 1.498
-0.20614819 0.025697142 1.4990001
-0.19447345 0.025379892 1.4990001
-0.18501715 0.025617143 1.4943335
-0.17477715 0.025577143 1.4920002
-0.16500086 0.025600847 1.4935557
-0.15599984 0.025437577 1.4990002
-0.19225271 0.032359365 1.4990001
-0.18530603 0.035634924 1.4966669
-0.17488214 0.035544638 1.4928753
-0.16515048 0.035596032 1.4949169
-0.15677854 0.035820261 1.4990002
-0.12620154 0.037689142 1.4990001
-0.11478058 0.039402284 1.4990001
-0.10849905 0.039973333 1.4990001
0.16767238 0.038365714 1.4920001
0.17254421 0.036944766 1.492
0.18596001 0.037949841 1.4943334
0.19324952 0.035050157 1.4920001
0.20651178 0.038839366 1.4920001
0.21394764 0.038897142 1.4943334
0.22485715 0.03984889 1.4943334
0.23661365 0.038483489 1.4966668
0.24212858 0.038452379 1.4955001
0.25719237 0.039786667 1.4920001
0.26797017 0.03991111 1.4966668
0.2750546 0.039021585 1.4990001
0.28409621 0.039973333 1.4990001
0.29980001 0.039973333 1.4990001
0.3059184 0.037933879 1.499
0.31407622 0.037831906 1.4990001
0.32478333 0.037831903 1.4990001
0.33509713 0.039926667 1.4972501
0.34833905 0.039973333 1.4990001
0.35614893 0.038992699 1.4978334
0.36433718 0.038425714 1.4943334
0.3731831 0.037318308 1.4943335
0.38365713 0.038365714 1.4920001
0.39708117 0.038793903 1.4976001
0.40473002 0.039259523 1.4990001
0.41598764 0.036388732 1.4984169
0.42510048 0.035659365 1.4978336
0.43114096 0.038545713 1.4990001
0.44827241 0.031407621 1.4990001
0.4545539 0.038260192 1.4990001
0.46540383 0.039973333 1.4990001
-0.18477471 0.045275919 1.499
-0.17616235 0.044910055 1.4943335
-0.16483049 0.042628571 1.4920001
-0.15458341 0.043932248 1.495
-0.14443873 0.044660956 1.4966668
-0.1349519 0.044861667 1.4955001
-0.12504381 0.04404952 1.4920001
-0.11471675 0.04393224 1.495
-0.10601486 0.045595814 1.4962001
-0.09614972 0.046081524 1.4934001
-0.085390478 0.045541588 1.4943334
-0.077091426 0.045683812 1.4990001
-0.063942857 0.048312381 1.4920001
-0.055417147 0.048312381 1.4920001
-0.045470476 0.048312381 1.4920001
-0.028552381 0.04853905 1.4990001
0.16767238 0.042628571 1.4920001
0.17335619 0.042628571 1.4920001
0.18472381 0.042628571 1.4920001
0.22166859 0.042628571 1.4920001
0.25719237 0.042628571 1.4920001
0.26571807 0.043575872 1.4920001
0.27592611 0.043805335 1.4934001
0.28583589 0.044082861 1.4931668
0.29533473 0.04393224 1.495
0.30550477 0.04404952 1.4920001
0.31548136 0.043960817 1.4960001
0.32495525 0.04364254 1.4943334
0.33534479 0.042628571 1.4920001
0.34535554 0.04553714 1.4943335
0.35540953 0.045364846 1.4970912
0.36490059 0.045754664 1.4920002
0.37428242 0.044429757 1.4928751
0.38330194 0.04511524 1.4920001
0.39672995 0.044902094 1.4920001
0.40534225 0.045562327 1.4951112
0.4147647 0.045304239 1.495182
0.42491496 0.045230307 1.4926366
0.43617147 0.045608256 1.4966668
0.44577408 0.046040714 1.4990001
0.45487604 0.045629364 1.4972502
0.46443495 0.045586031 1.4958891
0.47482616 0.046254855 1.4990002
0.48425719 0.046998095 1.4955001
0.49538386 0.047111429 1.4990001
0.50466335 0.04782524 1.4990001
0.51489466 0.048539054 1.4990001
0.53488129 0.044732064 1.4990001
0.55248857 0.045683812 1.4990001
-0.19040762 0.059680004 1.4920001
-0.18480191 0.055186905 1.4955001
-0.17904 0.051154289 1.4920001
0.34671238 0.051154289 1.4920001
0.35549644 0.055029619 1.4920002
0.36411905 0.052930482 1.4920001
0.37228954 0.051154289 1.4920001
0.40497145 0.051154289 1.4920001
0.41633907 0.054943498 1.4920001
0.42131242 0.056127623 1.4920001
0.43291685 0.053996194 1.4920001
0.44504222 0.055511884 1.4920003
0.45470476 0.055417154 1.4920002
0.46465153 0.05541715 1.4920003
0.47459808 0.055417147 1.4920002
0.48482895 0.055511873 1.4920003
0.49604258 0.055590481 1.4966669
0.50537723 0.055677146 1.4990002
0.51565593 0.055962671 1.4990003
0.52536386 0.055677146 1.4990002
0.53440541 0.054725397 1.4990002
0.54487461 0.057104766 1.4990001
-0.19575302 0.065563805 1.4966668
0.35808 0.065363809 1.4920001
0.41681275 0.064416505 1.4920001
0.42060193 0.065363809 1.4920001
0.43196955 0.062521905 1.4920001
0.44475806 0.065363817 1.4920002
0.45470482 0.065363809 1.4920001
0.46501258 0.065414928 1.4931669
0.47459814 0.065363809 1.4920001
0.4841482 0.065142289 1.4934002
0.4957732 0.065930054 1.4990002
0.50537717 0.065670483 1.4990001
0.51537049 0.065670483 1.4990002
0.5253638 0.065670483 1.4990001
0.53311378 0.065670483 1.499
0.54249525 0.062815242 1.4990001
0.41681275 0.076257773 1.4920001
0.42230707 0.077299811 1.4920001
0.43310633 0.076163046 1.4920001
0.44475806 0.075310476 1.4920003
0.45470476 0.075181298 1.4920002
0.46478817 0.075333804 1.4924378
0.47552919 0.075461589 1.4949169
0.4852016 0.075636037 1.4984169
0.49538377 0.075663812 1.4990003
0.50537723 0.07566382 1.4990002
0.51537043 0.07566382 1.4990003
0.52536386 0.07566382 1.4990002
0.53250188 0.076139681 1.4990001
0.40828702 0.086204447 1.4920001
0.41491815 0.085257143 1.4920001
0.42308858 0.085612386 1.4920001
0.44617906 0.082415238 1.4920001
0.45511076 0.085257135 1.492
0.4641979 0.085431963 1.4951112
0.47502378 0.085589372 1.4978336
0.48539045 0.08565715 1.4990001
0.49499443 0.08565715 1.4990002
0.50537717 0.085657142 1.4990001
0.51537043 0.085657142 1.4990002
0.52454805 0.085249253 1.499
0.53107429 0.082801908 1.4990001
0.38934097 0.093782857 1.4920001
0.40702394 0.095993228 1.4920001
0.41621923 0.095504917 1.4966669
0.42563838 0.095161408 1.4957336
0.43450555 0.095953174 1.4925836
0.44333717 0.099466674 1.4920001
0.45496318 0.09533298 1.4920002
0.46432161 0.095429361 1.4955002
0.47511715 0.095596306 1.4981253
0.48539051 0.095650472 1.4990002
0.49538377 0.095650479 1.4990003
0.50594825 0.096221521 1.4990002
0.51438212 0.095321022 1.4990003
0.52393615 0.092795238 1.4990001
0.33723938 0.10609779 1.4920001
0.34387049 0.10685562 1.4920001
0.35523808 0.10799239 1.4920001
0.36660573 0.10728192 1.4920001
0.37371048 0.10799239 1.4920001
0.3853623 0.10742401 1.4920001
0.39596218 0.10610721 1.4940001
0.40460089 0.10542899 1.4958891
0.41543719 0.10564381 1.4990002
0.42543045 0.10564381 1.4990001
0.4350827 0.10556381 1.4978336
0.44454193 0.10588071 1.4972501
0.45598155 0.10621486 1.4990002
0.46450523 0.10552381 1.4972501
0.47539714 0.10564381 1.4990002
0.48579839 0.1064596 1.499
0.49538377 0.10564381 1.4990002
0.50442547 0.10611968 1.4990001
0.29745272 0.11604445 1.4920001
0.33676571 0.11509715 1.4920001
0.34458098 0.11225525 1.4920001
0.35523808 0.1136762 1.4920001
0.36594993 0.11455064 1.4920003
0.37513146 0.11509716 1.4920002
0.38409436 0.11520644 1.4920003
0.39502478 0.11470961 1.4920002
0.40530914 0.11576792 1.4955003
0.4154909 0.11507402 1.4970003
0.42484459 0.1152612 1.4929336
0.43609938 0.11544117 1.4979234
0.4454172 0.11563715 1.4990002
0.45541048 0.11563715 1.4990003
0.46540383 0.11563715 1.4990002
0.47539714 0.11563714 1.4990003
0.48539051 0.11563715 1.4990002
0.49538377 0.11563715 1.4990003
0.50415343 0.11461742 1.499
0.29840001 0.12504381 1.4920001
0.35523811 0.12362286 1.4920001
0.36660573 0.12409651 1.4920001
0.37442094 0.12291239 1.4920001
0.38365713 0.12220191 1.4920001
0.3978667 0.12220191 1.4920001
0.40450025 0.12487829 1.4934002
0.41564834 0.12583551 1.4983639
0.42503032 0.1250927 1.4925836
0.43526775 0.1251727 1.4935557
0.44541714 0.12563048 1.4990001
0.45541051 0.12563047 1.4990002
0.46540383 0.12563048 1.4990001
0.4750078 0.12563048 1.4990002
0.48620626 0.12522259 1.499
0.49252859 0.12563048 1.4990001
0.29840001 0.13641143 1.4920001
0.35594857 0.13570096 1.4920001
0.36579376 0.13478749 1.492
0.40434384 0.13525382 1.4949169
0.41543716 0.13562381 1.4990003
0.42598143 0.13534965 1.4959378
0.43549478 0.13520272 1.4943336
0.44541717 0.13562381 1.4990002
0.45541048 0.13562383 1.4990003
0.4654038 0.13562383 1.4990002
0.47492126 0.13538586 1.4990002
0.48634222 0.1354652 1.4990001
0.49110097 0.13276857 1.4990001
0.29768956 0.14564762 1.4920001
0.35523811 0.14209524 1.4920001
0.40411893 0.14522132 1.4920002
0.41440955 0.14486182 1.4939094
0.42610273 0.14523517 1.4977275
0.43607774 0.14583603 1.4983002
0.4454172 0.14561716 1.4990001
0.45541048 0.14561716 1.4990002
0.46540383 0.14561717 1.4990001
0.47111431 0.14561714 1.4990001
0.29840001 0.15062095 1.4920001
0.40639243 0.1520419 1.4920001
0.41562861 0.1520419 1.4920001
0.42484543 0.15526222 1.4929336
0.43641219 0.15528105 1.4990003
0.4454172 0.15561047 1.4990002
0.45541048 0.15561049 1.4990003
0.46418014 0.15459074 1.499
0.47254193 0.15132762 1.4990001
0.33818668 0.16767238 1.4920001
0.34102857 0.16767238 1.4920001
0.36755303 0.16672508 1.4920001
0.37513143 0.16625144 1.4920001
0.3850781 0.16767238 1.4920001
0.39502478 0.16696191 1.4920001
0.41776001 0.16483048 1.4920001
0.42379907 0.16483048 1.4920001
0.43542385 0.16560383 1.4990002
0.4454172 0.16560382 1.4990001
0.45541048 0.16560383 1.4990002
0.46350035 0.16465206 1.4990001
0.27282286 0.17904 1.4920001
0.28646404 0.17847161 1.4920001
0.29650542 0.17714541 1.4920001
0.33676574 0.17335618 1.4920001
0.34387046 0.17457415 1.492
0.35808 0.17904 1.4920001
0.3656584 0.1752508 1.4920001
0.37513149 0.17477714 1.4920002
0.3848567 0.17455021 1.4935004
0.39539951 0.17571744 1.4965003
0.40557021 0.17528443 1.493867
0.41491807 0.17477714 1.4920002
0.42460716 0.17525713 1.4960836
0.43542385 0.17559715 1.4990003
0.44541726 0.17559715 1.4990002
0.45303112 0.17607301 1.4990001
0.26998097 0.18614477 1.4920001
0.27530953 0.18436858 1.4920001
0.28548229 0.18446545 1.4920002
0.29555809 0.18472381 1.4920001
0.34711838 0.18472381 1.492
0.35564408 0.18553579 1.492
0.36461639 0.18529217 1.4920002
0.37532848 0.18482161 1.4927779
0.38525864 0.18549564 1.4982224
0.3954505 0.18559049 1.4990002
0.40544382 0.18559046 1.4990001
0.41527608 0.18551935 1.4984169
0.42543048 0.18559049 1.4990001
0.43542385 0.18559049 1.4990002
0.44506025 0.18523359 1.4990001
0.45207939 0.18463874 1.4990001
0.25861335 0.19893335 1.4920001
0.26713905 0.19644669 1.4920001
0.27444682 0.19527946 1.492
0.28532726 0.19154438 1.4920001
0.29612648 0.19211277 1.4920001
0.32776636 0.19703873 1.4920001
0.33439746 0.19798605 1.4920001
0.34671241 0.19580725 1.4920002
0.35523808 0.19609143 1.4920001
0.36518478 0.19467045 1.4920003
0.37659922 0.19543494 1.4978336
0.38545716 0.19558382 1.4990002
