# .PCD v0.7 - Point Cloud Data file format
VERSION 0.7
FIELDS x y z
SIZE 4 4 4
TYPE F F F
COUNT 1 1 1
WIDTH 1518
HEIGHT 1
VIEWPOINT 0 0 0 1 0 0 0
POINTS 1518
DATA ascii
0.20952001 0.30264002 1.358
0.21234031 0.30346921 1.3540001
0.072960004 0.058628574 1.368
0.085988574 0.059931431 1.368
0.095564894 0.058752112 1.3665714
0.10543738 0.058573812 1.36675
0.11609905 0.058194287 1.368
0.12593357 0.058248099 1.36675
0.13409524 0.057281911 1.367
0.14481652 0.05809693 1.3657777
0.15507391 0.057240002 1.3659999
0.16335857 0.059225239 1.36675
0.17718858 0.059931431 1.368
0.047337145 0.066011436 1.368
0.056005403 0.065122217 1.3675833
0.065142862 0.065142862 1.368
0.074262865 0.065142862 1.368
0.084553979 0.065041266 1.3659166
0.094039798 0.064327829 1.363
0.10514572 0.062308572 1.363
0.11497415 0.063421227 1.363
0.12504984 0.063173972 1.363
0.1350019 0.062308569 1.363
0.16875239 0.062308572 1.363
0.17632572 0.063250162 1.3646666
0.18473525 0.065045714 1.3659999
0.19282287 0.067748576 1.368
0.036262859 0.074914299 1.368
0.045599997 0.074262857 1.368
0.055853818 0.074042618 1.3639377
0.064904757 0.07399144 1.363
0.073923938 0.073748954 1.3633335
0.081347309 0.070962541 1.363
0.19860858 0.071395241 1.363
0.2028743 0.074124768 1.3655
0.037348576 0.084251434 1.368
0.045600001 0.084685728 1.368
0.055929415 0.084552392 1.3658127
0.064923801 0.084403187 1.3634167
0.071827941 0.084808894 1.363
0.20677572 0.083228096 1.3655
0.038564574 0.094326861 1.368
0.045972247 0.094550215 1.368
0.05600917 0.095087729 1.3676875
0.064961903 0.094848253 1.3642498
0.07269334 0.094760954 1.363
0.21288763 0.090866663 1.363
0.047771428 0.1037943 1.368
0.056283437 0.10544457 1.368
0.065023012 0.10533779 1.3655
0.073435113 0.10551661 1.3630002
0.049508572 0.11204572 1.368
0.056924842 0.11565363 1.368
0.065142862 0.11595429 1.368
0.073991433 0.11553048 1.3630003
0.083943494 0.11661223 1.363
0.093787394 0.11780214 1.363
0.21548383 0.11942477 1.363
0.2206762 0.11942477 1.363
0.057325713 0.12507431 1.368
0.06514287 0.1250743 1.368
0.07445436 0.12529787 1.3660769
0.084376194 0.12591523 1.3630003
0.094760954 0.12591524 1.3630003
0.10190047 0.12786239 1.363
0.21548383 0.12980953 1.363
0.2206762 0.12980953 1.363
0.058814697 0.13363592 1.368
0.065142862 0.1341943 1.368
0.07398323 0.13442248 1.3676666
0.08445397 0.13512731 1.3642501
0.094760954 0.1350019 1.363
0.10254952 0.13500191 1.363
0.11596318 0.1363 1.363
0.12409791 0.13655962 1.363
0.065142862 0.14070858 1.368
0.07516484 0.14431649 1.368
0.084685721 0.14461716 1.368
0.094931193 0.14435466 1.3655001
0.10424703 0.14438814 1.3630002
0.11561702 0.14400204 1.3630003
0.1225402 0.14330971 1.363
0.21288763 0.14408857 1.363
0.065142862 0.15764572 1.368
0.074964397 0.15574154 1.368
0.084685713 0.15504 1.368
0.095063329 0.15497035 1.367375
0.10514572 0.15447333 1.3630003
0.11466508 0.15360795 1.363
0.12565562 0.15213677 1.363
0.21808001 0.15317525 1.363
0.065379746 0.16510755 1.368
0.074262865 0.16546287 1.368
0.084685713 0.16546288 1.368
0.095108569 0.16546287 1.368
0.10521536 0.16497059 1.3639377
0.11553048 0.16485809 1.3630003
0.12435754 0.16563694 1.363
0.21678191 0.16875239 1.363
0.074697144 0.1737143 1.368
0.084772579 0.17562516 1.368
0.095108569 0.17588575 1.368
0.10548321 0.17580715 1.3673751
0.11568763 0.1754875 1.3648751
0.12565562 0.17550248 1.3630003
0.13500191 0.17913716 1.363
0.21483478 0.17459382 1.363
0.087552004 0.18448457 1.368
0.095108569 0.18500571 1.368
0.10553143 0.18500571 1.368
0.11588127 0.1848938 1.3671666
0.12591523 0.18562761 1.3630003
0.1350019 0.18562764 1.363
0.14279048 0.18803836 1.363
0.15057905 0.18952191 1.363
0.21288763 0.18303144 1.363
0.087725721 0.19108571 1.368
0.095542856 0.19195428 1.368
0.10579201 0.19386515 1.368
0.11595429 0.19412573 1.368
0.12554781 0.19561675 1.3675001
0.13414441 0.19460727 1.363909
0.14382896 0.19609891 1.3630003
0.15410246 0.1965687 1.3630002
0.16356 0.19990666 1.363
0.20682985 0.19904129 1.363
0.2123684 0.19679125 1.363
0.10770287 0.20498286 1.368
0.11592811 0.20450097 1.3676876
0.12507428 0.2045486 1.368
0.13409963 0.20440753 1.3670626
0.14408858 0.20509906 1.363
0.15447335 0.20509906 1.363
0.16356002 0.20380096 1.363
0.19990668 0.20639715 1.363
0.20509906 0.20509906 1.363
0.21158952 0.20509906 1.363
0.10813715 0.21106286 1.368
0.1159543 0.21497144 1.368
0.12575075 0.21523009 1.3672857
0.13439755 0.2140366 1.3644286
0.14408858 0.21362938 1.3630002
0.15187715 0.21288763 1.363
0.19990668 0.21678191 1.363
0.20509909 0.2141857 1.363
0.21262857 0.21465419 1.3668889
0.11823428 0.22474286 1.368
0.12616704 0.22530405 1.3668462
0.13463913 0.22453363 1.3633847
0.14417511 0.22483011 1.3630003
0.15421373 0.22483012 1.3630003
0.16244736 0.22549769 1.363
0.19990668 0.22846477 1.363
0.20528954 0.22477764 1.3642501
0.21171428 0.22344001 1.368
0.10944001 0.23711999 1.368
0.11751772 0.23659885 1.368
0.12543854 0.23545125 1.3676153
0.1342555 0.23573612 1.3659999
0.14422071 0.23517433 1.3642501
0.15468583 0.23528026 1.3648752
0.16459849 0.23521489 1.3630003
0.17342553 0.23729181 1.363
0.19860858 0.23235905 1.363
0.20417714 0.23538619 1.3655
0.10944001 0.24493714 1.368
0.11673601 0.24389486 1.368
0.12540001 0.24461143 1.368
0.1341943 0.24493714 1.368
0.14461714 0.24493714 1.368
0.15475368 0.24578705 1.3655001
0.1648581 0.24534 1.3630003
0.17394477 0.24144572 1.363
0.20473126 0.24603924 1.364
0.10944001 0.2527543 1.368
0.12637715 0.25014859 1.368
0.13475266 0.25368494 1.368
0.14461716 0.25405717 1.368
0.15436816 0.25530246 1.3637145
0.1648581 0.25572476 1.3630003
0.17329572 0.25572479 1.363
0.20509906 0.25572479 1.363
0.21329634 0.25573224 1.368
0.12768 0.26578286 1.368
0.13549715 0.26187432 1.368
0.14487772 0.26421943 1.368
0.15485945 0.26441389 1.3647856
0.1649081 0.26489317 1.3634167
0.17423323 0.26509991 1.363
0.18822381 0.26740763 1.363
0.19644509 0.26567686 1.363
0.20509906 0.26481143 1.363
0.21438214 0.26375145 1.3642501
0.14800458 0.27412117 1.368
0.15504001 0.27490288 1.368
0.16511825 0.27433741 1.3651876
0.17524286 0.27389809 1.3630003
0.18571419 0.2741577 1.3630003
0.19601238 0.27389807 1.3630003
0.20516254 0.273983 1.3634167
0.21403024 0.27411988 1.3636669
0.15554111 0.28482464 1.368
0.16511942 0.28474176 1.3651876
0.17524286 0.28428286 1.3630003
0.18536802 0.28436938 1.3630003
0.19693962 0.28446832 1.363
0.20554113 0.28489238 1.3659166
0.21535021 0.28506291 1.3672308
0.22108096 0.28740287 1.3655
0.15699428 0.29444572 1.368
0.16546287 0.29574859 1.368
0.17540117 0.29493898 1.3642502
0.1850713 0.29466757 1.3630002
0.19631195 0.29556626 1.3630002
0.20454858 0.29444572 1.368
0.21476594 0.29367474 1.3657777
0.15764572 0.30617142 1.368
0.1658182 0.30510548 1.368
0.17574844 0.30473486 1.3640716
0.18588723 0.30479279 1.3630003
0.19535026 0.30474475 1.3674445
0.20353524 0.30544764 1.368
0.21200342 0.30709067 1.364
0.15783183 0.31343022 1.368
0.16546285 0.3139886 1.368
0.17532708 0.31421906 1.3665715
0.18541244 0.31508005 1.3633335
0.19457537 0.31422809 1.3656667
0.20446172 0.313728 1.368
0.21292409 0.3149192 1.368
0.15894857 0.32050288 1.368
0.16546285 0.32441142 1.368
0.17588574 0.32441142 1.368
0.18507226 0.32543987 1.3646668
0.19486789 0.32493803 1.3657273
0.20368002 0.32462859 1.368
0.21366858 0.32310858 1.368
0.16937144 0.33483428 1.368
0.17588572 0.33483434 1.368
0.18500572 0.33613715 1.368
0.19412574 0.33483437 1.368
0.20116115 0.33405259 1.368
0.16937144 0.34395429 1.368
0.17640688 0.3434332 1.368
0.18500571 0.34525716 1.368
0.19412573 0.34525719 1.368
0.20064001 0.34525716 1.368
0.18674286 0.35264 1.368
0.19403705 0.35551929 1.367375
0.20116115 0.35541946 1.368
0.1797943 0.36740574 1.368
0.18500572 0.36740574 1.368
0.19108571 0.36393145 1.368
0.16806859 0.37001145 1.368
0.17718858 0.37392005 1.368
0.18500568 0.37391996 1.368
0.19021715 0.37522286 1.368
0.17849144 0.38434285 1.368
0.18500571 0.38434288 1.368
0.19021715 0.38564575 1.368
0.17849144 0.39476573 1.368
0.18500571 0.39476573 1.368
0.19151999 0.39606857 1.368
0.21314745 0.39763203 1.368
0.17914286 0.4032343 1.368
0.18500571 0.40518856 1.368
0.19356737 0.40481633 1.368
0.20064001 0.40128002 1.368
0.21366858 0.40128002 1.368
0.18426122 0.41468081 1.368
0.19217142 0.41235429 1.368
0.073457785 0.049846351 1.3773335
0.049906667 0.05778667 1.3790001
0.055734966 0.055363808 1.3747145
0.064177938 0.055007618 1.37525
0.074759483 0.054757573 1.3749093
0.084839657 0.055286232 1.3762729
0.094875805 0.055563431 1.3760002
0.10559674 0.053920001 1.3761429
0.11394572 0.053699046 1.3752501
0.12235143 0.054305717 1.3740001
0.13870858 0.054960001 1.3740001
0.14394286 0.054960001 1.3740001
0.026792001 0.067242667 1.3790001
0.035917714 0.066070102 1.3764999
0.045110054 0.063150905 1.3751112
0.054960001 0.060194287 1.3740001
0.064120002 0.060194287 1.3740001
0.075024761 0.060194287 1.3740001
0.081131428 0.060194287 1.3740001
0.17273144 0.060194287 1.3740001
0.18581715 0.062811434 1.3740001
0.19454096 0.067173339 1.3740001
0.20320001 0.068169527 1.3765001
0.014821904 0.075422861 1.3789998
0.02489976 0.074704632 1.3761877
0.032060005 0.072625712 1.3740001
0.20613112 0.074239694 1.3756667
0.0078800004 0.085366666 1.3790001
0.014446668 0.085366659 1.3789998
0.024862858 0.085057154 1.3740003
0.03252735 0.085617967 1.374
0.21137017 0.085591741 1.3756667
0.0078800004 0.094560005 1.3790001
0.014804848 0.094321229 1.3789998
0.024893213 0.095657863 1.3758751
0.033784937 0.095882602 1.3740002
0.043182857 0.09945143 1.3740001
0.025939895 0.10435597 1.3773333
0.035705306 0.10543346 1.3740003
0.044491433 0.10704116 1.3740002
0.052342858 0.10730286 1.3740001
0.02801778 0.11338445 1.3790001
0.035016734 0.11461265 1.3765001
0.045443118 0.11539221 1.3740002
0.052342858 0.11646286 1.3740001
0.02758 0.12411001 1.3790001
0.035442147 0.12471133 1.3783749
0.0458 0.12431428 1.3740003
0.052342858 0.12431429 1.3740001
0.036335554 0.13439779 1.3789998
0.045840476 0.13490845 1.3752502
0.05408762 0.13521905 1.3740001
0.038086668 0.14446668 1.3790001
0.04594405 0.14571451 1.3783749
0.054959998 0.14525144 1.3740002
0.06381803 0.14615737 1.3740003
0.070662856 0.14656001 1.3740001
0.047280002 0.15497333 1.3789999
0.055338852 0.15527199 1.3770001
0.063356772 0.15420495 1.3745003
0.071535237 0.15266667 1.3740001
0.048856001 0.162328 1.3790001
0.054864064 0.16436122 1.3776363
0.060194287 0.16487999 1.3740001
0.055398785 0.17431515 1.3789998
0.063794427 0.1747389 1.3750716
0.073279999 0.17796572 1.3740001
0.056911115 0.18430446 1.3790001
0.064292029 0.18501337 1.37775
0.074621893 0.1845943 1.3746252
0.083094284 0.18549001 1.3740001
0.065447785 0.19590557 1.3789998
0.074723095 0.19533192 1.3765001
0.084469013 0.19595869 1.3759233
0.095013879 0.19788463 1.3747145
0.10206857 0.19890286 1.3740001
0.066417143 0.20450476 1.3789999
0.073183805 0.20478596 1.3783749
0.08573249 0.20384042 1.377889
0.095841035 0.20499912 1.377077
0.1031902 0.20488489 1.374
0.065666668 0.21013334 1.3790001
0.07354667 0.21276 1.3790001
0.088650003 0.21276 1.3790001
0.095785789 0.21433598 1.3789998
0.10575443 0.2167547 1.3757859
0.089306667 0.22064 1.3790001
0.096530013 0.22370441 1.3789998
0.10618477 0.2254862 1.3765001
0.11428192 0.22594666 1.3740001
0.12562287 0.22638287 1.3740001
0.21611191 0.22659001 1.3752501
0.098409526 0.23552668 1.37775
0.10559673 0.23422162 1.3761429
0.11403266 0.23329961 1.374
0.20937143 0.23554285 1.3740001
0.21391834 0.23357072 1.3758752
0.22064 0.23114668 1.3790001
0.089306667 0.24428001 1.3790001
0.095916033 0.24514969 1.3765001
0.10468572 0.24470288 1.3740002
0.11384571 0.24601145 1.3740001
0.12126095 0.24688382 1.3740001
0.20937143 0.2433943 1.3740001
0.21337841 0.24529652 1.3773333
0.22195333 0.24953334 1.3790001
0.097186677 0.25347337 1.3790001
0.10602525 0.2550303 1.3744169
0.11515429 0.25517145 1.3740002
0.12428104 0.25561625 1.3747694
0.13085715 0.2577886 1.3740001
0.21684898 0.25461063 1.374
0.22245716 0.25517142 1.3740001
0.10746748 0.26399595 1.3761429
0.1151084 0.26582193 1.3760834
0.12351092 0.26435062 1.375154
0.13434668 0.26651242 1.3740002
0.14132571 0.26956573 1.3740001
0.107168 0.27369866 1.3790001
0.11355096 0.27436286 1.3783749
0.12532954 0.2748619 1.3789998
0.13478287 0.27480003 1.3740002
0.14361572 0.27512717 1.3740001
0.12765601 0.28420535 1.3790001
0.13508643 0.28460881 1.377125
0.14516431 0.28456962 1.3756669
0.15441144 0.28788573 1.3740001
0.21373333 0.28701335 1.3740001
0.12666373 0.29652148 1.3789999
0.13564858 0.29568762 1.3789998
0.14564429 0.29523215 1.3777499
0.15310287 0.29573715 1.3740001
0.20806286 0.29704571 1.3740001
0.21198858 0.29704571 1.3740001
0.12549631 0.30586079 1.3789999
0.13564858 0.30544385 1.3789998
0.14557762 0.30558944 1.377125
0.15446252 0.3044028 1.3744549
0.16226286 0.30358857 1.3740001
0.20832458 0.30306515 1.3740001
0.21198858 0.30097145 1.3740001
0.12870668 0.31782669 1.3790001
0.13527334 0.31520003 1.3789998
0.1455902 0.31553894 1.3772143
0.15360042 0.31592998 1.3745556
0.2067543 0.31929144 1.3740001
0.12870668 0.32439336 1.3790001
0.13518049 0.32417372 1.3780624
0.14570448 0.32478887 1.3782856
0.15553194 0.32625416 1.3746669
0.20806287 0.32517999 1.3740001
0.21329716 0.32976002 1.3740001
0.13557641 0.33399078 1.3789998
0.14615522 0.33433715 1.3789998
0.15590492 0.33540145 1.3756667
0.16488001 0.33499432 1.3740001
0.20631813 0.33499429 1.3740001
0.21253823 0.33586779 1.3775713
0.13763733 0.34514397 1.3790001
0.1467181 0.34409332 1.3789999
0.15578288 0.34369159 1.3765
0.16429961 0.34488872 1.3754288
0.17207715 0.34677145 1.3740001
0.20572786 0.34462571 1.375875
0.21013334 0.34277999 1.3790001
0.14796889 0.35897779 1.3790001
0.15497334 0.35760191 1.3789999
0.16382739 0.35518777 1.3761876
0.1742388 0.3550294 1.3755628
0.1832 0.35593146 1.3740002
0.20584761 0.35480189 1.3754286
0.21397692 0.35837686 1.3783751
0.22064 0.35985336 1.3790001
0.14784382 0.36548191 1.3789999
0.15547958 0.3662211 1.3768572
0.16425742 0.36499983 1.3750716
0.17407987 0.36517358 1.3743128
0.18450858 0.36378288 1.3740002
0.19599493 0.36669078 1.3740001
0.20456436 0.36453933 1.3768572
0.21419343 0.36262202 1.3751112
0.14687441 0.3736434 1.3789998
0.15575454 0.37564567 1.3743128
0.1646421 0.37591687 1.3740002
0.17160979 0.37612084 1.374
0.19489643 0.37567636 1.3755386
0.20356667 0.37036002 1.3790001
0.14840667 0.38349333 1.3790001
0.15510345 0.3848812 1.3755
0.16430755 0.38585234 1.3771819
0.17302562 0.38579988 1.3744546
0.19579579 0.38559189 1.3757858
0.15549867 0.39531335 1.3789999
0.16500245 0.39423883 1.3789998
0.17290685 0.39567089 1.3774999
0.19683698 0.39523846 1.376
0.20375526 0.39614415 1.3773333
0.21013334 0.39400002 1.3790001
0.15409778 0.40538225 1.3790001
0.16580835 0.40614834 1.3789999
0.17388122 0.40566736 1.3772143
0.19890286 0.40434858 1.3740001
0.20573945 0.40493268 1.3747146
0.21460573 0.40696573 1.3740001
0.16548 0.41457558 1.3790001
0.17445904 0.41451335 1.3773333
0.18320002 0.41575187 1.374
0.19595858 0.41612574 1.3740001
0.20542222 0.41347221 1.3767779
0.21329716 0.4122 1.3740001
0.17504859 0.42383146 1.3789998
0.18459582 0.42554745 1.3740003
0.19468081 0.42452893 1.3765001
0.20225334 0.42026669 1.3790001
0.17664334 0.43143001 1.3790001
0.18495621 0.43549967 1.3773335
0.19362287 0.43452576 1.3789999
0.17861333 0.44521999 1.3790001
0.18518002 0.44521999 1.3789998
0.19174667 0.44259334 1.3790001
0.17624933 0.45493871 1.3789999
0.18473832 0.45502597 1.3776666
0.18649334 0.46360669 1.3790001
0.17939049 -0.12399048 1.3850001
0.18334763 -0.12267143 1.3850001
0.18334763 -0.11739524 1.3850001
0.044847623 0.057378575 1.3850001
0.051442858 0.055400003 1.3850001
0.079142861 0.050123811 1.3850001
0.094971433 0.052761905 1.3850001
0.10024762 0.052761905 1.3850001
-0.0039571431 0.067271426 1.3850001
0.0039571431 0.065952376 1.3850001
0.014509525 0.065952383 1.3850001
0.025061907 0.063973814 1.3850001
0.034734923 0.061555561 1.3850001
0.042209525 0.060676191 1.3850001
0.18598571 0.061995238 1.3850001
-0.013190477 0.076025113 1.3850001
-0.0052761906 0.075185716 1.3850001
0.0039571431 0.075185724 1.3850001
0.011871429 0.071228571 1.3850001
0.21192698 0.077384137 1.3850001
-0.014289684 0.084638894 1.3850001
-0.0046899472 0.084712178 1.3850001
0.0026380953 0.0857381 1.3850001
0.21500477 0.084419049 1.3850001
-0.013190476 0.092333339 1.3850001
-0.0039571431 0.094971426 1.3850001
0.0026380953 0.094971426 1.3850001
0.010552381 0.097609527 1.3850001
-0.0035174603 0.10376508 1.3850001
0.0039571431 0.10420477 1.3850001
0.014509524 0.10420477 1.3850001
0.021984128 0.10728254 1.3850001
-0.0026380953 0.11431747 1.3850001
0.0039571431 0.11475717 1.3850001
0.014509523 0.11475716 1.3850001
0.023215238 0.11528476 1.3850001
-0.0026380953 0.12267143 1.3850001
0.0042209527 0.12504575 1.3850001
0.014509524 0.12530956 1.3850001
0.024182541 0.12552939 1.3850001
0.0039571431 0.13454284 1.3850001
0.014773334 0.13559809 1.3850001
0.025061905 0.1358619 1.3850001
0.032976191 0.13850001 1.3850001
0.016158333 0.14476548 1.3850001
0.025061905 0.14509524 1.3850001
0.032976191 0.14509524 1.3850001
0.016707936 0.15300953 1.3850001
0.025061904 0.15432858 1.3850001
0.035614286 0.15432857 1.3850001
0.042209525 0.15564764 1.3850001
0.027963812 0.16408953 1.3850001
0.035614286 0.16488096 1.3850001
0.044320006 0.16540858 1.3850001
0.050123811 0.1688381 1.3850001
0.029019048 0.1714762 1.3850001
0.037197147 0.17464189 1.3850001
0.044847623 0.17543334 1.3850001
0.050651431 0.17622477 1.3850001
0.038692068 0.18686508 1.3850001
0.044847623 0.1859857 1.3850001
0.052234285 0.18651332 1.3850001
0.038911909 0.19521905 1.3850001
0.044847623 0.19521905 1.3850001
0.054080959 0.19521905 1.3850001
0.061335713 0.19587858 1.3850001
0.039571431 0.20313334 1.3850001
0.045111425 0.20366096 1.3850001
0.054080956 0.2044524 1.3850001
0.061731428 0.20629907 1.3850001
0.078483343 0.20577143 1.3850001
0.084419049 0.20840953 1.3850001
0.045726985 0.21192698 1.3850001
0.053817146 0.2131581 1.3850001
0.064531878 0.21470039 1.3850001
0.075625397 0.21412541 1.3850001
0.084638894 0.21544446 1.3850001
0.055400003 0.22160001 1.3850001
0.063923076 0.22545573 1.3850001
0.074159786 0.22716935 1.3850001
0.085474283 0.225821 1.3850001
0.094311915 0.22819525 1.3850001
0.04616667 0.23742858 1.3850001
0.055400003 0.2359211 1.3850001
0.06463334 0.2347905 1.3850001
0.075185716 0.23479049 1.3850001
0.085738093 0.2347905 1.3850001
0.094971433 0.23446071 1.3850001
0.10024762 0.23479049 1.3850001
0.047485717 0.24138573 1.3850001
0.054872382 0.2405943 1.3850001
0.065292858 0.24292463 1.3850001
0.075185724 0.24402386 1.3850001
0.085474283 0.24393591 1.3850001
0.095348299 0.24383537 1.3850001
0.21632381 0.2444635 1.3850001
0.22291905 0.24798097 1.3850001
0.067711107 0.25237778 1.3850001
0.07554546 0.25301734 1.3850001
0.0857381 0.25325716 1.3850001
0.092333339 0.25457621 1.3850001
0.10156667 0.25853333 1.3850001
0.21896191 0.2519381 1.3850001
0.22291905 0.25325716 1.3850001
0.10200635 0.26556826 1.3850001
0.095850796 0.2761206 1.3850001
0.1026459 0.27604067 1.3850001
0.11475715 0.27699998 1.3850001
0.12135238 0.27436191 1.3850001
0.096290484 0.28359526 1.3850001
0.10464445 0.28403491 1.3850001
0.11475716 0.28491428 1.3850001
0.12399048 0.28524405 1.3850001
0.10816191 0.29150954 1.3850001
0.11532246 0.29377076 1.3850001
0.12340423 0.2931217 1.3850001
0.13322382 0.29546669 1.3850001
0.089695245 0.30338097 1.3850001
0.11567034 0.30500442 1.3850001
0.12240763 0.30390859 1.3850001
0.11475717 0.31525239 1.3850001
0.12530954 0.31525239 1.3850001
0.13322382 0.31129524 1.3850001
0.10640318 0.3253651 1.3850001
0.11513402 0.32523948 1.3850001
0.1239905 0.3258048 1.3850001
0.11574642 0.33470836 1.3850001
0.12530953 0.33503816 1.3850001
0.10552381 0.3403143 1.3850001
0.11554857 0.34479904 1.3850001
0.12530954 0.34427142 1.3850001
0.13454285 0.34415153 1.3850001
0.14471838 0.34408301 1.3850001
0.2145651 0.34427145 1.3850001
0.11475714 0.35174605 1.3850001
0.12530956 0.3548238 1.3850001
0.13577396 0.35508764 1.3850001
0.14485541 0.35446408 1.3850001
0.15348919 0.35422421 1.3850001
0.21236669 0.35350478 1.3850001
0.11871429 0.36141905 1.3850001
0.12530953 0.36141905 1.3850001
0.13642719 0.36499932 1.3850001
0.14358775 0.36481088 1.3850001
0.20840953 0.36933336 1.3850001
0.21500477 0.36933336 1.3850001
0.22160001 0.36933336 1.3850001
0.13770857 0.37540093 1.3850001
0.14311667 0.37790716 1.3850001
0.20489208 0.37636822 1.3850001
0.21470039 0.37501538 1.3850001
0.22160001 0.37197143 1.3850001
0.13915953 0.38450241 1.3850001
0.14377619 0.38516191 1.3850001
0.20544168 0.38516191 1.3850001
0.21104762 0.38252383 1.3850001
0.13718097 0.39483491 1.3850001
0.14509524 0.39439526 1.3850001
0.15125079 0.39527461 1.3850001
0.16356191 0.39835238 1.3850001
0.20665079 0.39395556 1.3850001
0.2130262 0.39703333 1.3850001
0.13893968 0.40406826 1.3850001
0.14509524 0.40494761 1.3850001
0.15380096 0.40547523 1.3850001
0.16280818 0.40362859 1.3850001
0.20840953 0.40230954 1.3850001
0.14641429 0.41286191 1.3850001
0.15459237 0.41523615 1.3850001
0.16356193 0.41535345 1.3850001
0.20709048 0.41945717 1.3850001
0.21236667 0.41945717 1.3850001
0.15564762 0.42440361 1.3850001
0.16488098 0.42473337 1.3850001
0.17411429 0.42737144 1.3850001
0.20547833 0.42531961 1.3850001
0.21170714 0.42407382 1.3850001
0.14773335 0.43792382 1.3850001
0.15617526 0.43449435 1.3850001
0.16488095 0.4339667 1.3850001
0.17411429 0.43557888 1.3850001
0.19697779 0.43704447 1.3850001
0.20401271 0.4328675 1.3850001
0.21170714 0.43198812 1.3850001
0.14720573 0.44425526 1.3850001
0.15402418 0.44401172 1.3850001
0.16496891 0.44425529 1.3850001
0.17452015 0.4442147 1.3850001
0.19620834 0.44550836 1.3850001
0.20137461 0.4414413 1.3850001
0.14773335 0.4511143 1.3850001
0.16548055 0.45615074 1.3850001
0.17279525 0.45375237 1.3850001
0.19521905 0.45507145 1.3850001
0.20049524 0.4590286 1.3850001
0.1655405 0.46672305 1.3850001
0.17516951 0.46588764 1.3850001
0.18583915 0.46694285 1.3850001
0.19521905 0.46562386 1.3850001
0.20049524 0.46562383 1.3850001
0.16561377 0.47427088 1.3850001
0.17543334 0.47485718 1.3850001
0.1859857 0.47485718 1.3850001
0.19521905 0.47485712 1.3850001
0.20049524 0.47485715 1.3850001
0.1688381 0.48013335 1.3850001
0.17486803 0.48126394 1.3850001
0.18669596 0.48338029 1.3850001
0.19521905 0.48409048 1.3850001
0.18928334 0.49266431 1.3850001
0.19363619 0.49279624 1.3850001
0.18003809 -0.12179048 1.3900001
0.16944762 -0.11649524 1.39
0.17423576 -0.11566603 1.390667
0.18162668 -0.1154362 1.3900001
0.17017905 -0.10902096 1.396
0.17749144 -0.093731433 1.396
0.18485488 -0.094025142 1.3944
0.19422308 -0.092388146 1.3946667
0.1781562 -0.085089527 1.396
0.18433525 -0.084876202 1.3925
0.19509523 -0.084937148 1.3935
0.20430574 -0.084712863 1.3952501
0.21378744 -0.082962289 1.396
0.22070096 -0.082430482 1.396
0.17762437 -0.074985147 1.396
0.18440311 -0.075616434 1.393
0.19465142 -0.07547643 1.390375
0.20492575 -0.075545408 1.39
0.21490343 -0.075655095 1.3955384
0.22229639 -0.073389724 1.396
0.1763835 -0.067362547 1.396
0.18467145 -0.066426672 1.395
0.19550909 -0.065674022 1.3951428
0.20488326 -0.065362059 1.3941538
0.21419658 -0.064841151 1.3952
0.22336002 -0.065146677 1.396
0.20588627 -0.053940684 1.396
0.21405332 -0.054510478 1.396
0.22236286 -0.055507623 1.396
0.20740573 -0.045203816 1.396
0.21072954 -0.045203812 1.396
0.20740572 -0.035897143 1.396
0.21095113 -0.036340319 1.396
0.20740572 -0.02792 1.396
0.21166019 -0.027122289 1.396
0.029123811 0.047657143 1.3900001
0.031771429 0.047657143 1.3900001
-0.025260953 0.058499049 1.396
-0.014624763 0.058499049 1.396
-0.0046533332 0.057834286 1.396
0.0039828573 0.057075247 1.3937501
0.014624763 0.057169519 1.396
0.0255649 0.054928441 1.392143
0.035760716 0.054303344 1.3907501
0.045009527 0.054011427 1.3900001
0.051628575 0.052952383 1.3900001
0.084723808 0.050304759 1.39
0.091784127 0.052069843 1.39
0.10745715 0.050413333 1.3930001
0.11384762 0.052069843 1.39
0.17682667 0.058499049 1.396
0.18081525 0.058499049 1.396
-0.031908572 0.069135241 1.396
-0.025180953 0.064933099 1.3915001
-0.014564764 0.064883098 1.390375
-0.0059571434 0.063542858 1.3900002
0.0039714286 0.060895242 1.3900001
0.014561905 0.060895242 1.3900001
0.022063494 0.061777782 1.39
0.18706286 0.06102667 1.3930001
0.19560127 0.064608254 1.3940001
0.20533206 0.067263491 1.3940001
0.21272382 0.069135241 1.396
-0.032794923 0.076226033 1.396
-0.025152382 0.075457141 1.39
-0.017474286 0.073603816 1.3900001
0.20916191 0.071485721 1.3900001
0.21359049 0.074287623 1.3930001
-0.025152383 0.084723808 1.3900002
-0.015885714 0.087371431 1.3900001
-0.0079428572 0.087371431 1.3900001
0.21671239 0.082430482 1.396
-0.025167381 0.094043329 1.3907501
-0.014751022 0.094368704 1.3900001
-0.0074133337 0.093196191 1.3900001
0.21804191 0.090407625 1.396
0.22070096 0.090407625 1.396
-0.024310622 0.10459018 1.3941538
-0.014561906 0.10458096 1.39
-0.0070603178 0.10502223 1.3900002
-0.023899049 0.11549906 1.3940001
-0.014561906 0.11517143 1.39
-0.0061777779 0.11531852 1.3900002
-0.023628401 0.12559517 1.3921819
-0.014561906 0.1257619 1.39
-0.0058247624 0.12629142 1.3900002
0 0.12973334 1.3900001
-0.023899684 0.13453335 1.3940001
-0.014561906 0.13502859 1.3900002
-0.0052952385 0.13502859 1.3900002
-0.022411974 0.14434829 1.396
-0.014586193 0.14449096 1.391875
-0.0052952389 0.14429523 1.3900002
0.0039714286 0.14429526 1.39
0.011120002 0.14508954 1.3900001
-0.022336002 0.15741563 1.396
-0.014613335 0.15538716 1.3945
-0.0052952389 0.15488572 1.3900002
0.0039714286 0.15488571 1.39
0.014052749 0.1551912 1.3900001
-0.022601906 0.16220191 1.396
-0.013288707 0.16362178 1.3951428
-0.005299048 0.16423239 1.3906668
0.004236191 0.16521144 1.39
0.014561906 0.1654762 1.39
0.023828572 0.16583724 1.3900002
-0.0046533332 0.17084381 1.396
0.0036738464 0.17485775 1.3941538
0.014561906 0.17474283 1.3900002
0.024791343 0.17498355 1.3900002
0.033095241 0.17606668 1.3900001
0.0058499048 0.1848038 1.396
0.01456762 0.18410879 1.3907501
0.025152382 0.18400952 1.39
0.033889525 0.18400954 1.3900002
-0.0026590477 0.19676954 1.396
0.0039864285 0.19538714 1.395625
0.014561906 0.1946 1.39
0.025152383 0.19459999 1.39
0.033889525 0.19486475 1.3900002
-0.0026590477 0.20341715 1.396
0.00398 0.20452666 1.3945001
0.014600952 0.20445335 1.3940001
0.025357826 0.20474969 1.3908571
0.034826376 0.205496 1.3900001
0.043685716 0.20916191 1.3900001
0.0063817143 0.21166019 1.396
0.015004627 0.21348354 1.396
0.025054693 0.21449251 1.3951428
0.036016762 0.21557872 1.3904001
0.044715345 0.21681058 1.3900002
0.054717466 0.21886985 1.3900002
0.064866669 0.21975239 1.3900001
0.074133337 0.21975239 1.39
0.016619049 0.22136573 1.396
0.026058668 0.22362593 1.396
0.035513844 0.22516163 1.3932307
0.045009527 0.22504762 1.3900002
0.054155849 0.2252883 1.3900002
0.067955554 0.22681271 1.39
0.07678096 0.22429116 1.3900002
0.013295238 0.23133714 1.396
0.028185908 0.23559162 1.396
0.036454696 0.23525469 1.3955715
0.044744764 0.23352 1.3900002
0.053246565 0.23240212 1.3900002
0.21975239 0.2369619 1.3900001
0.017726986 0.24906413 1.396
0.026258094 0.24828857 1.396
0.036129527 0.24601676 1.3948001
0.044498287 0.24553943 1.3906002
0.053915154 0.24646927 1.3900002
0.062880948 0.2482143 1.3900001
0.21975239 0.24490479 1.3900001
0.22354192 0.24476573 1.3930001
0.01728381 0.25260952 1.396
0.025830748 0.2537491 1.396
0.035897147 0.25526857 1.396
0.045092061 0.25466034 1.3926667
0.054276198 0.25549522 1.39
0.064153858 0.25600439 1.3900001
0.074662864 0.25893715 1.3900001
0.084723808 0.25946668 1.39
0.093990482 0.25946668 1.3900001
0.038556192 0.26058668 1.396
0.045469712 0.26430941 1.396
0.054370482 0.26524094 1.3925
0.064866669 0.26476189 1.3900002
0.075457141 0.26476192 1.3900002
0.084723808 0.26476192 1.3900002
0.093990475 0.26476192 1.3900002
0.047198094 0.27321714 1.396
0.054403335 0.27469647 1.3933749
0.064883098 0.27410361 1.390375
0.075457141 0.2740286 1.39
0.084723808 0.27402857 1.3900002
0.092401907 0.27323431 1.3900002
0.055817142 0.28489146 1.3954545
0.064968102 0.28508332 1.3922501
0.075457141 0.28461906 1.39
0.084723823 0.28461906 1.3900002
0.092372492 0.28594282 1.3900002
0.10325715 0.28859049 1.39
0.058499049 0.29249525 1.396
0.06514667 0.29515433 1.396
0.075690337 0.29482421 1.3908571
0.084723808 0.29520953 1.3900002
0.093990475 0.29520953 1.39
0.10401362 0.29558778 1.3900001
0.1112 0.29785717 1.3900001
0.065146677 0.30446094 1.396
0.075758733 0.30499709 1.3940002
0.084723808 0.30580005 1.3900002
0.094255239 0.3058883 1.39
0.10458096 0.30580002 1.39
0.1112 0.30447617 1.39
0.06514667 0.31243813 1.396
0.075733885 0.31490287 1.3951428
0.084723808 0.31506667 1.3900002
0.093990475 0.31506664 1.3900002
0.10458096 0.31506667 1.3900002
0.077998728 0.32529017 1.396
0.084966667 0.32527143 1.3940001
0.093990475 0.32433331 1.39
0.10325716 0.32300952 1.3900002
0.078441903 0.33371049 1.396
0.085469387 0.33428028 1.396
0.09428113 0.3347559 1.3904001
0.10458097 0.33492386 1.39
0.11296508 0.33492383 1.3900002
0.087216765 0.34354895 1.396
0.093962781 0.34481266 1.3941538
0.1044927 0.34577909 1.39
0.11384761 0.34463176 1.3900002
0.21710478 0.34948573 1.39
0.095690489 0.35485613 1.3955001
0.10458096 0.35478094 1.3900002
0.11517143 0.35654604 1.3900002
0.2184286 0.35478094 1.3900002
0.095316634 0.36592591 1.396
0.10468954 0.3644405 1.3915001
0.11490666 0.36413583 1.39
0.12582761 0.36689383 1.3907502
0.13238096 0.36801907 1.3900001
0.094758794 0.37492573 1.396
0.10491619 0.37452474 1.3944999
0.1155002 0.37458894 1.3908
0.12576191 0.37463808 1.39
0.13291049 0.3754324 1.3900001
0.20916191 0.37860954 1.3900001
0.097498417 0.38644826 1.396
0.10512986 0.38413471 1.3942353
0.11496605 0.38493532 1.390353
0.1257619 0.38522854 1.39
0.13449906 0.38575807 1.3900002
0.20916191 0.38390476 1.3900001
0.21600161 0.38500795 1.3900002
0.098384768 0.39885715 1.396
0.10480318 0.39534223 1.393
0.11525968 0.39555433 1.39
0.12576191 0.39581901 1.39
0.13465033 0.39525172 1.3900002
0.2153475 0.39322233 1.3908573
0.22070096 0.39088002 1.396
0.098384768 0.40284574 1.396
0.10458315 0.40588811 1.3941537
0.11525686 0.40534747 1.3923079
0.1257619 0.40508577 1.3900002
0.13427211 0.40546396 1.3900002
0.10712477 0.41424951 1.393
0.11517143 0.41435245 1.39
0.12576191 0.41435239 1.39
0.13502859 0.41435239 1.3900002
0.14297143 0.41633809 1.3900002
0.10769144 0.42411813 1.396
0.11555166 0.42430952 1.3909231
0.12567365 0.42467812 1.39
0.13502859 0.42494288 1.3900002
0.14429525 0.42494285 1.39
0.15197334 0.4257372 1.3900001
0.21578096 0.42759049 1.3900001
0.10902096 0.43076572 1.396
0.11540268 0.43502024 1.396
0.12623648 0.43530259 1.3941538
0.13466433 0.4357802 1.3904617
0.1440305 0.43526852 1.39
0.15179683 0.43465081 1.3900002
0.2065143 0.43884286 1.3900001
0.21688412 0.43619528 1.3900002
0.22240001 0.43818098 1.3900001
0.12459538 0.44330126 1.396
0.1338924 0.44544098 1.3920002
0.14264049 0.44480002 1.3900002
0.15488572 0.44744763 1.3900001
0.20622012 0.44538838 1.3900002
0.21545067 0.44549865 1.3930001
0.22240001 0.44215241 1.3900001
0.13490246 0.45384726 1.3942001
0.14378607 0.45416853 1.3900001
0.15519121 0.45498317 1.3900001
0.16415238 0.45362541 1.3900002
0.20462318 0.45368853 1.3900001
0.21415715 0.45387766 1.3945
0.13649778 0.46444702 1.396
0.1447642 0.46435302 1.3920001
0.15488569 0.46465713 1.39
0.16349049 0.46399525 1.3900001
0.2065143 0.46465716 1.3900002
0.21377905 0.46472993 1.3942001
0.13561144 0.47464001 1.396
0.14440273 0.47477311 1.3947144
0.15539342 0.47496149 1.3918464
0.16326985 0.47833654 1.39
0.20504636 0.47607666 1.3920002
0.21443319 0.47520977 1.396
0.22123277 0.47543773 1.396
0.1353697 0.48491365 1.396
0.14447494 0.48416829 1.396
0.15544096 0.48492575 1.3950001
0.16552599 0.48598757 1.3904287
0.17474286 0.48848572 1.3900002
0.18180317 0.48804447 1.3900002
0.20413335 0.48629865 1.3936
0.21272381 0.48128763 1.396
0.22336 0.48128763 1.396
0.12763429 0.49458286 1.396
0.13507962 0.49538058 1.396
0.14518401 0.4961783 1.396
0.15550806 0.49574855 1.3948001
0.1653861 0.49535334 1.3918463
0.17474286 0.49510479 1.3900002
0.1836485 0.49534547 1.3900002
0.19790953 0.4957667 1.3900001
0.2044861 0.49527121 1.3942001
0.1457158 0.50362366 1.396
0.15579323 0.50482631 1.3949091
0.16566889 0.50541753 1.3935002
0.17441252 0.50523239 1.3934286
0.18400952 0.5043714 1.39
0.1946 0.50437146 1.39
0.2038596 0.5056653 1.3951428
0.15712556 0.51416308 1.396
0.16576281 0.51446456 1.3932
0.17474286 0.51496202 1.3900002
0.18400952 0.51496196 1.39
0.1946 0.5149619 1.39
0.2033345 0.5146991 1.3936001
0.21405333 0.51851428 1.396
0.15840328 0.52573168 1.396
0.16592717 0.52511108 1.3931764
0.17474286 0.52555245 1.3900002
0.18400952 0.52555239 1.39
0.19459999 0.52555239 1.39
0.2043035 0.52427554 1.396
0.21405333 0.5225029 1.396
0.15821335 0.53579813 1.396
0.16539837 0.53504866 1.3925714
0.17474285 0.53481907 1.3900002
0.18400954 0.53481901 1.3900002
0.19467144 0.53501236 1.3905002
0.20208763 0.53579807 1.396
0.15821335 0.54510474 1.396
0.16562945 0.54422611 1.3943636
0.17466593 0.54443467 1.3936001
0.18400955 0.54276198 1.3900002
0.19500262 0.54465109 1.3954545
0.17549714 0.55042291 1.396
0.18564987 0.55308193 1.396
0.19486645 0.55479121 1.3940001
0.20208763 0.55840003 1.396
0.18879239 0.56371814 1.396
0.19363375 0.56347162 1.3925716
0.16596 -0.11242667 1.4053334
0.17646097 -0.11229333 1.4036666
0.18325621 -0.11236 1.4045
0.15678 -0.10586001 1.4070001
0.16478252 -0.10583559 1.4066873
0.1755566 -0.10544279 1.405
0.18530749 -0.10526761 1.4041427
0.19329238 -0.10445968 1.4061667
0.20234001 -0.10184 1.4070001
0.14510286 -0.09303429 1.4070002
0.1541 -0.095140003 1.4069998
0.16463548 -0.095035829 1.4054374
0.1739559 -0.095109373 1.4032502
0.18159239 -0.098807625 1.4020001
0.19561239 -0.098140009 1.4020001
0.20485309 -0.095207356 1.404
0.21509749 -0.093437746 1.4051819
0.22378001 -0.092460006 1.4070001
0.12730001 -0.081740007 1.4070001
0.13572285 -0.08384572 1.4069998
0.14568534 -0.084092967 1.406
0.1548145 -0.084616408 1.4050769
0.16445096 -0.084234275 1.4038751
0.17363174 -0.084146202 1.4024168
0.20829715 -0.088125721 1.4020001
0.2151641 -0.086981229 1.4020002
0.22471905 -0.084007248 1.4045002
0.23137335 -0.081293337 1.4070001
0.12672572 -0.07465715 1.4070002
0.13534001 -0.07503999 1.4069999
0.14515027 -0.075252771 1.4060001
0.15411393 -0.074625798 1.4038182
0.16442555 -0.074862219 1.4036669
0.17324716 -0.075107142 1.4020002
0.22699048 -0.075218417 1.4020001
0.23249 -0.075709999 1.4070001
0.13668001 -0.068340003 1.4070001
0.14531556 -0.066702217 1.4070001
0.15403095 -0.065629058 1.4063748
0.16456166 -0.065554053 1.4048126
0.17358097 -0.064091429 1.4020002
0.18559811 -0.061420955 1.4020001
0.19494477 -0.061420955 1.4020001
0.22966096 -0.06542667 1.4020001
0.23274572 -0.065543339 1.4045
0.14650668 -0.054046672 1.4070001
0.1541 -0.054940008 1.4069998
0.16482 -0.054940004 1.4069998
0.17518586 -0.054827496 1.4041876
0.18550692 -0.054884575 1.4033335
0.19458595 -0.054656703 1.4023849
0.20236275 -0.05518984 1.4020002
0.22699049 -0.053943623 1.4020001
0.23208801 -0.055744004 1.4070001
0.14418401 -0.047168005 1.4070001
0.15678 -0.048240002 1.4070001
0.16574772 -0.044529233 1.4069998
0.17550014 -0.044209287 1.4066873
0.18512867 -0.044476487 1.4054615
0.19424166 -0.043876447 1.4046667
0.2029562 -0.044062857 1.4020003
0.21655135 -0.043941475 1.4020003
0.22492237 -0.044179525 1.4057499
0.16616002 -0.034840003 1.4070001
0.17554002 -0.034839999 1.4069999
0.18492001 -0.034840003 1.4070001
0.19424127 -0.034828894 1.4065833
0.20303556 -0.034728888 1.4025557
0.21550743 -0.034716189 1.4020002
0.22512001 -0.034840003 1.4070001
0.15812001 -0.026800001 1.4070001
0.16675557 -0.026502222 1.4070001
0.17580801 -0.025728 1.4069998
0.18492001 -0.025460003 1.4069999
0.1943 -0.025460003 1.4069998
0.20407839 -0.025032246 1.4045
0.21606582 -0.024519825 1.4020003
0.22434589 -0.025971238 1.4055001
0.16884001 -0.016080001 1.4070001
0.17611429 -0.01512286 1.4069998
0.18492001 -0.014740001 1.4069999
0.1943 -0.014740002 1.4069998
0.20483609 -0.01472393 1.4057499
0.21559656 -0.014727501 1.4060624
0.22333334 -0.015633335 1.4070001
0.17721501 -0.0053600003 1.4070001
0.18492001 -0.0053600003 1.4070001
0.1943 -0.0053600003 1.4069999
0.20502 -0.0053600003 1.4069999
0.21574003 -0.0053600003 1.4069999
0.22244 -0.0053600003 1.4070001
0.17802858 0.0026800002 1.4070002
0.18492 0.0040200003 1.4069999
0.1943 0.0040200003 1.4069998
0.20502001 0.0040200003 1.4069998
0.21481231 0.0037107693 1.4069998
0.17956001 0.012060001 1.4070001
0.18492001 0.010720001 1.4070001
0.1949091 0.013400001 1.4069999
0.20502 0.01474 1.4069998
0.21415639 0.014861819 1.4069999
0.19832 0.024120001 1.4070001
0.20555601 0.023584003 1.4069999
0.21440001 0.024120003 1.4070001
-0.016080001 0.048240002 1.4070001
0.018760001 0.048240002 1.4070001
0.022780001 0.048240002 1.4070001
-0.024924001 0.054136008 1.4069999
-0.015074286 0.053737149 1.4042728
-0.0058864765 0.054592002 1.405
0.0032121905 0.052951623 1.404
0.014732858 0.052236196 1.4063749
0.022780001 0.050920002 1.4070001
0.096368887 0.050859686 1.4053334
0.10299428 0.050829526 1.4045
0.13668001 0.053600002 1.4070001
0.16482 0.056950003 1.4070001
0.17464668 0.057173342 1.4070001
0.18519124 0.057268191 1.405
0.19117333 0.05806667 1.4070001
-0.052834291 0.067000002 1.4070002
-0.044201549 0.065629058 1.4063748
-0.035016969 0.065164685 1.4042726
0.19832 0.064320005 1.4070001
0.20388222 0.063795552 1.4053334
0.21708001 0.069680005 1.4070001
-0.077720001 0.077720001 1.4070001
-0.064319998 0.075040005 1.4070001
-0.053153336 0.074593335 1.4070001
-0.044132698 0.074884452 1.4040834
-0.036318477 0.074773334 1.4020001
0.21803191 0.074904293 1.4045
-0.050920002 0.081740007 1.4070001
-0.043581773 0.083911978 1.4048573
-0.03498324 0.084921144 1.4020002
0.21897906 0.084120005 1.4020001
0.22217651 0.085655242 1.4053334
-0.041986663 0.09469334 1.4070001
-0.034759838 0.094916992 1.4036669
-0.050919998 0.1072 1.4070001
-0.042284444 0.10690221 1.4070001
-0.034801111 0.10573698 1.4053334
-0.029410159 0.10694921 1.4036669
-0.050920002 0.11256 1.4070001
-0.042879999 0.11523999 1.4070001
-0.034840003 0.11524001 1.4070001
-0.029480001 0.11524 1.4070001
-0.040200002 0.12328001 1.4070001
-0.034596369 0.12425454 1.4069999
-0.029375238 0.12417714 1.4020001
-0.034304 0.13534001 1.4069999
-0.028862095 0.13575925 1.403
-0.042880002 0.14606 1.4070001
-0.034840003 0.14472002 1.4070001
-0.027411666 0.1457338 1.4038751
-0.041540004 0.15008001 1.4070001
-0.033946667 0.15186667 1.4070001
-0.026746666 0.1540385 1.404
-0.02525291 0.1651729 1.4036669
-0.016556952 0.16717182 1.4020001
-0.024093019 0.17533524 1.4053334
-0.014704286 0.1751132 1.4035627
-0.0056747617 0.17658524 1.4020002
-0.024120001 0.18492001 1.4070001
-0.014427841 0.18528029 1.4066154
-0.0053409524 0.18559809 1.4020003
0.00089015876 0.18559812 1.4020001
-0.024120003 0.1943 1.4069999
-0.015000382 0.19442898 1.4059999
-0.0056747617 0.19461097 1.4020002
-0.024120003 0.20502001 1.4069999
-0.014740001 0.20502 1.4069998
-0.0058779046 0.2043657 1.4025002
-0.024120001 0.21574001 1.4069999
-0.014740001 0.21574004 1.4069998
-0.0053584129 0.21561383 1.4061666
0.0029141123 0.21620779 1.4029092
0.012017143 0.21897906 1.4020001
-0.024120001 0.22512001 1.4070001
-0.014740001 0.22512002 1.4069999
-0.005090096 0.22549315 1.4060001
0.0036330614 0.22565582 1.4055713
0.013951113 0.22589356 1.4025557
0.024034286 0.22743557 1.4020001
-0.024120001 0.23494668 1.4070001
-0.013102223 0.23315999 1.4070001
-0.0056036366 0.23486547 1.4069999
0.0043926532 0.2347151 1.4048573
0.014922857 0.23453905 1.4032501
0.024331005 0.23529863 1.4020002
0.032045715 0.23633716 1.4020001
0.22699049 0.23700477 1.4020001
-0.010720001 0.24120001 1.4070001
-0.0046900003 0.24187002 1.4070001
0.0045908848 0.24471472 1.4062856
0.01443454 0.24437423 1.403667
0.024034286 0.2438145 1.4020002
0.032045715 0.24301334 1.4020001
0.22699049 0.24194515 1.4020001
-0.010720001 0.25460002 1.4070001
-0.0057428577 0.25536573 1.4070002
0.0040200003 0.25594002 1.4069998
0.013826034 0.25652698 1.4053332
0.024568383 0.25850213 1.4020001
-0.012060001 0.26800001 1.4070001
0.0045560002 0.26532 1.4069999
0.014729683 0.26516449 1.4061666
0.02541397 0.26485178 1.4045
0.034769099 0.26568851 1.4042222
0.041659433 0.26704764 1.4020001
-0.011613335 0.27425334 1.4070001
-0.0046900003 0.27470002 1.4070001
0.0040200003 0.27470002 1.4069998
0.013132001 0.27389604 1.4069999
0.025460003 0.27470002 1.4069998
0.034584243 0.27497718 1.4065455
0.042429525 0.2756393 1.40325
0.0053600003 0.28408 1.4069999
0.014740001 0.28542006 1.4069998
0.025460001 0.28542 1.4069998
0.034840003 0.28542003 1.4069999
0.044137858 0.28491527 1.4045
0.051629204 0.28752127 1.4020001
0.015782224 0.29420444 1.4070001
0.025460003 0.29480001 1.4069999
0.034840003 0.29480001 1.4070001
0.044220001 0.29480001 1.4069999
0.054299682 0.29553273 1.4020003
0.016080001 0.30016002 1.4070001
0.025460003 0.30418003 1.4069998
0.034840006 0.30418 1.4069999
0.044220001 0.30418003 1.4069998
0.054541059 0.30556676 1.4028826
0.017420001 0.31490001 1.4070001
0.025460001 0.31490004 1.4069998
0.034840003 0.31490004 1.4069999
0.044188455 0.31468812 1.4060624
0.054744761 0.3151162 1.4020003
0.06542667 0.31778666 1.4020001
0.025825458 0.32428002 1.4069999
0.03508364 0.32525456 1.4069999
0.044159286 0.32518968 1.405125
0.054817382 0.32490098 1.4038751
0.065440357 0.32453606 1.4023128
0.072993018 0.32535303 1.4020001
0.045024 0.334732 1.4069999
0.054940004 0.33500004 1.4069999
0.065502718 0.33513466 1.4058461
0.073883176 0.33558986 1.4020002
0.082784764 0.33915052 1.4020001
0.045560002 0.34438002 1.4069999
0.054940011 0.34438005 1.4069998
0.065875359 0.34443516 1.4045001
0.074773334 0.34582666 1.4020003
0.082541995 0.34619087 1.4020003
0.045560002 0.35376003 1.4070001
0.055249233 0.35417229 1.4069998
0.065296769 0.3548632 1.405
0.074773341 0.35517335 1.4020002
0.084120005 0.35517335 1.4020003
0.090796195 0.35517335 1.4020001
0.066234291 0.36543721 1.4069998
0.07497254 0.3654978 1.4057499
0.08411999 0.36451995 1.4020003
0.090796195 0.36452001 1.4020001
0.067335002 0.37553501 1.4070001
0.075040005 0.3752 1.4070001
0.084120005 0.37520197 1.4020003
0.090796195 0.37653714 1.4020001
0.066587694 0.38488919 1.4069998
0.07503999 0.38458002 1.4069999
0.084372379 0.38569227 1.4061666
0.094356827 0.38499367 1.4020003
0.067335002 0.39362502 1.4070001
0.075039998 0.3953 1.4069999
0.084419996 0.3953 1.4069998
0.094593406 0.3952519 1.4035386
0.068340003 0.40736002 1.4070001
0.075039998 0.40468001 1.4070001
0.084499635 0.4049803 1.4066151
0.093902424 0.40499526 1.4023849
0.075283632 0.41418183 1.4069999
0.08431036 0.4142302 1.4066665
0.094995558 0.41478655 1.4049166
0.10254629 0.41712838 1.4020001
0.068072006 0.42344004 1.4070001
0.075283632 0.42465818 1.4069999
0.08442001 0.42478007 1.4069998
0.095139995 0.42478001 1.4069998
0.10343727 0.42558643 1.4027145
0.075040005 0.43416002 1.4070001
0.083973326 0.43438339 1.4069999
0.09533143 0.43511719 1.4069998
0.10499048 0.43562376 1.405077
0.085759997 0.44354001 1.4070001
0.095810004 0.44420999 1.4070001
0.10599048 0.4445619 1.4046922
0.11483046 0.44596958 1.4020002
0.12284191 0.4470377 1.4020001
0.075040005 0.45024002 1.4070001
0.088440001 0.45828003 1.4070001
0.095810004 0.45515335 1.4069999
0.10548852 0.45409688 1.4056666
0.11487492 0.45416191 1.4025557
0.12455864 0.45474401 1.4020003
0.13085334 0.45798668 1.4020001
0.088440001 0.46498001 1.4070001
0.096479997 0.46364003 1.4070001
0.10612799 0.46506932 1.4069998
0.11524001 0.46498001 1.4069999
0.12423714 0.46555424 1.4069998
0.13226636 0.46493903 1.4028335
0.21790256 0.46253839 1.4036669
0.088440001 0.47168002 1.4070001
0.10809334 0.47391334 1.4070001
0.11524 0.47569999 1.4069999
0.12459144 0.47559524 1.4066874
0.13085334 0.47400951 1.4020001
0.10573819 0.48532364 1.4069999
0.11523999 0.48507997 1.4070001
0.12442358 0.48566109 1.4048125
0.13085334 0.48469144 1.4020001
0.14954667 0.48869717 1.4020001
0.15488763 0.48869717 1.4020001
0.21497335 0.48669428 1.4020002
0.22164953 0.48469144 1.4020001
0.10697667 0.49378994 1.4069999
0.11524 0.49446002 1.4069999
0.1239101 0.49528429 1.4020003
0.13405791 0.49403811 1.4020001
0.14487334 0.49203527 1.4020001
0.15488763 0.49403811 1.4020001
0.21489498 0.49612314 1.4052142
0.22378001 0.49445999 1.4070001
0.10873143 0.50460571 1.4070002
0.11524 0.50518 1.4069999
0.12443429 0.50577325 1.4049166
0.13449489 0.5049628 1.4020003
0.1442057 0.5065003 1.4020001
0.15221715 0.5073905 1.4020001
0.20829715 0.50472003 1.4020001
0.21569246 0.50527841 1.4046923
0.22244 0.50250006 1.4070001
0.11677144 0.51532573 1.4070002
0.12462001 0.51590002 1.4069998
0.13518882 0.51533091 1.4054375
0.14563738 0.51441312 1.4029378
0.15221715 0.5154019 1.4020001
0.20829715 0.51451176 1.4020001
0.21318114 0.51424867 1.4025002
0.12566224 0.52498221 1.4070001
0.13533999 0.52527994 1.4069999
0.14520267 0.52482623 1.4064999
0.15328521 0.52496743 1.4029092
0.20651685 0.52786416 1.4020001
0.21096763 0.52875429 1.4020001
0.12774669 0.5315333 1.4070001
0.135608 0.534392 1.4069998
0.14496364 0.53429461 1.4069999
0.15239494 0.53517371 1.4036669
0.20696193 0.53543055 1.4020002
0.21306002 0.53510672 1.4070001
0.12596001 0.54270005 1.4070001
0.13727556 0.54433775 1.4070001
0.14509128 0.54512823 1.4066154
0.15239494 0.54512703 1.4036666
0.20651287 0.54657048 1.40575
0.21286859 0.54480571 1.4070002
0.13936001 0.55342007 1.4070001
0.14472 0.5547601 1.4070001
0.15343325 0.55392915 1.4042728
0.16452715 0.55511433 1.4045
0.17510696 0.55507761 1.4020002
0.18292762 0.55812955 1.4020001
0.19761525 0.55545908 1.4020001
0.20550907 0.5549348 1.4057499
0.21172 0.55208004 1.4070001
0.13936001 0.56012005 1.4070001
0.14472 0.56012005 1.4070001
0.1541 0.56012005 1.4070001
0.16562399 0.56065607 1.4070001
0.1761491 0.56353092 1.4069999
0.18447979 0.56414247 1.4036669
0.20562668 0.56080002 1.4020001
0.13534001 0.57620001 1.4070001
0.17956001 0.57084 1.4070001
0.18425 0.57385498 1.4070001
0.19028001 0.57352 1.4070001
0.18425001 0.58692002 1.4070001
0.19242401 0.58852804 1.4070001
0.18492001 0.59228003 1.4070001
0.19295999 0.59496009 1.4070001
0.1876 0.60300004 1.4070001
0.19334285 0.60223436 1.4070002
0.16148572 -0.11304001 1.4130001
0.1884 -0.11304001 1.4130001
0.19378287 -0.11124571 1.4130001
0.20200229 -0.11180457 1.4178001
0.11622286 -0.10000572 1.419
0.12973715 -0.10000572 1.419
0.13581857 -0.10068144 1.419
0.14463937 -0.10421588 1.4150001
0.15206572 -0.10496572 1.4130001
0.19701257 -0.10658058 1.4130001
0.20556736 -0.10509471 1.4147145
0.21457429 -0.10391524 1.4170002
0.2216343 -0.10000572 1.419
0.11539201 -0.095431998 1.4154001
0.12655239 -0.093868576 1.4170001
0.13627078 -0.094645724 1.4134617
0.14479887 -0.098506287 1.4130001
0.21531428 -0.099582858 1.4130001
0.22592802 -0.09543886 1.4154001
0.23244572 -0.091897145 1.419
0.11536968 -0.084248796 1.4162309
0.12429714 -0.085708581 1.4135002
0.13322571 -0.088817149 1.4130001
0.22877143 -0.088817149 1.4130001
0.23448764 -0.084899999 1.4150001
0.11427225 -0.074770622 1.4164286
0.12219086 -0.07589829 1.4130001
0.23684572 -0.075360008 1.4130001
0.24055429 -0.074328572 1.419
0.11695746 -0.066272378 1.4169999
0.12518357 -0.065956429 1.4133751
0.13572492 -0.065555513 1.4130001
0.14354287 -0.062799998 1.4130001
0.23684572 -0.06594 1.4130001
0.24055429 -0.064868577 1.419
0.11646857 -0.055285715 1.4189998
0.12521572 -0.055203576 1.4137502
0.13591716 -0.055174287 1.4130001
0.14354287 -0.056071434 1.4130001
0.23566765 -0.053864766 1.4140002
0.24145524 -0.058561906 1.419
0.11712381 -0.045498099 1.419
0.12534574 -0.044477854 1.4152502
0.13591716 -0.044408571 1.4130001
0.14572164 -0.04229388 1.4130001
0.15437266 -0.043831833 1.4130001
0.16148572 -0.043062862 1.4130001
0.2345724 -0.044487614 1.4155
0.12554573 -0.035100002 1.4174999
0.13591714 -0.034988571 1.4130001
0.14533715 -0.034988575 1.4130001
0.15475716 -0.034988578 1.4130001
0.16148572 -0.034988571 1.4130001
0.23381305 -0.035436735 1.4155715
0.12742041 -0.027800819 1.4189999
0.13573593 -0.026180411 1.4151429
0.14496881 -0.025265055 1.4134617
0.15448801 -0.025478859 1.4130001
0.16302368 -0.024222856 1.4130001
0.17225143 -0.021531429 1.4130001
0.22877143 -0.022877144 1.4130001
0.23304245 -0.026194287 1.4155715
0.12973715 -0.016217144 1.419
0.13514288 -0.014865716 1.4189998
0.14456357 -0.014862859 1.4186251
0.15504073 -0.014827857 1.4156251
0.1652537 -0.014713143 1.4130001
