# .PCD v0.7 - Point Cloud Data file format
VERSION 0.7
FIELDS x y z
SIZE 4 4 4
TYPE F F F
COUNT 1 1 1
WIDTH 1480
HEIGHT 1
VIEWPOINT 0 0 0 1 0 0 0
POINTS 1480
DATA ascii
0.37939048 0.02969143 1.7320001
0.37939048 0.032990478 1.7320001
0.38433906 0.036289524 1.7320001
-0.17155048 0.21773715 1.7320001
-0.16495238 0.21773715 1.732
-0.15505524 0.21773715 1.732
-0.14845715 0.21773715 1.7320001
-0.18144763 0.2276343 1.7320001
-0.17484953 0.2210362 1.7320001
-0.19134477 0.23753144 1.7320001
-0.1863962 0.23258287 1.7320001
-0.20124191 0.24742858 1.7320001
-0.19629334 0.24248001 1.7320001
-0.20289144 0.25237715 1.7320001
-0.20619048 0.26392382 1.7320001
-0.20784001 0.27052191 1.7320001
-0.21113905 0.29691431 1.7320001
-0.16165334 0.41403049 1.7320001
-0.1583543 0.41238096 1.7320001
-0.16495238 0.42392763 1.7320001
-0.16825144 0.43547431 1.732
-0.16825144 0.44537145 1.7320001
-0.16495238 0.45691812 1.7320001
-0.16165334 0.46681526 1.7320001
-0.16165334 0.47341335 1.7320001
-0.16495238 0.49485719 1.7320002
-0.17155048 0.5064038 1.7320001
-0.16660191 0.50310481 1.7320001
0.6136229 0.58063239 1.732
0.47753143 -0.15254477 1.7410001
0.46758288 -0.1425962 1.7410001
0.47421527 -0.14646508 1.7410001
0.48084763 -0.14922857 1.7410001
0.4576343 -0.13264762 1.7410001
0.46426669 -0.13928001 1.7410001
0.45498133 -0.12535201 1.7409999
0.43442097 -0.11385588 1.7410001
0.44215879 -0.11827746 1.7410001
0.42778859 -0.10611811 1.7410001
0.43110478 -0.10611811 1.7410001
0.42502508 -0.096169531 1.7410001
0.41784 -0.08456286 1.7410001
0.42248267 -0.086884186 1.7409999
0.41562924 -0.075166993 1.7410001
0.4211562 -0.079588577 1.7410001
0.40706241 -0.065494768 1.7410001
0.41286573 -0.067981906 1.7410001
0.39794287 -0.053059049 1.7410001
0.40362781 -0.056848977 1.7410001
0.39573207 -0.045321271 1.7410001
0.40125906 -0.048084766 1.7410001
0.38799429 -0.033161905 1.7410001
0.39462668 -0.036478098 1.7410001
0.38799429 -0.023213334 1.7410001
0.39263695 -0.027192762 1.7409999
0.38666782 -0.015917715 1.7409999
0.39131048 -0.019897144 1.7410001
0.38578352 -0.0077377781 1.7410001
0.38136193 0.016580952 1.7410001
0.37804574 0.029845715 1.7410001
0.38136193 0.024871429 1.7410001
0.38467813 0.038688891 1.7410001
0.39131048 0.039794289 1.7410001
-0.16415143 0.21555239 1.7410001
-0.15420286 0.21555239 1.7410001
-0.14922857 0.21555239 1.7410001
-0.18404858 0.22715905 1.7410001
-0.17907429 0.22218478 1.7410001
-0.19565524 0.23766033 1.7410001
-0.18902287 0.23213334 1.7410001
-0.20394573 0.2470562 1.7410001
-0.19897144 0.24208191 1.7410001
-0.20560382 0.25534669 1.7410001
-0.20892 0.26529524 1.7410001
-0.2122362 0.27524382 1.7410001
-0.16802032 0.42447242 1.7410001
-0.17410001 0.43773717 1.7410001
-0.16912572 0.43110478 1.7410001
-0.16912572 0.45597619 1.7410001
-0.16691492 0.46426669 1.7410001
-0.16580953 0.47421527 1.7410001
-0.16470413 0.4847165 1.7410001
-0.17244191 0.49577051 1.7410001
-0.16580953 0.49079621 1.7410001
-0.17244191 0.5024029 1.7410001
0.46906668 -0.15077144 1.7590001
0.47166669 -0.15000001 1.7500001
0.46494976 -0.14295809 1.7536001
0.47000003 -0.14666668 1.7500001
0.45561019 -0.13256508 1.7545
0.46166667 -0.13666667 1.7500001
0.43388671 -0.12061714 1.7590001
0.44333336 -0.12333333 1.7500001
0.45188257 -0.1257727 1.7530001
0.4269262 -0.11279143 1.7545002
0.43377566 -0.11678667 1.7518002
0.44000003 -0.12 1.7500001
0.41880953 -0.10051429 1.7590001
0.42372674 -0.10394929 1.7533751
0.41704077 -0.093050674 1.7572
0.42083335 -0.094166666 1.7500001
0.4087581 -0.080411434 1.7590001
0.41380197 -0.083430476 1.7520001
0.40582731 -0.072470792 1.756
0.41111112 -0.075555556 1.7500001
0.39690983 -0.06132254 1.756
0.40256512 -0.064501591 1.7515001
0.38766098 -0.051803812 1.7545002
0.39378101 -0.053398103 1.7520001
0.40000001 -0.056666669 1.7500001
0.38666669 -0.043333337 1.7500001
0.39083335 -0.044166669 1.7500001
0.38666669 -0.033333335 1.7500001
0.39000002 -0.033333335 1.7500001
0.38666669 -0.023333333 1.7500001
0.39000002 -0.026666667 1.7500001
0.38530478 -0.013401906 1.7590002
0.38480765 -0.0050171427 1.7567501
0.37692857 0.0067009525 1.7590001
0.38297239 0.0033419048 1.756
0.37692857 0.013401906 1.7589999
0.38172418 0.012676952 1.7518002
0.3751879 0.023840003 1.75675
0.38000003 0.023333333 1.7500001
0.37494576 0.033021666 1.755625
0.38000003 0.035000004 1.7500001
0.38333336 0.040000003 1.7500001
-0.15329067 0.20617679 1.7572
-0.14630413 0.20661271 1.7590002
-0.18092573 0.21778096 1.7590001
-0.17320153 0.21599504 1.7554001
-0.16333471 0.21300055 1.7551429
-0.15359332 0.21202667 1.7530001
-0.1462062 0.21304002 1.7545002
-0.19265239 0.22783239 1.7590001
-0.18438058 0.22312269 1.7536001
-0.17666668 0.22000001 1.7500001
-0.20102859 0.23788382 1.7590001
-0.1949473 0.23281652 1.7545
-0.20575507 0.2431604 1.7536001
-0.21108001 0.2546362 1.7590002
-0.21221524 0.26401478 1.7545002
-0.2152786 0.27368477 1.7522501
-0.22280668 0.28144002 1.7590001
-0.21488953 0.28295809 1.7518002
-0.21471953 0.29492098 1.7545002
-0.21703811 0.30384764 1.7530001
-0.16752382 0.4087581 1.7590001
-0.1708743 0.41713428 1.7590001
-0.16647619 0.41492763 1.7567501
-0.17043716 0.42274669 1.7545002
-0.16666667 0.42000002 1.7500001
-0.17392762 0.43481335 1.7560002
-0.17333335 0.44500002 1.7500001
-0.17369334 0.45426592 1.7536001
-0.17387161 0.46476308 1.7554001
-0.17 0.47333336 1.7500001
-0.1710562 0.48479241 1.7522501
-0.16666667 0.48666668 1.7500001
-0.18260096 0.49754572 1.7590001
-0.17545001 0.49459764 1.7545002
-0.18260098 0.5059219 1.7589999
-0.17727238 0.50506473 1.7560002
-0.17757525 0.51262289 1.7590001
0.46473145 -0.14480762 1.7680001
0.44789335 -0.13133715 1.7680001
0.45462859 -0.13470477 1.7680001
0.44452572 -0.12684698 1.7680001
0.45126095 -0.12796953 1.7680001
0.42432001 -0.11281523 1.7680001
0.41758478 -0.10102858 1.7680001
0.42095241 -0.10608 1.7680001
0.41533968 -0.094293334 1.7680001
0.40635934 -0.081945397 1.7680001
0.41084954 -0.085874289 1.7680001
0.40344077 -0.074761137 1.768
0.39625654 -0.063984767 1.7680001
0.40074667 -0.067352384 1.7680001
0.3872762 -0.04209524 1.7680001
0.38592917 -0.034349717 1.768
0.3872762 -0.023573333 1.7680001
0.3839086 -0.013470476 1.7680001
0.37717333 -0.0033676191 1.7680001
0.38166353 -0.0056126988 1.7680001
0.3760508 0.0033676189 1.7680001
0.38054097 0.0016838096 1.7680001
0.37380573 0.013470476 1.7680001
0.37212193 0.021889525 1.7680001
0.37212193 0.035360001 1.7680001
-0.16501336 0.20879239 1.7680001
-0.15827811 0.20542477 1.7680001
-0.18521905 0.21777271 1.7680001
-0.1751162 0.21328254 1.7680001
-0.19448002 0.22563048 1.7680001
-0.18858667 0.22226286 1.7680001
-0.20458287 0.23657525 1.7680001
-0.21552762 0.25930667 1.7680001
-0.21777271 0.2660419 1.7680001
-0.22226286 0.27614477 1.7680001
-0.21889524 0.27277714 1.7680001
-0.22338539 0.28737018 1.7680001
-0.22310476 0.29719239 1.7680001
-0.21889524 0.29466668 1.7680001
-0.22338539 0.30420825 1.7680001
-0.17174858 0.40748191 1.7680001
-0.17376915 0.41354364 1.768
-0.1751162 0.42432001 1.7680001
-0.1751162 0.43105525 1.7680001
-0.17848381 0.44789335 1.7680001
-0.1784838 0.45462859 1.7680001
-0.17848381 0.46809906 1.7680001
-0.1751162 0.47651809 1.7680001
-0.1751162 0.48493716 1.7680001
-0.18353525 0.49504003 1.7680001
-0.17848381 0.49335623 1.7680001
-0.18185143 0.51524574 1.7680001
0.47725144 -0.15569906 1.7770001
0.48063621 -0.15569906 1.7770001
0.46371236 -0.14554477 1.7770001
0.44678858 -0.13369811 1.7770001
0.45355812 -0.13708286 1.7770001
0.42986476 -0.12185143 1.7770001
0.43494189 -0.1252362 1.7770001
0.44114733 -0.12749271 1.7770001
0.41971049 -0.11169714 1.7770001
0.42563382 -0.11762048 1.7770001
0.41767964 -0.10560457 1.7770001
0.40955621 -0.091388576 1.7770001
0.41378716 -0.095619529 1.7770001
0.39940193 -0.081234291 1.7770001
0.40549451 -0.085296005 1.7770001
0.39804801 -0.073787816 1.7770001
0.40278667 -0.07784953 1.7770001
0.39398628 -0.064987436 1.7770001
0.38924763 -0.05077143 1.7770001
0.3926324 -0.057540953 1.7770001
0.38670906 -0.044848099 1.7770001
0.37909335 -0.033847619 1.7770001
0.3833243 -0.03300143 1.7770001
0.3841705 -0.023693336 1.7770001
0.37909335 -0.011846667 1.7770001
0.38247812 -0.013539049 1.7770001
0.37683687 -0.0056412704 1.7770001
0.36893907 0.006769524 1.7770001
0.37367773 0.0027078097 1.7770001
0.36893907 0.013539049 1.7770001
0.37232384 0.013539049 1.7770001
0.36809289 0.023693334 1.7770001
0.37232381 0.023693334 1.7770001
0.36758515 0.033170667 1.7770001
0.37232381 0.033847623 1.7770001
-0.17431524 0.20985524 1.7770001
-0.16246858 0.20647049 1.7770001
-0.18616192 0.2154965 1.7770001
-0.17939238 0.21324001 1.7770001
-0.1963162 0.22339429 1.7770001
-0.20714745 0.23422551 1.7770001
-0.21324001 0.24539524 1.7770001
-0.22000954 0.2572419 1.7770001
-0.2154965 0.25385717 1.7770001
-0.22170192 0.26401144 1.7770001
-0.22508667 0.27247334 1.7770001
-0.23354858 0.29616669 1.7770001
-0.22452255 0.2944743 1.7770001
-0.23016381 0.30124381 1.7770001
-0.17600763 0.39940193 1.7770001
-0.18446952 0.4078638 1.7770001
-0.1777 0.40617144 1.7770001
-0.18390541 0.41406921 1.7770001
-0.17939238 0.41632572 1.7770001
-0.17939238 0.42478764 1.7770001
-0.17939238 0.47386667 1.7770001
-0.17939238 0.48402095 1.7770001
-0.18446952 0.49417526 1.7770001
-0.17939238 0.49079049 1.7770001
0.46946287 -0.15308572 1.7860001
0.47456574 -0.15478668 1.7860001
0.45812318 -0.14401399 1.7860001
0.46379304 -0.14854985 1.7860001
0.43884572 -0.13267429 1.7860001
0.44564953 -0.13522571 1.7860001
0.45245335 -0.1394781 1.7860001
0.42750606 -0.12360255 1.7860001
0.43317589 -0.12813842 1.7860001
0.41843429 -0.11396381 1.7860001
0.4218362 -0.11736572 1.7860001
0.41418192 -0.10460857 1.7860001
0.40737814 -0.094402857 1.7860001
0.41163048 -0.096954286 1.7860001
0.39802286 -0.08164572 1.7860001
0.40255871 -0.087315559 1.7860001
0.39547145 -0.075692385 1.7860001
0.38781714 -0.061234288 1.7860001
0.39121905 -0.061234288 1.7860001
0.38781714 -0.054430474 1.7860001
0.39121905 -0.05613143 1.7860001
0.37761143 -0.04082286 1.7860001
0.38271427 -0.044224765 1.7860001
0.37676093 -0.033168573 1.7860001
0.38101333 -0.034019049 1.7860001
0.37591049 -0.023813335 1.7860001
0.3810133 -0.023813335 1.7860001
0.37591049 -0.01360762 1.7860001
0.38101333 -0.017009525 1.7860001
0.37250856 -0.005102857 1.7860001
0.36655527 0.0042523812 1.7860001
0.37080762 0.0017009524 1.7860001
0.3657048 0.01360762 1.7860001
0.36536461 0.023813333 1.786
0.36343685 0.03515302 1.7860001
0.36060193 0.04082286 1.7860001
-0.16669334 0.20751619 1.7860001
-0.15818858 0.20411429 1.7860001
-0.19220762 0.21602096 1.7860001
-0.18370287 0.21205206 1.7860001
-0.20241334 0.22622667 1.7860001
-0.19731048 0.22112381 1.7860001
-0.20751619 0.23132953 1.7860001
-0.21772191 0.2466381 1.7860001
-0.22282477 0.25684381 1.7860001
-0.21772191 0.25174096 1.7860001
-0.22679365 0.26534858 1.7860001
-0.23132953 0.28916192 1.7860001
-0.22792763 0.29256383 1.7860001
-0.18030097 0.39632189 1.7860001
-0.17689906 0.39632189 1.7860001
-0.18370287 0.40369272 1.7860001
-0.18710476 0.41843429 1.7860001
-0.18370287 0.4218362 1.7860001
-0.18030097 0.43544379 1.7860001
-0.18483685 0.46832892 1.7860001
-0.18467484 0.47675267 1.7860001
-0.18506363 0.48579201 1.786
-0.18540382 0.49327621 1.7860001
0.45815238 -0.15214762 1.7950001
0.46385083 -0.15442698 1.7950001
0.4735381 -0.1572762 1.7950001
0.44618574 -0.14018096 1.7950001
0.45473334 -0.14530954 1.7950001
0.43592858 -0.13334286 1.7950001
0.44276667 -0.1367619 1.7950001
0.42567146 -0.12479524 1.7950001
0.43080002 -0.12992382 1.7950001
0.41598415 -0.11396826 1.7950001
0.42054287 -0.11966667 1.7950001
0.41256511 -0.10599049 1.7950001
0.40515715 -0.095733337 1.7950001
0.39660954 -0.082057148 1.7950001
0.40002859 -0.085476197 1.7950001
0.38977143 -0.073509529 1.7950001
0.3931905 -0.073509529 1.7950001
0.3870362 -0.064278103 1.7950001
0.3931905 -0.066671431 1.7950001
0.37951431 -0.051285718 1.7950001
0.38464287 -0.054704759 1.7950001
0.37677908 -0.043763809 1.7950001
0.36925712 -0.03419048 1.7950001
0.37404379 -0.034874283 1.7950001
0.36925712 -0.023933336 1.7950001
0.37267622 -0.023933334 1.7950001
0.36925712 -0.013676192 1.7950001
0.37267622 -0.013676192 1.7950001
0.36925715 -0.0051285718 1.7950001
0.36583811 0.0034190477 1.7950001
0.36241907 0.015385714 1.7950001
0.35900003 0.025642857 1.7950001
0.36241904 0.023933334 1.7950001
0.35900006 0.034190476 1.7950001
0.36241907 0.030771431 1.7950001
0.35900003 0.041028574 1.7950001
-0.18120953 0.20856191 1.7950001
-0.17437144 0.20856191 1.7950001
-0.1641143 0.20514287 1.7950001
-0.19556955 0.2147162 1.7950001
-0.18804763 0.21198095 1.7950001
-0.20514286 0.22565715 1.7950001
-0.22223811 0.24788097 1.7950001
-0.21540001 0.24275239 1.7950001
-0.22565715 0.25557384 1.7950001
-0.22907619 0.26326668 1.7950001
-0.1931762 0.40515715 1.7950001
-0.1863381 0.40344763 1.7950001
-0.19146667 0.41370478 1.7950001
-0.18690795 0.42624131 1.7950001
-0.18462858 0.43080002 1.7950001
-0.18120953 0.44618574 1.7950001
-0.18576826 0.4649905 1.7950001
-0.18804763 0.49234289 1.7950001
0.46388569 -0.16150096 1.8040003
0.47591239 -0.16150096 1.8040001
0.45615432 -0.15376952 1.8040001
0.46044955 -0.15806477 1.8040001
0.47075811 -0.15806477 1.8040001
0.43983239 -0.14088382 1.8040001
0.4449867 -0.14260191 1.8040001
0.45128635 -0.1466108 1.8040003
0.42780572 -0.13057524 1.8040001
0.43639621 -0.13630222 1.8040003
0.41921526 -0.12026667 1.8040001
0.42436954 -0.12542096 1.8040001
0.41406095 -0.11511239 1.8040001
0.40804762 -0.10566287 1.8040001
0.41234288 -0.10824001 1.8040001
0.40375239 -0.096213341 1.8040001
0.3985981 -0.087622859 1.8040001
0.40203431 -0.089340955 1.8040001
0.38828954 -0.072160006 1.8040001
0.39344382 -0.079032384 1.8040001
0.38485336 -0.066146672 1.8040001
0.37798098 -0.05154286 1.8040001
0.38141716 -0.056697145 1.8040001
0.37385753 -0.045357715 1.8040001
0.36767235 -0.034361906 1.8040003
0.36767235 -0.024053333 1.8040003
0.36767235 -0.013744761 1.8040003
0.36767238 -0.0034361905 1.8040001
0.3653816 0.0034361903 1.8040003
0.36194542 0.013744763 1.8040003
0.35736382 0.027489524 1.8040001
0.36080003 0.020617144 1.8040001
0.35736382 0.034361906 1.8040003
0.35736382 0.041234288 1.8040001
-0.19242667 0.20960763 1.8040001
-0.18555431 0.20846224 1.8040003
-0.17524572 0.20617144 1.8040003
-0.16493715 0.20445335 1.8040001
-0.15577398 0.20388065 1.8040003
-0.20273525 0.21819809 1.8040001
-0.19929905 0.21304382 1.8040001
-0.20846224 0.22449778 1.8040003
-0.21304382 0.23366097 1.8040001
-0.22678858 0.24740572 1.8040001
-0.21819809 0.24225143 1.8040001
-0.23022477 0.2559962 1.8040001
-0.22678858 0.25084192 1.8040001
-0.24568763 0.26802287 1.8040001
-0.23366098 0.26458669 1.8040003
-0.24568763 0.27145904 1.8040001
-0.23366097 0.27145904 1.8040001
-0.1872724 0.43467811 1.8040001
-0.1855543 0.4432686 1.8040001
-0.1855543 0.45701334 1.8040001
-0.1872724 0.46388572 1.8040001
-0.19242667 0.47591239 1.8040001
-0.19414477 0.48450288 1.804
-0.19414477 0.49481142 1.804
-0.19586286 0.50168383 1.8040001
0.45781904 -0.16239619 1.8140001
0.47336763 -0.16239619 1.8140001
0.44918096 -0.15203048 1.8140001
0.45401829 -0.15617676 1.8140001
0.42844954 -0.14166477 1.8140001
0.4362238 -0.14252858 1.8140001
0.44572577 -0.14627177 1.8140001
0.4267219 -0.13475429 1.8140001
0.4330565 -0.13705778 1.8140001
0.41549239 -0.12179716 1.8140001
0.42269078 -0.12669207 1.8140001
0.40656638 -0.11171937 1.8140001
0.41232511 -0.11632635 1.8140001
0.40512669 -0.10452096 1.8140001
0.40195939 -0.09559492 1.8140001
0.39620066 -0.084077455 1.8140001
0.38525906 -0.072560005 1.8140001
0.39044192 -0.07774286 1.8140001
0.37662098 -0.062194288 1.8140001
0.38180381 -0.065649524 1.8140001
0.37575716 -0.054420006 1.8140001
0.3800762 -0.057011433 1.8140001
0.37316573 -0.048373334 1.8140001
0.36625525 -0.031097144 1.8140001
0.36625525 -0.024186665 1.8140001
0.36625525 -0.013820953 1.8140001
0.36625525 -0.0051828572 1.8140001
0.36366382 0.0025914286 1.8140001
0.35934478 0.015548572 1.8140001
0.3628 0.010365714 1.8140001
0.35761714 0.024186667 1.8140001
0.34897906 0.038007621 1.8140001
0.35416195 0.03455238 1.8140001
-0.19176573 0.2073143 1.8140001
-0.18658286 0.2073143 1.8140001
-0.16585143 0.20385906 1.8140001
-0.20385905 0.21422477 1.8140001
-0.19694857 0.21076953 1.8140001
-0.2073143 0.22113524 1.8140001
-0.2159524 0.2349562 1.8140001
-0.23150097 0.24877715 1.8140001
-0.23380446 0.25568762 1.8140001
-0.19349334 0.42499429 1.8140001
-0.19176573 0.43536001 1.8140001
-0.1900381 0.46645716 1.8140001
-0.19694857 0.4802781 1.8140001
0.43428573 -0.15286858 1.824
0.44540343 -0.15425828 1.8240001
0.45165715 -0.15808001 1.8240001
0.42617908 -0.14360382 1.824
0.43428573 -0.14765716 1.8240002
0.44470859 -0.14939429 1.824
0.42328382 -0.13549715 1.8240002
0.41517717 -0.1250743 1.8240001
0.42038858 -0.12854858 1.8240001
0.40579662 -0.11534629 1.8240001
0.40301716 -0.10422858 1.824
0.39780572 -0.090331435 1.8240001
0.38912001 -0.08338286 1.8240001
0.39375243 -0.085699052 1.824
0.37869716 -0.072960004 1.8240001
0.38564572 -0.077013336 1.8240002
0.37696004 -0.066011429 1.8240001
0.38217145 -0.069485717 1.8240001
0.37522286 -0.057325717 1.8240001
0.3682743 -0.04169143 1.8240001
0.3717486 -0.045165718 1.824
0.36566859 -0.033874288 1.8240001
0.35785145 -0.020845715 1.8240001
0.36306286 -0.024319999 1.8240002
0.35785142 -0.013897143 1.824
0.36306286 -0.013897143 1.8240002
0.35669336 -0.0046323813 1.824
0.36248383 -0.0057904762 1.824
0.35785142 0.0034742858 1.824
0.36132574 0.0034742858 1.824
0.3561143 0.013897143 1.8240002
0.36132574 0.010422857 1.8240001
0.35338446 0.023823673 1.8240002
0.34627047 0.03705905 1.824
0.35090286 0.033005714 1.8240001
0.34221715 0.04169143 1.8240001
-0.19803429 0.20845716 1.8240001
-0.18240002 0.20498286 1.8240001
-0.17371428 0.20498286 1.824
-0.21193144 0.21888001 1.8240001
-0.20672001 0.21366858 1.8240001
-0.21424763 0.22582859 1.824
-0.22235429 0.23972572 1.8240001
-0.21888001 0.23625144 1.8240001
-0.22235429 0.2432 1.8240001
-0.23625144 0.25362286 1.8240001
-0.23972572 0.26404572 1.8240001
-0.19108573 0.44644573 1.8240001
-0.18761143 0.44470859 1.8240001
0.43992001 -0.16060571 1.8330001
0.44690287 -0.16060571 1.8330001
0.4503943 -0.16060571 1.8330001
0.42770004 -0.15187715 1.8330001
0.43642858 -0.1571143 1.8330001
0.44341144 -0.1571143 1.8330001
0.42420858 -0.14489429 1.8330001
0.41780767 -0.1338381 1.8330001
0.42246288 -0.13965715 1.8330001
0.40849715 -0.1222 1.8330001
0.41460717 -0.12656429 1.8330001
0.40500572 -0.11870857 1.8330001
0.40151429 -0.10299715 1.8330001
0.39627713 -0.09252286 1.8330001
0.40151429 -0.096014291 1.8330001
0.38475543 -0.083096005 1.8329999
0.39104003 -0.08728572 1.8330001
0.3770743 -0.075065717 1.8330001
0.38056573 -0.076811433 1.8330001
0.3753286 -0.066337146 1.8330001
0.37270999 -0.054990001 1.8330001
0.36660001 -0.043642856 1.8330001
0.37009144 -0.047134288 1.8330001
0.35787144 -0.031422857 1.8330001
0.3654362 -0.036078095 1.8330001
0.35670766 -0.024440004 1.8330001
0.35438001 -0.013965714 1.8330001
0.34914288 -0.0034914287 1.8330001
0.35379812 -0.0058190473 1.8330001
0.34914288 0.0034914287 1.8330001
0.35438001 0.0034914287 1.8330001
0.34914288 0.013965715 1.8330001
0.35263431 0.013965715 1.8330001
0.34681526 0.02560381 1.8330001
0.34448764 0.033750478 1.8330001
0.33866858 0.041897144 1.8330001
-0.20424858 0.20948572 1.8330001
-0.19202858 0.20599429 1.8330001
-0.18853715 0.20599429 1.8330001
-0.21472287 0.21821429 1.8330001
-0.20948572 0.21297716 1.8330001
-0.21821429 0.22519715 1.8330001
-0.22345144 0.23392574 1.8330001
-0.21996 0.23218001 1.8330001
-0.22694285 0.24440001 1.8330001
-0.24090858 0.25836572 1.8330001
-0.24090858 0.26185715 1.8330001
-0.19202858 0.45563143 1.8330001
-0.18853715 0.45563143 1.8330001
-0.19202858 0.4626143 1.8330001
-0.18853715 0.4608686 1.8330001
-0.19668381 0.47716191 1.8330001
-0.20250286 0.48181716 1.8330001
-0.19901143 0.48181716 1.8330001
0.44583049 -0.16148192 1.8430001
0.42476764 -0.15270571 1.8430001
0.42242733 -0.14392953 1.8430001
0.40721527 -0.12286667 1.8430001
0.41248098 -0.12813239 1.8430001
0.40370476 -0.11409048 1.8430001
0.40136445 -0.10531429 1.8430001
0.38966286 -0.091272384 1.8430001
0.39551365 -0.094782859 1.8430001
0.40019429 -0.098293334 1.8430001
0.37913144 -0.080740958 1.8430001
0.38439715 -0.086006671 1.8430001
0.37562096 -0.071964763 1.8430001
0.37328064 -0.065528892 1.8430001
0.36860001 -0.052657146 1.8430001
0.37211049 -0.057922859 1.8430001
0.36625969 -0.045636192 1.8430001
0.35455811 -0.031594288 1.8430001
0.3633343 -0.03686 1.8430001
0.35455811 -0.026328571 1.8430001
0.35104764 -0.014041905 1.8430001
0.35104764 -0.0070209526 1.8430001
0.34753716 0.0035104763 1.8430001
0.35104764 0.0035104763 1.8430001
0.34753716 0.014041905 1.8430001
0.34578192 0.021062858 1.8430001
0.34051621 0.03686 1.8430001
-0.20185238 0.20711811 1.8430001
-0.19658667 0.20711811 1.8430001
-0.17201334 0.20360763 1.8430001
-0.16499239 0.20185238 1.8430001
-0.21413906 0.21326144 1.8430001
-0.22291525 0.22467048 1.8430001
-0.22818096 0.23520191 1.8430001
-0.23169143 0.24573334 1.8430001
-0.20009714 0.42652288 1.8430001
-0.20009714 0.43529907 1.8430001
-0.19658667 0.43529907 1.8430001
-0.20009714 0.44407526 1.8430001
-0.19658667 0.44407526 1.8430001
-0.21062858 0.47742477 1.8430001
-0.20360762 0.47742477 1.8430001
-0.19483143 0.47215906 1.8430001
-0.20536287 0.48093525 1.8430001
0.42354289 -0.15353429 1.853
0.42118987 -0.14471048 1.853
0.40942478 -0.13059239 1.853
0.41471905 -0.13412191 1.853
0.42001334 -0.13765143 1.853
0.40766001 -0.12353334 1.853
0.3988362 -0.11294477 1.853
0.40236571 -0.11470953 1.853
0.3967185 -0.10447391 1.853
0.40236571 -0.10941524 1.853
0.38648289 -0.091767624 1.853
0.39354193 -0.09706191 1.853
0.37765905 -0.081179053 1.853
0.38295335 -0.086473331 1.853
0.37530604 -0.074120007 1.853
0.3670705 -0.061766669 1.853
0.37060001 -0.063531429 1.853
0.3670705 -0.054707624 1.853
0.37060001 -0.056472383 1.853
0.36354098 -0.045883812 1.853
0.36118793 -0.037648257 1.853
0.35295239 -0.024706667 1.853
0.34854048 -0.013235714 1.853
0.3476581 -0.0052942857 1.853
0.34677574 0.003529524 1.853
0.34589335 0.014118095 1.853
0.34354034 0.025883175 1.853
0.33883429 0.038824763 1.853
0.34236383 0.031765714 1.853
0.33883429 0.042354286 1.853
-0.16588762 0.19765334 1.853
-0.18000571 0.20471239 1.853
-0.17529969 0.20235936 1.853
-0.22236001 0.21883048 1.853
-0.21883048 0.21530096 1.853
-0.22765429 0.22588953 1.853
-0.23294859 0.23471335 1.853
-0.2353016 0.24353714 1.853
-0.23647811 0.2505962 1.853
-0.20118286 0.42354289 1.853
-0.20471239 0.44472003 1.853
-0.20118286 0.45530859 1.853
-0.19765334 0.45530859 1.853
-0.20118286 0.46236762 1.853
-0.19765334 0.46589714 1.853
-0.20235936 0.47530922 1.853
-0.19765334 0.47295621 1.853
0.42228001 -0.15258858 1.863
0.41754857 -0.14312571 1.863
0.42228001 -0.14904 1.863
0.41281715 -0.13721144 1.863
0.4051286 -0.12420001 1.863
0.39490536 -0.11304736 1.863
0.40098858 -0.11710286 1.863
0.3867943 -0.10290857 1.863
0.3930043 -0.10556999 1.863
0.37969714 -0.092262864 1.863
0.38561144 -0.095811434 1.863
0.39034286 -0.097585723 1.863
0.37792283 -0.085165717 1.863
0.38324574 -0.088714287 1.863
0.36905146 -0.072745711 1.863
0.37348717 -0.075407147 1.863
0.36550286 -0.063874289 1.8630002
0.35840574 -0.053228572 1.863
0.36372858 -0.055002857 1.863
0.35840574 -0.046131432 1.863
0.3619543 -0.047905717 1.863
0.35544857 -0.035485718 1.863
0.34776005 -0.024839999 1.863
0.35130858 -0.024839999 1.863
0.34598571 -0.014194286 1.863
0.34421143 -0.0053228573 1.863
0.3433243 0.0044357143 1.863
0.342792 0.014904 1.8630002
0.3371143 0.026614286 1.863
0.34154999 0.023952859 1.863
0.33622718 0.036372859 1.863
0.34066287 0.03371143 1.863
0.33534002 0.042582858 1.863
-0.17565429 0.19872001 1.863
-0.16500857 0.19517143 1.863
-0.20226859 0.20581715 1.863
-0.19517143 0.20581715 1.863
-0.18452573 0.20463429 1.863
-0.22356002 0.21528 1.863
-0.23065715 0.22710858 1.863
-0.22710858 0.22001144 1.863
-0.23598 0.23420572 1.863
-0.24130286 0.24662572 1.863
-0.2377543 0.24130286 1.863
-0.24130286 0.25372288 1.863
-0.20581715 0.43647429 1.863
-0.21291429 0.44712001 1.863
-0.20759144 0.44357145 1.863
-0.20581716 0.45421717 1.863
-0.20463429 0.46486285 1.863
-0.19872001 0.46841145 1.863
-0.21468857 0.47905716 1.863
-0.20581716 0.47550857 1.863
0.42454669 -0.15697524 1.8730001
0.41562766 -0.14627239 1.8730001
0.42097905 -0.14984001 1.8730001
0.4067086 -0.13378572 1.8730001
0.4102762 -0.13378572 1.8730001
0.39778954 -0.12129905 1.8730001
0.40314096 -0.12665048 1.8730001
0.39243811 -0.11594763 1.8730001
0.38708669 -0.10524476 1.8730001
0.37816763 -0.094541907 1.8730001
0.38411367 -0.097514927 1.8730001
0.37460002 -0.084730953 1.8730001
0.36478907 -0.072244294 1.8730001
0.37103239 -0.07848762 1.8730001
0.35676193 -0.062433332 1.8730001
0.36175656 -0.064930663 1.8730001
0.35676193 -0.055298097 1.8730001
0.36032954 -0.057081908 1.8730001
0.35533485 -0.045665525 1.8730001
0.34962669 -0.032108571 1.8730001
0.3531943 -0.037459999 1.8730001
0.34605905 -0.024973335 1.8730001
0.33892381 -0.010702858 1.8730001
0.34338331 -0.015162382 1.8730001
0.33892381 -0.0053514289 1.8730001
0.34249145 -0.0053514289 1.8730001
0.33892381 0.0035676192 1.8730001
0.34249145 0.0017838096 1.8730001
0.33749679 0.014984001 1.8730001
0.34249145 0.010702858 1.8730001
0.33433685 0.024463672 1.8730001
0.32822096 0.037459999 1.8730001
0.33321562 0.034962669 1.8730001
0.31751812 0.046379048 1.8730001
0.32584256 0.044000637 1.8730001
0.33178857 0.042811431 1.8730001
-0.1676781 0.18908381 1.8730001
-0.18194857 0.19978668 1.8730001
-0.17243493 0.19502985 1.8730001
-0.16321857 0.19354334 1.8730001
-0.20692191 0.20692191 1.8730001
-0.19443524 0.2033543 1.8730001
-0.1873 0.2033543 1.8730001
-0.22297621 0.21227333 1.8730001
-0.21048953 0.21048953 1.8730001
-0.23367906 0.22654381 1.8730001
-0.2425981 0.23903048 1.8730001
-0.23903048 0.23367906 1.8730001
-0.2443819 0.24616572 1.8730001
-0.24973334 0.27113906 1.8730001
-0.21048953 0.43881717 1.8730001
-0.20692191 0.43346572 1.8730001
-0.21227333 0.44595239 1.8730001
-0.21048953 0.45665526 1.8730001
-0.21048953 0.46557432 1.8730001
-0.20692191 0.46022287 1.8730001
-0.21048953 0.47806096 1.8730001
-0.20692191 0.47270954 1.8730001
0.41784668 -0.15243334 1.8830001
0.42322668 -0.15422668 1.8830001
0.41246668 -0.14346667 1.8830001
0.40708667 -0.13629334 1.8830001
0.41246668 -0.13988 1.8830001
0.39632666 -0.12374 1.8830001
0.4017067 -0.12732667 1.8830001
0.39094669 -0.11298001 1.8830001
0.38377336 -0.10311667 1.8830001
0.37660003 -0.095046669 1.8830001
0.36942667 -0.082493335 1.8830001
0.37420893 -0.088471115 1.883
0.35866669 -0.071733333 1.8830001
0.36583999 -0.077113338 1.8830001
0.35627556 -0.064560004 1.883
0.35508001 -0.053800002 1.883
0.34611332 -0.032280002 1.8830001
0.35149336 -0.037660003 1.8830001
0.34431997 -0.025106668 1.883
0.33714667 -0.01076 1.8830001
0.34073335 -0.016140001 1.8830001
0.33714667 -0.0053800005 1.8830001
0.33625001 0.0044833338 1.8830001
0.33445668 0.01345 1.8830001
0.32997334 0.025106668 1.883
0.32758224 0.035866667 1.883
0.31742001 0.04304 1.8830001
0.32280001 0.044833332 1.8830001
-0.17395334 0.18650667 1.8830001
-0.16857333 0.18650667 1.8830001
-0.18292001 0.19726667 1.8830001
-0.17646401 0.19296268 1.8830001
-0.16319335 0.19009334 1.8830001
-0.21161334 0.20802668 1.8830001
-0.20444001 0.20444001 1.883
-0.19368 0.20085335 1.883
-0.18650667 0.20085335 1.8830001
-0.23313335 0.21699333 1.8830001
-0.22775334 0.21340668 1.8830001
-0.21699333 0.21161334 1.8830001
-0.24030668 0.22954668 1.8830001
-0.23492667 0.22416666 1.8830001
-0.24389334 0.23492667 1.8830001
-0.24747999 0.24389334 1.883
-0.25106668 0.27796668 1.8830001
-0.24748001 0.27796668 1.8830001
-0.20623335 0.41605332 1.8830001
-0.20802668 0.42502001 1.8830001
-0.21161334 0.43578002 1.8830001
-0.20802668 0.43040001 1.8830001
-0.21400446 0.44355115 1.883
-0.21520001 0.45730001 1.8830001
-0.21161334 0.46268001 1.8830001
-0.21280891 0.47583112 1.883
-0.22237334 0.48061335 1.8830001
-0.21699333 0.48061335 1.8830001
0.4347181 -0.16234286 1.8940001
0.41848382 -0.15512763 1.8940001
0.42569906 -0.15873525 1.8940001
0.40766096 -0.14069715 1.8940001
0.41247115 -0.14670984 1.8940001
0.40585715 -0.13528572 1.8940001
0.3968381 -0.12626667 1.8940001
0.40044573 -0.12987429 1.8940001
0.38962287 -0.11364 1.8940001
0.3932305 -0.11905143 1.8940001
0.38421145 -0.10642476 1.8940001
0.37338859 -0.091994286 1.8940001
0.36617333 -0.082975239 1.8940001
0.37158477 -0.086582862 1.8940001
0.35715431 -0.072152384 1.8940001
0.36256573 -0.077563807 1.8940001
0.35535049 -0.064937145 1.8940001
0.34993905 -0.05050667 1.8940001
0.35354671 -0.054114286 1.8940001
0.34993905 -0.045095243 1.8940001
0.35354668 -0.045095243 1.8940001
0.34753397 -0.036076192 1.8940001
0.33911622 -0.028860953 1.8940001
0.34272382 -0.025253333 1.8940001
0.3373124 -0.014430476 1.8940001
0.33550858 -0.0054114284 1.8940001
0.33430603 0.0036076189 1.8940001
0.32829335 0.018038096 1.8940001
0.33190095 0.014430475 1.8940001
0.32829335 0.025253335 1.8940001
0.31566668 0.039683811 1.8940001
0.32408449 0.036076192 1.8940001
0.31386286 0.043291431 1.8940001
-0.18218476 0.1875962 1.8940001
-0.20202668 0.19841905 1.8940001
-0.19408992 0.19697599 1.8940001
-0.1847101 0.1940899 1.8940001
-0.21465334 0.20743811 1.8940001
-0.20383048 0.20202668 1.8940001
-0.24171048 0.22728001 1.8940001
-0.23810287 0.22367239 1.8940001
-0.2453181 0.23088762 1.8940001
-0.24892573 0.25794476 1.8940001
-0.24892573 0.26335621 1.8940001
-0.25253335 0.27057144 1.8940001
-0.20743811 0.41848382 1.8940001
-0.21284954 0.42569908 1.8940001
-0.21284953 0.43291429 1.8940001
-0.22006477 0.44554096 1.8940001
-0.21645714 0.44012955 1.8940001
-0.22006477 0.45095241 1.8940001
-0.21645714 0.46718669 1.8940001
-0.22006477 0.47981334 1.8940001
-0.21645714 0.47440192 1.8940001
0.42794669 -0.16320001 1.904
0.43157336 -0.16320001 1.904
0.41706669 -0.15232001 1.904
0.42250669 -0.15957335 1.904
0.40860447 -0.14506666 1.9039999
0.39893335 -0.13056001 1.904
0.4037689 -0.13660444 1.9039999
0.39530668 -0.12512 1.904
0.38624001 -0.11424001 1.904
0.39168 -0.11968 1.904
0.37717333 -0.10336 1.904
0.38170668 -0.10608 1.904
0.36901334 -0.093386665 1.904
0.37475559 -0.096711107 1.9039999
0.36538666 -0.086133339 1.904
0.35541335 -0.072533339 1.904
0.36266667 -0.079786673 1.904
0.3536 -0.065280005 1.904
0.34816 -0.052586667 1.904
0.35178667 -0.056213334 1.904
0.34695113 -0.04472889 1.9039999
0.34453335 -0.036871113 1.9040002
0.33728001 -0.025386667 1.9039999
0.34090668 -0.023573333 1.904
0.33486223 -0.014506668 1.9039999
0.33365333 -0.00544 1.904
0.32640001 0.00544 1.904
0.33147734 0.0029013334 1.904
0.32640001 0.014506668 1.9039999
0.33002669 0.012693333 1.904
0.32549334 0.026293334 1.904
0.31642669 0.03626667 1.904
0.32277334 0.032640003 1.904
-0.19656534 0.18713599 1.904
-0.18858667 0.18858667 1.904
-0.19674668 0.19312 1.904
-0.18858667 0.19221334 1.904
-0.21397333 0.20430224 1.9039999
-0.23210667 0.21397334 1.904
-0.22304001 0.21034667 1.904
-0.2448 0.22666667 1.904
-0.23936 0.22122668 1.904
-0.21397334 0.41434669 1.904
-0.22122668 0.42432001 1.904
-0.21639113 0.42431998 1.9039999
-0.22122668 0.43520004 1.904
-0.2176 0.43520004 1.904
-0.22122668 0.44245335 1.904
-0.22122668 0.4605867 1.904
-0.22304003 0.47509333 1.9040002
0.41582859 -0.15441588 1.9150001
0.40670955 -0.14590478 1.9150001
0.39759049 -0.13131429 1.9150001
0.40123811 -0.13678572 1.9150001
0.37935239 -0.12219524 1.9150001
0.38518864 -0.12328953 1.9150002
0.3917543 -0.12474857 1.9150002
0.37570477 -0.11490002 1.9150001
0.38300002 -0.11490001 1.9150001
0.36719367 -0.10334921 1.9150001
0.37466261 -0.10630205 1.9150001
0.36622098 -0.095567629 1.9150002
0.36111429 -0.082071438 1.9150001
0.35381907 -0.072952382 1.9150001
0.36111429 -0.0766 1.9150001
0.35138735 -0.065657146 1.9150001
0.34530795 -0.052282542 1.9150001
0.35017145 -0.058361907 1.9150001
0.33922854 -0.043771431 1.9150001
0.34378809 -0.044683337 1.9150001
0.33740476 -0.034652382 1.9150001
0.33375716 -0.025533333 1.9150001
0.32828572 -0.012766667 1.9150001
0.33284527 -0.015502381 1.9150001
0.32646191 -0.0054714289 1.9150001
0.33193335 -0.0054714289 1.9150001
0.32555002 0.0027357144 1.9150001
0.31734288 0.018238096 1.9150001
0.32317907 0.015320001 1.9150002
0.31734288 0.025533333 1.9150001
0.32244954 0.02480381 1.9150002
0.31491113 0.034044445 1.9150001
0.31004763 0.040123813 1.9150001
-0.20426667 0.19514763 1.9150001
-0.22432858 0.20791429 1.9150001
-0.21520954 0.20244285 1.9150001
-0.20791429 0.20061906 1.9150001
-0.24220189 0.21593907 1.9150002
-0.23587938 0.21277779 1.9150001
-0.22980002 0.21156192 1.9150001
-0.2462143 0.22432858 1.9150001
-0.25168571 0.23709525 1.9150001
-0.25411746 0.24439049 1.9150001
-0.25533333 0.25168571 1.9150001
-0.25533333 0.26627621 1.9150001
-0.22432858 0.42494762 1.9150001
-0.21885715 0.42312384 1.9150001
-0.22372063 0.43406668 1.9150001
-0.21885715 0.43771431 1.9150001
-0.22432858 0.46507144 1.9150001
-0.22250476 0.47054288 1.9150001
-0.22615239 0.48513335 1.9150001
0.42533335 -0.16377778 1.9250001
0.43450004 -0.16866668 1.9250001
0.40700001 -0.15033334 1.9250001
0.41433334 -0.15583333 1.9250001
0.40333334 -0.14300001 1.9250001
0.38683337 -0.132 1.9250001
0.39673334 -0.13493334 1.925
0.37766668 -0.12283334 1.9250001
0.38316667 -0.12833335 1.9250001
0.36666667 -0.11183333 1.9250001
0.37033334 -0.11366668 1.9250001
0.36666667 -0.10633334 1.9250001
0.36300001 -0.091666669 1.9250001
0.36300001 -0.088 1.9250001
0.35933334 -0.077 1.9250001
0.34833336 -0.064166665 1.9250001
0.352 -0.069666669 1.9250001
0.34466669 -0.055000003 1.9250001
0.33733335 -0.042166665 1.9250001
0.33244446 -0.034222223 1.9250001
0.33000001 -0.025666667 1.9250001
0.32633334 -0.011 1.9250001
0.33000001 -0.018333334 1.9250001
0.32266667 0.0055 1.9250001
0.31716669 0.014666667 1.9250001
0.32266667 0.011 1.9250001
0.31533334 0.025666667 1.9250001
0.31166667 0.036666669 1.9250001
-0.24383335 0.19800001 1.9250001
-0.20900001 0.19800001 1.9250001
-0.24383335 0.20533334 1.9250001
-0.23466666 0.20716667 1.9250001
-0.22458333 0.2035 1.9250001
-0.21633334 0.20166667 1.9250001
-0.24566668 0.21266668 1.9250001
-0.24933334 0.22366667 1.9250001
-0.25483334 0.23466668 1.9250001
-0.25666669 0.24200001 1.9250001
-0.25666669 0.25666669 1.9250001
-0.25666669 0.26033333 1.9250001
-0.22366667 0.4235 1.9250001
-0.22733334 0.43266669 1.9250001
-0.22733334 0.44183338 1.9250001
-0.22733334 0.46933335 1.9250001
-0.22733334 0.47300002 1.9250001
0.42038858 -0.16225524 1.9360001
0.43145144 -0.16963048 1.9360001
0.40932572 -0.15488 1.9360001
0.41670096 -0.15856762 1.9360001
0.39826286 -0.14012954 1.9360001
0.40379429 -0.14566095 1.9360001
0.38474163 -0.1352127 1.9360002
0.39273143 -0.13644192 1.9360001
0.37613717 -0.12445716 1.9360001
0.36507431 -0.10325333 1.9360001
0.3632305 -0.095878102 1.9360001
0.36138669 -0.084815241 1.9360002
0.35401145 -0.073752381 1.9360002
0.34663621 -0.064533338 1.9360001
0.33926097 -0.051626667 1.9360001
0.34417781 -0.0577727 1.9360002
0.33649525 -0.045173336 1.9360001
0.3263543 -0.014750477 1.9360001
0.32451048 -0.0055314288 1.9360001
0.32205209 0.0036876192 1.9360002
0.31344762 0.016594287 1.9360001
0.31344762 0.025813334 1.9360002
0.31344762 0.033188574 1.9360001
0.30791619 0.042407621 1.9360001
-0.22125715 0.19913143 1.9360001
-0.21572572 0.19913143 1.9360001
-0.25075811 0.20650667 1.9360001
-0.23600763 0.20281905 1.9360002
-0.22494477 0.20281905 1.9360001
-0.25075811 0.21756953 1.9360001
-0.25444573 0.22617398 1.9360002
-0.25813335 0.23232001 1.9360001
-0.26182097 0.24522668 1.9360001
-0.26182097 0.25260192 1.9360001
-0.26182097 0.26550859 1.9360002
-0.22678858 0.42223239 1.9360001
0.43019429 -0.17059429 1.9470001
0.41783237 -0.16564953 1.9470001
0.42463142 -0.16688572 1.9470001
0.40608859 -0.15205143 1.9470001
0.41350573 -0.15946858 1.9470001
0.3875457 -0.14092572 1.9470001
0.39558092 -0.14216191 1.9470001
0.40176189 -0.14710666 1.9470001
0.37827429 -0.13350858 1.9470001
0.38198286 -0.13536286 1.9470001
0.37642002 -0.12794572 1.9470001
0.36714858 -0.11125714 1.9470001
0.36436713 -0.10476714 1.9470001
0.35973144 -0.094568573 1.9470001
0.358248 -0.084555432 1.9470001
0.34675145 -0.07046286 1.9470001
0.35416859 -0.076025717 1.9470001
0.34366095 -0.064281911 1.9470001
0.33747998 -0.055628572 1.9470001
0.34118858 -0.057482861 1.9470001
0.33377144 -0.044502858 1.9470001
0.33377144 -0.037085716 1.9470001
0.3263543 -0.02596 1.9470001
0.33006287 -0.02596 1.9470001
0.32388192 -0.014834288 1.9470001
0.32264572 -0.0055628577 1.9470001
0.31893715 0.0055628577 1.9470001
0.32264572 0 1.9470001
0.31430143 0.013907144 1.9470001
0.31152001 0.02596 1.9470001
0.31152001 0.03523143 1.9470001
0.30595714 0.042648572 1.9470001
-0.21509714 0.19655429 1.9470001
-0.24105716 0.20026286 1.9470001
-0.2354943 0.20026286 1.9470001
-0.22807716 0.20026286 1.9470001
-0.25218287 0.21324286 1.9470001
-0.25589144 0.22436857 1.9470001
-0.26330858 0.23734859 1.9470001
-0.26330858 0.24105716 1.9470001
-0.26330858 0.25960001 1.9470001
-0.26330858 0.27628857 1.9470001
-0.26330858 0.28185144 1.9470001
-0.22622287 0.41906857 1.9470001
-0.21880572 0.41906857 1.9470001
0.42591161 -0.1730499 1.9579999
0.4065181 -0.16036953 1.9580001
0.41397715 -0.16285588 1.9580001
0.39905906 -0.15291049 1.9580001
0.40403175 -0.15539683 1.9580001
0.41024762 -0.15664001 1.9580001
0.38600573 -0.14358667 1.9580001
0.39532954 -0.14731619 1.9580001
0.37668192 -0.13053334 1.9580001
0.38041145 -0.13799238 1.9580001
0.36735812 -0.11375048 1.9580001
0.3729524 -0.11934476 1.9580001
0.35803431 -0.10069714 1.9580001
0.36176383 -0.10442667 1.9580001
0.35803431 -0.095102862 1.9580001
0.35430476 -0.084846668 1.9580001
0.34560254 -0.074590482 1.9580001
0.35181841 -0.07707683 1.9580001
0.33938667 -0.065266669 1.9580001
0.34311619 -0.06713143 1.9580001
0.33192763 -0.041024763 1.9580001
0.32819811 -0.033565715 1.9580001
0.33192763 -0.035430476 1.9580001
0.32353622 -0.025174286 1.9580001
0.32167143 -0.015850477 1.9580001
0.31700954 -0.0037295239 1.9580001
0.32073906 -0.0055942857 1.9580001
0.31607714 0.0046619046 1.9580001
0.32073906 0 1.9580001
0.30955049 0.01864762 1.9580001
0.31328002 0.011188572 1.9580001
0.30955049 0.026106669 1.9580001
0.30830732 0.036052067 1.9580001
0.30582097 0.041024763 1.9580001
-0.22377144 0.19766477 1.9580001
-0.21444763 0.19207048 1.9580001
-0.20885333 0.19207048 1.9580001
-0.25733715 0.21444763 1.9580001
-0.26106668 0.2256362 1.9580001
-0.25733715 0.22004192 1.9580001
-0.2647962 0.23496 1.9580001
-0.26852572 0.26666096 1.9580001
-0.26852572 0.27598476 1.9580001
-0.26852572 0.28344381 1.9580001
-0.22377144 0.41770664 1.9580001
0.40630162 -0.16377079 1.9690002
0.41442764 -0.16689619 1.9690001
0.39380002 -0.15126921 1.9690002
0.40130097 -0.15752001 1.9690001
0.38442382 -0.14439334 1.9690001
0.3787981 -0.13501714 1.9690001
0.3731724 -0.12189049 1.9690001
0.36567146 -0.11438952 1.9690001
0.35629526 -0.10126286 1.9690001
0.36004573 -0.10501334 1.9690001
0.35629526 -0.093761913 1.9690002
0.34879431 -0.082510479 1.9690001
0.35254478 -0.086260952 1.9690001
0.34379363 -0.075009525 1.9690002
0.33754286 -0.063758098 1.9690002
0.33629271 -0.055006985 1.9690002
0.33191717 -0.045005716 1.9690001
0.32441622 -0.031879049 1.9690001
0.33004192 -0.037504762 1.9690001
0.3187905 -0.022502858 1.9690001
0.32254097 -0.026253335 1.9690001
0.31729031 -0.01425181 1.9690001
0.31629017 -0.0062507936 1.9690002
0.31278974 0.0030003809 1.9690001
0.30753905 0.018752381 1.9690001
0.31128955 0.013126668 1.9690001
0.30753905 0.024378097 1.9690001
0.30753905 0.031879049 1.9690001
0.30378857 0.045005716 1.9690001
-0.24003048 0.19877525 1.9690001
-0.23440477 0.19877525 1.9690001
-0.22409096 0.19502477 1.9690001
-0.26253334 0.2212781 1.9690001
-0.26628381 0.23252954 1.9690001
-0.27003428 0.24565619 1.9690001
-0.27003428 0.25503239 1.9690002
-0.27190953 0.26440859 1.9690001
-0.27566001 0.27190953 1.9690001
-0.27378479 0.28128573 1.9690001
-0.22690383 0.3787981 1.9690001
-0.23252954 0.41442764 1.9690001
-0.22877906 0.41442764 1.9690001
-0.23252954 0.42005336 1.9690001
0.40354288 -0.16405715 1.9800001
0.41485715 -0.16971429 1.9800001
0.38845715 -0.15085715 1.9800001
0.39600003 -0.15651429 1.9800001
0.38468572 -0.14708573 1.9800001
0.36960003 -0.12068572 1.9800001
0.37525716 -0.12634286 1.9800001
0.36394286 -0.11502858 1.9800001
0.35640001 -0.10560001 1.9800001
0.36205715 -0.10937143 1.9800001
0.35262859 -0.094285719 1.9800001
0.34697145 -0.084857151 1.9800001
0.35074288 -0.086742863 1.9800001
0.33942857 -0.071657144 1.9800001
0.3432 -0.077314287 1.9800001
0.33414859 -0.063359998 1.9800001
0.33314288 -0.054057147 1.9800001
0.32685718 -0.04274286 1.9800001
0.33188573 -0.049028572 1.9800001
0.32358858 -0.034697145 1.9800001
0.31554285 -0.023885718 1.9800001
0.32057145 -0.026400002 1.9800001
0.30925715 -0.0132 1.9800001
0.31397143 -0.016028572 1.9800001
0.30925715 -0.005657143 1.9800001
0.31302857 -0.005657143 1.9800001
0.30925715 0.0037714287 1.9800001
0.30737144 0.015085715 1.9800001
0.30548573 0.024514288 1.9800001
0.30454287 0.034885716 1.9800001
0.29794288 0.045257144 1.9800001
0.30297145 0.04274286 1.9800001
-0.23571429 0.19611429 1.9800001
-0.264 0.21874286 1.9800001
-0.26777145 0.22628573 1.9800001
-0.26777145 0.23005715 1.9800001
-0.27342859 0.24514288 1.9800001
-0.2753143 0.25457144 1.9800001
-0.28662857 0.26777145 1.9800001
-0.2753143 0.26211429 1.9800001
-0.28662857 0.27154288 1.9800001
-0.2753143 0.27908573 1.9800001
-0.24137144 0.42617145 1.9800001
-0.23760001 0.42617145 1.9800001
0.40409142 -0.17074287 1.9920001
0.39650288 -0.16505143 1.9920001
0.40219429 -0.16505143 1.9920001
0.39207622 -0.15809524 1.9920001
0.38322288 -0.14228572 1.9920001
0.37753147 -0.13469714 1.9920001
0.36520001 -0.12236573 1.9920001
0.37310478 -0.12774096 1.9920001
0.3490743 -0.11003429 1.9920001
0.35476574 -0.11382858 1.9920002
0.3617219 -0.1163581 1.9920001
0.3490743 -0.10434286 1.9920001
0.35286859 -0.10434286 1.9920001
0.34812576 -0.093908578 1.9920001
0.34401527 -0.084739052 1.9920001
0.33579427 -0.073988572 1.9920001
0.34148574 -0.077782862 1.9920001
0.32630858 -0.060708575 1.9920001
0.33105141 -0.065451428 1.9920001
0.32630858 -0.055017143 1.9920001
0.33010286 -0.055017143 1.9920001
0.31872001 -0.041737143 1.9920001
0.32403201 -0.046290286 1.9920002
0.33010286 -0.049325716 1.9920001
0.31777143 -0.033200003 1.9920001
0.3225143 -0.03794286 1.9920001
0.30733716 -0.022765715 1.9920001
0.3123962 -0.025295237 1.9920001
0.30733716 -0.015177143 1.9920001
0.31113145 -0.01897143 1.9920001
0.30733716 -0.0056914287 1.9920001
0.30733716 0.0037942857 1.9920001
0.30544001 0.015177144 1.9920001
0.29974857 0.024662858 1.9920001
0.30354288 0.024662858 1.9920001
0.29823086 0.03490743 1.9920002
0.30354288 0.032251433 1.9920001
0.29721907 0.043001905 1.9920001
-0.23145144 0.19730286 1.9920001
-0.2656 0.21627429 1.9920001
-0.27318859 0.23714286 1.9920001
-0.27698287 0.24662858 1.9920001
-0.28330669 0.26812956 1.9920001
-0.28457144 0.27318859 1.9920001
-0.23334858 0.38701716 1.9920001
-0.22576001 0.38701716 1.9920001
-0.2327162 0.39713526 1.9920001
-0.22670858 0.39365715 1.9920001
-0.23334856 0.40598857 1.9920002
-0.22765715 0.40598857 1.9920001
-0.23524572 0.41484192 1.9920001
-0.22765715 0.41357717 1.9920001
-0.23904 0.42306286 1.9920001
-0.23904 0.43444574 1.9920001
0.39487717 -0.17168573 2.003
0.40060002 -0.17168573 2.003
0.39296955 -0.16596286 2.003
0.38788256 -0.15388127 2.003
0.37643683 -0.14243557 2.003
0.38279557 -0.14497906 2.003
0.36626288 -0.13353334 2.003
0.37198573 -0.13544096 2.003
0.35558018 -0.12361372 2.003
0.36435527 -0.12781048 2.003
0.37007812 -0.1297181 2.003
0.34718668 -0.11445715 2.003
0.35100192 -0.11636477 2.003
0.34527904 -0.10491905 2.003
0.33955622 -0.093473338 2.003
0.34489754 -0.096144006 2.003
0.33683103 -0.083390199 2.003
0.34337145 -0.08775048 2.003
0.32811049 -0.074397147 2.003
0.33192572 -0.074397147 2.003
0.32493111 -0.064859055 2.003
0.32238764 -0.055320956 2.003
0.31539303 -0.043239366 2.003
0.32048002 -0.047690481 2.003
0.30903429 -0.030521905 2.003
0.31437564 -0.035100192 2.003
0.30903429 -0.026706668 2.003
0.30426526 -0.014307144 2.003
0.30331144 -0.0057228571 2.003
0.30331144 0.0038152381 2.003
0.29663479 0.016214762 2.003
0.30292994 0.014497906 2.003
0.29568097 0.024799049 2.003
0.28995812 0.034337144 2.003
0.29472715 0.033383332 2.003
0.28805047 0.04578286 2.003
0.29377335 0.04387524 2.003
-0.24417524 0.19839239 2.003
-0.27851239 0.24417524 2.003
-0.28423524 0.26515907 2.003
-0.28232762 0.28423524 2.003
-0.24036001 0.38915429 2.003
-0.23654477 0.38533905 2.003
-0.24036001 0.39678478 2.003
-0.23527302 0.3942413 2.003
-0.24036001 0.40632287 2.003
-0.25180572 0.41967621 2.003
-0.24322145 0.41681477 2.003
-0.24608287 0.42539907 2.003
-0.24544699 0.43493715 2.003
-0.24226762 0.44447523 2.003
-0.24036001 0.45210573 2.003
0.39148572 -0.16311905 2.0150001
0.3857286 -0.15544286 2.0150001
0.36653811 -0.14200953 2.0150001
0.37517384 -0.14584762 2.0150001
0.38380954 -0.14968573 2.0150001
0.35694286 -0.13049525 2.0150001
0.36385143 -0.13510096 2.0150001
0.35310477 -0.12665714 2.0150001
0.34542859 -0.11322381 2.0150001
0.34159049 -0.10362858 2.0150001
0.33621716 -0.095184766 2.0150001
0.34159049 -0.099790476 2.0150001
0.33199525 -0.0844381 2.0150001
0.3262381 -0.074842855 2.0150001
0.31856191 -0.061409526 2.0150001
0.3224 -0.067166671 2.0150001
0.31856191 -0.05565238 2.0150001
0.31664288 -0.047976192 2.0150001
0.30704764 -0.024947621 2.0150001
0.29937145 -0.011514287 2.0150001
0.30320954 -0.017271429 2.0150001
0.29937145 -0.0057571428 2.0150001
0.29783621 0.0046057147 2.0150001
0.29425398 0.015352382 2.0150001
0.29169524 0.024947621 2.0150001
0.28689763 0.035502382 2.0150001
0.28401905 0.046057146 2.0150001
-0.27250478 0.22644763 2.0150001
-0.27634287 0.23412381 2.0150001
-0.28018096 0.24180001 2.0150001
-0.28401905 0.25523335 2.0150001
-0.28401905 0.26290953 2.0150001
-0.28210002 0.2936143 2.0150001
-0.24180001 0.38764763 2.0150001
-0.24467857 0.39532381 2.0150001
-0.24371906 0.40491909 2.0150001
-0.24563809 0.4145143 2.0150001
-0.25331429 0.42794764 2.0150001
-0.25331429 0.43370476 2.0150001
-0.25331429 0.44521904 2.0150001
-0.24947619 0.44521907 2.0150001
-0.2456381 0.45481431 2.0150001
0.38995621 -0.16409048 2.0270002
0.37708637 -0.15186413 2.0270002
0.38416478 -0.15636858 2.0270002
0.36486 -0.14478572 2.0270002
0.37065145 -0.14671619 2.0270002
0.35778156 -0.13513334 2.0270002
0.36292952 -0.13899429 2.0270002
0.35134667 -0.12355048 2.0270002
0.34362477 -0.11196762 2.0270002
0.33847681 -0.10424571 2.0270002
0.34362477 -0.10810667 2.0270002
0.33204192 -0.094593339 2.0270002
0.32689399 -0.082366988 2.0270002
0.33204192 -0.088801906 2.0270002
0.32432002 -0.075288579 2.0270002
0.31659812 -0.061775241 2.0270002
0.32045907 -0.06756667 2.0270002
0.31659812 -0.054053336 2.0270002
0.30887622 -0.032818098 2.0270002
0.31273717 -0.036679052 2.0270002
0.30372825 -0.024452701 2.0270002
0.29729334 -0.011582858 2.0270002
0.30115429 -0.017374286 2.0270002
0.29729334 -0.005791429 2.0270002
0.29729334 0 2.0270002
0.28957143 0.019304764 2.0270002
0.29343238 0.013513334 2.0270002
0.28764096 0.025096193 2.0270002
0.28378001 0.034748573 2.0270002
0.28184953 0.044400953 2.0270002
0.27798858 0.050192382 2.0270002
0.28184953 0.050192382 2.0270002
-0.23358762 0.19690858 2.0270002
-0.27412763 0.22393525 2.0270002
-0.28184953 0.23937906 2.0270002
-0.27798858 0.23165715 2.0270002
-0.28571048 0.2509619 2.0270002
-0.24710096 0.38995621 2.0270002
-0.25405067 0.39613372 2.0270002
-0.2509619 0.40540001 2.0270002
-0.24710096 0.40540001 2.0270002
-0.2509619 0.41505238 2.0270002
-0.2509619 0.42084384 2.0270002
-0.25868383 0.44787049 2.0270002
-0.25405067 0.45636457 2.0270002
0.39614859 -0.17088762 2.039
0.38708639 -0.1644146 2.039
0.36702001 -0.15146858 2.039
0.37414035 -0.15405779 2.039
0.38255525 -0.15923619 2.039
0.3624889 -0.14629017 2.039
0.35601589 -0.13593334 2.039
0.34954286 -0.12428191 2.039
0.35342667 -0.12816572 2.039
0.34371716 -0.11457238 2.039
0.33478436 -0.1040861 2.039
0.32624 -0.093211435 2.039
0.33012381 -0.095153339 2.039
0.3239097 -0.086220577 2.039
0.33012381 -0.089327626 2.039
0.31847239 -0.075734288 2.039
0.32235619 -0.075734288 2.039
0.31847239 -0.06796667 2.039
0.31458858 -0.054373335 2.039
