# .PCD v0.7 - Point Cloud Data file format
VERSION 0.7
FIELDS x y z
SIZE 4 4 4
TYPE F F F
COUNT 1 1 1
WIDTH 1478
HEIGHT 1
VIEWPOINT 0 0 0 1 0 0 0
POINTS 1478
DATA ascii
-0.50274003 0.049834289 1.539
-0.49319321 0.046807621 1.5360001
-0.48441106 0.043265142 1.5347999
-0.47562432 0.043238577 1.539
-0.42212573 0.046902858 1.539
-0.4144637 0.0485132 1.5370001
-0.40673575 0.045437142 1.539
-0.39977905 0.040853336 1.5320001
-0.24382423 0.045795918 1.5369998
-0.23744573 0.046902858 1.539
-0.51382285 0.056179427 1.5362
-0.50559944 0.053578418 1.5343333
-0.49899429 0.052525718 1.5320001
-0.25212342 0.056027431 1.5320001
-0.24467982 0.055677142 1.5384165
-0.52277142 0.064491428 1.539
-0.51841241 0.065070957 1.5355
-0.26262859 0.065657146 1.5320001
-0.25474972 0.064781711 1.5319999
-0.24477428 0.064491436 1.5389999
-0.52326 0.071820006 1.539
-0.51676029 0.074720815 1.5340002
-0.26554668 0.07480935 1.5319999
-0.25547668 0.074455597 1.5328748
-0.2447743 0.074751429 1.5389998
-0.51622385 0.084818102 1.5355
-0.26481715 0.086813338 1.5320001
-0.25610554 0.08488366 1.5366665
-0.24536058 0.084425144 1.5389999
-0.23744573 0.082080007 1.539
-0.51618212 0.09571103 1.5360001
-0.2635105 0.094009846 1.5343332
-0.2550343 0.095271438 1.5389999
-0.24721712 0.095434286 1.539
-0.51442719 0.10497742 1.5370001
-0.5077486 0.10651049 1.5320001
-0.26262859 0.10505144 1.5320001
-0.25610557 0.10537032 1.5366665
-0.24770574 0.10553143 1.539
-0.51446569 0.11432571 1.539
-0.5077486 0.11526476 1.5320001
-0.26262859 0.11964191 1.5320001
-0.25549713 0.11513062 1.5329999
-0.24707757 0.11432571 1.5390002
-0.51397711 0.12360857 1.539
-0.5077486 0.1254781 1.5320001
-0.26491949 0.12595429 1.5345454
-0.25550193 0.12482287 1.5382999
-0.24233143 0.12312 1.539
-0.23598 0.12312 1.539
-0.51300001 0.13411286 1.539
-0.50599778 0.13364878 1.5320001
-0.26498765 0.13469239 1.5372499
-0.25650001 0.13484572 1.539
-0.2413543 0.13289143 1.539
-0.5100686 0.14510572 1.539
-0.50423646 0.14469071 1.5346251
-0.27346721 0.14298667 1.5320002
-0.2649827 0.14313473 1.5364544
-0.25698856 0.14510572 1.539
-0.5100686 0.15536572 1.539
-0.50337142 0.15465905 1.5320001
-0.27430093 0.15611809 1.5320001
-0.25525406 0.15491262 1.538125
-0.5100686 0.16416001 1.539
-0.50337148 0.16487239 1.5320001
-0.2546207 0.16654478 1.5340002
-0.24672858 0.16416001 1.539
-0.5100686 0.17442 1.539
-0.50483048 0.17508572 1.5320001
-0.26408762 0.17654477 1.5320001
-0.25570741 0.17512806 1.5363076
-0.24799886 0.172368 1.539
-0.5100686 0.18321429 1.539
-0.50458586 0.18592951 1.5348001
-0.26485679 0.18592952 1.5347999
-0.25550193 0.18430421 1.5382999
-0.24660644 0.18504643 1.539
-0.50433338 0.19447087 1.5376
-0.49753523 0.19697143 1.5320001
-0.26236284 0.19494 1.539
-0.2550343 0.19493999 1.5389999
-0.24653313 0.19581942 1.5389999
-0.50127429 0.20373429 1.539
-0.49758732 0.20489334 1.5366668
-0.27138287 0.20426667 1.5320001
-0.26281768 0.20548354 1.5380001
-0.25545305 0.20436247 1.5390002
-0.24770573 0.20226859 1.539
-0.50127429 0.21546002 1.539
-0.4960762 0.21448001 1.5320001
-0.26352525 0.21557978 1.53725
-0.50127429 0.22572 1.539
-0.4960762 0.22469334 1.5320001
-0.26414612 0.22528002 1.5360001
-0.50127429 0.2345143 1.539
-0.4960762 0.23490667 1.5320001
-0.26343566 0.23499359 1.5351818
-0.50127429 0.2447743 1.539
-0.49575052 0.24567999 1.5355
-0.26289171 0.24366805 1.5360001
-0.25883812 0.24860477 1.5355
-0.50127429 0.25210285 1.539
-0.49399701 0.25503924 1.5354999
-0.26468429 0.25494063 1.5354999
-0.25796571 0.25210285 1.539
-0.49319512 0.26540247 1.5360001
-0.48732191 0.26262859 1.5320001
-0.27138287 0.26700574 1.5320001
-0.26582274 0.26558173 1.5378332
-0.49098668 0.2747232 1.5343333
-0.27211237 0.27503049 1.5320001
-0.26675999 0.2755543 1.539
-0.49248001 0.28434858 1.539
-0.28208256 0.28597334 1.5320001
-0.27454895 0.28448114 1.5333999
-0.26569405 0.28408211 1.5389999
-0.25796571 0.28434858 1.539
-0.48732194 0.29472765 1.5320001
-0.28208253 0.29375494 1.5320001
-0.27526116 0.29548797 1.5389999
-0.26702651 0.29420885 1.5389999
-0.48537651 0.30542728 1.5320001
-0.28013715 0.30056381 1.5320001
-0.27501833 0.30504605 1.5345454
-0.26759759 0.30528736 1.5390002
-0.48367923 0.31602859 1.5334001
-0.28110984 0.31709966 1.5320001
-0.27450514 0.315144 1.5347999
-0.26773715 0.31463999 1.539
-0.482512 0.32478556 1.5334001
-0.47856763 0.32682669 1.5320001
-0.28208253 0.32634035 1.5320001
-0.27560407 0.32465383 1.53725
-0.48221907 0.33608761 1.5343333
-0.28153655 0.33462641 1.5343333
-0.27639183 0.33376408 1.5390002
-0.48148572 0.34433523 1.5320001
-0.28301048 0.34509501 1.5337501
-0.27702004 0.34444284 1.539
-0.48368573 0.35470286 1.539
-0.47856763 0.3545486 1.5320001
-0.28380615 0.35395157 1.5343333
-0.27639183 0.35470286 1.5390002
-0.48148715 0.36496288 1.539
-0.47564951 0.36476192 1.5320001
-0.29253906 0.36549145 1.5320001
-0.28525716 0.3649227 1.5375998
-0.27592072 0.36459643 1.539
-0.48075432 0.37229145 1.539
-0.47455272 0.37526193 1.5331668
-0.29340059 0.37573084 1.5326999
-0.28517455 0.37464726 1.5377272
-0.27653143 0.37473431 1.539
-0.4756408 0.38535675 1.5360001
-0.29250428 0.38452929 1.5337501
-0.28490421 0.38552359 1.5374998
-0.27702001 0.3840172 1.539
-0.4750843 0.39456332 1.53725
-0.46981335 0.39686096 1.5320001
-0.2852903 0.39444059 1.5361999
-0.27848572 0.39281145 1.539
-0.47342575 0.40453717 1.539
-0.46616572 0.40634477 1.5320001
-0.29618669 0.40853333 1.5320001
-0.2862539 0.40510803 1.5380001
-0.47196001 0.41479719 1.539
-0.4651157 0.41505882 1.5330001
-0.30311713 0.4147343 1.5320001
-0.29390651 0.41498029 1.5332726
-0.28601101 0.41421649 1.5374445
-0.47196001 0.42212573 1.539
-0.4647494 0.42467546 1.5354999
-0.45814097 0.42312384 1.5320001
-0.3040365 0.4246183 1.5325383
-0.29448482 0.42454159 1.5330768
-0.28524789 0.42551342 1.5341537
-0.46506923 0.43514353 1.5366666
-0.45814097 0.43333715 1.5320001
-0.30056381 0.43479621 1.5320001
-0.29436287 0.43516099 1.5320001
-0.28603637 0.4352046 1.5354999
-0.46450943 0.44565058 1.5358889
-0.30056381 0.44938669 1.5320001
-0.29419717 0.44568732 1.5343332
-0.28657144 0.4442645 1.5378333
-0.46435675 0.45431757 1.5360001
-0.30056381 0.45522287 1.5320001
-0.29443857 0.45411313 1.538125
-0.28728002 0.45144001 1.539
-0.46423891 0.46465579 1.5370001
-0.30114743 0.4663116 1.5320001
-0.29754001 0.46463144 1.539
-0.46316573 0.47489142 1.539
-0.45814097 0.47273144 1.5320001
-0.30419001 0.47582641 1.5337501
-0.29783314 0.47489148 1.539
-0.46263906 0.48460144 1.53725
-0.45814097 0.48732191 1.5320001
-0.30424657 0.48494092 1.5345454
-0.29502735 0.48577961 1.5389998
-0.46316573 0.49541149 1.539
-0.45716825 0.49558985 1.5320001
-0.30401248 0.49501505 1.5319999
-0.29426858 0.49484813 1.5372499
-0.4621886 0.5042057 1.539
-0.45468631 0.50474316 1.5330001
-0.3141816 0.50677592 1.5320001
-0.30545762 0.50423479 1.5346251
-0.29705146 0.5032286 1.539
-0.46023431 0.51446575 1.539
-0.45444682 0.51542419 1.5350001
-0.31440634 0.51500243 1.5354999
-0.30580604 0.5135873 1.5383636
-0.29900572 0.51153433 1.539
-0.46023431 0.52179432 1.539
-0.45514825 0.52538919 1.5366668
-0.44938669 0.52525711 1.5320001
-0.31457362 0.52474552 1.5357691
-0.30570617 0.52514452 1.5390002
-0.45554399 0.53527892 1.539
-0.44821945 0.53576231 1.5320001
-0.31445128 0.53508282 1.5361998
-0.30486858 0.53498578 1.5389999
-0.29900572 0.53645146 1.539
-0.45261258 0.54465944 1.539
-0.44646859 0.54422474 1.5320001
-0.32244956 0.54860193 1.5320001
-0.31452522 0.54494083 1.5360832
-0.30486858 0.54524571 1.539
-0.29754001 0.54524571 1.539
-0.45187241 0.55277336 1.5355
-0.44821811 0.5535062 1.5355
-0.32536763 0.55443811 1.5320001
-0.31331262 0.55241024 1.5355
-0.30440858 0.55173433 1.5366668
-0.29900572 0.55404001 1.539
-0.2709181 -0.12368 1.5460001
-0.26797333 -0.12368 1.5460001
-0.2539857 -0.12147143 1.5460001
-0.24736001 -0.12220763 1.5460001
-0.23705333 -0.12073524 1.5460001
-0.25324953 -0.1163181 1.5460001
-0.24441524 -0.1163181 1.5460001
-0.23558097 -0.11533652 1.5460001
-0.22821906 -0.11190096 1.5460001
-0.22445628 -0.10568425 1.5460002
-0.21693081 -0.10110349 1.5460001
-0.21412626 -0.094653063 1.5460002
-0.20672229 -0.092465527 1.5460001
-0.20466097 -0.085103616 1.5460002
-0.20640102 -0.075225286 1.5460002
-0.21202287 -0.063312382 1.5460001
-0.20506249 -0.064517058 1.5460002
-0.42306414 -0.053005714 1.5460001
-0.21275908 -0.053005718 1.5460001
-0.20613335 -0.055147354 1.5460002
-0.42257336 -0.04417143 1.5460001
-0.41668382 -0.04417143 1.5460001
-0.21275908 -0.043435238 1.5460001
-0.2083419 -0.044907622 1.5460001
-0.42257336 -0.036073335 1.5460001
-0.41815621 -0.036809526 1.5460001
-0.21320078 -0.035926096 1.5460001
-0.20907812 -0.035337143 1.5460001
-0.42168993 -0.025324952 1.5460001
-0.22085716 -0.022085715 1.5460001
-0.21437868 -0.024441523 1.5460002
-0.42478192 -0.01546 1.5460001
-0.22343382 -0.014355714 1.5460002
-0.2171762 -0.01546 1.5460001
-0.4246347 -0.005595048 1.5460002
-0.22527428 -0.0058895252 1.5460001
-0.2171762 -0.0058895238 1.5460001
-0.42404577 0.0026175661 1.5460002
-0.41815621 0.0088342857 1.5460001
-0.22527428 0.0044171433 1.546
-0.21791239 0.0044171428 1.5460001
-0.41815624 0.01472381 1.5460001
-0.2326362 0.011779048 1.5460001
-0.22711475 0.015091905 1.5460002
-0.41586581 0.026175663 1.5460002
-0.23322515 0.025913905 1.5460001
-0.22740108 0.023885289 1.5460002
-0.42110097 0.038281906 1.5460001
-0.41521144 0.035337146 1.5460002
-0.40932193 0.035337146 1.5460001
-0.23473962 0.035757821 1.5460002
-0.22851352 0.034748189 1.5460001
-0.50281811 0.046380002 1.5460001
-0.49766478 0.04417143 1.5460001
-0.42257336 0.042699046 1.5460001
-0.41521144 0.04333007 1.5460002
-0.40932193 0.041226666 1.5460001
-0.23521286 0.043803331 1.5460002
-0.22674668 0.047116194 1.5460001
-0.52416772 0.056932066 1.5460001
-0.51533335 0.052024126 1.5460001
-0.50944382 0.050060954 1.5460001
-0.23558097 0.054478094 1.5460001
-0.22969143 0.054478098 1.5460001
-0.53005719 0.067729525 1.5460001
-0.52711242 0.063312382 1.5460001
-0.23594905 0.064416669 1.5460002
-0.53005719 0.070674285 1.5460001
-0.52593452 0.077152766 1.5460001
-0.23754413 0.076073021 1.5460001
-0.52490383 0.0853981 1.5460001
-0.24294287 0.08834286 1.5460001
-0.23675887 0.085987046 1.5460001
-0.52343148 0.093496189 1.5460001
-0.24264839 0.093643427 1.5460001
-0.23642232 0.094653063 1.5460002
-0.52220446 0.10502985 1.5460001
-0.24294287 0.10453906 1.5460002
-0.2361699 0.10512801 1.5460002
-0.52122289 0.11484572 1.5460001
-0.24264839 0.11484572 1.5460001
-0.23594905 0.11447763 1.5460002
-0.52122289 0.12515238 1.5460001
-0.51827812 0.12809715 1.5460001
-0.25089368 0.12603581 1.5460001
-0.24539684 0.12662476 1.5460001
-0.23594905 0.12515238 1.5460002
-0.52122289 0.13545907 1.5460001
-0.51729655 0.13742222 1.5460001
-0.25177714 0.13545907 1.5460001
-0.24539684 0.13644065 1.5460001
-0.23558095 0.13545907 1.5460002
-0.51606953 0.14355715 1.5460001
-0.25288147 0.14466144 1.5460002
-0.24618211 0.14429334 1.5460001
-0.23558097 0.14282095 1.5460001
-0.51533335 0.15459999 1.5460001
-0.25128636 0.15459999 1.5460001
-0.24539685 0.15509079 1.5460002
-0.23675886 0.15666133 1.5460001
-0.51533335 0.16490667 1.5460001
-0.25177714 0.16196191 1.5460001
-0.24264839 0.16549563 1.5460001
-0.23642232 0.16532734 1.5460002
-0.51631492 0.17619492 1.5460001
-0.25030476 0.17963049 1.5460001
-0.2438263 0.17580231 1.5460002
-0.23754413 0.17521334 1.5460001
-0.51459718 0.1862562 1.5460001
-0.24220669 0.18478382 1.5460001
-0.2385257 0.18552001 1.5460001
-0.51356649 0.19376534 1.5460001
-0.50944382 0.19729905 1.5460001
-0.24323733 0.19317639 1.5460001
-0.2385257 0.1943543 1.5460001
-0.50748068 0.20515175 1.5460002
-0.25251335 0.2083419 1.5460001
-0.24404716 0.20539714 1.5460002
-0.23852572 0.2017162 1.5460001
-0.50767696 0.21496764 1.5460001
-0.26208383 0.21202287 1.5460001
-0.25472191 0.21496762 1.5460001
-0.24736001 0.21349525 1.5460001
-0.50776106 0.22506393 1.5460002
-0.26208383 0.2247835 1.5460001
-0.25745633 0.22380193 1.5460002
-0.50797141 0.23558097 1.5460001
-0.25796118 0.2361699 1.5460001
-0.50723523 0.24367905 1.5460001
-0.25656238 0.24478334 1.5460002
-0.50551748 0.25570348 1.5460001
-0.25560537 0.25531083 1.5460002
-0.24736001 0.25913906 1.5460001
-0.50208193 0.2650286 1.5460001
-0.26208383 0.26355621 1.5460001
-0.25703567 0.26460791 1.5460002
-0.50134575 0.27459908 1.5460001
-0.49766478 0.27680764 1.5460001
-0.26208383 0.27533525 1.5460001
-0.25678328 0.27533525 1.5460002
-0.49766478 0.28564191 1.5460001
-0.26208383 0.28858668 1.5460001
-0.25668511 0.28564191 1.5460001
-0.49589792 0.29388729 1.5460001
-0.26208383 0.29447618 1.5460001
-0.25766668 0.29447621 1.5460001
-0.4935421 0.30507734 1.5460001
-0.26334587 0.30415183 1.5460002
-0.25766668 0.3047829 1.5460002
-0.49177524 0.31214479 1.5460001
-0.26326174 0.31567845 1.5460001
-0.25703564 0.31551021 1.5460002
-0.49177524 0.32097906 1.5460001
-0.48883051 0.32834095 1.5460001
-0.27165431 0.32760477 1.5460001
-0.26561755 0.32333487 1.5460001
-0.25913906 0.32097906 1.5460001
-0.48883048 0.33570287 1.5460001
-0.27209601 0.33629182 1.5460001
-0.26797333 0.33570287 1.5460001
-0.48883051 0.34306479 1.5460001
-0.27239048 0.34453714 1.5460001
-0.26620647 0.34571508 1.5460001
-0.25913906 0.34748191 1.5460001
-0.27218014 0.35463348 1.5460002
-0.26502857 0.35484383 1.5460001
-0.25913906 0.35337147 1.5460001
-0.27327392 0.36456153 1.5460001
-0.2650286 0.36515051 1.5460002
-0.25913906 0.36515048 1.5460001
-0.48294097 0.37840194 1.5460001
-0.2732085 0.37529358 1.5460002
-0.2650286 0.37545717 1.5460001
-0.25913906 0.37398478 1.5460001
-0.482941 0.38576379 1.5460001
-0.27268496 0.38517487 1.5460001
-0.26679543 0.38517487 1.5460001
-0.482941 0.39459813 1.5460001
-0.4799962 0.39754286 1.5460001
-0.27729842 0.39410731 1.5460001
-0.48294097 0.40490478 1.5460001
-0.47940725 0.40578824 1.5460001
-0.28269714 0.40490478 1.5460001
-0.27849036 0.40427378 1.5460002
-0.482941 0.41521144 1.5460001
-0.47852385 0.41521144 1.5460001
-0.28269714 0.41521144 1.5460001
-0.2787708 0.41324827 1.5460001
-0.48294097 0.42404574 1.5460001
-0.47764039 0.42610708 1.5460002
-0.28269714 0.42257336 1.5460001
-0.2797524 0.42699051 1.5460001
-0.47447482 0.43619287 1.5460002
-0.28269714 0.43729717 1.5460001
-0.2797524 0.43582478 1.5460001
-0.47494802 0.44465902 1.5460002
-0.28269714 0.44465908 1.5460001
-0.27828002 0.4431867 1.5460001
-0.47410667 0.45496574 1.5460002
-0.29300383 0.45938286 1.5460001
-0.28505296 0.45555466 1.5460002
-0.27778924 0.45512936 1.5460002
-0.47233981 0.46468344 1.5460001
-0.29300383 0.4652724 1.5460001
-0.28601 0.46490434 1.5460002
-0.47116193 0.47116193 1.5460001
-0.46821716 0.47705141 1.5460001
-0.29349464 0.47574267 1.5460002
-0.28799772 0.47469562 1.5460001
-0.46821716 0.48588574 1.5460001
-0.29300383 0.48294097 1.5460001
-0.28564191 0.48625386 1.5460002
-0.2797524 0.48883051 1.5460001
-0.46821716 0.49472001 1.5460001
-0.28564191 0.49471998 1.5460002
-0.46762824 0.50591004 1.5460001
-0.29349461 0.50748062 1.5460001
-0.28629628 0.50388145 1.5460002
-0.2797524 0.50355428 1.5460001
-0.47116193 0.51238859 1.5460001
-0.46674478 0.51533335 1.5460001
-0.3018381 0.51827812 1.5460001
-0.29447618 0.51533341 1.5460002
-0.28648326 0.51491266 1.5460002
-0.46527237 0.52416766 1.5460001
-0.3018381 0.5241676 1.5460001
-0.2948443 0.52379954 1.5460002
-0.28740877 0.52357876 1.5460001
-0.46380004 0.53447431 1.5460002
-0.45938286 0.53594667 1.5460001
-0.30036572 0.53398353 1.5460001
-0.29624304 0.53359091 1.5460001
-0.28858668 0.53005719 1.5460001
-0.46380004 0.54478097 1.5460001
-0.45938286 0.54478097 1.5460001
-0.29447621 0.54478097 1.5460001
-0.28858668 0.54772574 1.5460001
-0.47116193 0.55214286 1.5460001
-0.4652724 0.55214292 1.5460001
-0.45727944 0.55403596 1.5460002
-0.30036572 0.55361527 1.5460001
-0.29447621 0.55214286 1.5460001
-0.27214476 -0.1271981 1.5530001
-0.2632705 -0.12424 1.5530001
-0.25291717 -0.12424 1.5530001
-0.24404287 -0.12276096 1.5530001
-0.23590811 -0.12350048 1.5530001
-0.23171747 -0.11733779 1.5530001
-0.22629429 -0.11388667 1.5530001
-0.22185715 -0.10944953 1.5530001
-0.21446192 -0.10279381 1.5530001
-0.19819239 -0.10057524 1.5530001
-0.21002477 -0.097617149 1.5530001
-0.20312254 -0.095645092 1.5530001
-0.19622032 -0.093673021 1.5530001
-0.20115048 -0.085784763 1.5530001
-0.19671333 -0.085784763 1.5530001
-0.2017421 -0.075135626 1.5530001
-0.19760077 -0.07631886 1.5530001
-0.20115048 -0.068036191 1.5530001
-0.19700916 -0.064486481 1.5530001
-0.42596573 -0.050287619 1.5530001
-0.20233373 -0.053245716 1.5530001
-0.19641753 -0.056203812 1.5530001
-0.42497969 -0.045357462 1.5530001
-0.20460159 -0.04437143 1.5530001
-0.42670524 -0.034018096 1.5530001
-0.20632716 -0.036236666 1.5530001
-0.42765608 -0.024932517 1.5530002
-0.21002477 -0.025143811 1.5530001
-0.20706667 -0.020706667 1.5530001
-0.42892382 -0.017748572 1.5530001
-0.21261311 -0.014420714 1.5530002
-0.21261311 -0.0059161903 1.5530002
-0.43188193 0.004437143 1.5530001
-0.42744476 0.0073952386 1.5530001
-0.21298288 0.0044371434 1.5530001
-0.20706667 0 1.5530001
-0.42554316 0.013945306 1.5530002
-0.22259668 0.014050953 1.5530001
-0.21594095 0.013311428 1.5530001
-0.42399368 0.02514381 1.5530001
-0.22354749 0.026622858 1.5530002
-0.50287622 0.03845524 1.5530001
-0.4999181 0.03845524 1.5530001
-0.4244867 0.035497144 1.5530001
-0.22397007 0.03591973 1.5530002
-0.51411694 0.046146289 1.5530001
-0.50642598 0.042596571 1.5530001
-0.4999181 0.041413333 1.5530001
-0.42892382 0.04437143 1.5530001
-0.23073144 0.042892382 1.5530001
-0.22439265 0.043526262 1.5530002
-0.21889906 0.047329526 1.5530001
-0.53245717 0.059161905 1.5530001
-0.52535772 0.054428957 1.5530001
-0.5176667 0.050287619 1.5530001
-0.22508416 0.054321386 1.5530002
-0.53423202 0.064486481 1.5530001
-0.23147096 0.065817617 1.5530001
-0.22777334 0.062120002 1.5530001
-0.53467572 0.076540716 1.5530002
-0.23411213 0.075220145 1.5530002
-0.53364038 0.085193142 1.5530001
-0.52949905 0.085784763 1.5530001
-0.23368953 0.085784763 1.5530001
-0.53245717 0.094659053 1.5530001
-0.52949905 0.094659053 1.5530001
-0.23191467 0.094067439 1.5530001
-0.53245717 0.10205429 1.5530001
-0.52823132 0.10564625 1.5530002
-0.23171748 0.10402635 1.5530001
-0.22777334 0.10797048 1.5530001
-0.52802002 0.11536571 1.5530001
-0.23147096 0.11610524 1.5530001
-0.22777334 0.11240762 1.5530001
-0.52802002 0.12424001 1.5530001
-0.52654099 0.13459334 1.5530001
-0.23171747 0.13114223 1.5530001
-0.5239526 0.14531644 1.5530002
-0.24330336 0.14494666 1.5530001
-0.2388662 0.14568618 1.5530001
-0.52259684 0.15480699 1.5530002
-0.2425638 0.15382095 1.5530001
-0.23590811 0.15603954 1.5530001
-0.52210379 0.16565335 1.5530001
-0.23191467 0.16506171 1.5530001
-0.52210379 0.1737881 1.5530001
-0.23368953 0.17452763 1.5530002
-0.5216108 0.18438794 1.5530001
-0.2345347 0.18424709 1.5530002
-0.52062476 0.1952343 1.5530001
-0.5176667 0.19819239 1.5530001
-0.23516858 0.1952343 1.5530001
-0.51618767 0.2041086 1.5530001
-0.23605601 0.20351696 1.5530001
-0.51569462 0.21462625 1.5530002
-0.24552193 0.21653256 1.5530001
-0.51470864 0.22599848 1.5530001
-0.25341019 0.22580127 1.5530001
-0.24848001 0.22185715 1.5530001
-0.51597637 0.23453471 1.5530002
-0.2543962 0.23284437 1.5530002
-0.24848001 0.23073144 1.5530001
-0.51352537 0.24611354 1.5530001
-0.25143811 0.2455219 1.5530001
-0.24611351 0.24729677 1.5530001
-0.23960572 0.24848001 1.5530001
-0.51175052 0.2543962 1.5530001
-0.25143811 0.2543962 1.5530001
-0.24589169 0.25476596 1.5530002
-0.23960572 0.25735429 1.5530001
-0.51175052 0.26031238 1.5530001
-0.5087924 0.26622859 1.5530001
-0.25242415 0.26573554 1.5530001
-0.245253 0.2651529 1.5530002
-0.23842248 0.26267886 1.5530001
-0.50682038 0.27559587 1.5530001
-0.25262135 0.27569446 1.5530001
-0.24636707 0.27468029 1.5530002
-0.50498921 0.28482231 1.5530002
-0.25242415 0.2859492 1.5530001
-0.24848001 0.28249812 1.5530001
-0.50287622 0.29580954 1.5530001
-0.4999181 0.29876763 1.5530001
-0.25291717 0.29580951 1.5530001
-0.4999181 0.30468383 1.5530001
-0.25365669 0.30542335 1.5530001
-0.50287622 0.3135581 1.5530001
-0.49755162 0.31562877 1.5530002
-0.25365669 0.31503716 1.5530001
-0.50287622 0.32391143 1.5530001
-0.49732977 0.32576025 1.5530002
-0.26267886 0.32716534 1.5530001
-0.25538221 0.32440445 1.5530001
-0.24848001 0.3224324 1.5530001
-0.49611482 0.33384222 1.5530002
-0.26401001 0.33426476 1.5530002
-0.24848001 0.33130667 1.5530001
-0.49400192 0.34373069 1.5530001
-0.2632705 0.34313908 1.5530002
-0.25735429 0.34905526 1.5530001
-0.49104384 0.35497144 1.5530001
-0.25661474 0.35497144 1.5530001
-0.49104384 0.3653248 1.5530001
-0.48808575 0.36828285 1.5530001
-0.26031238 0.36088765 1.5530001
-0.25735429 0.3653248 1.5530001
-0.49104384 0.37567815 1.5530001
-0.48808575 0.37567809 1.5530001
-0.25735429 0.37419906 1.5530001
-0.49104384 0.38455239 1.5530001
-0.48808575 0.38455239 1.5530001
-0.26228446 0.38455239 1.5530001
-0.48808575 0.39490575 1.5530001
-0.2731308 0.39589176 1.5530001
-0.26622859 0.39194763 1.5530001
-0.48808575 0.40378001 1.5530001
-0.27391964 0.40585071 1.5530001
-0.48808575 0.4156124 1.5530001
-0.2747331 0.41413334 1.5530002
-0.48709974 0.42497972 1.5530001
-0.28101906 0.42152858 1.5530001
-0.27806097 0.42497969 1.5530001
-0.48463461 0.43484005 1.5530001
-0.27732146 0.43410048 1.5530001
-0.4836486 0.44519338 1.5530002
-0.28101906 0.4496305 1.5530001
-0.2747331 0.44630265 1.5530002
-0.26918668 0.44667241 1.5530001
-0.48290908 0.45480713 1.5530001
-0.47921145 0.45850477 1.5530001
-0.27332801 0.45495504 1.5530001
-0.2669681 0.45702574 1.5530001
-0.48216954 0.46442094 1.5530001
-0.47921145 0.464421 1.5530001
-0.28101906 0.4659 1.5530001
-0.27510285 0.464421 1.5530002
-0.47583076 0.4749856 1.5530002
-0.28364846 0.47493866 1.5530002
-0.47477427 0.4851276 1.5530001
-0.28397715 0.48453602 1.5530001
-0.27806097 0.48808575 1.5530001
-0.47388688 0.49636841 1.5530001
-0.28101906 0.49696001 1.5530001
-0.27621216 0.49585071 1.5530002
-0.47447848 0.50524271 1.5530001
-0.2820051 0.50682038 1.5530001
-0.27732146 0.50509477 1.5530001
-0.47507015 0.51470858 1.5530001
-0.28299114 0.51421553 1.5530001
-0.27806097 0.51322955 1.5530001
-0.4723092 0.52604795 1.5530001
-0.29285145 0.52949905 1.5530001
-0.28323764 0.52506196 1.5530002
-0.47152036 0.5348236 1.5530001
-0.2946263 0.53600687 1.5530001
-0.28767478 0.53467572 1.5530001
-0.47245005 0.54428953 1.5530002
-0.29359096 0.54355001 1.5530001
-0.28989333 0.54133147 1.5530001
-0.47329524 0.55020571 1.5530001
-0.26480952 -0.13240609 1.5656
-0.25609261 -0.13192648 1.567
-0.24475048 -0.13132952 1.567
-0.23728858 -0.13132952 1.567
-0.27040002 -0.12777144 1.5600001
-0.26445714 -0.12777144 1.5600001
-0.25519714 -0.12834476 1.567
-0.24439049 -0.12815367 1.5646667
-0.23397295 -0.1262179 1.5628
-0.22649969 -0.12368318 1.5646667
-0.22441444 -0.11731156 1.5620002
-0.21580885 -0.11359897 1.5657274
-0.20594858 -0.11192858 1.567
-0.19898413 -0.11143112 1.567
-0.2144381 -0.10647619 1.5600001
-0.20533673 -0.10415852 1.5623336
-0.19477369 -0.10456953 1.5644547
-0.18684611 -0.10386971 1.567
-0.19229461 -0.096149527 1.5611668
-0.18486857 -0.095419049 1.5654446
-0.175504 -0.093124576 1.567
-0.19187048 -0.084779054 1.5617502
-0.18505524 -0.085065715 1.567
-0.17564176 -0.084721319 1.567
-0.16714667 -0.080588572 1.567
-0.19342731 -0.074396826 1.5623336
-0.18505524 -0.074619047 1.5670002
-0.17610095 -0.074619047 1.5670002
-0.16714667 -0.074619047 1.567
-0.1925377 -0.06588164 1.5620002
-0.18505524 -0.065664768 1.5670002
-0.17729487 -0.066858672 1.567
-0.19364692 -0.054359134 1.5619092
-0.18532658 -0.055625107 1.5670002
-0.1780908 -0.057705399 1.567
-0.20205715 -0.043085717 1.5600001
-0.19520526 -0.044703651 1.5646667
-0.18804 -0.04626381 1.567
-0.20360839 -0.03512419 1.5628
-0.19550191 -0.035817143 1.567
-0.43382859 -0.022285715 1.5600001
-0.20500571 -0.025695067 1.5619092
-0.19674556 -0.025121747 1.567
-0.18804 -0.023878096 1.567
-0.43382859 -0.017828573 1.5600001
-0.20533079 -0.014879365 1.5623336
-0.19784708 -0.01492381 1.5670002
-0.20533079 -0.0059517468 1.5623336
-0.19848667 -0.0059695239 1.567
-0.43382859 0.0089142863 1.5600001
-0.20500571 0.0048696105 1.5619092
-0.19848667 0.0044771428 1.5670002
-0.43405908 0.015636668 1.5635
-0.42788574 0.017828573 1.5600001
-0.21410064 0.016356191 1.5611668
-0.20597333 0.014529048 1.5643752
-0.19759125 0.013132952 1.567
-0.43085715 0.022285715 1.5600001
-0.42788574 0.025257144 1.5600001
-0.21623597 0.025020445 1.5637333
-0.20773943 0.023281144 1.567
-0.51579046 0.038012382 1.56525
-0.50811428 0.038628574 1.5600001
-0.42788574 0.032685716 1.5600001
-0.21755874 0.035763815 1.5646669
-0.52364379 0.044626672 1.5620002
-0.51554286 0.0416 1.5600001
-0.21656531 0.044704765 1.5646669
-0.54248047 0.057456668 1.567
-0.53414327 0.054719619 1.5614001
-0.52594286 0.050514288 1.5600001
-0.22285715 0.059428573 1.5600001
-0.21617107 0.05518603 1.5632666
-0.54350573 0.065518104 1.5635
-0.22494772 0.066065818 1.560778
-0.21572036 0.06531585 1.565091
-0.54350573 0.074452385 1.5635
-0.23177142 0.074285716 1.5600001
-0.22533298 0.074020579 1.5607002
-0.21619792 0.075148001 1.5656002
-0.54350573 0.084872387 1.5635
-0.53782856 0.089142859 1.5600001
-0.23177142 0.086171426 1.5600001
-0.22496703 0.084925719 1.5643749
-0.21575566 0.083999731 1.5670002
-0.20893334 0.080588572 1.567
-0.54296458 0.095853344 1.5628
-0.53782856 0.095085718 1.5600001
-0.22483952 0.095299058 1.5635
-0.21639524 0.095512383 1.567
-0.54203278 0.10506362 1.567
-0.53634286 0.10697143 1.5600001
-0.22467399 0.10464859 1.5623335
-0.2180562 0.10629428 1.5646667
-0.54194748 0.11555294 1.5670002
-0.53485715 0.11588571 1.5600001
-0.22438858 0.11639342 1.563182
-0.21564905 0.11342096 1.5670002
-0.20893334 0.11192858 1.567
-0.54173428 0.12461382 1.567
-0.53560001 0.1248 1.5600001
-0.23251429 0.1248 1.5600001
-0.22534953 0.12536001 1.567
-0.5402419 0.13431428 1.567
-0.53337145 0.13520001 1.5600002
-0.23177144 0.13817143 1.5600001
-0.22534953 0.13431428 1.567
-0.21788763 0.13431428 1.567
-0.5402419 0.14177619 1.567
-0.53417152 0.14582001 1.5623335
-0.23343049 0.1457089 1.5611668
-0.22615312 0.14441656 1.567
-0.21788763 0.14625333 1.567
-0.53457141 0.15486096 1.5635
-0.52891433 0.15600002 1.5600001
-0.23449007 0.15448789 1.5640001
-0.22769471 0.15478122 1.5670002
-0.53188574 0.16342856 1.5600001
-0.52891433 0.1649143 1.5600001
-0.22693631 0.16573842 1.5631113
-0.53277999 0.17162381 1.567
-0.52594286 0.17531429 1.5600001
-0.23177144 0.17828572 1.5600001
-0.22616805 0.17418055 1.5646669
-0.52573901 0.18648954 1.5623335
-0.23281144 0.18654762 1.567
-0.22725472 0.18427457 1.5640001
-0.53128761 0.19699429 1.567
-0.52653283 0.19484191 1.5617501
-0.23278172 0.19408114 1.5628
-0.2273362 0.19600953 1.5663002
-0.53128761 0.20594858 1.567
-0.52563715 0.20548856 1.5635
-0.23355432 0.20621714 1.5600001
-0.22649969 0.20564191 1.5646669
-0.52563715 0.21442287 1.5635
-0.24195918 0.21521635 1.5600002
-0.2354451 0.21457843 1.5646669
-0.22646882 0.21378358 1.5670002
-0.52513129 0.22562329 1.5654446
-0.24493402 0.22628173 1.5612729
-0.2357962 0.22534953 1.567
-0.22982667 0.22385715 1.567
-0.52651203 0.23519924 1.567
-0.25257143 0.23771429 1.5600001
-0.24473767 0.23501299 1.5600002
-0.23579618 0.23579618 1.5670002
-0.22833429 0.23430382 1.567
-0.52265906 0.24420381 1.5635
-0.25455239 0.2416762 1.5600001
-0.24454859 0.24306285 1.5600002
-0.23541197 0.24597248 1.5644547
-0.22982667 0.24773525 1.567
-0.52233332 0.25519717 1.567
-0.51702857 0.25554287 1.5600001
-0.2416762 0.25356194 1.5600001
-0.23508954 0.25592506 1.5623336
-0.22684191 0.25519714 1.567
-0.52233332 0.26564381 1.567
-0.51630402 0.26528877 1.5614001
-0.23389389 0.26488164 1.5600002
-0.22672783 0.26551345 1.5662224
-0.52233332 0.27459809 1.567
-0.5158329 0.27501214 1.5608752
-0.24187429 0.27515429 1.5600001
-0.23520657 0.27391809 1.5631113
-0.22769471 0.27417171 1.5670002
-0.52233332 0.28206 1.567
-0.51558691 0.28627023 1.5635002
-0.2444194 0.28556764 1.563182
-0.2357962 0.28504476 1.567
-0.2279612 0.28429857 1.5670002
-0.5137248 0.29483145 1.5635
-0.50811428 0.29417145 1.5600001
-0.24568619 0.29483142 1.5635
-0.2357962 0.29399905 1.567
-0.51487142 0.30444571 1.567
-0.50684083 0.30520818 1.5600002
-0.25257143 0.30457145 1.5600001
-0.24603306 0.30451757 1.563
-0.23878096 0.30146095 1.567
-0.51412523 0.31489238 1.5670002
-0.50662857 0.31422859 1.5600001
-0.25257143 0.31497145 1.5600001
-0.24533932 0.3149263 1.564
-0.23728858 0.31936952 1.567
-0.51263285 0.32459286 1.567
-0.5069257 0.32626286 1.5600001
-0.25356194 0.32883811 1.5600001
-0.2456746 0.32536 1.5626924
-0.23878096 0.32533905 1.567
-0.51263285 0.33503953 1.567
-0.50464767 0.33577144 1.5600001
-0.26445717 0.33428574 1.5600001
-0.25554287 0.33577147 1.5600002
-0.2457052 0.33478606 1.5646669
-0.23878096 0.33130857 1.567
-0.51114047 0.34250143 1.567
-0.50478828 0.34546351 1.5635
-0.49920002 0.34617144 1.5600001
-0.25506058 0.34513888 1.5607002
-0.24848115 0.34322858 1.5642
-0.50392729 0.35518667 1.567
-0.49682283 0.3547886 1.5600001
-0.25294477 0.35445908 1.5623336
-0.24773525 0.35817143 1.567
-0.50293243 0.36414096 1.567
-0.49697143 0.36622858 1.5600001
-0.25332254 0.36458921 1.5646669
-0.50342983 0.37558255 1.567
-0.49697143 0.37365717 1.5600001
-0.25312069 0.37453642 1.565091
-0.24773525 0.37508509 1.567
-0.50293243 0.38503429 1.567
-0.49622858 0.38479999 1.5600001
-0.26148573 0.38777143 1.5600001
-0.25496453 0.38490042 1.563
-0.24773525 0.38503429 1.567
-0.50218624 0.39324239 1.567
-0.4954851 0.39579332 1.5623335
-0.27040002 0.39817145 1.5600001
-0.26366225 0.39648828 1.5611668
-0.25444123 0.39561388 1.5649999
-0.24713829 0.39518249 1.567
-0.4958562 0.40502095 1.5635
-0.27114287 0.40411431 1.5600001
-0.26471794 0.40451577 1.5615557
-0.25539449 0.40532658 1.5657274
-0.49378315 0.41467187 1.5630001
-0.27040002 0.4145143 1.5600001
-0.26472732 0.41410911 1.5600002
-0.25737661 0.41419268 1.5660001
-0.4962275 0.42515105 1.5640001
-0.27445239 0.42567697 1.5628002
-0.26522535 0.42603469 1.5663002
-0.25668955 0.42627829 1.5670002
-0.49486351 0.43480194 1.5635
-0.27343342 0.43597907 1.5619092
-0.26528651 0.43578553 1.5649002
-0.25706261 0.43577525 1.5670002
-0.49248573 0.44472954 1.567
-0.27262858 0.44348574 1.5600001
-0.26488626 0.44535494 1.5625457
-0.25584671 0.44481048 1.5664167
-0.24773525 0.44323716 1.567
-0.49248573 0.4551762 1.567
-0.48731431 0.45760003 1.5600001
-0.27040002 0.45462859 1.5600001
-0.26445714 0.45462859 1.5600002
-0.25565335 0.45491493 1.56525
-0.49323192 0.46562287 1.567
-0.48804319 0.46424064 1.5623335
-0.27114287 0.46725714 1.5600001
-0.26471791 0.46598753 1.5615557
-0.25824839 0.46461257 1.5656
-0.48543397 0.47500288 1.5635
-0.27548417 0.47554639 1.5612729
-0.26521742 0.47542995 1.5670002
-0.25867936 0.47258732 1.567
-0.48342934 0.48342139 1.5628
-0.28228572 0.48285717 1.5600001
-0.27545688 0.48555544 1.5653846
-0.26564381 0.48502383 1.567
-0.25967428 0.48651621 1.567
-0.48245144 0.49585286 1.5635
-0.47840002 0.49622858 1.5600001
-0.27271113 0.49391752 1.5600002
-0.26537094 0.49554494 1.5638183
-0.25967428 0.49547049 1.567
-0.48265761 0.50496334 1.5617501
-0.27252248 0.50556737 1.5600002
-0.26504597 0.50495565 1.5660001
-0.25967428 0.50442481 1.567
-0.48137143 0.51405716 1.5600001
-0.47840002 0.51108575 1.5600001
-0.27404848 0.51533866 1.563889
-0.26663873 0.5147056 1.5670002
-0.48353145 0.52531809 1.567
-0.47840002 0.52594286 1.5600001
-0.27580449 0.52482617 1.563
-0.26564381 0.52531809 1.5670002
-0.48353145 0.53427237 1.567
-0.47840002 0.53485715 1.5600001
-0.28451428 0.53560001 1.5600001
-0.27474955 0.53343332 1.5628002
-0.26475385 0.53396475 1.5617501
-0.25967428 0.53576475 1.567
-0.48326173 0.54463315 1.5642
-0.47765714 0.54377145 1.5600001
-0.29120001 0.54822862 1.5600001
-0.28492996 0.54506344 1.567
-0.27459809 0.5402419 1.567
-0.26742858 0.54080003 1.5600001
-0.28206 0.55218095 1.567
-0.25633717 -0.13491429 1.5740001
-0.24734285 -0.13491429 1.5740001
-0.23085335 -0.1289181 1.5740001
-0.22285841 -0.12592 1.574
-0.21886095 -0.12292191 1.5740001
-0.21586287 -0.11992382 1.574
-0.20636891 -0.11792509 1.5740002
-0.19450143 -0.11430238 1.5740002
-0.18788065 -0.1119289 1.574
-0.18363333 -0.10568286 1.5740001
-0.17588826 -0.10393398 1.5740002
-0.16639429 -0.10193525 1.5740001
-0.17474613 -0.097652249 1.5740002
-0.16575184 -0.095510758 1.5740002
-0.17089145 -0.086944759 1.574
-0.16462269 -0.085854545 1.5740002
-0.17089145 -0.074952386 1.574
-0.16452049 -0.074952386 1.5740002
-0.17346121 -0.065101497 1.5740002
-0.1666941 -0.06655772 1.5740001
-0.18288381 -0.050967623 1.5740001
-0.17538857 -0.055764578 1.5740002
-0.1850253 -0.044543125 1.5740002
-0.17838669 -0.044971433 1.5740002
-0.18625668 -0.035977144 1.5740002
-0.17988572 -0.038975239 1.5740001
-0.19262761 -0.026233334 1.5740001
-0.18560934 -0.025620086 1.5740002
-0.17988572 -0.025483809 1.5740001
-0.19307734 -0.014990476 1.5740001
-0.18588193 -0.014990477 1.5740002
-0.1798857 -0.014990476 1.574
-0.19337714 -0.0059961905 1.5740002
-0.18588191 -0.0059961905 1.5740002
-0.19337714 0.004497143 1.5740002
-0.18788065 0.0034977777 1.5740002
-0.20237145 0.017988572 1.5740001
-0.19387682 0.015989842 1.5740002
-0.18888001 0.014990476 1.574
-0.43672255 0.023984762 1.574
-0.21286477 0.029980954 1.5740001
-0.20387049 0.026437752 1.5740002
-0.19487619 0.025483811 1.5740002
-0.18888001 0.025483809 1.5740001
-0.52466667 0.037975874 1.574
-0.43472382 0.038975239 1.5740001
-0.21286477 0.035977144 1.574
-0.20536953 0.035977144 1.5740002
-0.19712476 0.035227619 1.5740001
-0.53216195 0.044971429 1.5740001
-0.21286477 0.043472379 1.5740001
-0.20772518 0.044971433 1.5740002
-0.19787429 0.041973334 1.5740001
-0.55164957 0.058462858 1.5740001
-0.54625297 0.054565333 1.5740001
-0.53815812 0.050967623 1.5740001
-0.21286477 0.053965718 1.5740001
-0.20786792 0.055964451 1.5740002
-0.5523991 0.065208569 1.5740001
-0.2083676 0.065958098 1.5740002
-0.55164957 0.074952386 1.574
-0.21286477 0.071954288 1.5740001
-0.20836763 0.074952386 1.5740002
-0.55164957 0.085445717 1.5740001
-0.54865146 0.089942858 1.5740001
-0.21466362 0.086944766 1.5740001
-0.20611908 0.086195238 1.5740002
-0.55164957 0.095939048 1.574
-0.54865146 0.092940956 1.5740001
-0.21286477 0.095939048 1.574
-0.20772517 0.095510758 1.5740002
-0.54865146 0.10493334 1.574
-0.214064 0.10433374 1.5740001
-0.20836763 0.10493335 1.5740002
-0.54865146 0.11392763 1.574
-0.21436381 0.11842477 1.5740001
-0.20886731 0.11592636 1.574
-0.54565334 0.1289181 1.5740001
-0.21586287 0.12592 1.5740002
-0.54565334 0.13491429 1.574
-0.21436381 0.13491429 1.5740002
-0.2074682 0.13671315 1.5740001
-0.5444541 0.14570743 1.5740001
-0.22285841 0.14690667 1.574
-0.2155903 0.14527136 1.5740002
-0.20815347 0.14433686 1.5740002
-0.54265523 0.15590096 1.574
-0.2230583 0.15650058 1.5740001
-0.21736191 0.15590096 1.5740002
-0.54265523 0.16339621 1.5740001
-0.53965718 0.16489524 1.574
-0.22365792 0.16369602 1.5740001
-0.21736193 0.16489525 1.5740002
-0.54265523 0.17388953 1.5740001
-0.53732532 0.1765545 1.5740002
-0.2230583 0.17748724 1.5740001
-0.21714778 0.17388952 1.5740002
-0.53628427 0.18625668 1.5740002
-0.2230583 0.18648152 1.5740001
-0.21766171 0.18588191 1.5740001
-0.53708732 0.1953045 1.5740002
-0.2230583 0.19427657 1.5740001
-0.21886095 0.1918781 1.5740001
-0.53765839 0.20486987 1.5740002
-0.22185905 0.20536953 1.5740001
-0.21886095 0.20536955 1.5740001
-0.53516001 0.21586287 1.5740002
-0.22410764 0.21811143 1.5740001
-0.21886094 0.21586287 1.574
-0.53366095 0.22365792 1.5740001
-0.22485715 0.22485715 1.5740002
-0.21736193 0.22485717 1.5740002
-0.53291142 0.23535049 1.5740001
-0.23085335 0.23535049 1.5740001
-0.22425754 0.23535049 1.5740002
-0.21613541 0.23494166 1.5740002
-0.53186214 0.24644344 1.5740001
-0.23285206 0.24484445 1.574
-0.22485715 0.24584381 1.5740002
-0.21736191 0.24584381 1.5740002
-0.52766478 0.25483811 1.574
-0.22185905 0.25483811 1.574
-0.21886094 0.25483811 1.574
-0.53166223 0.26433209 1.5740002
-0.52766478 0.26533145 1.5740001
-0.22185905 0.26533145 1.5740001
-0.21886095 0.26233333 1.5740001
-0.53066289 0.27582479 1.574
-0.52766478 0.27582479 1.574
-0.22305827 0.27642441 1.5740001
-0.21886094 0.27582479 1.574
-0.53066289 0.28182095 1.5740001
-0.52691525 0.28556859 1.5740001
-0.2230583 0.28481907 1.5740001
-0.21811143 0.28481907 1.5740001
-0.52466667 0.29561219 1.5740002
-0.23385145 0.29831049 1.5740002
-0.2255234 0.29414648 1.5740002
-0.21886095 0.29381335 1.5740001
-0.52316767 0.30580571 1.5740002
-0.23494166 0.30607826 1.5740002
-0.22785525 0.30580571 1.5740001
-0.52316767 0.31480002 1.5740002
-0.23575932 0.31507257 1.5740002
-0.22485715 0.31629908 1.5740002
-0.52226824 0.32439393 1.5740001
-0.5186705 0.32529336 1.5740001
-0.23357888 0.32570222 1.5740002
-0.22485714 0.32529339 1.5740002
-0.21886095 0.32079619 1.5740001
-0.5186705 0.33578667 1.574
-0.24284573 0.33878478 1.5740001
-0.23535049 0.33578664 1.5740002
-0.22485715 0.33578667 1.5740002
-0.51667172 0.34478095 1.574
-0.24434477 0.34478095 1.5740002
-0.2361833 0.34511408 1.5740002
-0.22400056 0.34478095 1.5740002
-0.51417339 0.35527432 1.5740002
-0.50967622 0.35677335 1.5740001
-0.24557127 0.35486549 1.5740002
-0.23599294 0.35570261 1.5740001
-0.22385778 0.35544086 1.5740002
-0.21886095 0.35677335 1.5740001
-0.51267433 0.36576763 1.574
-0.50967622 0.36576763 1.574
-0.24584381 0.36576766 1.5740002
-0.23595011 0.36576766 1.5740002
-0.22485715 0.36276954 1.5740001
-0.51267433 0.37476194 1.574
-0.50967622 0.37476194 1.574
-0.24498722 0.37476191 1.5740002
-0.23535049 0.37476191 1.5740002
-0.22785525 0.37476191 1.5740001
-0.51267433 0.38225716 1.5740001
-0.50967622 0.38525522 1.5740001
-0.24434477 0.38525522 1.5740002
-0.23684955 0.38620919 1.5740002
-0.50817716 0.39574859 1.5740001
-0.24404497 0.39574859 1.5740001
-0.23744914 0.39394975 1.5740001
-0.50517905 0.40474293 1.5740002
-0.24584381 0.4047429 1.5740002
-0.23535049 0.40174478 1.5740001
-0.50325167 0.41459376 1.5740002
-0.25283936 0.4162356 1.5740002
-0.24884191 0.4152362 1.5740001
-0.50367999 0.42572951 1.574
-0.25303924 0.42512989 1.5740001
-0.24884193 0.42572951 1.574
-0.50367999 0.43472382 1.574
-0.25283936 0.43672252 1.574
-0.24584381 0.43472382 1.5740002
-0.23535049 0.43472385 1.5740002
-0.22485715 0.43172574 1.5740001
-0.50068194 0.44072002 1.5740001
-0.49768385 0.44671619 1.574
-0.25184 0.44521716 1.5740001
-0.24524419 0.44521719 1.5740002
-0.23784892 0.44471753 1.5740002
-0.50068194 0.4557105 1.574
-0.49768385 0.4557105 1.574
-0.25184 0.45571047 1.5740001
-0.24734284 0.4557105 1.5740002
-0.50068194 0.46470478 1.574
-0.49768382 0.46320575 1.5740001
-0.25303924 0.46530437 1.5740001
-0.24884191 0.46320575 1.5740001
-0.50068194 0.47220004 1.5740001
-0.49554232 0.47584057 1.5740002
-0.26083431 0.47969526 1.5740001
-0.25456554 0.47533444 1.5740002
-0.49318668 0.48569146 1.5740002
-0.48868954 0.48868954 1.5740001
-0.26083431 0.48269334 1.5740001
-0.25483811 0.48569143 1.5740002
-0.49168763 0.49468574 1.574
-0.48868954 0.49468574 1.574
-0.25483811 0.49468571 1.5740002
-0.49168763 0.50517905 1.5740001
-0.48868954 0.50467938 1.574
-0.25483808 0.50517911 1.5740002
-0.48868954 0.51567245 1.574
-0.26203352 0.51567245 1.5740001
-0.25583747 0.51467305 1.5740002
-0.48868954 0.52316761 1.5740001
-0.26158383 0.5239172 1.5740001
-0.25633717 0.52466661 1.5740002
-0.49168763 0.53665906 1.574
-0.48868954 0.53516001 1.5740001
-0.26083431 0.53216195 1.5740001
-0.25633717 0.53366095 1.5740002
-0.49243715 0.54565334 1.5740001
-0.48868954 0.54565334 1.574
-0.27582479 0.5471524 1.5740002
-0.29081523 0.55464762 1.5740001
-0.28481907 0.55314863 1.5740001
-0.27732384 0.55164957 1.5740001
-0.22094667 -0.13014667 1.5890001
-0.21792001 -0.13014667 1.5890001
-0.22585714 -0.12949143 1.5810001
-0.21497878 -0.12537225 1.5832859
-0.20536926 -0.12382995 1.5855715
-0.19572876 -0.12142819 1.5858002
-0.18468048 -0.11495738 1.5830002
-0.17597525 -0.11308458 1.5874002
-0.16798 -0.11198667 1.5890001
-0.17466287 -0.10841143 1.581
-0.1650174 -0.1064919 1.5860001
-0.1584962 -0.10264762 1.585
-0.16261715 -0.097871438 1.5810001
-0.15661159 -0.095039561 1.5859231
-0.15553936 -0.084570162 1.5856668
-0.15599377 -0.075801902 1.5860909
-0.16355726 -0.06301038 1.5836668
-0.15718476 -0.066500954 1.587
-0.17265524 -0.052198097 1.581
-0.16608912 -0.054356404 1.5854445
-0.17315716 -0.045171428 1.5810002
-0.16708763 -0.044904493 1.5867145
-0.18143857 -0.033878576 1.5810001
-0.17488001 -0.034677144 1.5830001
-0.16646667 -0.034806669 1.5890001
-0.18068571 -0.02108 1.5810001
-0.17466287 -0.02409143 1.5810002
-0.16677713 -0.02506068 1.5878572
-0.17475937 -0.015063916 1.5818892
-0.16949333 -0.015133335 1.5890001
-0.18068571 -0.0060228575 1.581
-0.17495239 -0.0060330164 1.5836668
-0.16949333 -0.0060533336 1.5890001
-0.18327925 0.0051285713 1.5826002
-0.17557801 0.0041258875 1.5868182
-0.18453452 0.01471881 1.5850002
-0.44268003 0.025597144 1.5810001
-0.4396686 0.027102858 1.5810001
-0.1851107 0.024145609 1.5845556
-0.53151715 0.037642859 1.5810001
-0.52599621 0.034129526 1.581
-0.51646006 0.036137145 1.5810001
-0.44431466 0.03389867 1.5890001
-0.43816289 0.034631431 1.5810002
-0.19300573 0.037051976 1.5832859
-0.18574511 0.033731747 1.5856668
-0.55236673 0.046913333 1.5890001
-0.54496115 0.047069717 1.5842001
-0.53703809 0.045171428 1.581
-0.20297027 0.045171432 1.5810001
-0.19462574 0.045869719 1.5842001
-0.18621905 0.044072382 1.5878572
-0.56396896 0.056497782 1.5890001
-0.55604386 0.053288262 1.5836667
-0.54808003 0.051194288 1.5810001
-0.20327143 0.054205716 1.5810002
-0.19472094 0.054342862 1.5850002
-0.18614 0.052966669 1.5890001
-0.56356537 0.064165339 1.5890001
-0.5571143 0.065247625 1.581
-0.20305632 0.065391019 1.5810002
-0.19529824 0.06488613 1.5844289
-0.18462667 0.069613338 1.5890001
-0.56296003 0.077179998 1.5890001
-0.5571143 0.075285718 1.581
-0.20327143 0.075285718 1.5810002
-0.19526978 0.075528137 1.5860909
-0.56296003 0.084746666 1.5890001
-0.5571143 0.084320009 1.581
-0.20176572 0.084320009 1.581
-0.19650985 0.084650159 1.5872223
-0.5639689 0.096348882 1.5890001
-0.5571143 0.094860002 1.5810001
-0.20317447 0.097068578 1.5826002
-0.19751874 0.09473227 1.5872222
-0.56430995 0.10620897 1.5867144
-0.55560863 0.10540002 1.5810002
-0.20344158 0.10549144 1.5823336
-0.1975981 0.10636572 1.589
-0.56305623 0.11170477 1.585
-0.5565483 0.11462983 1.5836668
-0.20504263 0.11517262 1.5860001
-0.19824667 0.11652667 1.5890001
-0.55492783 0.12431924 1.5842001
-0.21080001 0.12648 1.581
-0.20532936 0.12473404 1.5831821
-0.19976 0.12409334 1.5890001
-0.55616647 0.13484865 1.5860909
-0.21080001 0.13250287 1.5810001
-0.20462923 0.13356604 1.5876666
-0.19794402 0.13256802 1.5890001
-0.55548263 0.14500572 1.586
-0.20732668 0.14528 1.5890001
-0.55524522 0.15370776 1.5867144
-0.54808003 0.15508857 1.5810001
-0.21303353 0.15630591 1.5842001
-0.20884001 0.15436001 1.5890001
-0.55395937 0.16517587 1.5863334
-0.54732716 0.16638143 1.5810001
-0.21254775 0.16512083 1.5844287
-0.20631352 0.16547334 1.5882
-0.19976 0.16949333 1.5890001
-0.55206406 0.17554668 1.5890001
-0.54506856 0.17466286 1.5810001
-0.21280764 0.17566667 1.5810002
-0.20523429 0.17505907 1.5845556
-0.19716571 0.17597905 1.589
-0.55160999 0.18387002 1.5890001
-0.54569477 0.18416572 1.5850002
-0.21320915 0.1849017 1.5810002
-0.20534772 0.18421525 1.5854446
-0.19673334 0.18387 1.589
-0.18765335 0.18462665 1.5890001
-0.55145872 0.19552268 1.5890001
-0.54782671 0.19522001 1.5890001
-0.53904575 0.19273144 1.5810001
-0.21549247 0.1965569 1.5853637
-0.20711049 0.19413905 1.589
-0.19824667 0.19068001 1.5890001
-0.55085337 0.20581335 1.5890001
-0.54638433 0.20555431 1.5870001
-0.21489334 0.20581335 1.589
-0.55085337 0.21186668 1.5890001
-0.5445298 0.21513554 1.5844287
-0.2148684 0.215168 1.5866001
-0.20884001 0.21792001 1.5890001
-0.55085337 0.22094667 1.5890001
-0.54606748 0.22435315 1.5874002
-0.53904575 0.22736287 1.5810001
-0.21298014 0.22418503 1.5844287
-0.54328668 0.23456667 1.5890001
-0.53904575 0.23188001 1.5810001
-0.21186668 0.23456667 1.5890001
-0.20732668 0.23759334 1.5890001
-0.53603429 0.24242002 1.5810001
-0.21257237 0.24574003 1.5830001
-0.20762935 0.24576536 1.5890001
-0.54177338 0.25575334 1.5890001
-0.53452861 0.25597143 1.5810002
-0.21485551 0.2558468 1.5855715
-0.20667812 0.2538076 1.589
-0.5430705 0.26548192 1.589
-0.53603429 0.26801714 1.5810001
-0.21486999 0.26525477 1.5870003
-0.54177338 0.27240002 1.5890001
-0.53784257 0.27496955 1.5863334
-0.21575215 0.27394503 1.5870001
-0.53645718 0.28574055 1.5858001
-0.21381144 0.28340891 1.5810002
-0.20778857 0.28608572 1.5810001
-0.53227001 0.29587287 1.5810001
-0.22284572 0.29813144 1.5810001
-0.21544254 0.29473001 1.5856668
-0.53181827 0.30475658 1.5810001
-0.22409672 0.30483261 1.582778
-0.21723016 0.30443048 1.5876669
-0.53168738 0.31427756 1.5821429
-0.23188001 0.31318858 1.5810001
-0.22515564 0.31169197 1.5821431
-0.21730542 0.31623685 1.5845556
-0.53210908 0.3253043 1.5850002
-0.52700001 0.32674003 1.5810001
-0.21651429 0.32544661 1.5836668
-0.53269333 0.33596 1.5890001
-0.52579546 0.33487087 1.5810001
-0.21676154 0.33511582 1.5850002
-0.52512926 0.34490776 1.5844287
-0.23338573 0.34405571 1.5810001
-0.22886857 0.34631431 1.5810001
-0.2166097 0.34467337 1.585
-0.52576131 0.35452953 1.5863334
-0.23188001 0.35384285 1.5810001
-0.22886857 0.35384285 1.5810001
-0.21646039 0.35443315 1.585
-0.52595514 0.36445701 1.5860909
-0.51796573 0.3658886 1.5810001
-0.23338573 0.3673943 1.5810001
-0.22558586 0.36593905 1.5821431
-0.21687831 0.36460656 1.5863333
-0.52418685 0.37473643 1.585
-0.51796573 0.37492287 1.5810001
-0.22458981 0.37489754 1.5827142
-0.21640666 0.3753067 1.5890001
-0.5246222 0.38438669 1.5890001
-0.51721293 0.38621572 1.5810001
-0.23221087 0.38515756 1.5832859
-0.2242633 0.38575092 1.5863333
-0.21792001 0.38438669 1.5890001
-0.52361333 0.39498001 1.5890001
-0.51646006 0.39449716 1.5810002
-0.23216952 0.39725861 1.5830001
-0.22455306 0.39366272 1.5853637
-0.21792001 0.39195335 1.5890001
-0.52134335 0.40481666 1.5890001
-0.5134486 0.40503716 1.5810002
-0.24151659 0.40594059 1.5810001
-0.23417543 0.40563485 1.5817275
-0.22666912 0.40412736 1.5867144
-0.52058667 0.4116267 1.5890001
-0.51388288 0.41592765 1.5823336
-0.50893146 0.41708285 1.5810001
-0.24419662 0.41604275 1.5827779
-0.2338721 0.41569671 1.5843334
-0.22607782 0.41677222 1.5855715
-0.51475143 0.42568573 1.585
-0.50893146 0.42461145 1.581
-0.24433377 0.42532936 1.5836669
-0.23547468 0.42676002 1.589
-0.22445196 0.42476121 1.5846363
-0.21887715 0.42567813 1.585
-0.51399475 0.43399 1.585
-0.50893146 0.43515146 1.5810001
-0.24392574 0.43063429 1.581
-0.23489143 0.43063429 1.581
-0.22566724 0.43477011 1.5818002
-0.2191962 0.43236446 1.5836668
-0.51377666 0.44567668 1.5890001
-0.50591999 0.44612163 1.5810002
-0.23308459 0.44629374 1.5810001
-0.22525506 0.4447732 1.5874
-0.51332271 0.45460534 1.5890001
-0.506432 0.45518288 1.5826
-0.2429219 0.45572957 1.581
-0.23340872 0.45388299 1.5855715
-0.22397335 0.45097336 1.5890001
-0.51377666 0.46459335 1.5890001
-0.50721061 0.4654808 1.5810002
-0.24486722 0.46585992 1.5853637
-0.23759334 0.46005335 1.5890001
-0.51251554 0.47518668 1.5890001
-0.50491619 0.47580573 1.581
-0.24607725 0.4754118 1.5860909
-0.23910667 0.47670001 1.5890001
-0.51150668 0.48426667 1.5890001
-0.50569433 0.48455334 1.585
-0.49989715 0.48484004 1.581
-0.24635716 0.48440996 1.587
-0.23507112 0.4832578 1.5890001
-0.51150668 0.49032003 1.5890001
-0.50645584 0.49479675 1.5867145
-0.49860659 0.49602532 1.5810002
-0.24663873 0.49469602 1.5868667
-0.50621003 0.50469667 1.5890001
-0.49809033 0.50531781 1.5810001
-0.24720192 0.50589603 1.5866001
-0.50343555 0.5125156 1.5890001
-0.4960086 0.51560575 1.5830002
-0.25296 0.51796573 1.5810001
-0.24584161 0.51355547 1.5836667
-0.23910667 0.51604664 1.5890001
-0.49703187 0.52463883 1.5855715
-0.25371283 0.52323574 1.5810001
-0.24673072 0.52439839 1.5871539
-0.51150668 0.53874671 1.5890001
-0.50519359 0.53692979 1.5870001
-0.49649587 0.53432471 1.581889
-0.2525911 0.53588229 1.5850002
-0.24793372 0.53397298 1.5874002
-0.50290859 0.54205716 1.5810001
-0.49839145 0.54356283 1.5810001
-0.25121334 0.54177338 1.5890001
-0.24717779 0.54379112 1.5890001
-0.21584 -0.13224 1.5960001
-0.20216 -0.12768 1.5960001
-0.19456001 -0.12464001 1.5960001
-0.18544 -0.12236001 1.5960001
-0.1824 -0.11856 1.5960001
