# .PCD v0.7 - Point Cloud Data file format
VERSION 0.7
FIELDS x y z
SIZE 4 4 4
TYPE F F F
COUNT 1 1 1
WIDTH 1500
HEIGHT 1
VIEWPOINT 0 0 0 1 0 0 0
POINTS 1500
DATA ascii
0.57351291 0.50623381 1.723
0.066106938 0.51432139 1.7229998
0.56776953 0.51690006 1.723
0.57214546 0.51307112 1.723
0.068920001 0.52182287 1.723
0.073842861 0.52510482 1.7229999
0.56776953 0.52182287 1.723
0.075483814 0.5316686 1.723
0.64001524 0.013196191 1.7320001
0.65321147 0.013196191 1.7320001
0.66860706 0.01759492 1.732
0.67630482 0.019794287 1.732
0.68554211 0.02705219 1.7320001
0.69280005 0.02969143 1.7320001
0.68950099 0.036289524 1.732
0.6944496 0.036289524 1.7320002
0.68840128 0.048386034 1.732
0.69389969 0.046186667 1.732
0.68752158 0.05608381 1.7320001
0.68867624 0.065156192 1.7320001
0.68867624 0.076702863 1.7320001
0.69280005 0.07422857 1.7320001
0.67960382 0.089074291 1.7320001
0.68620193 0.084950477 1.7320001
0.69280005 0.082476191 1.7320001
0.67960382 0.094022855 1.7320001
0.68290287 0.095672391 1.732
0.67877907 0.10639429 1.7320001
0.68290287 0.10556952 1.732
0.67677605 0.11546666 1.7320002
0.68290287 0.11546667 1.7320001
0.67630476 0.12583511 1.7320002
0.68400258 0.12316445 1.732
0.67630476 0.13526097 1.7320002
0.68290287 0.13856001 1.7320001
0.66640764 0.14845715 1.732
0.67583352 0.14421551 1.7320002
0.66735029 0.15458395 1.7320002
0.67300576 0.15505524 1.732
0.66706747 0.16429259 1.7320001
0.67300576 0.16330287 1.7320001
0.66442817 0.17550933 1.7320001
0.66442817 0.18408687 1.7320001
0.65815997 0.19794287 1.7320001
0.66442817 0.193984 1.7320001
0.065980956 0.20784001 1.7320001
0.075878091 0.20784001 1.732
0.085775234 0.20784001 1.732
0.10721906 0.20454095 1.7320001
0.1171162 0.20454095 1.7320001
0.13856001 0.20454095 1.7320001
0.14185905 0.20454095 1.7320001
0.17649905 0.20454095 1.7320001
0.18144763 0.20454095 1.7320001
0.65898478 0.2037162 1.7320001
0.66393334 0.20454097 1.7320001
0.039588574 0.21773715 1.7320001
0.044537142 0.21773715 1.7320001
0.052784763 0.2144381 1.7320001
0.65898478 0.21526286 1.7320001
0.66310859 0.21278858 1.7320001
0.019794287 0.22598478 1.7320001
0.026392384 0.2237854 1.7320002
0.032990478 0.2210362 1.7320001
0.65815997 0.22433525 1.7320002
0.018969525 0.23505715 1.7320001
0.023093333 0.23258287 1.7320001
0.64991242 0.23588192 1.7320001
0.65651053 0.2342324 1.7320002
0.0098971436 0.24742858 1.7320001
0.014295873 0.24193017 1.732
0.64991242 0.24412954 1.7320001
0.65651047 0.24412952 1.7320002
0.66310859 0.24412954 1.7320001
0.0082476195 0.25402665 1.7320001
0.64771301 0.25347683 1.7320002
0.65651053 0.25072762 1.732
0.0057733338 0.26474857 1.7320001
0.64859277 0.26458365 1.7320001
0.65321147 0.2622743 1.7320001
0.0057733334 0.27382097 1.7320001
0.64463395 0.27382094 1.7320001
0.0065980949 0.28371811 1.732
0.6353966 0.28305832 1.7320001
0.64001524 0.28371811 1.732
0.0076977783 0.2914159 1.732
0.63424194 0.29279047 1.7320001
0.0098971436 0.30351239 1.732
0.63473678 0.30285257 1.7320001
0.64001524 0.30351239 1.7320001
0.0098971436 0.31340954 1.732
0.013196191 0.31670859 1.7320001
0.63300478 0.31299716 1.7320002
0.0098971436 0.32495618 1.7320001
0.013196191 0.32495621 1.7320001
0.62406987 0.32660577 1.7320002
0.63094288 0.32248193 1.7320001
0.0098971436 0.33650288 1.732
0.01319619 0.33650288 1.732
0.62257749 0.33697414 1.7320002
0.016495239 0.34530035 1.732
0.62461972 0.34585014 1.7320002
0.63011813 0.34640002 1.7320001
0.026392382 0.35629717 1.7320001
0.032990478 0.35959619 1.7320001
0.62549943 0.35695696 1.7320001
0.63011813 0.35629714 1.7320001
0.039588574 0.36289525 1.7320001
0.6169219 0.36619428 1.732
0.62352008 0.36619428 1.7320002
0.056083813 0.3769162 1.7320001
0.60702479 0.37939048 1.7320001
0.61230332 0.37675124 1.7320001
0.62022096 0.37279239 1.7320001
0.055259053 0.38681331 1.7320001
0.60592508 0.38708827 1.732
0.61142355 0.38488889 1.732
0.049485717 0.39753526 1.7320001
0.05278476 0.39588571 1.732
0.60702479 0.39258668 1.7320001
0.61279815 0.39506099 1.7320001
0.047836188 0.40578291 1.7320002
0.60702479 0.40743238 1.7320001
0.61279815 0.40660763 1.7320001
0.0481661 0.41568002 1.7320001
0.60372573 0.41567999 1.7320002
0.61032385 0.41238096 1.7320001
0.049485717 0.42557716 1.732
0.05278476 0.42557716 1.732
0.59712762 0.42557716 1.7320001
0.60042667 0.42392763 1.7320001
0.049485717 0.43547431 1.732
0.052784763 0.43547431 1.7320001
0.59712762 0.43547431 1.732
0.049485717 0.44372192 1.7320001
0.052784763 0.44207239 1.7320001
0.59580803 0.44603127 1.7320001
0.05278476 0.45526859 1.732
0.5872305 0.45856765 1.7320001
0.59327883 0.45526859 1.7320002
0.60372573 0.45196953 1.7320001
0.05410438 0.46582556 1.7320001
0.5861308 0.46296635 1.732
0.59327871 0.4651657 1.7320002
0.055259053 0.47588766 1.7320001
0.5872305 0.47506288 1.7320001
0.59477121 0.47506288 1.7320002
0.60042667 0.47836193 1.7320001
0.057403434 0.48561984 1.7320001
0.59424096 0.48495999 1.7320002
0.60042667 0.48331049 1.7320001
0.058063239 0.49551696 1.7320001
0.5872305 0.49485716 1.732
0.59052956 0.49320763 1.7320001
0.057733338 0.5047543 1.7320001
0.58393145 0.50805336 1.732
0.049485717 0.51795048 1.7320001
0.057026397 0.51512277 1.7320002
0.57733333 0.51795048 1.7320001
0.58145714 0.51382667 1.7320001
0.058283176 0.52234918 1.732
0.065431118 0.52454859 1.7320002
0.57403433 0.52372384 1.7320001
0.58063239 0.52124953 1.7320001
0.65660572 0.0099485721 1.7410001
0.65992194 0.013264762 1.7410001
0.66655433 0.013264762 1.7410001
0.67650288 0.015475556 1.7410001
0.68645144 0.018791746 1.7410001
0.69474196 0.019897144 1.7410001
0.68976766 0.023213334 1.7410001
0.69687372 0.025582042 1.7410001
0.70587486 0.027477007 1.7410001
0.71298099 0.02818762 1.7410001
0.7063486 0.036478098 1.7410001
0.71430743 0.037141334 1.7409999
0.69971621 0.048084766 1.7410001
0.7063486 0.046426669 1.7410001
0.71298099 0.044768572 1.7410001
0.69734752 0.056375239 1.7410001
0.70386147 0.055546194 1.7410001
0.69805813 0.066323809 1.7410001
0.70469052 0.066323809 1.7410001
0.69888711 0.077101432 1.7410001
0.70435894 0.075609148 1.7409999
0.68976766 0.089537144 1.7410001
0.69687372 0.08716844 1.7410001
0.7063486 0.082904764 1.7410001
0.68976766 0.096169531 1.7410001
0.69639999 0.096169531 1.7410001
0.70303243 0.099485718 1.7410001
0.68976766 0.10611811 1.7410001
0.69639999 0.10611811 1.7410001
0.70303243 0.1061181 1.7410001
0.68893856 0.11606666 1.7410001
0.69639999 0.11606666 1.7410001
0.70303243 0.11938286 1.7410001
0.68728048 0.12684429 1.7410001
0.69545257 0.12554151 1.7410001
0.70303243 0.12269905 1.7410001
0.68844116 0.13530058 1.7409999
0.69308382 0.13596381 1.7410001
0.67981905 0.14922857 1.7410001
0.68739891 0.14638613 1.7410001
0.69308382 0.1442543 1.7410001
0.67981905 0.15586096 1.7410001
0.68550396 0.15538721 1.7410001
0.6698705 0.16912572 1.7410001
0.67782938 0.16713601 1.7409999
0.68603694 0.16539501 1.7410001
0.69308382 0.16249333 1.7410001
0.6698705 0.17244191 1.7410001
0.67650288 0.17575811 1.7410001
0.68396431 0.17492905 1.7410001
0.6698705 0.18902287 1.7410001
0.67608833 0.18529215 1.7410001
0.18239048 0.19565524 1.7410001
0.6698705 0.19897144 1.7410001
0.6748448 0.19565524 1.7410001
0.058033332 0.20892 1.7410001
0.066323817 0.20643286 1.7410001
0.076272383 0.20560382 1.7410001
0.08456286 0.20560382 1.7410001
0.096169531 0.20670922 1.7410001
0.10280191 0.20560382 1.7410001
0.11606666 0.20394573 1.7410001
0.12601525 0.20560382 1.7410001
0.13596381 0.20560382 1.7410001
0.6698705 0.20560381 1.7410001
0.67555541 0.20560382 1.7410001
0.027192762 0.21754213 1.7409999
0.035814859 0.21687886 1.7409999
0.046426669 0.21555239 1.7410001
0.054717146 0.2122362 1.7410001
0.6690414 0.21638145 1.7410001
0.67318672 0.2122362 1.7410001
0.01768635 0.22550096 1.7410001
0.023213334 0.22218478 1.7410001
0.66821241 0.22550096 1.7410001
0.0099485721 0.23876572 1.7410001
0.014922857 0.23544954 1.7410001
0.66821241 0.23544954 1.7410001
0.0082904771 0.2453981 1.7410001
0.66854399 0.24539812 1.7409999
0.67318672 0.2453981 1.7410001
0.0044215876 0.25534669 1.7410001
0.6582638 0.2570048 1.7410001
0.66655433 0.25534672 1.7410001
0.0033161906 0.26363713 1.7410001
0.6590929 0.26612428 1.7410001
0.66560686 0.2648215 1.7410001
0.0033161906 0.27524382 1.7410001
0.64997333 0.2769019 1.7410001
0.65702027 0.27565834 1.7410001
0.66323811 0.27524379 1.7410001
0.0033161908 0.2851924 1.7410001
0.64831525 0.2851924 1.7410001
0.65660578 0.2851924 1.7410001
0.66522777 0.2851924 1.7409999
0.0041452381 0.29596999 1.7410001
0.64545131 0.29544243 1.7409999
0.65565825 0.29561469 1.7410001
0.0058033336 0.30426049 1.7410001
0.64628869 0.30545798 1.7410001
0.65565825 0.3046158 1.7410001
0.0049742856 0.31503811 1.7410001
0.64599395 0.31536978 1.7409999
0.0058033336 0.3249867 1.7410001
0.63670862 0.32664478 1.7410001
0.64499909 0.3249867 1.7409998
0.0066323811 0.33493525 1.7410001
0.63339239 0.33493525 1.7410001
0.64334095 0.33493525 1.7410001
0.0099485721 0.34488383 1.7410001
0.013264762 0.34820002 1.7410001
0.63538212 0.34422058 1.7409999
0.64334095 0.34488386 1.7410001
0.63538206 0.35483238 1.7409999
0.64499909 0.35483238 1.7409998
0.029845715 0.36146477 1.7410001
0.036478095 0.36478096 1.7410001
0.046426669 0.36809716 1.7410001
0.63538218 0.36544418 1.7409999
0.64239353 0.36430719 1.7410001
0.049742859 0.37307143 1.7410001
0.053059049 0.37804574 1.7410001
0.62344384 0.37671927 1.7409999
0.63173431 0.37472954 1.7410001
0.049742859 0.38799429 1.7410001
0.053059053 0.38467813 1.7410001
0.61681145 0.3846781 1.7410001
0.62344384 0.38467813 1.7410001
0.63007623 0.38136193 1.7410001
0.046979368 0.39462671 1.7410001
0.61515337 0.39131048 1.7410001
0.62344384 0.39462668 1.7410001
0.043939523 0.40374622 1.7410001
0.62344384 0.40457523 1.7410001
0.043939527 0.41535288 1.7410001
0.61570603 0.41673461 1.7410001
0.62249631 0.4140501 1.7410001
0.044768576 0.42447242 1.7410001
0.6068629 0.42613047 1.7410001
0.61349523 0.42447236 1.7410001
0.62178576 0.42447236 1.7410001
0.04559762 0.43442094 1.7410001
0.60520482 0.43442097 1.7410001
0.61349523 0.434421 1.7410001
0.62095666 0.43442097 1.7410001
0.046426669 0.44105336 1.7410001
0.60520482 0.44436955 1.7410001
0.61349523 0.44436955 1.7410001
0.62012762 0.44271147 1.7410001
0.049742859 0.45100191 1.7410001
0.60409939 0.45487079 1.7410001
0.61308074 0.45390356 1.7410001
0.60354674 0.46426672 1.7410001
0.61183715 0.46426669 1.7410001
0.049742859 0.47421527 1.7410001
0.053059049 0.47587335 1.7410001
0.60520482 0.47421527 1.7410001
0.61150563 0.47355205 1.7409999
0.049742859 0.48416385 1.7410001
0.053059049 0.4858219 1.7410001
0.6068629 0.48416385 1.7410001
0.61100817 0.48499286 1.7410001
0.049742859 0.49245429 1.7410001
0.053888097 0.4941124 1.7410001
0.59691429 0.49577051 1.7410001
0.60354668 0.49411246 1.7410001
0.61017907 0.49079621 1.7410001
0.049742859 0.50737715 1.7410001
0.053888097 0.50406098 1.7410001
0.5853076 0.50571907 1.7410001
0.59401262 0.50447547 1.7410001
0.60244125 0.50295562 1.7410001
0.053059049 0.51235145 1.7410001
0.58696574 0.51732576 1.7410001
0.59401262 0.51442409 1.7410001
0.60222018 0.51533604 1.7409999
0.61017907 0.51732576 1.7410001
0.58497608 0.52528465 1.7409999
0.59359813 0.52196836 1.7409999
0.60244125 0.52285266 1.7410001
0.61017907 0.52064192 1.7410001
0.57701719 0.53059047 1.7410001
0.58199143 0.53059047 1.7410001
0.6566667 0.013333334 1.7500001
0.66555554 0.011111111 1.7500001
0.67333335 0.013333334 1.7500001
0.68599999 0.014000001 1.7500002
0.69500005 0.015000001 1.7500001
0.70393628 0.015011429 1.7515001
0.7141307 0.015360762 1.7536001
0.72202766 0.015077143 1.7590001
0.70500004 0.020000001 1.7500001
0.71333337 0.021666668 1.7500001
0.72384453 0.023775715 1.7522501
0.73368698 0.023430476 1.7575001
0.74157208 0.025686985 1.7590002
0.72375 0.032916665 1.7500001
0.73338813 0.033769287 1.7511251
0.7429682 0.032667141 1.7590001
0.72375 0.043750003 1.7500001
0.73345852 0.042923268 1.7525715
0.74237454 0.042844959 1.7572
0.71444446 0.054444447 1.7500001
0.72291672 0.052916672 1.7500001
0.73431271 0.053607624 1.7589999
0.74045527 0.050257146 1.7590001
0.71428573 0.062857144 1.7500001
0.72476101 0.063607618 1.7575001
0.73174405 0.062988952 1.7590001
0.71499997 0.07333333 1.7500001
0.72537822 0.073710479 1.7589999
0.73040384 0.073710479 1.7590001
0.70666671 0.086666673 1.7500001
0.71333337 0.083888896 1.7500001
0.7246601 0.08328326 1.7589999
0.73152065 0.081528254 1.7590002
0.70666671 0.093333334 1.7500001
0.71333337 0.093333334 1.7500001
0.72352666 0.093573332 1.7545
0.73040384 0.093813337 1.7590002
0.70666671 0.10666667 1.7500001
0.71333337 0.10333335 1.7500001
0.72352672 0.10359905 1.7545
0.73040384 0.10386477 1.7590002
0.70666671 0.115 1.7500001
0.71333337 0.115 1.7500001
0.72302288 0.11453552 1.7538573
0.73152065 0.11279938 1.7590002
0.70500004 0.12666667 1.7500001
0.71333337 0.125 1.7500001
0.72348803 0.12425371 1.7536001
0.70375001 0.13375001 1.7500001
0.71291667 0.13291667 1.7500001
0.72370291 0.13401905 1.7590001
0.70333332 0.14333333 1.7500001
0.7147181 0.14395048 1.7575001
0.72035241 0.14072001 1.7590001
0.69583338 0.15416667 1.7500001
0.70333332 0.15333332 1.7500001
0.7141096 0.1538562 1.756
0.7225861 0.15523873 1.7589999
0.69555563 0.16222222 1.7500001
0.70333332 0.16333334 1.7500001
0.71337527 0.16385287 1.7511251
0.72413117 0.1635747 1.7577143
0.73207909 0.16417333 1.7590001
0.69 0.17666668 1.7500001
0.69499999 0.17333335 1.7500001
0.70289773 0.17298695 1.7512858
0.71365148 0.17422476 1.7589999
0.72286528 0.17171191 1.7590001
0.6886667 0.184 1.7500002
0.69333339 0.18333334 1.7500001
0.70318121 0.18385741 1.7589999
0.71030098 0.18092573 1.7590001
0.1139162 0.1976781 1.7590001
0.12396763 0.1976781 1.7590002
0.17757525 0.19600287 1.7590001
0.18046287 0.19549716 1.7545002
0.68666667 0.19333336 1.7500001
0.69571048 0.19400191 1.7560002
0.025128573 0.20772953 1.7590001
0.033504765 0.20772953 1.7590002
0.043556195 0.20772953 1.7590002
0.05463016 0.2051416 1.756
0.063040815 0.20297118 1.7551429
0.073399045 0.20183812 1.7515001
0.083590485 0.20262058 1.7554001
0.092721358 0.20407541 1.7564286
0.10431887 0.20262058 1.7554001
0.11453552 0.2018694 1.7538573
0.12532143 0.20218097 1.7545002
0.13312064 0.20329495 1.7545
0.14407048 0.20437905 1.7590001
0.16542 0.2038562 1.7545002
0.17368992 0.20241144 1.7536001
0.18166667 0.20166667 1.7500001
0.68666667 0.20333335 1.7500001
0.69606137 0.20354144 1.7590001
0.70136642 0.20549588 1.7590002
0.015606984 0.21629269 1.7560002
0.022974523 0.21345884 1.7545
0.03341905 0.21220668 1.7545
0.043444764 0.21220668 1.7545
0.051111113 0.21111111 1.7500001
0.67666668 0.21666667 1.7500001
0.68545455 0.21363638 1.7500001
0.69689912 0.2144305 1.7590002
0.70024949 0.2144305 1.7590002
-0.0044673015 0.22671556 1.7590002
0.0038242177 0.22527267 1.7577143
0.012929524 0.22320168 1.7522501
0.020000001 0.22000001 1.7500001
0.67666668 0.22333334 1.7500001
0.68370366 0.2237037 1.7500001
0.69466543 0.22392352 1.7589999
-0.010051429 0.23453335 1.7590002
-0.0050257142 0.23453332 1.7589999
0.0033333334 0.2335981 1.7520001
0.011333334 0.23266669 1.7500002
0.67666668 0.23333335 1.7500001
0.68166667 0.23333335 1.7500001
0.69312978 0.23411451 1.7589999
-0.011391619 0.24525487 1.7590001
-0.00502 0.24416478 1.756
0.0029166667 0.24291667 1.7500001
0.67666668 0.24166667 1.7500001
0.68291664 0.24375001 1.7500001
0.69410706 0.24458478 1.7589999
-0.010889048 0.25379857 1.7590001
-0.0050171432 0.25398475 1.7545
0.0013333333 0.25266665 1.7500002
0.67666668 0.25333333 1.7500001
0.68291664 0.25375 1.7500001
0.692711 0.2537986 1.7590001
-0.010051429 0.26468763 1.7590002
-0.0050171427 0.26401049 1.7545
0 0.26333335 1.7500001
0.67533338 0.26333335 1.7500002
0.68238097 0.26285714 1.7500001
0.69220841 0.26535773 1.7590001
-0.010051429 0.27808952 1.7590001
-0.0050200005 0.27427045 1.756
0 0.27333334 1.7500001
0.67375004 0.27375001 1.7500001
0.68283814 0.27380189 1.7530001
0.69187337 0.27473906 1.7589999
-0.011391619 0.28546056 1.7590001
-0.0050257146 0.28479052 1.7589999
0 0.28333333 1.7500001
0.67380953 0.28238097 1.7500001
0.68400669 0.28430477 1.756
0.69019812 0.28814095 1.7590001
-0.011726667 0.29484192 1.7589999
-0.0050199996 0.29434192 1.756
0 0.29333335 1.7500001
0.66500002 0.29500002 1.7500001
0.67238098 0.29285714 1.7500001
0.68391603 0.29526073 1.7589999
-0.010051429 0.30489334 1.7590002
-0.0050171427 0.30411336 1.7545
0.00083333335 0.30416667 1.7500001
0.66583335 0.30416667 1.7500001
0.67166668 0.30333331 1.7500001
0.68349719 0.30489334 1.7589999
-0.010051429 0.31661999 1.7590001
-0.0050228573 0.31467906 1.7575001
0.00083333335 0.3125 1.7500001
0.6566667 0.315 1.7500001
0.66374999 0.31375 1.7500001
0.6733982 0.31413904 1.7545
0.68014669 0.31159431 1.7590001
-0.010051429 0.3249962 1.7590002
-0.0050228569 0.32472193 1.7575001
0.00083333335 0.32333335 1.7500001
0.6566667 0.32333335 1.7500001
0.66333336 0.32333335 1.7500001
0.67282099 0.32389051 1.7530001
-0.0046906667 0.33437756 1.7590001
0.0023809525 0.33405685 1.7512858
0.6553334 0.33400002 1.7500002
0.66286838 0.33310452 1.7512858
0.6734457 0.33448923 1.7589999
0.0046735238 0.34470972 1.7536001
0.65500003 0.34333336 1.7500001
0.6633724 0.3442162 1.7545
0.67009526 0.3417486 1.7590001
0.0067009525 0.35180002 1.7590001
0.014205239 0.3542462 1.7545002
0.021185398 0.35677841 1.756
0.65583336 0.35250002 1.7500001
0.6633696 0.35423622 1.7545
0.67009526 0.35850096 1.7590001
0.023453334 0.36185145 1.7590001
0.033333335 0.36666667 1.7500001
0.65444452 0.36444446 1.7500001
0.6633724 0.36426762 1.7545
0.67121214 0.36743554 1.7590002
0.036855239 0.37357813 1.7590001
0.042968102 0.37423217 1.7522501
0.64333338 0.375 1.7500001
0.6533367 0.37315881 1.7511251
0.6638667 0.37546015 1.7577143
0.67143548 0.37458324 1.7590001
0.036017619 0.3861424 1.7590001
0.043403815 0.38398856 1.753
0.050000001 0.38333336 1.7500001
0.63583338 0.38416669 1.7500001
0.64370286 0.38355434 1.751
0.65418053 0.38446718 1.7590001
0.66339433 0.38195431 1.7590002
0.035117146 0.39467907 1.756
0.042380955 0.39285716 1.7500001
0.63500005 0.39333335 1.7500001
0.64333338 0.39333338 1.7500001
0.65468311 0.39602628 1.7590001
0.035085712 0.40437052 1.7545
0.040000003 0.40333334 1.7500001
0.63500005 0.4033334 1.7500001
0.6459105 0.40494862 1.757
0.6533429 0.40540767 1.7590002
0.036855239 0.41545907 1.7590002
0.040000003 0.41333333 1.7500001
0.63 0.41666669 1.7500001
0.63500005 0.41333339 1.7500001
0.64568466 0.41498041 1.7589999
0.036855239 0.4255105 1.7590002
0.040000003 0.42333332 1.7500001
0.63 0.42333332 1.7500001
0.63554579 0.42369339 1.7515001
0.6441291 0.42634812 1.7590001
0.036855239 0.43556193 1.7590002
0.04133334 0.43266669 1.7500002
0.62916666 0.43333334 1.7500001
0.63500005 0.43333337 1.7500001
0.64386958 0.43482193 1.756
0.035132859 0.44337243 1.7567501
0.042410344 0.44413772 1.7512858
0.62833333 0.44333336 1.7500001
0.63663721 0.44447336 1.7545
0.64463168 0.44561338 1.7590001
0.04342667 0.45437145 1.7540001
0.050000001 0.45666668 1.7500001
0.62666672 0.45333332 1.7500001
0.63718003 0.45488766 1.756
0.64463168 0.45566478 1.7590001
0.044479188 0.46489957 1.7577143
0.050000001 0.46333337 1.7500001
0.62333328 0.46333334 1.7500001
0.63458019 0.46504611 1.7590001
0.045151431 0.47495332 1.756
0.050000001 0.47000003 1.7500001
0.62333333 0.47333336 1.7500001
0.63324004 0.47576761 1.7590002
0.044346936 0.48451975 1.7525715
0.61666667 0.48333335 1.7500001
0.62440759 0.48416191 1.753
0.63324004 0.48414382 1.7590001
0.043379053 0.49389908 1.7520001
0.61555558 0.49555555 1.7500001
0.62511998 0.49474484 1.755
0.63324004 0.49252 1.7590001
0.043728389 0.5047766 1.7527001
0.050000001 0.50333333 1.7500001
0.60666668 0.50999999 1.7500001
0.61363637 0.50515151 1.7500001
0.62511998 0.50477147 1.755
0.63491523 0.5059219 1.7590001
0.036855239 0.51429808 1.7590001
0.043516193 0.51497489 1.7575001
0.050000001 0.51500005 1.7500001
0.60666668 0.51500005 1.7500001
0.6133334 0.51500005 1.7500001
0.62318861 0.51597333 1.7590002
0.046906669 0.52267432 1.7590001
0.05179524 0.52133715 1.7545002
0.59666669 0.5266667 1.7500001
0.61666667 0.52000004 1.7500001
0.62 0.52000004 1.7500001
0.63324004 0.52267432 1.7590001
0.59400004 0.53200001 1.7500002
0.60000002 0.53000003 1.7500001
0.72572196 0.011786667 1.7680001
0.73414105 0.016838096 1.7680001
0.74424386 0.021328256 1.7680001
0.75434667 0.026940951 1.7680001
0.75434667 0.033676192 1.7679999
0.76108193 0.03704381 1.7680001
0.74761146 0.047146667 1.7680001
0.75434667 0.043779049 1.7679999
0.76108193 0.040411431 1.7680001
0.74536633 0.055004448 1.768
0.75097907 0.050514288 1.7680001
0.73750859 0.067352384 1.7680001
0.74328166 0.063503683 1.7679999
0.73666668 0.07408762 1.7680001
0.74171811 0.073245719 1.7680001
0.73638606 0.086435556 1.7680001
0.74171811 0.083348572 1.7680001
0.73750859 0.094293334 1.7680001
0.74256003 0.090925716 1.7680001
0.73750859 0.10439619 1.7680001
0.73638606 0.11562159 1.7680001
0.73498285 0.12376001 1.7680001
0.73279393 0.13537829 1.768
0.72605872 0.14548115 1.768
0.73077339 0.14312381 1.7680001
0.72740573 0.15154286 1.7680001
0.7335797 0.15491048 1.768
0.73582476 0.16501334 1.7680001
0.72488004 0.17764193 1.7680001
0.7330184 0.17399365 1.7680001
0.17848381 0.18858667 1.7680001
0.18185143 0.18858667 1.7680001
0.71460879 0.18589257 1.768
0.72067052 0.18185143 1.7680001
0.056407623 0.19616382 1.7680001
0.063142858 0.19700572 1.7680001
0.072403811 0.19868954 1.7680001
0.10608 0.19868954 1.7680001
0.11449905 0.19756699 1.7680001
0.13302097 0.19868954 1.7680001
0.1751162 0.19616382 1.7680001
0.18353525 0.1919543 1.7680001
0.70551616 0.19532192 1.768
0.71056765 0.19532192 1.7680001
0.016838096 0.20879239 1.7680001
0.023573333 0.2065473 1.7680001
0.034518097 0.20458287 1.7680001
0.044620954 0.20458287 1.7680001
0.051636826 0.20317967 1.7680001
0.08419048 0.20205715 1.7680001
0.097660959 0.20205715 1.7680001
0.10102858 0.20205715 1.7680001
0.13807239 0.20205715 1.7680001
0.14312381 0.20374095 1.7680001
0.15491048 0.20542477 1.7680001
0.16501334 0.20374095 1.7680001
0.1751162 0.20205715 1.7680001
0.70607752 0.20430224 1.7680001
0.71169019 0.20654732 1.7680001
0.0067352382 0.21889524 1.7680001
0.012628571 0.21552762 1.7680001
0.70720005 0.21552761 1.7680001
0.71140957 0.21636954 1.7680001
-0.011225398 0.22787558 1.7680001
-0.0050514285 0.22394666 1.7680001
0.0016838096 0.22226286 1.7680001
0.70551616 0.22563048 1.768
0.71191466 0.22495694 1.768
-0.013470476 0.23573335 1.7680001
0.70479459 0.23621444 1.7679999
0.71169019 0.2346108 1.7680001
-0.013470476 0.24246858 1.7680001
0.70299047 0.2449943 1.7680001
-0.013470476 0.25762287 1.7680001
0.70214862 0.25593907 1.768
-0.013470476 0.2643581 1.7680001
0.70214862 0.2660419 1.768
-0.010102858 0.27446097 1.7680001
0.70046479 0.27614477 1.7680001
-0.021328256 0.28849271 1.7680001
-0.015154285 0.28624761 1.7680001
0.69575006 0.28557411 1.768
0.70046479 0.28961524 1.7680001
-0.02104762 0.29550859 1.7680001
-0.016838096 0.29635048 1.7680001
0.69541335 0.29635048 1.768
-0.013470476 0.30308571 1.7680001
0.69507658 0.30577978 1.768
0.68531048 0.31655622 1.7680001
0.69036192 0.31318858 1.7680001
0.68531048 0.32497525 1.7680001
0.68446863 0.33255237 1.7680001
-0.0050514285 0.34181333 1.7680001
0 0.34349716 1.7680001
0.67604959 0.34433904 1.7680001
0.68160611 0.34282359 1.768
0.67520761 0.35360003 1.768
0.68025905 0.35360003 1.7680001
0.020205716 0.36370286 1.7680001
0.67604947 0.36370286 1.7680001
0.68025905 0.36370286 1.7680001
0.68110096 0.37380573 1.7680001
0.03479873 0.3839086 1.7680001
0.66342098 0.3872762 1.7680001
0.67464638 0.38503113 1.768
0.68025905 0.3822248 1.7680001
0.026940953 0.39737907 1.7680001
0.030308573 0.39569527 1.7680001
0.6638419 0.39359051 1.7679999
0.67256165 0.39353034 1.7679999
0.030308573 0.40579811 1.7680001
0.6627475 0.40344077 1.768
0.032553654 0.41421714 1.7680001
0.65556318 0.41646221 1.7680001
0.66089529 0.41505906 1.7680001
0.032834288 0.42432001 1.7680001
0.6499505 0.42600381 1.7680001
0.65500194 0.42432001 1.768
0.66005337 0.42095241 1.7680001
0.026940953 0.43779048 1.7680001
0.032834288 0.43526477 1.7680001
0.65416002 0.43358096 1.7680001
0.026940953 0.44284192 1.7680001
0.031150479 0.44368383 1.7680001
0.6499505 0.44789335 1.7680001
0.65331811 0.44452572 1.7680001
0.036201905 0.45378667 1.7680001
0.6499505 0.45799622 1.7680001
0.65331811 0.45462859 1.7680001
0.64658284 0.46641526 1.768
0.65466511 0.46405792 1.768
0.66005337 0.46136382 1.7680001
0.040411431 0.47483429 1.7680001
0.63984764 0.47483432 1.7680001
0.64658284 0.47483429 1.7679999
0.65331811 0.47146669 1.7680001
0.03704381 0.48662096 1.7680001
0.040411431 0.48493716 1.7680001
0.63984764 0.48493719 1.7680001
0.64321524 0.48493716 1.7680001
0.03704381 0.49504003 1.7680001
0.63850057 0.49504003 1.768
0.64321524 0.49672383 1.7680001
0.03704381 0.50514287 1.7680001
0.63816381 0.5034591 1.7680001
0.64489907 0.50851047 1.7680001
0.03704381 0.51187813 1.7680001
0.62974477 0.51692951 1.7680001
0.6359188 0.51636821 1.768
0.04209524 0.521981 1.7680001
0.62974477 0.52366483 1.7680001
0.63648003 0.52332807 1.768
0.72264671 0.010154286 1.7770001
0.73449343 0.012410794 1.7770001
0.74464762 0.015231429 1.7770001
0.75547892 0.021662477 1.7770001
0.76495624 0.025385715 1.7770001
0.77341807 0.027078096 1.7770001
0.76698714 0.033170667 1.7770001
0.77511048 0.033847619 1.7770002
0.78323388 0.034524571 1.7770001
0.76608449 0.04513016 1.7770001
0.77511048 0.044001907 1.7770002
0.75683278 0.054833144 1.7770001
0.76495624 0.054156192 1.7770002
0.77285391 0.051899683 1.7770001
0.75522506 0.064733572 1.7770002
0.76269966 0.062053967 1.7770001
0.74803239 0.076157153 1.7770001
0.75480199 0.074464761 1.7770002
0.74803239 0.08631143 1.7770001
0.75480193 0.084619045 1.7770002
0.76157147 0.081234291 1.7770001
0.74633998 0.096465722 1.7770001
0.75480193 0.094773345 1.7770002
0.74634004 0.10492762 1.7770001
0.75310963 0.10492762 1.7770001
0.74634004 0.11508191 1.7770001
0.75254542 0.11282539 1.7770001
0.74507076 0.12565929 1.7770002
0.74295521 0.13539048 1.7770001
0.73703194 0.14639096 1.7770001
0.74295521 0.14554477 1.7770001
0.74329364 0.1550221 1.7770001
0.74549383 0.16500714 1.7770001
0.73618579 0.17939238 1.7770001
0.74295527 0.17600763 1.7770001
0.72546738 0.18729015 1.7770001
0.7340703 0.1857388 1.7770002
0.74126291 0.18277715 1.7770001
0.047386669 0.19970097 1.7770001
0.05077143 0.19970097 1.7770001
0.064310469 0.1963162 1.7770001
0.074464768 0.19800858 1.7770001
0.084619053 0.19970097 1.7770001
0.094773345 0.19970097 1.7770001
0.10492762 0.19744445 1.7770001
0.11169714 0.1963162 1.7770001
0.1252362 0.1963162 1.7770001
0.16923811 0.19970097 1.7770001
0.17431524 0.19462381 1.7770001
0.71756953 0.1963162 1.7770001
0.72433907 0.19631618 1.7770002
0.73110861 0.1963162 1.7770001
0.013539048 0.20985524 1.7770001
0.023693334 0.20477811 1.7770001
0.032155238 0.20308572 1.7770001
0.042309526 0.20308572 1.7770001
0.14723715 0.20308572 1.7770001
0.15569906 0.20647049 1.7770001
0.16585334 0.20308572 1.7770001
0.71644133 0.20534223 1.7770001
0.72391599 0.20604739 1.7770002
0.73110861 0.20308572 1.7770001
0.0056412704 0.21549653 1.7770001
0.011846667 0.21324001 1.7770001
0.71756953 0.21493238 1.7770001
0.72366208 0.21527085 1.7770001
0.73110861 0.21662477 1.7770001
-0.013539048 0.22508667 1.7770001
-0.0056412704 0.22113778 1.7770001
0.001692381 0.22000954 1.7770001
0.72433907 0.22339429 1.7770002
0.73110861 0.22170192 1.7770001
-0.016923809 0.2318562 1.7770001
0.71756953 0.2318562 1.7770001
0.72433907 0.23354858 1.7770002
-0.016923809 0.24370284 1.7770001
0.71460789 0.24412596 1.7770002
0.72180045 0.24285668 1.7770001
-0.020308573 0.2504724 1.7770001
-0.016923809 0.25385717 1.7770001
0.71321774 0.25337365 1.7770002
-0.020308573 0.26401144 1.7770001
-0.016923809 0.26401144 1.7770001
0.71376169 0.26443452 1.7770002
-0.020308573 0.27416572 1.7770001
-0.015231428 0.27416572 1.7770001
0.70741528 0.2758581 1.7770001
0.71418482 0.27416575 1.7770002
0.72095424 0.27416572 1.7770001
-0.023129208 0.28432 1.7770001
-0.016077619 0.28347382 1.7770001
0.70606142 0.28499696 1.7770001
0.7128309 0.28296611 1.7770001
-0.026231904 0.29532051 1.7770001
0.70606142 0.29515126 1.7770001
0.7116462 0.2936281 1.7770001
-0.015795557 0.30688509 1.7770001
0.70572299 0.30462858 1.7770001
0.71080005 0.30124381 1.7770001
-0.014103174 0.31534699 1.7770001
0.69613266 0.31703937 1.7770001
0.7023381 0.3130905 1.7770001
-0.015231428 0.32493716 1.7770001
0.69484329 0.32445362 1.7770002
0.70064574 0.3283219 1.7770001
-0.012692858 0.33424523 1.7770001
0.69429934 0.33551452 1.7770002
0.70306337 0.3346079 1.7770002
-0.010154286 0.34186098 1.7770001
-0.006769524 0.34524572 1.7770001
0 0.34863049 1.7770001
0.68710667 0.34863049 1.7770001
0.69387615 0.34524572 1.7770002
0.70149189 0.34439954 1.7770001
0 0.35201526 1.7770001
0.010154286 0.35878477 1.7770001
0.68626046 0.35540003 1.7770001
0.69387615 0.35540003 1.7770002
0.70064574 0.35540003 1.7770001
0.015231429 0.36386192 1.7770001
0.025385715 0.36893907 1.7770001
0.68710667 0.3655543 1.7770001
0.69345307 0.3651312 1.7770002
0.027078096 0.37232381 1.7770001
0.031816762 0.37638554 1.7770001
0.68710667 0.37570858 1.7770001
0.69274789 0.37514445 1.7770001
0.027078098 0.38586286 1.7770001
0.03130905 0.38501668 1.7770001
0.68626046 0.38670906 1.7770001
0.69049144 0.38417047 1.7770001
0.024370287 0.39669412 1.7770001
0.030462857 0.3926324 1.7770001
0.68414503 0.39644027 1.7770002
0.024660408 0.40665498 1.7770002
0.030462857 0.40278667 1.7770001
0.66679811 0.40955621 1.7770001
0.67399073 0.40659451 1.7770002
0.68033719 0.40617144 1.7770001
0.02466041 0.41584215 1.7770002
0.030462857 0.4180181 1.7770001
0.66679811 0.41463333 1.7770001
0.67356759 0.41632569 1.7770002
0.025724191 0.42715698 1.7770001
0.030462857 0.42648 1.7770001
0.6654442 0.42715698 1.7770001
0.6715368 0.4258031 1.7770001
0.025385715 0.43494189 1.7770001
0.030462857 0.43494192 1.7770001
0.66409028 0.43528041 1.7770001
0.67131114 0.43437779 1.7770001
0.023693332 0.44340384 1.7770001
0.66341329 0.44340381 1.7770002
0.67356759 0.44298077 1.7770002
0.025724191 0.45288116 1.7770001
0.031591114 0.45581463 1.7770001
0.66341335 0.45355812 1.7770002
0.67356759 0.45186576 1.7770001
0.68033719 0.45017335 1.7770001
0.034411747 0.46371236 1.7770001
0.6645416 0.46314827 1.7770001
0.67018288 0.46371239 1.7770001
0.03554 0.4738667 1.7770001
0.040617146 0.47048193 1.7770001
0.65664381 0.47725144 1.7770001
0.66299021 0.47344357 1.7770002
0.035201523 0.48334402 1.7770001
0.64874607 0.48627749 1.7770001
0.65528995 0.48469791 1.7770001
0.66256714 0.48148242 1.7770001
0.032155238 0.49417523 1.7770001
0.64902812 0.49417526 1.7770001
0.65410531 0.49332908 1.7770001
0.033847619 0.50432962 1.7770001
0.64852035 0.50500655 1.7770001
0.65410525 0.50517571 1.7770001
0.033001427 0.51532996 1.7770001
0.64648956 0.51617616 1.7770001
0.65410525 0.5136376 1.7770001
0.66002858 0.51109904 1.7770001
0.64818192 0.52463812 1.7770001
0.65461296 0.52396119 1.7770001
0.66002858 0.52463812 1.7770001
0.74501711 0.0068038092 1.7860001
0.73821336 0.010205715 1.7860001
0.74501711 0.010205715 1.7860001
0.75522286 0.01360762 1.7860001
0.76474822 0.015648764 1.786
0.77903622 0.017009525 1.7860001
0.78754097 0.017009525 1.7860001
0.79774666 0.010205715 1.7860001
0.76712954 0.02041143 1.7860001
0.77563429 0.022112383 1.7860001
0.78584003 0.023813335 1.7860001
0.78924191 0.030617144 1.7860001
0.79264385 0.034019049 1.7860001
0.78754091 0.044224765 1.7860001
0.79264385 0.044224765 1.7860001
0.77790231 0.056698412 1.7860001
0.78470606 0.05329651 1.7860001
0.76769656 0.066904128 1.7860001
0.77563429 0.064636201 1.7860001
0.7824381 0.064636193 1.7860001
0.76712948 0.074841909 1.7860001
0.77520907 0.074841909 1.7860001
0.7824381 0.071440004 1.7860001
0.75862479 0.085047625 1.7860001
0.76746976 0.085728005 1.786
0.77223241 0.083346672 1.7860001
0.76712948 0.095253341 1.7860001
0.77223241 0.098655239 1.7860001
0.7654286 0.10545906 1.7860001
0.77223241 0.10545904 1.7860001
0.75749081 0.1179327 1.7860001
0.76542854 0.11566476 1.7860001
0.77223241 0.11226286 1.7860001
0.75692385 0.12587048 1.7860001
0.76287723 0.12502001 1.7860001
0.75522286 0.1360762 1.7860001
0.76202661 0.1360762 1.7860001
0.75522286 0.1462819 1.7860001
0.75522292 0.15648763 1.7860001
0.75522286 0.16499239 1.7860001
0.76202667 0.16329144 1.7860001
0.75352192 0.17349716 1.7860001
0.74728507 0.1859708 1.7860001
0.75352192 0.18370287 1.7860001
0.054430477 0.19731048 1.7860001
0.074841909 0.19731048 1.7860001
0.08844953 0.19731048 1.7860001
0.095253326 0.19731049 1.7860001
0.10205714 0.19731048 1.7860001
0.11906667 0.19731048 1.7860001
0.13437524 0.19731048 1.7860001
0.17349716 0.19390857 1.7860001
0.73821336 0.19560952 1.7860001
0.74501717 0.19390857 1.7860001
0.75352192 0.19390857 1.7860001
0.015875556 0.20638223 1.7860001
0.022112381 0.20411429 1.7860001
0.034019049 0.20071238 1.7860001
0.04082286 0.20071238 1.7860001
0.085047625 0.20071238 1.7860001
0.1394781 0.20071238 1.7860001
0.14628191 0.20071238 1.7860001
0.15648763 0.20411427 1.7860001
0.16499239 0.20241334 1.7860001
0.73736286 0.20496476 1.7860001
0.74501717 0.20411429 1.7860001
0.75182098 0.20071238 1.7860001
-0.011906667 0.21602096 1.7860001
-0.0051028575 0.21431999 1.7860001
0.0022679365 0.21318603 1.7860001
0.010205715 0.2109181 1.7860001
0.7352975 0.21334805 1.7860001
0.74161524 0.21432 1.7860001
-0.02041143 0.22622667 1.7860001
-0.01360762 0.22225778 1.7860001
0.73736286 0.22537619 1.7860001
0.74161524 0.22452573 1.7860001
-0.022112383 0.23473144 1.7860001
-0.017009525 0.23813334 1.7860001
0.73651242 0.23473144 1.7860001
0.74161524 0.23473144 1.7860001
-0.022112383 0.24493714 1.7860001
0.72800767 0.2466381 1.7860001
0.73481148 0.24493715 1.7860001
0.74161524 0.24493714 1.7860001
-0.02324635 0.2551429 1.7860001
0.72503102 0.25556812 1.7860001
0.73277032 0.25582325 1.786
-0.025174096 0.26534858 1.786
0.72557777 0.2648626 1.7860001
0.73277032 0.26466817 1.786
-0.025514288 0.2755543 1.7860001
0.72800761 0.2755543 1.7860001
0.73311049 0.2755543 1.7860001
-0.027215239 0.28405905 1.7860001
0.71780193 0.28746098 1.7860001
0.72460574 0.28576002 1.7860001
0.73140955 0.28235811 1.7860001
0.71780193 0.29766667 1.7860001
0.7229048 0.29426476 1.7860001
-0.024238573 0.3065967 1.7860001
0.71644127 0.30685183 1.786
0.7246058 0.30787241 1.7860001
-0.023388097 0.31680241 1.7860001
-0.017009525 0.31297526 1.7860001
0.7058953 0.31977907 1.7860001
0.71440005 0.31637719 1.7860001
0.72347182 0.31751111 1.7860001
-0.022112383 0.32658288 1.7860001
0.70623553 0.32590249 1.786
0.71439999 0.32658288 1.7860001
0.72120386 0.32318097 1.7860001
-0.021545397 0.33452067 1.7860001
-0.015308572 0.33678859 1.7860001
0.71508038 0.33542782 1.786
0.72120386 0.33678859 1.7860001
-0.015308572 0.3401905 1.7860001
0.70759624 0.34699431 1.7860001
0.71342802 0.34310642 1.7860001
-0.0034019048 0.35039622 1.7860001
0.0034019048 0.35720003 1.7860001
0.7067458 0.35464859 1.7860001
0.71184862 0.35294765 1.7860001
0.0068038097 0.36060193 1.7860001
0.011906667 0.36570477 1.7860001
0.70623553 0.36468425 1.786
0.71099812 0.36400381 1.7860001
0.017009525 0.37250859 1.7860001
0.023132954 0.37488991 1.786
0.70461953 0.37378427 1.7860001
0.71099812 0.37420952 1.7860001
0.013607619 0.38781714 1.7860001
0.022841362 0.38392925 1.7860001
0.6973905 0.38441524 1.7860001
0.70215315 0.38373488 1.786
0.015308573 0.39462093 1.7860001
0.021772191 0.39394054 1.786
0.6956895 0.39462093 1.7860001
0.70079243 0.39121905 1.7860001
0.01360762 0.40482673 1.7860001
0.02041143 0.40652764 1.7860001
0.68718481 0.40652764 1.7860001
0.6944139 0.40525189 1.7860001
0.015308573 0.41503239 1.7860001
0.02041143 0.41843429 1.7860001
0.68582404 0.41571274 1.786
0.69143718 0.41418192 1.7860001
0.015648764 0.42591849 1.786
0.021261906 0.42523813 1.7860001
0.68420815 0.42566332 1.7860001
0.69058669 0.4218362 1.7860001
0.015308573 0.43544385 1.7860001
0.02041143 0.43544379 1.7860001
0.67697906 0.43544382 1.7860001
0.68378288 0.43544379 1.7860001
0.69058669 0.43714476 1.7860001
0.015308573 0.44564953 1.7860001
0.02041143 0.44564953 1.7860001
0.67697906 0.44905144 1.7860001
0.68548387 0.44564953 1.7860001
0.69194746 0.44632992 1.786
0.017009525 0.45585525 1.7860001
0.021261906 0.45670572 1.7860001
0.67527813 0.45925716 1.7860001
0.68491679 0.4569892 1.7860001
0.69143713 0.45500478 1.7860001
0.025514288 0.466061 1.7860001
0.030617144 0.46776193 1.7860001
0.67561835 0.46606097 1.786
0.68174177 0.46538058 1.786
0.024785308 0.47626665 1.7860001
0.030617142 0.47626671 1.7860001
0.67454916 0.4767527 1.7860001
0.680381 0.47286478 1.7860001
0.017009525 0.48307049 1.7860001
0.024785308 0.48598644 1.7860001
0.030617142 0.4864724 1.7860001
0.6656394 0.48874035 1.7860001
0.67272675 0.48562193 1.7860001
0.025514286 0.49497718 1.7860001
0.65996957 0.49667811 1.7860001
0.66507244 0.49497718 1.7860001
0.67017525 0.49497718 1.7860001
0.025854478 0.50280154 1.786
0.030617144 0.50518286 1.7860001
0.65996957 0.50348192 1.7860001
0.66507244 0.50348192 1.7860001
0.67017525 0.50348192 1.7860001
0.02608127 0.51255363 1.7860001
0.030617142 0.51368767 1.7860001
0.65996957 0.51708955 1.7860001
0.6654126 0.51368767 1.786
0.67357719 0.51368767 1.786
0.68208194 0.51538861 1.7860001
0.65996957 0.52049142 1.7860001
0.6654126 0.52321291 1.786
0.67697906 0.52219236 1.7860001
0.6826489 0.52275938 1.7860001
0.75560957 0.0068380954 1.7950001
0.78980005 0.0068380954 1.7950001
0.79321909 0.0068380954 1.7950001
0.7658667 0.010257144 1.7950001
0.77544004 0.01436 1.7950001
0.78706479 0.013676191 1.7950001
0.79527044 0.012992382 1.7950001
0.80119687 0.014815873 1.7950001
0.79663819 0.023933334 1.7950001
0.80005717 0.027352381 1.7950001
0.80005717 0.034190476 1.7950001
0.80005717 0.044447619 1.7950001
0.78980005 0.058123812 1.7950001
0.79492855 0.054704763 1.7950001
0.78979999 0.06496191 1.7950001
0.78752065 0.075788893 1.7950001
0.79321909 0.078638099 1.7950001
0.77868807 0.086330958 1.7950001
0.78524131 0.084336512 1.7950001
0.77817523 0.095049523 1.7950001
0.77868813 0.10599048 1.7950001
0.78296191 0.10940953 1.7950001
0.77817523 0.11693142 1.7950001
0.78296191 0.11966667 1.7950001
0.76928574 0.1282143 1.7950001
0.77384448 0.1242254 1.7950001
0.7658667 0.14530954 1.7950001
0.76723433 0.15454096 1.7950001
0.7670064 0.16468413 1.7950001
0.77270478 0.1641143 1.7950001
0.76488984 0.17388301 1.7950001
0.76415724 0.18462859 1.7950001
0.051285718 0.19830477 1.7950001
0.06496191 0.19488572 1.7950001
0.08547619 0.19716509 1.7950001
0.099152386 0.19488572 1.7950001
0.10599049 0.19488572 1.7950001
0.11624762 0.19488572 1.7950001
0.12650476 0.19488572 1.7950001
0.14018096 0.19830477 1.7950001
0.16753334 0.19830477 1.7950001
0.17095239 0.19659525 1.7950001
0.76415724 0.19488573 1.7950001
-0.0045587304 0.20742224 1.7950001
0.0042738095 0.20770715 1.7950001
0.011396826 0.20628256 1.7950001
0.023933336 0.20172381 1.7950001
0.044447619 0.20172381 1.7950001
0.15556666 0.20172381 1.7950001
0.16240478 0.20172381 1.7950001
0.75766098 0.20582667 1.7950001
0.76415718 0.20343333 1.7950001
-0.020514287 0.21881905 1.7950001
-0.014815873 0.21540003 1.7950001
0.74877143 0.21540003 1.7950001
0.75560957 0.2154 1.7950001
-0.023933334 0.22565715 1.7950001
-0.017095238 0.22223811 1.7950001
0.74877143 0.22565715 1.7950001
0.75333023 0.22451746 1.7950001
-0.027352383 0.23591429 1.7950001
0.74877143 0.23591429 1.7950001
0.75219053 0.23762381 1.7950001
-0.027352383 0.24617143 1.7950001
0.74877143 0.24617143 1.7950001
0.75304532 0.24702621 1.7950001
-0.027352381 0.25813812 1.7950001
0.7385143 0.25300953 1.7950001
0.74535239 0.2564286 1.7950001
0.75219053 0.2564286 1.7950001
-0.027352381 0.26668572 1.7950001
0.74535245 0.2649762 1.7950001
-0.030771431 0.27523333 1.7950001
0.73851424 0.27352381 1.7950001
0.74364281 0.27181429 1.7950001
-0.030771429 0.28378096 1.7950001
0.7373746 0.28378096 1.7950001
0.74193335 0.28207144 1.7950001
-0.030771429 0.29403812 1.7950001
0.73338574 0.29403815 1.7950001
-0.030771429 0.30429524 1.7950001
0.72688961 0.30361143 1.7950001
0.73452538 0.30429527 1.7950001
-0.027352381 0.3145524 1.7950001
0.72740245 0.3145524 1.7950001
0.73607212 0.3145524 1.7950001
-0.027352381 0.32651907 1.7950001
0.72740245 0.32566431 1.7950001
0.73509532 0.3231 1.7950001
-0.026497617 0.33592144 1.7950001
0.72688961 0.33438286 1.7950001
-0.022223812 0.34190479 1.7950001
-0.011966668 0.34703335 1.7950001
0.72312862 0.34532383 1.7950001
-0.0068380954 0.35216191 1.7950001
0 0.35900003 1.7950001
0.71800005 0.35729051 1.7950001
0.72227383 0.3547262 1.7950001
0.0045587304 0.36469841 1.7950001
0.010257144 0.36925715 1.7950001
0.71800011 0.36583814 1.7950001
0.7214191 0.36241907 1.7950001
0.012699321 0.37658367 1.7950001
0.020514287 0.37951431 1.7950001
0.71800011 0.37609527 1.7950001
0.72312862 0.37951431 1.7950001
0.0068380958 0.38635239 1.7950001
0.013676191 0.38592502 1.7950001
0.70774287 0.38977143 1.7950001
0.71201664 0.38549763 1.7950001
0.0051285718 0.39490002 1.7950001
0.010257144 0.39490002 1.7950001
0.70660323 0.39546987 1.7950001
0.71116191 0.3931905 1.7950001
0.0051285713 0.40344763 1.7950001
0.010257144 0.40002859 1.7950001
0.70517856 0.40259287 1.7950001
0.0059833331 0.41285002 1.7950001
0.010257144 0.4154143 1.7950001
0.69748574 0.41712382 1.7950001
0.70204449 0.41370478 1.7950001
0.0068380958 0.42396191 1.7950001
0.011111906 0.42396191 1.7950001
0.69663095 0.42481667 1.7950001
0.70090479 0.42396191 1.7950001
0.0068380958 0.43421903 1.7950001
0.010257144 0.43421903 1.7950001
0.69611812 0.43353525 1.7950001
0.0068380958 0.44447622 1.7950001
0.010257144 0.44447622 1.7950001
0.69748574 0.44276667 1.7950001
0.70090479 0.44618574 1.7950001
0.011624763 0.45541716 1.7950001
0.69748574 0.45815238 1.7950001
0.70090479 0.45473334 1.7950001
0.013676191 0.46547893 1.7950001
0.020514287 0.46670002 1.7950001
0.6940667 0.46556035 1.7950001
0.70204449 0.46271113 1.7950001
0.015385713 0.47524765 1.7950001
0.020514287 0.4735381 1.7950001
0.68637383 0.47610238 1.7950001
0.69235718 0.4735381 1.7950001
0.013248811 0.48550478 1.7950001
0.020514287 0.48550478 1.7950001
0.67697144 0.48892382 1.7950001
0.6843794 0.48664448 1.7950001
0.69064766 0.48550478 1.7950001
0.015385713 0.49576196 1.7950001
0.020514287 0.49576196 1.7950001
0.67697144 0.49576196 1.7950001
0.68039048 0.49405241 1.7950001
0.015955554 0.50373966 1.7950001
0.021653971 0.50601906 1.7950001
0.67697144 0.50601906 1.7950001
0.68039048 0.5094381 1.7950001
0.022793652 0.51684606 1.7950001
0.67583179 0.51741594 1.7950001
0.68380952 0.51627618 1.7950001
0.69338286 0.51832759 1.7950001
0.67526197 0.52482384 1.7950001
0.68380958 0.52311432 1.7950001
0.69235718 0.52311432 1.7950001
0.76627052 0.0068723811 1.8040001
0.77543372 0.0057269842 1.8040003
0.78459686 0.0045815874 1.8040003
0.79032385 0.0051542856 1.8040001
0.64600384 0.010308572 1.8040001
0.66662097 0.010308572 1.8040001
0.67005718 0.010308572 1.8040001
0.78345144 0.011167619 1.8040001
0.79032385 0.010308572 1.8040001
0.80750477 0.017180953 1.8040001
0.81094098 0.013744762 1.8040001
0.80613029 0.023366097 1.8040001
0.80750483 0.034361906 1.8040003
0.81094098 0.036080003 1.8040001
0.80750483 0.044670478 1.8040003
0.8120864 0.046961267 1.8040003
0.80464131 0.054979052 1.804
0.81323177 0.052688256 1.8040003
0.79719621 0.06528762 1.8040003
0.80235052 0.065287627 1.804
0.79719621 0.073878095 1.8040001
0.8020069 0.075596198 1.8040001
0.79490542 0.087050162 1.804
0.80063242 0.085904755 1.8040003
0.78688765 0.096213333 1.8040003
0.79277819 0.095722452 1.804
0.80063242 0.092777148 1.8040001
0.78688765 0.10480382 1.8040001
0.79169834 0.10583468 1.8040001
0.78688765 0.11511239 1.8040001
0.79032385 0.11511239 1.8040001
0.78345144 0.12542096 1.8040001
0.7920419 0.12026667 1.8040001
0.7752046 0.13469867 1.8040001
0.78001529 0.13401143 1.8040003
0.77486092 0.14432 1.804
0.78001529 0.14432001 1.8040003
0.77572006 0.15376952 1.8040001
0.78207695 0.15600306 1.8040001
0.77657908 0.16493715 1.8040001
0.78302199 0.16450763 1.804
0.7752046 0.17593296 1.8040001
0.78173339 0.17180952 1.8040001
0.77486092 0.18555428 1.804
0.027489524 0.19929905 1.8040001
0.034361906 0.19929905 1.8040003
0.048106667 0.19929905 1.8040001
0.054979049 0.19586286 1.8040001
0.068723813 0.19586286 1.8040001
0.079032384 0.19929905 1.8040001
0.085904762 0.19586286 1.8040001
0.094495237 0.19586286 1.8040001
0.11339429 0.19586286 1.8040001
0.12198476 0.19586286 1.8040001
0.1460381 0.19929905 1.8040001
0.15462857 0.19929905 1.8040003
0.16493715 0.19815366 1.8040003
0.77486092 0.19586284 1.804
-0.011453968 0.20846224 1.8040003
-0.0068723811 0.20617144 1.8040001
0.0017180953 0.20617144 1.8040001
0.015462858 0.20273525 1.8040001
0.76798856 0.20960763 1.8040001
0.77451736 0.2054842 1.8040001
0.78001529 0.20617144 1.8040001
-0.022335239 0.21819809 1.8040001
-0.015462858 0.21304382 1.8040001
0.76798862 0.21648002 1.804
0.77314287 0.21476191 1.8040001
-0.027489524 0.22507048 1.8040001
0.75768006 0.22678858 1.8040001
0.76455241 0.22507048 1.8040001
-0.03207111 0.23595177 1.8040003
0.75853908 0.23366097 1.8040001
0.76283431 0.23366098 1.8040003
-0.03264381 0.24396954 1.804
0.75939816 0.24396951 1.8040003
0.76283431 0.24396951 1.8040003
-0.034361906 0.25427809 1.804
0.7593981 0.2559962 1.8040001
0.76420879 0.25359088 1.8040001
-0.03436191 0.26458669 1.804
0.75710732 0.26458669 1.8040003
0.76283431 0.26115048 1.8040001
-0.041234288 0.27489522 1.8040003
-0.035343673 0.27440435 1.804
0.74908954 0.27833143 1.8040001
0.75252575 0.27489522 1.8040003
-0.041234288 0.28348571 1.8040001
-0.036079999 0.28520381 1.804
0.74702781 0.2865783 1.8040001
0.75252575 0.28348571 1.8040001
-0.035736382 0.29482517 1.8040001
0.74565333 0.29551235 1.804
0.75252575 0.29551238 1.8040003
-0.034361906 0.30582094 1.8040003
0.74565333 0.30533007 1.804
-0.03264381 0.31612954 1.804
0.74565333 0.31612954 1.8040003
-0.031784762 0.32557905 1.8040001
0.73706287 0.32987431 1.8040001
0.74479431 0.32729715 1.8040001
-0.030925715 0.33502859 1.8040001
0.73706287 0.33502859 1.8040001
0.74393523 0.33331048 1.8040001
0.73362672 0.34361908 1.8040001
-0.010308572 0.35392764 1.8040001
0.72847241 0.35392761 1.8040001
0.73419935 0.35450032 1.804
0 0.36595428 1.8040001
0.72761333 0.36509526 1.8040001
0.73276764 0.36423621 1.8040001
0.0060133338 0.37540382 1.8040001
0.72675437 0.37454477 1.804
0.73190862 0.37454477 1.8040003
0.0042952383 0.38399431 1.8040001
0.71816385 0.38828954 1.8040001
0.7250362 0.38657144 1.804
0.73305398 0.38256255 1.8040003
0.0017180953 0.39344382 1.8040001
0.71730477 0.39602095 1.8040001
0.72366178 0.39378744 1.8040001
0 0.40203431 1.8040001
0.71515715 0.40589997 1.804
0.72160006 0.40203431 1.8040001
0.70785528 0.41749716 1.8040001
0.71386862 0.41320193 1.8040001
0.7064808 0.42608762 1.8040001
0.71215045 0.42608765 1.8040001
0.0034361905 0.43811429 1.8040001
0.70613718 0.43639615 1.804
0.0034361905 0.4449867 1.8040001
0.70670986 0.44441399 1.8040003
0.0057269842 0.45472255 1.8040003
0.70785528 0.45357716 1.8040003
0.0068723811 0.46044955 1.8040001
0.010308572 0.46732193 1.8040001
0.70785528 0.46732193 1.8040001
0.010308572 0.47591239 1.8040001
0.70441914 0.47419432 1.804
0.71129143 0.47075811 1.8040001
0.010308572 0.48106667 1.8040001
0.69525594 0.4839302 1.804
0.7038464 0.48507556 1.804
0.6872381 0.49652952 1.8040001
0.69454002 0.49524096 1.804
0.70212823 0.49252066 1.8040003
0.013744762 0.50855619 1.8040001
0.68551999 0.50512004 1.804
0.69411057 0.50512004 1.804
0.015806478 0.51611584 1.8040001
0.020617144 0.51199239 1.8040001
0.6872381 0.5137105 1.8040001
0.69411057 0.51371044 1.804
0.015462858 0.52230096 1.8040001
0.69623053 -0.10192952 1.8140001
0.69519395 -0.095364586 1.8140001
0.666861 -0.072560005 1.8140001
0.67377138 -0.072560005 1.8140001
0.67434734 -0.065649524 1.8140001
0.68068194 -0.063921906 1.8140001
0.65995049 -0.055283811 1.8140001
0.67377144 -0.057011433 1.8140001
0.64958477 -0.032824762 1.8140001
0.65787733 -0.033170287 1.8140001
0.66340572 -0.031097144 1.8140001
0.67377138 -0.031960953 1.8140001
0.68068194 -0.031097144 1.8140001
0.64958477 -0.020731429 1.8140001
0.65692717 -0.024186669 1.8140001
0.66513336 -0.024186669 1.8140001
0.67377144 -0.024186669 1.814
0.68068194 -0.025914285 1.8140001
0.6574825 -0.014314559 1.8140001
0.66426951 -0.014684762 1.8140001
0.67377144 -0.01727619 1.8140001
0.64612955 -0.0034552382 1.8140001
0.65764701 -0.0046069841 1.8140001
