# .PCD v0.7 - Point Cloud Data file format
VERSION 0.7
FIELDS x y z
SIZE 4 4 4
TYPE F F F
COUNT 1 1 1
WIDTH 1553
HEIGHT 1
VIEWPOINT 0 0 0 1 0 0 0
POINTS 1553
DATA ascii
0.51497996 0.094731741 1.690667
0.52255875 0.094961904 1.6900002
0.5987429 0.093352385 1.6900001
0.60265523 0.092716195 1.6980001
0.49808002 0.10349715 1.6980001
0.50454855 0.10457525 1.6980001
0.51532161 0.10521746 1.6953335
0.52148575 0.10622858 1.6900001
0.5948 0.10697601 1.6916001
0.60157716 0.10188 1.6980001
0.51787621 0.11616001 1.6939999
0.5953238 0.11616001 1.6939999
0.51787621 0.12584001 1.6939999
0.52255875 0.12661587 1.6900001
0.59552383 0.12393334 1.6900001
0.517681 0.13487524 1.696
0.52250141 0.13576429 1.6920002
0.5964635 0.13541842 1.6926666
0.51748574 0.14554286 1.6980001
0.52230346 0.14508572 1.6926668
0.5953238 0.1452 1.6939999
0.517681 0.15586762 1.696
0.52398026 0.15435325 1.6914548
0.53114289 0.1545143 1.6900001
0.59438413 0.15463366 1.6913334
0.60157716 0.15524572 1.6980001
0.517681 0.16394952 1.696
0.5246563 0.16482148 1.6936364
0.53395951 0.16457382 1.6900003
0.54337525 0.16610286 1.6900002
0.59438413 0.1643035 1.6913334
0.60157716 0.16171429 1.6980001
0.52395433 0.17465143 1.6980001
0.53414202 0.17413297 1.6958181
0.54388726 0.1743181 1.6916002
0.55206668 0.17382857 1.6900001
0.59472001 0.17351086 1.6931999
0.52435863 0.18435429 1.6980001
0.534419 0.18490066 1.6945715
0.54394752 0.18393819 1.6908891
0.55287141 0.18750954 1.6900001
0.58908576 0.18348572 1.6900001
0.59230477 0.18348573 1.6900001
0.52557147 0.19405715 1.6980001
0.53400952 0.19520952 1.6940001
0.54254532 0.19557062 1.691143
0.5962286 0.19497715 1.692
0.60157716 0.19729143 1.6980001
0.52638 0.20295143 1.6980001
0.53409314 0.20401272 1.6971111
0.54208332 0.20615837 1.691143
0.55260319 0.20816509 1.6900001
0.58908576 0.20762858 1.6900001
0.59461904 0.20626287 1.692
0.60157716 0.20052572 1.6980001
0.5271886 0.21508001 1.6980001
0.53365713 0.21508001 1.6980001
0.54287976 0.21591713 1.6940002
0.55238855 0.21632001 1.6900002
0.58779818 0.21632001 1.6900002
0.59584153 0.21455546 1.6964
0.52557147 0.22316572 1.6980001
0.53204 0.22559142 1.6980001
0.54390031 0.22595556 1.6946669
0.55206668 0.22533333 1.6900002
0.58533019 0.22533333 1.6900002
0.59295243 0.2264 1.6980001
0.5271886 0.23933715 1.6980001
0.53323299 0.23753206 1.6966667
0.54494995 0.23560658 1.6965455
0.5532738 0.23539285 1.6900003
0.56386989 0.2371365 1.6900002
0.57685339 0.23692194 1.6900002
0.5861035 0.2357346 1.6953335
0.5918743 0.23448572 1.6980001
0.53365713 0.24580571 1.6980001
0.5443359 0.24551745 1.6960001
0.55426031 0.24490836 1.6917779
0.56538606 0.24484317 1.6913337
0.57620955 0.24464764 1.6900003
0.5855248 0.24471144 1.696
0.53608286 0.25470001 1.6980001
0.5454182 0.2555086 1.6980001
0.55600768 0.25537649 1.6971111
0.56671935 0.25510857 1.6953335
0.57528979 0.25476462 1.6900003
0.58411199 0.25486171 1.6980002
0.53689146 0.26197717 1.6980001
0.54630649 0.26507431 1.6971111
0.55571812 0.26493546 1.6962223
0.56538612 0.26416764 1.6913337
0.57666939 0.26304218 1.6900003
0.58564383 0.26458669 1.6939999
0.54699862 0.27451 1.6980001
0.55637193 0.27435002 1.697
0.5649429 0.27361906 1.6900004
0.57749718 0.27361906 1.6900002
0.5861035 0.27448252 1.6953334
0.54821146 0.28138286 1.6980001
0.55722129 0.2841551 1.6980001
0.56470096 0.28449991 1.6908891
0.57749718 0.28778288 1.6900002
0.58518153 0.28372574 1.6926666
0.54335999 0.29755428 1.6980001
0.55953145 0.29431999 1.6980001
0.56637716 0.29418132 1.6972001
0.57567513 0.29497308 1.691143
0.58614779 0.2946865 1.6964
0.54335999 0.30240571 1.6980001
0.56680864 0.30321431 1.6980001
0.57570291 0.30402285 1.6980001
0.58475888 0.3020823 1.6980002
0.56728005 0.31394333 1.697
0.57610714 0.31332141 1.6980001
0.58217144 0.31372571 1.6980001
0.56671876 0.32378793 1.6980001
0.57505602 0.32439885 1.6980002
0.58217144 0.32181144 1.6980001
0.56923431 0.33313143 1.6980001
0.52642286 0.019497143 1.706
0.53617144 0.019497143 1.706
0.54592001 0.019497143 1.706
0.55566859 0.019497143 1.706
0.56460476 0.015435239 1.7060001
0.58653909 0.019497143 1.7060001
0.59547532 0.018684763 1.7060001
0.60311162 0.016897526 1.7060001
0.50692576 0.029245716 1.7060001
0.51667422 0.02437143 1.7060002
0.52642286 0.022746667 1.706
0.53617144 0.022746667 1.706
0.54592001 0.023559049 1.7060001
0.55404383 0.022746667 1.7060001
0.50692576 0.035744764 1.706
0.51179999 0.032495238 1.7060001
0.50448865 0.044680953 1.7060001
0.51017523 0.042243812 1.7060001
0.61416 0.043868572 1.7060001
0.50321203 0.056170344 1.7060002
0.51261234 0.05767905 1.7060001
0.50475943 0.064990476 1.7060002
0.51342475 0.064990476 1.7060002
0.61091048 0.068240002 1.7060001
0.50448859 0.073114291 1.7060001
0.51125842 0.072572701 1.706
0.61091048 0.071489528 1.7060001
0.60766095 0.082862861 1.7060001
0.51342475 0.10723429 1.7060001
0.60657781 0.10398477 1.706
0.50497603 0.11438324 1.7060001
0.51301855 0.11413953 1.7060002
0.60441142 0.11373333 1.706
0.50584263 0.1240235 1.7060002
0.51342481 0.12510665 1.706
0.60441142 0.12510668 1.7060001
0.50692576 0.13485524 1.7060001
0.51342469 0.13647999 1.7060002
0.60441142 0.13323048 1.7060001
0.50692576 0.14622858 1.7060001
0.51342469 0.14622857 1.7060002
0.60441142 0.14785334 1.7060001
0.51342475 0.15597714 1.7060002
0.60441142 0.15597714 1.7060001
0.51383096 0.16531953 1.7060002
0.60603619 0.16572572 1.7060001
0.51667428 0.17547429 1.7060002
0.6011619 0.17872381 1.7060001
0.51708043 0.18562905 1.7060002
0.52317333 0.18522286 1.7060001
0.6011619 0.18522286 1.706
0.51667428 0.19497144 1.7060002
0.52317333 0.19497144 1.706
0.60441142 0.19497144 1.7060001
0.51829904 0.20472001 1.7060002
0.52447313 0.2053699 1.7060001
0.60441142 0.20634477 1.7060001
0.51829904 0.21446858 1.7060002
0.5247981 0.21446858 1.7060002
0.60278666 0.21446858 1.7060001
0.51862401 0.22356725 1.7060001
0.52533966 0.22475874 1.7060002
0.53725463 0.22638349 1.706
0.59791243 0.22746667 1.7060001
0.6011619 0.22259238 1.7060001
0.51992381 0.23396571 1.706
0.52642286 0.23396574 1.7060002
0.5377962 0.23396574 1.7060002
0.59791243 0.23396571 1.706
0.51992381 0.24371429 1.706
0.52601671 0.24412051 1.7060002
0.5946629 0.24290191 1.7060001
0.51992381 0.25346288 1.706
0.52642286 0.25508764 1.706
0.53422177 0.25736231 1.7060001
0.54267049 0.25671238 1.7060001
0.59141338 0.25508764 1.7060001
0.51992381 0.26483619 1.7060001
0.52642286 0.26646098 1.7060002
0.53576523 0.26686716 1.7060002
0.54267049 0.26646096 1.706
0.5946629 0.26808572 1.7060001
0.5264228 0.27620953 1.7060002
0.53617144 0.27620953 1.7060002
0.5434829 0.27702191 1.7060001
0.55566859 0.27945906 1.7060001
0.5946629 0.27620953 1.706
0.52642292 0.28595811 1.7060002
0.5361715 0.28595811 1.7060002
0.54551381 0.28636432 1.7060002
0.55404383 0.28758287 1.7060001
0.5946629 0.28270859 1.7060001
0.52735126 0.29524246 1.7060002
0.53617144 0.29570666 1.7060002
0.54592001 0.29530051 1.7060002
0.55566859 0.29570669 1.7060002
0.56216764 0.29570669 1.7060001
0.59141338 0.29245716 1.7060001
0.52804762 0.30545524 1.7060002
0.53617144 0.30545524 1.7060002
0.54592001 0.30591944 1.7060002
0.55566859 0.30545527 1.7060002
0.56379241 0.30545524 1.7060002
0.57191622 0.30708 1.7060001
0.58653909 0.30870476 1.7060001
0.59141338 0.30708 1.7060001
0.52837259 0.31520382 1.7060001
0.53617144 0.31520382 1.7060002
0.54592001 0.31520379 1.7060002
0.55566859 0.31520379 1.7060002
0.56346744 0.31520382 1.7060001
0.58816385 0.31520382 1.706
0.59141338 0.31520382 1.706
0.52772272 0.32430249 1.7060001
0.53617144 0.32495242 1.7060002
0.54592001 0.32495242 1.7060002
0.55566853 0.32495242 1.7060002
0.56298006 0.32576478 1.7060001
0.58621413 0.32625219 1.7060001
0.59141338 0.32170287 1.7060001
0.53617144 0.3351652 1.7060002
0.54592007 0.33470094 1.7060002
0.55566859 0.33470094 1.7060002
0.56541717 0.33470094 1.7060002
0.57581568 0.33665067 1.7060001
0.58491427 0.33470094 1.7060002
0.53524297 0.34444955 1.7060002
0.54592007 0.34444958 1.7060002
0.55566859 0.34444958 1.7060002
0.56541717 0.34444958 1.7060002
0.57516575 0.34444955 1.7060002
0.58398587 0.34398532 1.7060002
0.54835713 0.35338572 1.7060001
0.55613285 0.35326964 1.7060002
0.56541717 0.3541981 1.7060002
0.57516575 0.3541981 1.7060002
0.58328956 0.3541981 1.7060002
0.5675835 0.36178032 1.706
0.57516575 0.36394671 1.7060002
0.5829646 0.36329678 1.7060001
0.56704193 0.37694478 1.7060001
0.57557195 0.37369525 1.7060002
0.58328956 0.37369525 1.7060002
0.5545854 0.38885972 1.706
0.56574214 0.3840937 1.7060001
0.57475954 0.38303769 1.7060002
0.58247721 0.38263145 1.7060001
0.57516575 0.4143143 1.7060001
0.55860001 0.016333334 1.715
0.5618667 0.016333334 1.715
0.58146667 0.016333334 1.715
0.59616673 0.016333334 1.715
0.6027 0.013066667 1.715
0.61086667 0.016333334 1.715
0.61740005 0.022866668 1.715
0.50633335 0.0392 1.715
0.50633335 0.042466667 1.715
0.61740005 0.049000002 1.715
0.61740005 0.065333337 1.715
0.61413336 0.075133339 1.715
0.61086667 0.088200003 1.715
0.61086667 0.096366674 1.715
0.61250001 0.10616668 1.715
0.61086667 0.11433333 1.715
0.50470001 0.12740001 1.715
0.61086667 0.1225 1.715
0.49980003 0.13066667 1.715
0.5050267 0.13328001 1.7149999
0.60760003 0.1372 1.715
0.49980003 0.147 1.715
0.50633335 0.14373335 1.715
0.60760003 0.14210001 1.715
0.50680006 0.15260001 1.715
0.61086667 0.15516667 1.715
0.50894672 0.16398668 1.7149999
0.51286668 0.16986667 1.715
0.60760003 0.16986667 1.715
0.61086667 0.16170001 1.715
0.50960004 0.17803334 1.715
0.51286668 0.17640001 1.715
0.60760003 0.17803334 1.715
0.50960004 0.18620001 1.715
0.51368338 0.18538333 1.715
0.60760003 0.18620001 1.715
0.51286668 0.19436668 1.715
0.60760003 0.19273335 1.715
0.61086667 0.19926667 1.715
0.51613337 0.2058 1.715
0.61086667 0.20580001 1.715
0.51613337 0.21560001 1.715
0.60760003 0.21723334 1.715
0.61086667 0.21560001 1.715
0.51695001 0.22621667 1.715
0.60651112 0.22540002 1.715
0.51776671 0.2352 1.715
0.60433334 0.2352 1.715
0.50698674 0.24696001 1.7149999
0.51654172 0.24540834 1.715
0.59780002 0.24826668 1.715
0.6027 0.245 1.715
0.50633335 0.25479999 1.715
0.51654166 0.25480002 1.715
0.59780002 0.25480002 1.715
0.60106671 0.25153333 1.715
0.50633335 0.26460001 1.715
0.51613337 0.26460001 1.715
0.52266669 0.26133335 1.715
0.59780002 0.26296669 1.715
0.60106671 0.26786667 1.715
0.50633335 0.27440003 1.715
0.51613337 0.27440003 1.715
0.52266669 0.2744 1.715
0.60106671 0.2744 1.715
0.50633335 0.28420001 1.715
0.51613337 0.28420004 1.715
0.52266669 0.28420001 1.715
0.59780002 0.28746668 1.715
0.60106671 0.28093335 1.715
0.47475556 0.29182222 1.715
0.50633335 0.29359168 1.715
0.51613337 0.29400003 1.715
0.52348334 0.2948167 1.715
0.59780002 0.294 1.715
0.60106671 0.29726669 1.715
0.50960004 0.30053335 1.715
0.51858336 0.30298334 1.715
0.52429998 0.30380002 1.715
0.59780002 0.30380002 1.715
0.60106671 0.30543333 1.715
0.5194 0.31196666 1.715
0.52499998 0.31406668 1.715
0.59780002 0.31196666 1.715
0.51735836 0.32584998 1.715
0.52429998 0.32503337 1.715
0.53246671 0.32993335 1.715
0.59453338 0.3283 1.715
0.51695001 0.33728334 1.715
0.52593338 0.33646667 1.715
0.53328335 0.33565 1.715
0.54226667 0.33646667 1.715
0.5958401 0.33712 1.7149999
0.52593333 0.34626669 1.715
0.53246671 0.34626672 1.715
0.54226667 0.34626669 1.715
0.59398896 0.34626666 1.715
0.52658665 0.35410669 1.7149999
0.5357334 0.35606664 1.715
0.54512501 0.356475 1.715
0.55696666 0.35933334 1.715
0.59290004 0.3560667 1.715
0.53619999 0.36493334 1.715
0.54553336 0.36586669 1.715
0.55533338 0.36586669 1.715
0.56472504 0.36627501 1.715
0.57166666 0.36913335 1.715
0.588 0.36913335 1.715
0.59126669 0.3626 1.715
0.52756667 0.37893334 1.715
0.53655005 0.37811667 1.715
0.54512501 0.37525836 1.715
0.55574173 0.37525836 1.715
0.56472504 0.37525836 1.715
0.57275558 0.37457779 1.715
0.59208333 0.37648335 1.715
0.52702218 0.38328889 1.715
0.53614169 0.38505834 1.715
0.54553336 0.38546669 1.715
0.55492502 0.38505834 1.715
0.5618667 0.38546669 1.715
0.58582222 0.3876445 1.715
0.59290004 0.38383335 1.715
0.53736663 0.39526668 1.715
0.5455333 0.39526665 1.715
0.55486667 0.3962 1.715
0.56513339 0.39526668 1.715
0.5753417 0.39567503 1.715
0.58473331 0.39526668 1.715
0.53791112 0.40288889 1.715
0.54594171 0.40465835 1.715
0.55533338 0.40506667 1.715
0.56513333 0.40506667 1.715
0.57493329 0.40506667 1.715
0.58380002 0.40553337 1.715
0.54716671 0.41160002 1.715
0.55533332 0.41486672 1.715
0.56513333 0.41486672 1.715
0.574 0.41440001 1.715
0.58432502 0.41527504 1.715
0.59126669 0.41650003 1.715
0.55860001 0.42303336 1.715
0.56560004 0.42373332 1.715
0.57493335 0.42466667 1.715
0.58380002 0.4242 1.715
0.59126669 0.42140001 1.715
0.56606668 0.43400002 1.715
0.57493335 0.43446672 1.715
0.58277333 0.43381339 1.7149999
0.56554168 0.44385839 1.715
0.57493341 0.44333339 1.715
0.58146667 0.44100001 1.715
0.55860001 0.45080003 1.715
0.56595004 0.45243335 1.715
0.57275558 0.45297781 1.715
0.57166666 0.46386671 1.715
0.57166666 0.47366667 1.715
0.57166666 0.48020002 1.715
0.55628288 0.016409524 1.723
0.58746099 0.016409524 1.723
0.59238386 0.016409524 1.723
0.61699814 0.01969143 1.723
0.62356192 0.029537143 1.723
0.50650734 0.037194923 1.723
0.62356192 0.032819048 1.723
0.62028003 0.059074286 1.723
0.61699814 0.07876572 1.723
0.62028003 0.072201908 1.723
0.61699814 0.085329525 1.723
0.61699814 0.093534291 1.723
0.61699814 0.10502096 1.723
0.61699814 0.11486667 1.723
0.61590415 0.12471239 1.723
0.49884954 0.14604476 1.723
0.50377238 0.14276287 1.723
0.61371619 0.14604476 1.723
0.49884954 0.15096763 1.723
0.50410056 0.1555623 1.7229999
0.61590415 0.15424953 1.723
0.50606972 0.16409524 1.7229999
0.61699814 0.16245429 1.723
0.50672609 0.17525372 1.7229999
0.51197714 0.17394096 1.723
0.61043429 0.17394096 1.723
0.50705427 0.18378669 1.7229999
0.50869524 0.19035049 1.723
0.51197714 0.19527334 1.723
0.51525909 0.2034781 1.723
0.51525909 0.21496478 1.723
0.61699814 0.21988763 1.723
0.4791581 0.22973335 1.723
0.48572192 0.22809242 1.7229999
0.50869524 0.22973335 1.723
0.51361811 0.22645146 1.7229999
0.61289567 0.22727193 1.723
0.47681388 0.23676598 1.7229998
0.48572192 0.23629713 1.7229998
0.49515742 0.23670739 1.7229998
0.50705427 0.23629715 1.7229999
0.51361811 0.23629715 1.7229999
0.61043429 0.23629715 1.723
0.47587618 0.24614286 1.7229998
0.48572192 0.24614286 1.7229998
0.49556765 0.24614286 1.7229998
0.50475693 0.24548647 1.7229999
0.51361811 0.24286096 1.723
0.6071524 0.24942477 1.723
0.61043429 0.24614286 1.723
0.46685097 0.25845 1.723
0.47587618 0.25598857 1.7229998
0.48572192 0.25598857 1.7229998
0.49556765 0.25598857 1.7229998
0.50213146 0.25598857 1.723
0.51525909 0.25598857 1.723
0.60551143 0.2559886 1.723
0.61043429 0.25270668 1.723
0.46603048 0.2658343 1.7229998
0.47587621 0.26583427 1.7229998
0.48572192 0.26583427 1.7229998
0.49556765 0.26583427 1.7229998
0.50295192 0.2658343 1.723
0.51197714 0.2658343 1.723
0.60551143 0.26419336 1.723
0.46603048 0.27567998 1.7229998
0.47587618 0.27568001 1.7229998
0.48572192 0.27568001 1.7229998
0.49556765 0.27568001 1.7229998
0.50213146 0.27568001 1.723
0.4594667 0.28880763 1.723
0.46603048 0.28552571 1.7229998
0.47587618 0.28552574 1.7229998
0.48572192 0.28552574 1.7229998
0.49462995 0.28505689 1.7229998
0.50213146 0.28552571 1.723
0.60387051 0.28716668 1.723
0.45782575 0.29537144 1.7229999
0.46603048 0.29537141 1.7229998
0.47532919 0.2964654 1.7229999
0.48572192 0.29537141 1.7229998
0.49556765 0.29537141 1.7229998
0.50377238 0.29619193 1.723
0.60387051 0.2937305 1.723
0.45837271 0.30302921 1.723
0.46603048 0.30521715 1.7229998
0.47587618 0.30521715 1.7229998
0.48572192 0.30521715 1.7229998
0.49556765 0.30521721 1.7229998
0.50541329 0.30521715 1.7229998
0.51525909 0.30615488 1.7229998
0.60387051 0.30193526 1.723
0.46603051 0.31260145 1.723
0.47587618 0.31506288 1.7229998
0.48572192 0.31506288 1.7229998
0.49556765 0.31506288 1.7229998
0.50541329 0.31506288 1.7229998
0.51525903 0.31506288 1.7229998
0.52182287 0.31834477 1.723
0.60277659 0.31506288 1.723
0.47587621 0.32490858 1.723
0.48572195 0.32490861 1.7229998
0.49359852 0.32425219 1.7229999
0.50705427 0.32490858 1.7229999
0.5141651 0.32381463 1.7229999
0.60058862 0.32490858 1.723
0.50738251 0.33409792 1.7229999
0.5141651 0.33420733 1.7229999
0.52182287 0.33475429 1.723
0.60058862 0.33311334 1.723
0.51619679 0.3441312 1.7229998
0.52182287 0.34624097 1.723
0.60058862 0.34788191 1.723
0.51854098 0.35116383 1.723
0.52264333 0.35526621 1.723
0.60058862 0.35444573 1.723
0.52707392 0.36363506 1.7229999
0.5316686 0.36429143 1.723
0.59566569 0.3659324 1.723
0.60058862 0.36100954 1.723
0.52838671 0.37577811 1.723
0.53495049 0.37413713 1.7229998
0.54151428 0.37413716 1.723
0.59402478 0.37085524 1.723
0.52379203 0.38332647 1.7229999
0.5316686 0.38726479 1.723
0.55300093 0.38070098 1.723
0.52707392 0.3931722 1.7229999
0.53330958 0.3938286 1.7229999
0.59402478 0.3938286 1.723
0.5344035 0.40367427 1.7229999
0.59074289 0.40531525 1.723
0.53823239 0.41187906 1.723
0.54424924 0.41352007 1.7229999
0.55136001 0.41680193 1.723
0.59238386 0.41352001 1.723
0.54807812 0.4217248 1.723
0.55505222 0.42541692 1.7229998
0.56448764 0.42992958 1.723
0.59183687 0.42774162 1.723
0.55792385 0.43485239 1.723
0.56251848 0.4371497 1.7229999
0.58746099 0.43977526 1.723
0.59074289 0.43321145 1.723
0.55792385 0.44633904 1.723
0.56202626 0.44715953 1.723
0.57433337 0.44962096 1.723
0.58527303 0.44743302 1.7229999
0.55628288 0.4594667 1.723
0.56448764 0.45782575 1.7229999
0.57515383 0.45700523 1.723
0.58171761 0.45536432 1.723
0.55661106 0.46537408 1.7229999
0.5644877 0.46603048 1.7229998
0.57433337 0.46603048 1.7229999
0.58089715 0.46603051 1.723
0.5640775 0.47546595 1.7229998
0.57433337 0.47587618 1.7229999
0.58089715 0.47587621 1.723
0.54643714 0.48244002 1.723
0.5546419 0.48572195 1.723
0.56407738 0.48613214 1.7229998
0.57433337 0.48613214 1.7229998
0.58089715 0.48408097 1.723
0.55628288 0.49556768 1.7229999
0.56383121 0.49622402 1.7229999
0.57392311 0.49515742 1.7229998
0.55792385 0.50213146 1.723
0.56530809 0.50295192 1.723
0.57378644 0.50486636 1.7229999
0.62681907 0.036289524 1.7320001
0.62352002 0.056083813 1.7320001
0.62352002 0.075878099 1.7320001
0.62022096 0.098971434 1.7320001
0.62352002 0.10556952 1.732
0.62352002 0.11381715 1.7320001
0.62187052 0.12866285 1.7320001
0.5064038 0.13856001 1.7320001
0.6169219 0.13526095 1.732
0.5047543 0.14185905 1.7320001
0.6169219 0.14185905 1.7320001
0.62022096 0.14845715 1.7320001
0.62022096 0.1517562 1.7320001
0.5064038 0.16495238 1.7320001
0.6169219 0.17484953 1.732
0.62022096 0.17155048 1.7320001
0.6169219 0.18474668 1.732
0.51135242 0.19464381 1.7320001
0.6169219 0.19464381 1.732
0.51465142 0.20454097 1.732
0.50805336 0.21773715 1.7320001
0.51333177 0.2150979 1.7320001
0.62022096 0.2144381 1.732
0.46516573 0.2276343 1.7320001
0.47588766 0.22680955 1.7320001
0.48430023 0.22433524 1.7320001
0.49485716 0.22488509 1.7320002
0.50805336 0.22433525 1.732
0.51217717 0.22351049 1.7320001
0.62022096 0.22433525 1.7320001
0.46681532 0.23423238 1.7320002
0.47412029 0.23376109 1.7320002
0.49650669 0.23093334 1.7320001
0.50409448 0.23357257 1.7320001
0.6169219 0.23588192 1.7320001
0.46764004 0.2449543 1.7320001
0.47176382 0.24412954 1.732
0.5047543 0.24248001 1.7320001
0.6169219 0.24412954 1.732
0.46714514 0.2546865 1.7320001
0.47176382 0.25237715 1.7320001
0.61582226 0.25402668 1.732
0.45526862 0.26486641 1.7320002
0.46186668 0.26557335 1.7320001
0.61279815 0.26309907 1.7320001
0.45581841 0.27272126 1.7320002
0.46186671 0.27382097 1.732
0.61032385 0.27217144 1.7320001
0.45691812 0.28536764 1.7320001
0.46186671 0.28371811 1.732
0.50145525 0.28701717 1.7320001
0.61032385 0.28206858 1.7320001
0.45609337 0.2927905 1.7320001
0.50145525 0.29031619 1.7320001
0.45609337 0.30433714 1.7320001
0.45746794 0.31121016 1.732
0.46269143 0.31423429 1.7320001
0.47176382 0.31670859 1.7320001
0.46546566 0.32450631 1.7320002
0.47432974 0.3258726 1.7320002
0.48166096 0.32660571 1.732
0.49815622 0.32990476 1.7320001
0.50310481 0.32660574 1.7320002
0.47506288 0.33320382 1.732
0.48495999 0.33320382 1.732
0.49485716 0.33485338 1.7320002
0.50409448 0.33584306 1.7320001
0.60702479 0.33980191 1.7320001
0.50805336 0.34475049 1.7320001
0.51267207 0.34705982 1.7320001
0.60702479 0.34310097 1.7320001
0.51795048 0.35629717 1.732
0.52124953 0.35794669 1.7320001
0.52537334 0.36701909 1.7320001
0.52652806 0.37609142 1.7320001
0.53114671 0.37279239 1.7320001
0.60042667 0.37774098 1.7320001
0.51795048 0.38598859 1.732
0.52207428 0.38681334 1.7320001
0.51795048 0.39258668 1.7320001
0.523606 0.39635703 1.7320002
0.60042667 0.39423621 1.7320001
0.51795048 0.40248382 1.7320001
0.52454859 0.4053705 1.7320002
0.53197145 0.40660763 1.7320001
0.59712762 0.40413335 1.7320001
0.51795048 0.41732955 1.7320001
0.52454859 0.41567999 1.7320002
0.5344457 0.41567999 1.7320002
0.54269338 0.41897905 1.7320001
0.59712762 0.41238096 1.7320001
0.51795048 0.42557716 1.732
0.52454859 0.42557713 1.7320002
0.53444576 0.42557716 1.7320002
0.54434282 0.42557716 1.7320002
0.55259049 0.42887619 1.7320001
0.51795048 0.43547431 1.7320001
0.52496099 0.43506193 1.7320002
0.53444576 0.43547431 1.7320002
0.54434282 0.43547431 1.7320002
0.55382764 0.43588671 1.7320002
0.59602791 0.43547431 1.732
0.52784765 0.44207239 1.7320001
0.53444576 0.44537142 1.7320002
0.54434282 0.44537142 1.7320002
0.55423999 0.44537142 1.7320002
0.5608381 0.44207239 1.7320001
0.59382862 0.44537145 1.7320001
0.53444576 0.45196953 1.7320001
0.54544258 0.45416892 1.7320002
0.55423999 0.45526859 1.7320002
0.5608381 0.45691812 1.7320001
0.5872305 0.45856765 1.7320001
0.59217906 0.45526859 1.7320001
0.55259049 0.46516573 1.7320002
0.5872305 0.46516573 1.732
0.59052956 0.46516573 1.732
0.54764193 0.47506288 1.732
0.55423999 0.47506285 1.7320002
0.5608381 0.47671241 1.7320001
0.5872305 0.47506288 1.732
0.59052956 0.47341335 1.7320001
0.54566252 0.48495999 1.7320001
0.5536902 0.48441017 1.7320002
0.5608381 0.48495999 1.732
0.57073528 0.48331049 1.7320001
0.54632235 0.49419737 1.7320001
0.55259049 0.49485716 1.7320002
0.56413716 0.49320763 1.7320001
0.57073528 0.49650669 1.7320001
0.58393145 0.49485716 1.732
0.55489981 0.5047543 1.7320001
0.56413716 0.50640386 1.7320001
0.58393145 0.50428301 1.7320002
0.59382862 0.50805336 1.732
0.56496191 0.51217717 1.7320001
0.57362199 0.51506382 1.7320002
0.58351904 0.51423907 1.7320002
0.59580803 0.51399165 1.7320001
0.58327162 0.52322894 1.7320001
0.59052956 0.52454859 1.7320001
0.59525621 0.013264762 1.7410001
0.63173431 0.02818762 1.7410001
0.63173431 0.036478095 1.7410001
0.51069337 0.043110479 1.7410001
0.63007623 0.046426669 1.7410001
0.63007623 0.056375235 1.7410001
0.63007623 0.066323809 1.7410001
0.62676001 0.079588577 1.7410001
0.63007623 0.07295619 1.7410001
0.62676001 0.08622095 1.7410001
0.62676001 0.096169531 1.7410001
0.63007623 0.099485718 1.7410001
0.63007623 0.10611811 1.7410001
0.62676001 0.11938286 1.7410001
0.63007623 0.11275048 1.7410001
0.62676001 0.12435715 1.7410001
0.62344384 0.13596381 1.7410001
0.62344384 0.1442543 1.7410001
0.50737715 0.16912572 1.7410001
0.62344384 0.16912572 1.7410001
0.50737715 0.17410001 1.7410001
0.51069337 0.17410001 1.7410001
0.62344384 0.17741621 1.7410001
0.62344384 0.18570668 1.7410001
0.51152241 0.1964843 1.7410001
0.62477028 0.19499199 1.7409999
0.51268303 0.20626704 1.7409999
0.62344384 0.20560382 1.7410001
0.48748001 0.21886858 1.7410001
0.4941124 0.21886857 1.7410001
0.50406098 0.21886857 1.7410001
0.5117988 0.21334159 1.7410001
0.46492991 0.22616419 1.7409999
0.47421527 0.22494827 1.7410001
0.48250574 0.22218478 1.7410001
0.4941124 0.22218478 1.7410001
0.50500846 0.2250272 1.7410001
0.62510192 0.22550097 1.7410001
0.45630783 0.23611276 1.7409999
0.46260858 0.23544955 1.7410001
0.50737715 0.23213334 1.7410001
0.62344384 0.23379144 1.7410001
0.45680526 0.24622715 1.7410001
0.4638522 0.24498357 1.7410001
0.62344384 0.2453981 1.7410001
0.44768572 0.2570048 1.7410001
0.4547326 0.25576121 1.7410001
0.46331921 0.25487295 1.7410001
0.62233847 0.25534669 1.7410001
0.44436955 0.26570976 1.7410001
0.45183098 0.2644662 1.7410001
0.46260858 0.26197904 1.7410001
0.62012762 0.26529524 1.7410001
0.44436955 0.27192762 1.7410001
0.45232838 0.2759071 1.7409999
0.46095049 0.27856001 1.7410001
0.61570603 0.27524385 1.7410001
0.45431811 0.2851924 1.7409999
0.46095049 0.28187621 1.7410001
0.45348907 0.29597002 1.7410001
0.45299163 0.30442628 1.7409999
0.45597622 0.31503811 1.7410001
0.46095049 0.31835431 1.7410001
0.4576343 0.32498667 1.7410001
0.46095049 0.3249867 1.7410001
0.61017907 0.3216705 1.7410001
0.46426666 0.33327717 1.7410001
0.47089908 0.33493525 1.7410001
0.48748001 0.33825144 1.7410001
0.49079621 0.33825144 1.7410001
0.49494147 0.34239668 1.7410001
0.50447547 0.34446931 1.7410001
0.61017907 0.34820002 1.7410001
0.5135358 0.35577989 1.7410001
0.51566768 0.36478093 1.7410001
0.5223 0.36643904 1.7410001
0.6068629 0.36809716 1.7410001
0.51566768 0.37472957 1.7410001
0.52301061 0.37520328 1.7410001
0.60520482 0.3739005 1.7410001
0.51566768 0.38467813 1.7410001
0.5223 0.38136193 1.7410001
0.6068629 0.38467813 1.7410001
0.51599926 0.39462668 1.7409999
0.52064192 0.39794287 1.7410001
0.6068629 0.39462665 1.7410001
0.51566768 0.40457526 1.7410001
0.52064192 0.40457526 1.7410001
0.60354668 0.40291715 1.7410001
0.51566762 0.41452384 1.7410001
0.52285272 0.41231301 1.7410001
0.60023052 0.41120765 1.7410001
0.51599932 0.42513567 1.7409999
0.51566768 0.43442103 1.7410001
0.52064192 0.43442097 1.7410001
0.51566762 0.44436955 1.7410001
0.5235436 0.44478408 1.7410001
0.53059047 0.44768572 1.7410001
0.59691429 0.44768572 1.7410001
0.60023052 0.44105336 1.7410001
0.51566768 0.45431814 1.7410001
0.52395809 0.45431811 1.7410001
0.53335398 0.4554235 1.7410001
0.54219717 0.4576343 1.7410001
0.51732576 0.46758288 1.7410001
0.52561617 0.46426669 1.7410001
0.5339067 0.46426672 1.7410001
0.54385531 0.46426672 1.7410001
0.55048764 0.4659248 1.7410001
0.59691429 0.46426669 1.7410001
0.52727431 0.47255719 1.7410001
0.5339067 0.4742153 1.7410001
0.54385525 0.4742153 1.7410001
0.55048764 0.47089908 1.7410001
0.59691429 0.47255719 1.7410001
0.53432119 0.48374927 1.7410001
0.54290777 0.48369005 1.7410001
0.59227169 0.48482704 1.7409999
0.53639382 0.49494144 1.7410001
0.54219717 0.4941124 1.7410001
0.591111 0.49328336 1.7410001
0.53722286 0.50406098 1.7410001
0.54385525 0.50406098 1.7410001
0.55159301 0.50516635 1.7410001
0.59359807 0.50453472 1.7410001
0.6018886 0.50571907 1.7410001
0.53722286 0.51400954 1.7410001
0.5434407 0.51359499 1.7410001
0.5538038 0.51400959 1.7410001
0.56292337 0.51649666 1.7410001
0.59359813 0.51566768 1.7410001
0.60354668 0.51069337 1.7410001
0.54385525 0.52490562 1.7410001
0.55380374 0.52395803 1.7410001
0.56375241 0.52395815 1.7410001
0.57322723 0.52490562 1.7410001
0.58033335 0.52561617 1.7410001
0.59359813 0.5223 1.7410001
0.56375241 0.53059047 1.7410001
0.57453001 0.53141952 1.7410001
0.58412325 0.53295922 1.7410001
0.59194005 0.53390664 1.7410001
0.54219717 0.54053909 1.7410001
0.5955556 0.0044444446 1.7500001
0.60428572 0.003809524 1.7500001
0.59666669 0.010000001 1.7500001
0.60462397 0.01134362 1.7518002
0.61320823 0.011145398 1.756
0.63994098 0.02680381 1.7590001
0.63666672 0.036666669 1.7500001
0.64329147 0.033504765 1.7590002
0.51262289 0.041880954 1.7590001
0.63666672 0.043333337 1.7500001
0.64329147 0.046906669 1.7590001
0.63884956 0.053521905 1.756
0.64000005 0.050000001 1.7500001
0.63994098 0.06365905 1.7590002
0.63747054 0.074355245 1.7545002
0.63663721 0.083547622 1.7545
0.63663721 0.093573332 1.7545
0.63994098 0.10386477 1.7590002
0.64329147 0.10051429 1.7590001
0.63729799 0.11568306 1.7554001
0.63333338 0.125 1.7500001
0.63 0.13500001 1.7500001
0.63550478 0.1337962 1.7560002
0.63 0.14333335 1.7500001
0.63659048 0.14072001 1.7590001
0.63 0.15333334 1.7500001
0.63 0.16333334 1.7500001
0.63324004 0.16417333 1.7590001
0.63 0.17500001 1.7500001
0.63324004 0.1708743 1.7590001
0.63324004 0.18427621 1.7590002
0.63324004 0.19097716 1.7590001
0.47576761 0.20772953 1.7590002
0.48246858 0.20772953 1.7590001
0.5092724 0.20772953 1.7590001
0.51297814 0.20553145 1.7545002
0.63 0.20500001 1.7500001
0.63491523 0.20437905 1.7590001
0.43891239 0.21778096 1.7590001
0.44393814 0.21610571 1.7590001
0.45650238 0.21694334 1.7590001
0.46619481 0.21538775 1.7589999
0.47495428 0.21406096 1.756
0.48499048 0.21405905 1.756
0.4950248 0.21405905 1.756
0.50555319 0.21431983 1.7554001
0.51262289 0.21275525 1.7590001
0.63 0.21333332 1.7500001
0.63659048 0.21610573 1.7590001
0.42718574 0.22615716 1.7590001
0.43604058 0.22543921 1.7589999
0.44561332 0.22448193 1.7589999
0.45462668 0.22396572 1.755
0.4632124 0.22305812 1.7511251
0.47333336 0.22083335 1.7500001
0.48333335 0.22000001 1.7500001
0.63 0.22333334 1.7500001
0.63659048 0.22448191 1.7590001
0.42718574 0.23453332 1.7589999
0.43556193 0.23453334 1.7589999
0.44510475 0.23426287 1.757
0.45320597 0.23306453 1.7511251
0.46000001 0.23 1.7500001
0.63324004 0.23453332 1.7590002
0.42752075 0.24391468 1.7590001
0.4355619 0.24458477 1.7589999
0.44383624 0.24361144 1.7520001
0.45291668 0.24375001 1.7500001
0.62666667 0.24333334 1.7500001
0.63324004 0.24458478 1.7590002
0.42662728 0.25575301 1.7589999
0.43531239 0.25448954 1.7579999
0.4435848 0.2534762 1.751
0.45166668 0.25166667 1.7500001
0.63 0.25333333 1.7500001
0.41880953 0.26636285 1.7590001
0.42526665 0.26453528 1.7579999
0.43382481 0.26363239 1.7520001
0.44277778 0.26222223 1.7500001
0.62666667 0.26333335 1.7500001
0.63324004 0.26301241 1.7590001
0.41746932 0.27540913 1.7590001
0.42429525 0.27395618 1.7540001
0.43333337 0.27333334 1.7500001
0.442 0.27466667 1.7500002
0.45000002 0.27666667 1.7500001
0.62658733 0.2742705 1.7560002
0.41587788 0.2852093 1.7589999
0.42381334 0.28365716 1.7520001
0.43333337 0.28333333 1.7500001
0.44333336 0.28333333 1.7500001
0.45133334 0.28399998 1.7500002
0.62163478 0.28453523 1.7522502
0.40792048 0.29484192 1.7590001
0.4154591 0.29484192 1.7589999
0.42357337 0.29350287 1.751
0.43333337 0.29333332 1.7500001
0.44333336 0.29333332 1.7500001
0.45133334 0.294 1.7500002
0.61878097 0.29434478 1.7560002
0.62318861 0.29149145 1.7590001
0.40875807 0.30489334 1.7590002
0.4154591 0.30489334 1.7589999
0.42478096 0.30437711 1.756
0.43357909 0.30350855 1.751
0.44333336 0.30333331 1.7500001
0.45000002 0.30333334 1.7500001
0.61772382 0.30384764 1.7530001
0.41679925 0.31360459 1.7590001
0.42551047 0.31494477 1.7589999
0.43531239 0.31476763 1.7579999
0.4435848 0.31351238 1.751
0.45166668 0.3133333 1.7500001
0.61983812 0.31494477 1.7590002
0.41880953 0.32164574 1.7590001
0.42646775 0.32451755 1.7589999
0.4355619 0.3249962 1.7589999
0.4435848 0.32352003 1.751
0.45333332 0.32333335 1.7500001
0.61658573 0.32415622 1.7545002
0.42886096 0.33337241 1.7590001
0.43556193 0.33504763 1.7589999
0.44535813 0.33485904 1.7579999
0.45384952 0.33371812 1.7520001
0.4611111 0.33555555 1.7500001
0.61333334 0.33333334 1.7500001
0.44561338 0.3417486 1.7590002
0.45566478 0.3417486 1.7590002
0.46542972 0.34238937 1.7554001
0.47557357 0.34424093 1.75675
0.48360762 0.34353143 1.751
0.49250001 0.34583336 1.7500001
0.61333334 0.34 1.7500001
0.47911811 0.35180002 1.7590001
0.48594019 0.35393605 1.7577143
0.49417529 0.35394281 1.753
0.50433332 0.354 1.7500002
0.61333334 0.35500002 1.7500001
0.48916954 0.36185145 1.7590001
0.49682781 0.36472329 1.7589999
0.5057205 0.36388436 1.7540909
0.51309657 0.36618415 1.7530001
0.61648762 0.36520192 1.7590001
0.49754572 0.37525335 1.7589999
0.5059219 0.37525335 1.7589999
0.51350504 0.37463239 1.7538573
0.52000004 0.37666669 1.7500001
0.61481237 0.37525335 1.7590001
0.48833191 0.3861424 1.7590001
0.49587053 0.38530478 1.7589999
0.50592196 0.38530475 1.7589999
0.51429814 0.38530478 1.7589999
0.61500001 0.38500002 1.7500001
0.48715925 0.39401603 1.7590001
0.49587047 0.39535618 1.7589999
0.50592196 0.39535621 1.7589999
0.51463646 0.39554343 1.7577143
0.61782777 0.39535618 1.7590001
0.48916954 0.40540764 1.7590001
0.49587053 0.40540767 1.7589999
0.5059219 0.40540764 1.7589999
0.51429808 0.40540767 1.7589999
0.61519015 0.40432268 1.7572
0.48916954 0.41545907 1.7590001
0.49587053 0.41545904 1.7589999
0.5059219 0.4154591 1.7589999
0.51429808 0.41545907 1.7589999
0.60666668 0.41333333 1.7500001
0.61313719 0.4121086 1.7590001
0.48916954 0.42383528 1.7590001
0.49628931 0.42509168 1.7589999
0.50843477 0.4246729 1.7590001
0.51463646 0.42519945 1.7577143
0.60978669 0.42216003 1.7590001
0.5092724 0.4355619 1.7590002
0.51429808 0.43556193 1.7589999
0.50759715 0.44561335 1.7589999
0.51429808 0.44561338 1.7589999
0.60763556 0.44484767 1.7560002
0.61313719 0.44226289 1.7590001
0.50759715 0.45566478 1.7589999
0.51429808 0.45566478 1.7589999
0.60591125 0.45492917 1.7536001
0.61313719 0.45566478 1.7590001
0.49922097 0.46571618 1.7590001
0.50687915 0.46523753 1.7589999
0.51489025 0.46553713 1.75675
0.52166671 0.46500003 1.7500001
0.60494667 0.46309143 1.7522501
0.49922097 0.47409239 1.7590001
0.50659204 0.47442746 1.7590001
0.5150876 0.47495618 1.756
0.52333337 0.47428575 1.7500001
0.60333335 0.47333336 1.7500001
0.5184381 0.4849962 1.756
0.52363044 0.48361143 1.751
0.53000003 0.48333335 1.7500001
0.60321808 0.4845762 1.7545
0.51932383 0.49587047 1.7590002
0.52333331 0.49333334 1.7500001
0.53291667 0.49375001 1.7500001
0.59666669 0.4966667 1.7500001
0.60160911 0.49313 1.7522501
0.51932383 0.5059219 1.7590002
0.52387953 0.50478232 1.7508183
0.53303033 0.5054546 1.7500001
0.59666669 0.5 1.7500001
0.60328722 0.5025143 1.7518002
0.61313719 0.50759715 1.7590001
0.51932383 0.51597333 1.7590002
0.52477229 0.5161739 1.7564286
0.53333336 0.51500005 1.7500001
0.51681095 0.52518719 1.7590001
0.52535474 0.52401453 1.7590001
0.53477424 0.52392596 1.7533751
0.54111117 0.52444452 1.7500001
0.55000001 0.52166671 1.7500001
0.53691381 0.53356338 1.7590001
0.54379618 0.53434604 1.7515001
0.55381048 0.53546 1.7515001
0.56457603 0.53655207 1.7518002
0.57500005 0.53666669 1.7500001
0.54500002 0.54000002 1.7500001
0.55380833 0.54244769 1.7536001
0.56623048 0.54277718 1.7590002
0.57489955 0.54152763 1.7522501
0.58380955 0.54238093 1.7500001
0.6387251 0.021328256 1.7680001
0.64489907 0.025257144 1.7680001
0.6499505 0.033676192 1.7680001
0.64826667 0.043779049 1.7680001
0.64770538 0.05388191 1.7680001
0.6465829 0.063984767 1.7680001
0.6465829 0.07408762 1.7680001
0.6465829 0.082506672 1.7680001
0.6465829 0.094293334 1.7680001
0.6465829 0.10608 1.7680001
0.6465829 0.11281524 1.7680001
0.64321524 0.12460191 1.7680001
0.64321524 0.13470477 1.7680001
0.63984764 0.14649144 1.7680001
0.64321524 0.14144 1.7680001
0.63984764 0.15154286 1.7680001
0.63984764 0.17511618 1.7680001
0.63984764 0.18521905 1.7680001
0.63984764 0.19532192 1.7680001
0.64321524 0.19532192 1.7680001
0.43273908 0.20879239 1.7680001
0.44452572 0.20710857 1.768
0.45462859 0.20879239 1.7680001
0.46473145 0.20710857 1.768
0.47399241 0.20626669 1.7680001
0.48493716 0.20654732 1.7680001
0.49419811 0.20795049 1.7680001
0.50514287 0.20710857 1.768
0.5141232 0.20430224 1.7680001
0.63984764 0.20374095 1.7680001
0.42600381 0.21889524 1.7680001
0.43442285 0.21552761 1.7679999
0.4436838 0.21300191 1.7680001
0.45350602 0.21496636 1.768
0.46473145 0.21216001 1.7680001
0.63984764 0.21216001 1.7680001
0.41421714 0.22899811 1.7680001
0.42375875 0.22563046 1.768
0.43442288 0.22226286 1.7680001
0.63984764 0.22226286 1.7680001
0.40748191 0.23404953 1.7680001
0.41421717 0.23404953 1.7680001
0.42263618 0.23573333 1.768
0.3872762 0.24752 1.7680001
0.39333791 0.24785677 1.768
0.40355301 0.24639745 1.768
0.41590095 0.24920382 1.7680001
0.42335781 0.24631728 1.7679999
0.39232764 0.25257143 1.7680001
0.40411431 0.25593907 1.7680001
0.41489068 0.25795963 1.768
0.42319748 0.2548165 1.768
0.63984764 0.25930667 1.7680001
0.41590098 0.2660419 1.768
0.42095241 0.2626743 1.7680001
0.63648003 0.26940954 1.7680001
0.41325498 0.27566364 1.7679999
0.63479626 0.27446097 1.7680001
0.39569527 0.28961524 1.7680001
0.40478784 0.28826821 1.768
0.41169146 0.28540573 1.7680001
0.62974477 0.28456384 1.7680001
0.39737907 0.29466668 1.7680001
0.40369332 0.29635048 1.7679999
0.62749964 0.29635048 1.7680001
0.40411428 0.30645335 1.7679999
0.62637717 0.30645335 1.7680001
0.40635934 0.31431112 1.7680001
0.41373608 0.31751838 1.7679999
0.40748191 0.32329145 1.7680001
0.41505906 0.32413334 1.7680001
0.42263621 0.32665905 1.7680001
0.62469339 0.32497525 1.7680001
0.42432001 0.33339429 1.7679999
0.62300956 0.33339429 1.7680001
0.43442285 0.34237459 1.7680001
0.44115812 0.34349716 1.7680001
0.45462859 0.34686479 1.7680001
0.46304762 0.34686476 1.7680001
0.62300956 0.34349716 1.7680001
0.47483432 0.35135493 1.7680001
0.48156953 0.35696763 1.7680001
0.62300956 0.35191619 1.7680001
0.48541829 0.36274073 1.7679999
0.49335623 0.3670705 1.7680001
0.6196419 0.3670705 1.7680001
0.62300956 0.36033526 1.7680001
0.48830476 0.37380573 1.7680001
0.49335623 0.37380573 1.768
0.6196419 0.37717333 1.7680001
0.4860597 0.3850311 1.768
0.49335623 0.38054097 1.7680001
0.6196419 0.3822248 1.7680001
0.48381463 0.39457273 1.768
0.62300956 0.39737907 1.7680001
0.48535812 0.40411425 1.7679999
0.4916724 0.40411431 1.7680001
0.62300956 0.40748191 1.7680001
0.48662099 0.41421714 1.768
0.4916724 0.41421717 1.7680001
0.61851937 0.41421714 1.7680001
0.48535815 0.42474094 1.7679999
0.5062654 0.42656508 1.7680001
0.61515182 0.42432001 1.7680001
0.48589936 0.43442288 1.7679999
0.49461904 0.43484381 1.7679999
0.5055638 0.43484381 1.7679999
0.61290669 0.43610668 1.7680001
0.48662099 0.44452572 1.768
0.49546099 0.44410476 1.7679999
0.50418073 0.44404462 1.7679999
0.61515182 0.44340321 1.7680001
0.48830479 0.45126095 1.7680001
0.49616253 0.45406735 1.768
0.5034591 0.45462862 1.768
0.61560076 0.45395508 1.768
0.4967238 0.46473145 1.768
0.5034591 0.46473145 1.7680001
0.61515182 0.46473145 1.7680001
0.4960022 0.47531536 1.7679999
0.50514287 0.47315049 1.7680001
0.61290669 0.47483429 1.7680001
0.4972851 0.48269209 1.7680001
0.50514287 0.48493719 1.7679999
0.51476461 0.48589936 1.7679999
0.50851047 0.49504003 1.7680001
0.51524568 0.49504006 1.7679999
0.50851047 0.5034591 1.7680001
0.51524574 0.50514293 1.7679999
0.60953909 0.50177526 1.7680001
0.61290669 0.50514287 1.7680001
0.51777142 0.51608765 1.7680001
0.5174908 0.52310354 1.7680001
0.53208381 0.52871621 1.7680001
0.53545147 0.53208381 1.7680001
0.56576008 0.54892194 1.7680001
0.57586288 0.54892194 1.7680001
0.57923049 0.55228955 1.7680001
0.58638668 0.55523622 1.7679999
0.63802767 0.016923809 1.7770001
0.64648956 0.016923809 1.7770001
0.64874607 0.021436825 1.7770001
0.6532591 0.027078096 1.7770001
0.65664381 0.033847619 1.7770001
0.65579766 0.043155715 1.7770001
0.65528995 0.054833136 1.7770001
0.65410525 0.063464284 1.7770001
0.64987433 0.074464768 1.7770001
0.6532591 0.074464768 1.7770001
0.64987433 0.088003814 1.7770001
0.6532591 0.084619053 1.7770001
0.65410525 0.093927145 1.7770001
0.6532591 0.10492762 1.7770001
0.64987433 0.11846667 1.7770001
0.64987433 0.1252362 1.7770001
0.64987433 0.13539048 1.7770001
0.64648956 0.14723715 1.7770001
0.64310479 0.15739143 1.7770001
0.64310479 0.16585334 1.7770001
0.44678858 0.19970097 1.7770001
0.51786858 0.1963162 1.7770001
0.42817241 0.20816287 1.7770001
0.43550602 0.20534223 1.7770001
0.44204992 0.20511658 1.7770001
0.45423508 0.20443964 1.7770001
0.46286622 0.20393191 1.7770001
0.47386667 0.20308572 1.7770001
0.48232859 0.20308572 1.7770001
0.49417529 0.20534223 1.7770001
0.5043295 0.20421398 1.7770001
0.5127914 0.20308572 1.7770001
0.64648956 0.20816287 1.7770001
0.41971049 0.21662477 1.7770001
0.42715698 0.21527088 1.7770001
0.46032763 0.21324001 1.7770001
0.40820232 0.22407123 1.7770001
0.41632575 0.22339429 1.7770002
0.42309526 0.22170192 1.7770001
0.38840145 0.23439477 1.7770001
0.39601713 0.23354857 1.7770002
0.40520436 0.23306505 1.7770002
0.41632572 0.23524097 1.7770001
0.38642702 0.24370287 1.7770001
0.39650068 0.24273579 1.7770002
0.40673554 0.24313873 1.7770001
0.41632572 0.24370286 1.7770002
0.38543975 0.25428027 1.7770002
0.39686334 0.2563957 1.7770001
0.40684837 0.25588802 1.7770001
0.41497183 0.25385717 1.7770001
0.64310479 0.25554955 1.7770001
0.37909335 0.26231906 1.7770001
0.38586289 0.26401144 1.7770002
0.39601716 0.26401144 1.7770002
0.40574837 0.26443452 1.7770002
0.41294098 0.26570383 1.7770001
0.64310479 0.26570383 1.7770001
0.38682991 0.27368218 1.7770002
0.39601716 0.27416572 1.7770002
0.40617144 0.27416572 1.7770002
0.41294098 0.27078095 1.7770001
0.63972002 0.27755049 1.7770001
0.64310479 0.27078095 1.7770001
0.38721675 0.28364307 1.7770001
0.39601716 0.28432003 1.7770002
0.40568787 0.28335294 1.7770002
0.63768923 0.28364307 1.7770001
0.38755524 0.2944743 1.7770001
0.39398628 0.29515126 1.7770001
0.63548905 0.29532051 1.7770001
0.39714542 0.30350032 1.7770001
0.63464284 0.30462858 1.7770001
0.39804804 0.31478286 1.7770001
0.40391493 0.31703937 1.7770001
0.62956572 0.31647524 1.7770001
0.63379669 0.31393671 1.7770001
0.39940193 0.32324478 1.7770001
0.40574837 0.32493716 1.7770002
0.41463333 0.3283219 1.7770001
0.62956572 0.32493716 1.7770001
0.63295048 0.32324478 1.7770001
0.40684843 0.33306056 1.7770001
0.41674885 0.33466837 1.7770002
0.42309526 0.33847621 1.7770001
0.62843746 0.33509144 1.7770001
0.42817241 0.34186098 1.7770001
0.44509619 0.34863049 1.7770001
0.45017335 0.34863049 1.7770001
0.6278733 0.34355336 1.7770001
0.45581463 0.35314354 1.7770001
0.46455857 0.35286146 1.7770001
0.47386667 0.35596415 1.7770001
0.48063621 0.35878477 1.7770001
0.62618095 0.35878477 1.7770001
0.46709716 0.36724669 1.7770001
0.4742898 0.36597741 1.7770002
0.48266706 0.36690819 1.7770001
0.62618095 0.3655543 1.7770001
0.46709716 0.37232381 1.7770001
0.4742898 0.37570861 1.7770002
0.48402092 0.37570861 1.7770002
0.62618095 0.37570858 1.7770001
0.47589755 0.3851859 1.7770001
0.48289275 0.38473463 1.7770001
0.62618095 0.38247812 1.7770001
0.47499493 0.39658129 1.7770001
0.48063621 0.39601716 1.7770001
0.46709716 0.40955621 1.7770001
0.4744308 0.40673557 1.7770001
0.48148242 0.40617144 1.7770001
0.46709716 0.41294098 1.7770001
0.47725144 0.41632572 1.7770001
0.48232856 0.41632572 1.7770001
0.62505269 0.41632572 1.7770001
0.47725144 0.42648003 1.7770001
0.48148239 0.42563382 1.7770001
0.61941147 0.42986476 1.7770001
0.62279624 0.42478764 1.7770001
0.47725144 0.4366343 1.7770001
0.48176447 0.43437779 1.7770001
0.61828321 0.43437779 1.7770001
0.47725144 0.44340384 1.7770001
0.48232856 0.44340381 1.7770001
0.61941147 0.44001907 1.7770001
0.62279624 0.44340384 1.7770001
0.48537487 0.45423508 1.7770001
0.49417526 0.4552505 1.7770001
0.62279624 0.45355812 1.7770001
0.48571336 0.46371236 1.7770001
0.49248287 0.46371236 1.7770001
0.62279624 0.46371239 1.7770001
0.49248281 0.4738667 1.7770001
0.61941147 0.47386667 1.7770001
0.493047 0.48514917 1.7770001
0.6160267 0.48402098 1.7770001
0.49552917 0.49282131 1.7770001
0.50384605 0.49514231 1.7770002
0.50636041 0.50365269 1.7770001
0.61264193 0.50094479 1.7770001
0.50771433 0.51109904 1.7770001
0.5140003 0.51545089 1.7770002
0.48571336 0.52802289 1.7770001
0.49079049 0.52802289 1.7770001
0.50771433 0.52463812 1.7770001
0.51351672 0.52512163 1.7770002
0.50432956 0.53140765 1.7770001
0.5127914 0.53140765 1.7770001
0.53310001 0.53479242 1.7770001
0.56694764 0.55510098 1.7770001
0.57608646 0.55510098 1.7770001
0.58217907 0.55510098 1.7770001
0.5787943 0.56187052 1.7770001
0.58387148 0.56187052 1.7770001
0.63955814 0.013607619 1.7860001
0.64636189 0.013607618 1.7860001
0.6548667 0.015308572 1.7860001
0.65826857 0.023813333 1.7860001
0.66422188 0.034869526 1.7860001
0.66337144 0.044224765 1.7860001
0.66337144 0.052729525 1.7860001
0.65996957 0.066337146 1.7860001
0.65996957 0.074841909 1.7860001
0.65996957 0.083346672 1.7860001
0.65996957 0.10716 1.7860001
0.65656763 0.11566476 1.7860001
0.65656763 0.1394781 1.7860001
0.65316576 0.14458096 1.7860001
0.64976382 0.15308572 1.7860001
0.64976382 0.17349716 1.7860001
0.64976382 0.18370287 1.7860001
0.43714476 0.19731048 1.7860001
0.44564953 0.19731049 1.7860001
0.45245335 0.19731048 1.7860001
0.52049142 0.19731048 1.7860001
0.64976382 0.19220762 1.7860001
0.41843429 0.20751619 1.7860001
0.4252381 0.20581526 1.7860001
0.43476343 0.20207314 1.786
0.44394857 0.20071238 1.7860001
0.45585525 0.20071238 1.7860001
0.46606097 0.20071238 1.7860001
0.4898743 0.20411429 1.7860001
0.49327621 0.20411429 1.7860001
0.50348186 0.20298032 1.7860001
0.51368767 0.20071238 1.7860001
0.64976382 0.20241334 1.7860001
0.65316576 0.20751619 1.7860001
0.39802286 0.21772191 1.7860001
0.40567714 0.21687144 1.7860001
0.41545761 0.21474525 1.7860001
0.42353716 0.21261905 1.7860001
0.64976382 0.21432 1.7860001
0.65316576 0.2109181 1.7860001
0.38781714 0.22622667 1.7860001
0.39510697 0.22549771 1.7860001
0.4038547 0.22403972 1.7860001
0.38441521 0.23473144 1.7860001
0.37676096 0.24578762 1.7860001
0.38237411 0.24425678 1.786
0.37420949 0.25514287 1.7860001
0.3810133 0.2551429 1.7860001
0.36655527 0.26534855 1.7860001
0.37420952 0.26534855 1.7860001
0.38101333 0.26875049 1.7860001
0.36570477 0.27215239 1.7860001
0.37518147 0.27506831 1.7860001
0.38237411 0.27623469 1.786
0.64636195 0.27725524 1.7860001
0.37591049 0.28576002 1.7860001
0.38271427 0.28576002 1.7860001
0.39121905 0.28916192 1.7860001
0.64466095 0.28576002 1.7860001
0.36740574 0.29256383 1.7860001
0.37518147 0.29547974 1.7860001
0.38271427 0.29596576 1.7860001
0.64296001 0.29596576 1.7860001
0.37420952 0.30447048 1.7860001
0.38611618 0.30617145 1.7860001
0.39348698 0.3073054 1.7860001
0.64296001 0.30787241 1.7860001
0.38441527 0.31637716 1.7860001
0.39364901 0.31637716 1.7860001
0.63955814 0.3180781 1.7860001
0.64296001 0.31467623 1.7860001
0.38490126 0.32561091 1.7860001
0.39462095 0.32658288 1.7860001
0.40142477 0.32998478 1.7860001
0.63870764 0.32743335 1.7860001
0.39632189 0.33508763 1.7860001
0.40255871 0.33565465 1.7860001
0.63445526 0.33508766 1.7860001
0.39802286 0.3401905 1.7860001
0.40550703 0.34155124 1.786
0.41503242 0.34302545 1.7860001
0.42438763 0.34529334 1.7860001
0.43374288 0.34699431 1.7860001
0.63275433 0.34699431 1.7860001
0.44632992 0.35447851 1.786
0.45358732 0.35606608 1.7860001
0.46436 0.35720003 1.7860001
0.63275433 0.35379815 1.7860001
0.44735047 0.36400387 1.7860001
0.45585522 0.36400381 1.7860001
0.46563572 0.36357862 1.7860001
0.47286478 0.3623029 1.7860001
0.63275433 0.36060193 1.7860001
0.44662151 0.37372354 1.7860001
0.45585525 0.37420952 1.7860001
0.46508899 0.37469551 1.7860001
0.47286478 0.37761143 1.7860001
0.62935239 0.37080762 1.7860001
0.63275433 0.37761143 1.7860001
0.4473505 0.38441524 1.7860001
0.45585522 0.38441527 1.7860001
0.46606097 0.38441527 1.7860001
0.47286478 0.38611621 1.7860001
0.62935239 0.38781714 1.7860001
0.43714476 0.39802286 1.7860001
0.44564953 0.39802286 1.7860001
0.45840669 0.39377049 1.7860001
0.46606097 0.39419571 1.7860001
0.47422552 0.39462095 1.786
0.63275433 0.39462093 1.7860001
0.44564953 0.40440142 1.7860001
0.45585525 0.4048267 1.7860001
0.46606097 0.4048267 1.7860001
0.4751327 0.40709463 1.7860001
0.63275433 0.40652764 1.7860001
0.44905147 0.41503239 1.7860001
0.45585525 0.41503239 1.7860001
0.46508899 0.41551843 1.7860001
0.47456571 0.41673332 1.7860001
0.63275433 0.41163048 1.7860001
0.45585525 0.4252381 1.7860001
0.46606097 0.42523807 1.7860001
0.47456574 0.4252381 1.7860001
0.62935239 0.4252381 1.7860001
0.63275433 0.4218362 1.7860001
0.44820094 0.43629432 1.7860001
0.45585525 0.43544382 1.7860001
0.46606097 0.43544379 1.7860001
0.47529474 0.43544382 1.7860001
0.62765145 0.43544385 1.7860001
0.44905147 0.44564953 1.7860001
0.45585522 0.4456495 1.7860001
0.46606097 0.44564956 1.7860001
0.47584143 0.44564953 1.7860001
0.62708449 0.44564953 1.7860001
0.44905144 0.45245335 1.7860001
0.45634124 0.45488328 1.7860001
0.46703291 0.45536926 1.7860001
0.47626671 0.45585525 1.7860001
0.48307049 0.45585525 1.7860001
0.62935239 0.45755619 1.7860001
0.45925716 0.46606097 1.7860001
0.46810213 0.46538058 1.786
0.47626671 0.46606097 1.7860001
0.48307049 0.46606097 1.7860001
0.62765145 0.46606097 1.7860001
0.46946287 0.47626671 1.7860001
0.47626671 0.47626671 1.7860001
0.4864724 0.47626671 1.7860001
0.62595052 0.47286478 1.7860001
0.46946287 0.48307049 1.7860001
0.47626671 0.48647246 1.7860001
0.48647246 0.4864724 1.7860001
0.6191467 0.4898743 1.7860001
