# .PCD v0.7 - Point Cloud Data file format
VERSION 0.7
FIELDS x y z
SIZE 4 4 4
TYPE F F F
COUNT 1 1 1
WIDTH 1521
HEIGHT 1
VIEWPOINT 0 0 0 1 0 0 0
POINTS 1521
DATA ascii
-0.49250922 0.065466993 1.5623335
-0.48731431 0.065371431 1.5600001
0.067010477 0.065518104 1.5635
-0.49498162 0.074543498 1.5654446
-0.48498762 0.074700475 1.5608752
0.06550625 0.074435353 1.5631113
-0.49519911 0.084658705 1.5670002
-0.48541 0.085003495 1.5658334
-0.47542858 0.085180961 1.5600002
-0.46948573 0.089142859 1.5600001
0.059428573 0.089142859 1.5600001
0.065571435 0.08493904 1.5646667
-0.49504408 0.094659589 1.5670002
-0.48502377 0.095512383 1.567
-0.47394288 0.095085718 1.5600001
-0.46948573 0.098057143 1.5600001
0.058240004 0.095679998 1.5600001
0.06525667 0.095087618 1.5661252
0.071634285 0.09252762 1.567
-0.49348065 0.10645651 1.567
-0.48421082 0.10501429 1.5663002
-0.47483429 0.10608001 1.5600002
-0.46948573 0.10548572 1.5600001
0.057266667 0.10486119 1.5617502
0.062680006 0.10446667 1.567
-0.48639479 0.11522701 1.5657274
-0.47542858 0.1158857 1.5600002
-0.46948573 0.11588572 1.5600001
0.057671428 0.11533286 1.5626252
0.063674927 0.1154108 1.567
-0.48353145 0.12386762 1.567
-0.47500956 0.12508 1.5635
-0.46948573 0.1248 1.5600001
0.057344217 0.12530638 1.5610001
0.064811982 0.12493362 1.5670002
-0.47555348 0.13507755 1.5660001
-0.46800002 0.13520001 1.5600002
0.054727618 0.13502288 1.5613999
0.063873909 0.13371733 1.567
-0.47567701 0.14521387 1.5650002
-0.46800002 0.14560001 1.5600001
0.05586651 0.14523603 1.5640835
-0.47756192 0.15520762 1.567
-0.46651429 0.15748572 1.5600001
0.056602325 0.15489799 1.563889
-0.47387052 0.16491017 1.5646667
-0.46478096 0.16590478 1.5600001
0.047542859 0.16937144 1.5600001
0.054658365 0.16459183 1.563
-0.47457713 0.175504 1.567
-0.46502861 0.17501715 1.5600002
0.047542859 0.17531429 1.5600001
0.055262126 0.17471194 1.5648462
-0.47338325 0.18445829 1.567
-0.46524087 0.18380408 1.5600002
0.047542859 0.18422858 1.5600001
0.053324286 0.18458048 1.5661252
-0.4715924 0.19550191 1.567
-0.46389177 0.19477637 1.5611668
-0.45630351 0.19740033 1.5623335
0.047542859 0.19017144 1.5600001
0.051735874 0.19450699 1.567
-0.46562287 0.20296381 1.567
-0.45541573 0.20348334 1.56525
-0.4472 0.2065143 1.5600001
0.047542859 0.2065143 1.5600001
0.05131714 0.20600477 1.5617501
-0.46263811 0.21788763 1.567
-0.45499811 0.2170635 1.5646667
-0.44719997 0.21542858 1.5600002
0.04486857 0.21632001 1.5600002
0.051934857 0.21430591 1.567
-0.46263811 0.22087239 1.567
-0.45492744 0.22559826 1.567
-0.44547141 0.22682811 1.5617501
0.045561906 0.22533333 1.5600001
0.052705608 0.22507112 1.5662224
-0.45395756 0.23506697 1.5650002
-0.44559285 0.2352443 1.5608752
0.046057146 0.23474288 1.5600001
0.051487144 0.23654239 1.567
-0.45392334 0.24522002 1.56525
-0.44571427 0.24514283 1.5600001
-0.4368 0.24811429 1.5600001
0.044841558 0.24554802 1.5600002
0.050740954 0.24475048 1.567
-0.45368382 0.25519714 1.567
-0.44571432 0.25554287 1.5600002
-0.4368 0.25356191 1.5600001
0.044642542 0.25592506 1.5623336
0.051337905 0.25430173 1.567
-0.45219144 0.26265904 1.567
-0.44489527 0.26485494 1.5623335
-0.43595102 0.26615515 1.5600002
0.037142858 0.2644572 1.5600001
0.044398334 0.26564381 1.5670002
-0.44489589 0.27439588 1.5658334
-0.43473479 0.27372238 1.5605835
0.038628574 0.27485716 1.5600001
0.044416953 0.27482307 1.5649002
0.050740954 0.27459809 1.567
-0.44234172 0.28534323 1.567
-0.43516541 0.28486875 1.5638183
-0.42689526 0.28624761 1.5600001
0.038628574 0.28674287 1.5600001
0.043438911 0.28532055 1.5650002
-0.44174477 0.29549143 1.567
-0.43512931 0.29505441 1.5646669
-0.42576331 0.29459593 1.5600002
0.037885718 0.29491431 1.5600001
0.043279048 0.29549143 1.567
-0.44174477 0.30444571 1.567
-0.43437007 0.30405524 1.5650002
-0.42590481 0.3050667 1.5600002
-0.41897145 0.3090286 1.5600001
0.035671588 0.30468592 1.5605835
0.044398334 0.30481881 1.5670002
-0.43479162 0.31520537 1.5656002
-0.42640004 0.31497145 1.5600001
0.029714286 0.31200001 1.5600001
0.035714921 0.31544256 1.5623336
0.043776508 0.31439492 1.5670002
-0.43464628 0.32470697 1.5660001
-0.42499325 0.32523167 1.5612729
-0.417981 0.32438096 1.5600001
0.035707809 0.32521048 1.5621002
0.043279048 0.32533905 1.567
-0.43279049 0.33130857 1.567
-0.42568231 0.33398896 1.5628
-0.41822857 0.33577144 1.5600001
0.035714921 0.33527872 1.5623336
0.042532858 0.33354715 1.567
-0.42554179 0.34537959 1.5670002
-0.41897145 0.3446857 1.5600001
0.029714286 0.34320003 1.5600001
0.036071621 0.34517145 1.5649002
0.041786667 0.34026286 1.567
-0.42333874 0.35518667 1.567
-0.41500959 0.35607621 1.5600001
0.029714286 0.35508573 1.5600001
0.035088677 0.35547346 1.563889
-0.42204532 0.36473793 1.567
-0.41260412 0.36463672 1.5600002
-0.40560001 0.36845717 1.5600001
0.029714286 0.36697143 1.5600001
0.035750479 0.36440846 1.563889
-0.42085144 0.37011048 1.567
-0.4144555 0.37352163 1.5670002
-0.40472317 0.37496001 1.5623336
-0.39817145 0.37588573 1.5600001
0.028525716 0.37499431 1.5600001
0.03453796 0.37522721 1.5670002
-0.41189715 0.38204953 1.567
-0.40490919 0.38494059 1.5642002
-0.39817145 0.38034287 1.5600001
0.028228574 0.38480005 1.5600002
0.034679525 0.38556215 1.5661252
-0.40387702 0.39536056 1.5640001
-0.39817145 0.39520001 1.5600001
0.027337145 0.39341718 1.5600001
0.036033943 0.39524192 1.5644547
0.041786667 0.3999581 1.567
-0.40585074 0.40584573 1.5652502
0.034251429 0.40502095 1.5635
-0.41189715 0.4163743 1.567
-0.40502495 0.41543961 1.5635002
0.02897143 0.41674289 1.5600001
0.033938285 0.41317296 1.5628
-0.41189715 0.42234382 1.567
-0.40562406 0.42535979 1.5643752
-0.39718094 0.42689526 1.5600001
0.026757676 0.42512766 1.560778
0.033429332 0.42443314 1.567
-0.40393779 0.43378541 1.567
-0.39618963 0.43590203 1.563889
-0.38925716 0.4368 1.5600001
0.026782859 0.43530402 1.5621002
0.03283238 0.43577525 1.567
-0.39548096 0.44472954 1.5670002
-0.38554287 0.44645718 1.5600001
0.027147621 0.44472525 1.5617502
0.03283238 0.44472954 1.567
-0.39558303 0.45525494 1.5664167
-0.38496509 0.45528889 1.5600002
0.027432807 0.45441717 1.5615557
0.03283238 0.4551762 1.567
-0.39507392 0.46562281 1.5670002
-0.38320178 0.46481371 1.5606365
0.026187241 0.46565527 1.5621002
0.03283238 0.46263811 1.567
-0.39100382 0.47308478 1.567
-0.38363075 0.47463921 1.5630001
-0.37737143 0.47691429 1.5600001
0.02572052 0.4750416 1.563182
-0.3835113 0.48535484 1.5660001
-0.37662858 0.48434287 1.5600001
0.017828573 0.4843429 1.5600001
0.025776872 0.48519769 1.5655
-0.38204953 0.49547049 1.567
-0.37473866 0.49518687 1.5614002
0.017828573 0.49474287 1.5600001
0.024902178 0.49536994 1.564
-0.38354191 0.50442475 1.567
-0.37579018 0.50431001 1.5640001
-0.36746669 0.50514287 1.5600001
0.017828573 0.50514287 1.5600001
0.025320476 0.50478381 1.5635
-0.38304445 0.51238412 1.567
-0.3724983 0.51427448 1.5670002
-0.36509112 0.51559496 1.5646667
0.017828573 0.51108575 1.5600001
0.02611663 0.51420438 1.5632308
0.03283238 0.51934856 1.567
-0.37085667 0.5245719 1.567
-0.3644906 0.52482611 1.5630001
0.017234286 0.52416003 1.5600001
0.024972748 0.52451164 1.5632308
0.03283238 0.52382571 1.567
-0.3711054 0.53427237 1.567
-0.36700231 0.53414327 1.5614001
0.016342858 0.53485715 1.5600001
0.023380635 0.53427237 1.567
-0.3741363 0.54500818 1.5660001
-0.36607999 0.54585147 1.5600002
0.017360002 0.54408288 1.5623335
0.02173279 0.54628551 1.5660001
-0.35954288 0.55268574 1.5600001
-0.34617144 0.55862862 1.5600001
0.017828573 0.55268574 1.5600001
0.023878096 0.55218095 1.567
0.055964451 -0.12392128 1.574
0.065208569 -0.11692572 1.5740001
0.077950478 -0.11092953 1.5740001
0.080948576 -0.11092953 1.5740001
0.077950478 -0.10793144 1.5740001
0.083946668 -0.10493334 1.5740001
0.086944766 -0.095939048 1.574
0.086944766 -0.085445717 1.5740001
0.088443816 -0.074952379 1.5740001
0.088743627 -0.065358475 1.5740001
0.092940956 -0.068956196 1.5740001
0.087944128 -0.056464124 1.5740002
0.092940956 -0.059961908 1.5740001
0.086944766 -0.044971425 1.574
0.083946668 -0.037476189 1.5740001
0.077950478 -0.020986667 1.5740001
0.080948576 -0.023984762 1.574
0.077950478 -0.017988572 1.5740001
0.080948576 -0.014990476 1.574
0.080948576 -0.0059961905 1.574
0.080948576 0.004497143 1.5740001
0.077950478 0.016489524 1.5740001
0.077350862 0.02638324 1.5740001
0.081698097 0.023984762 1.5740001
-0.46470478 0.035977144 1.5740001
0.076451436 0.035977144 1.5740002
0.080948576 0.032979049 1.5740001
-0.49468574 0.047969524 1.574
-0.48519179 0.045471113 1.5740002
-0.47729677 0.044371806 1.5740001
0.074952386 0.044971425 1.574
-0.50239509 0.05696382 1.5740002
-0.49648458 0.054565333 1.5740001
0.074952386 0.053965718 1.574
-0.50477022 0.06595809 1.5740002
0.072703809 0.065208569 1.5740001
-0.50582153 0.074524082 1.5740002
0.072703809 0.075701907 1.5740001
-0.50467938 0.085945405 1.5740002
-0.49168763 0.089942858 1.5740001
0.073239185 0.086088173 1.5740002
-0.50417966 0.095939048 1.5740002
-0.49768382 0.098937146 1.5740001
0.068956196 0.098937146 1.5740001
0.073453337 0.095939048 1.5740001
-0.50218093 0.10493334 1.5740002
-0.49468571 0.10313448 1.5740001
0.067457139 0.10493334 1.5740002
0.071954288 0.10343429 1.5740001
-0.50068194 0.11542667 1.5740001
-0.49618474 0.11542669 1.5740002
0.067956828 0.11492699 1.5740002
0.071954288 0.11692572 1.574
-0.50068194 0.12442096 1.5740001
-0.49506047 0.12629476 1.5740002
-0.48719051 0.12741905 1.5740001
0.068956196 0.12741905 1.5740001
0.071954288 0.12442096 1.5740001
-0.49168763 0.13491429 1.574
-0.48569149 0.13491428 1.5740002
0.067956828 0.13491429 1.574
-0.49168763 0.14390858 1.5740001
-0.48569146 0.14540762 1.5740002
0.063559622 0.14570744 1.5740001
-0.48569143 0.15590096 1.5740002
-0.47584057 0.15590096 1.5740002
0.062959999 0.15590096 1.574
-0.49168763 0.16789334 1.5740001
-0.48569149 0.16489524 1.5740002
-0.47769651 0.16489525 1.574
0.062959999 0.16489525 1.574
-0.49168763 0.17388952 1.574
-0.48541889 0.17497975 1.5740002
-0.47969523 0.17588826 1.574
0.059961908 0.17988572 1.5740001
0.062959999 0.17388953 1.5740001
-0.48269334 0.18738097 1.5740001
-0.47969523 0.18588191 1.574
0.059212387 0.18663144 1.5740001
-0.48269334 0.19487619 1.574
-0.47819623 0.19487619 1.5740002
0.056214288 0.19562572 1.5740001
-0.48269334 0.20087239 1.5740001
-0.47569776 0.20586921 1.5740002
-0.46470475 0.20836763 1.5740002
-0.45770922 0.20886731 1.574
0.055464763 0.20536953 1.5740002
-0.47284248 0.21543457 1.5740002
-0.4651331 0.21500626 1.5740002
-0.45720953 0.21286477 1.5740001
0.056214292 0.2166124 1.5740001
-0.47220004 0.22485714 1.5740002
-0.46570411 0.2258565 1.5740002
0.056963813 0.22185905 1.5740001
-0.47198588 0.23470804 1.5740002
-0.46470478 0.23535049 1.5740002
0.053965718 0.23535049 1.5740001
-0.47070098 0.24434477 1.5740001
-0.46432999 0.24546903 1.5740002
-0.45870858 0.24434477 1.5740001
0.054715242 0.24659334 1.5740001
-0.46384814 0.2552664 1.5740002
-0.45870861 0.25483811 1.574
0.054965083 0.25483811 1.574
-0.46395525 0.26383239 1.5740002
-0.45646 0.26683047 1.5740002
0.047969524 0.26683047 1.5740001
0.053216197 0.26533142 1.5740002
-0.4617067 0.27282667 1.5740001
-0.4557105 0.27432573 1.5740002
-0.4497143 0.27882287 1.5740001
0.05276648 0.27582479 1.5740001
-0.44851503 0.28421944 1.5740001
0.047969524 0.28481904 1.574
0.050967623 0.28182095 1.5740001
-0.44821525 0.29531237 1.5740002
0.04572095 0.29456288 1.5740001
-0.45271239 0.30580571 1.5740001
-0.44634145 0.30580571 1.5740002
0.047969524 0.30280763 1.5740001
-0.44562599 0.31452748 1.5740002
0.047969524 0.31629908 1.5740001
-0.44480836 0.32542965 1.5740002
0.047969524 0.32529336 1.5740001
-0.44191927 0.33518705 1.5740001
-0.43572319 0.33678606 1.5740002
-0.42722857 0.33878478 1.5740001
0.045970798 0.3357867 1.574
-0.44072002 0.34478098 1.5740001
-0.43434906 0.34478095 1.5740002
0.042972699 0.34478095 1.574
-0.43372446 0.35477462 1.5740002
-0.42872763 0.35827237 1.5740001
0.038975239 0.35377526 1.5740001
0.042572953 0.35617372 1.5740001
-0.43292499 0.36636728 1.5740001
-0.4279781 0.3650181 1.5740001
0.043972064 0.36626732 1.5740002
-0.43386725 0.37433359 1.5740002
-0.42610428 0.37513667 1.5740002
-0.41823429 0.37776002 1.5740001
0.038975239 0.37476194 1.574
0.041973334 0.37326288 1.5740001
-0.43247527 0.38300669 1.5740001
-0.42542973 0.38435581 1.5740002
-0.41733485 0.38585484 1.5740002
0.038975239 0.38475552 1.574
0.042572953 0.38495541 1.5740001
-0.41373715 0.39574859 1.5740002
0.041973334 0.39574862 1.574
-0.41459373 0.40431458 1.5740002
0.038975239 0.40624192 1.5740001
-0.41706836 0.41506958 1.5740002
0.037476189 0.4152362 1.5740001
-0.41723493 0.42572951 1.5740002
0.036976505 0.42672887 1.574
-0.41223809 0.43472385 1.5740002
-0.40774098 0.43772191 1.5740001
0.037476189 0.43472385 1.5740002
-0.41202393 0.44457477 1.5740002
-0.40574229 0.44571686 1.5740002
-0.39874667 0.4497143 1.5740001
0.035977144 0.44521716 1.5740001
-0.41223812 0.4557105 1.5740002
-0.40559953 0.45528218 1.5740002
-0.39874667 0.45271239 1.5740001
0.035977144 0.45720953 1.5740001
-0.41223812 0.4617067 1.5740001
-0.4055995 0.46513304 1.5740002
0.034478098 0.46470478 1.5740001
-0.40388629 0.4745557 1.5740002
-0.39660519 0.47712547 1.5740002
-0.38975239 0.47969526 1.5740001
0.032979049 0.47519809 1.5740001
-0.40174478 0.4841924 1.5740001
-0.39574862 0.48569143 1.5740002
-0.38975239 0.48569143 1.574
0.032979049 0.48569143 1.574
-0.39574859 0.49168763 1.5740001
-0.38855314 0.49528533 1.5740001
0.032979049 0.49468574 1.574
-0.3940354 0.50453657 1.5740002
-0.38915277 0.50427961 1.5740001
0.032979049 0.50517905 1.5740001
-0.39350003 0.51567245 1.5740001
-0.38542181 0.51600552 1.5740002
-0.37776002 0.5186705 1.5740001
0.032979049 0.51567245 1.574
-0.38338143 0.52429193 1.5740002
-0.37701049 0.5254162 1.5740001
0.037176378 0.52526629 1.5740001
-0.38175747 0.53416067 1.5740002
-0.3764751 0.53451759 1.5740002
0.028781716 0.53725868 1.5740001
0.035377525 0.53456044 1.5740002
0.041973334 0.53066289 1.5740001
-0.38275683 0.54615301 1.5740002
-0.37776002 0.54265523 1.5740001
0.026982859 0.54479676 1.5740002
0.032979049 0.54265523 1.5740001
-0.38075811 0.55164957 1.5740001
0.048426669 -0.13317333 1.5890001
0.054480005 -0.13166 1.5890001
0.061542224 -0.13115555 1.5890001
0.04818286 -0.12949143 1.5810001
0.055209529 -0.1254762 1.581
0.066070899 -0.12441716 1.5845556
0.073396668 -0.12333667 1.5890001
0.069262862 -0.11744572 1.5810001
0.074912004 -0.11599238 1.5858002
0.084604442 -0.11280762 1.5863334
0.087552384 -0.10718 1.585
0.09182781 -0.10511772 1.5858001
0.094560809 -0.094770476 1.5867144
0.095225722 -0.084639996 1.5870003
0.095496446 -0.075731263 1.5846366
0.096285991 -0.065628305 1.5867144
0.09391357 -0.053932142 1.5840001
0.093276903 -0.045314286 1.5860001
0.086474918 -0.033680957 1.5836668
0.092313327 -0.034806669 1.589
0.086046666 -0.024152383 1.5850002
0.09080001 -0.024213335 1.5890001
0.086046666 -0.01509524 1.585
0.09080001 -0.015133335 1.5890001
0.085973017 -0.0060304762 1.5836668
0.09080001 -0.0060533336 1.5890001
0.086046666 0.0045285719 1.585
0.083705582 0.015533062 1.5855715
0.086562671 0.024213333 1.5890001
-0.49269971 0.038210794 1.5836668
-0.48484001 0.037642859 1.5810001
-0.47680953 0.037140954 1.581
-0.46677145 0.036137145 1.5810001
0.08490961 0.034895763 1.5868182
-0.51150668 0.046913333 1.5890001
-0.50569052 0.046791427 1.5850002
-0.49507886 0.043966856 1.5810001
-0.4833343 0.043665715 1.5810001
0.078297146 0.045171428 1.581
0.083096191 0.045326352 1.5863334
-0.53420663 0.057506669 1.5890001
-0.52411777 0.055488896 1.5890001
-0.51557851 0.054788303 1.5855715
-0.50772685 0.053603429 1.5810001
0.078297146 0.054205716 1.581
0.082476668 0.055236667 1.5890001
-0.53457832 0.064405531 1.5874001
-0.52465266 0.064829528 1.5830001
-0.51555663 0.064444579 1.5810002
0.077006534 0.064960822 1.5810002
0.081720002 0.065073341 1.5890001
-0.53345001 0.07491 1.5890001
-0.52546668 0.075497359 1.5854446
-0.51533073 0.075662144 1.5810002
0.077092573 0.074683435 1.5810001
0.081720002 0.075666666 1.5890001
-0.52593213 0.084316902 1.5879999
-0.51495433 0.084320001 1.5810002
0.077544287 0.083567142 1.5810001
0.081720002 0.084746666 1.5890001
-0.52331066 0.094431996 1.589
-0.51377428 0.094922855 1.5820003
-0.50893146 0.099377148 1.5810001
0.077774093 0.095864005 1.5826002
0.081720002 0.095340006 1.5890001
-0.51453334 0.10517667 1.5890001
-0.50893146 0.10389429 1.5810001
0.076315925 0.10605878 1.5844287
0.081720002 0.10593334 1.5890001
-0.51271737 0.11561867 1.5890001
-0.50762671 0.11481524 1.5863334
0.076315925 0.11425225 1.5844287
0.081720002 0.11501333 1.5890001
-0.52058667 0.12560667 1.5890001
-0.51453334 0.12409335 1.589
-0.50635016 0.12648 1.5810002
0.076187141 0.12520859 1.584
0.081720002 0.12409333 1.5890001
-0.52058667 0.13014667 1.5890001
-0.51513869 0.13377868 1.5890001
-0.50591999 0.13551429 1.5810002
-0.49839142 0.1355143 1.5810002
0.069262862 0.13852572 1.5810001
0.075543068 0.13496594 1.5863334
0.081720002 0.13014667 1.5890001
-0.52058667 0.14225334 1.5890001
-0.51528996 0.14452334 1.5890001
-0.50592005 0.14454859 1.5810002
-0.49774617 0.14454857 1.5810002
0.068268575 0.14438514 1.5858002
0.074153334 0.14528 1.5890001
-0.51513869 0.15375467 1.5890001
-0.5055353 0.1540055 1.581889
-0.49688575 0.15508857 1.5810002
0.067888573 0.15538001 1.5840001
0.072640002 0.15436001 1.5890001
-0.51150668 0.16495334 1.5890001
-0.50609225 0.16524275 1.5855715
-0.49726218 0.16525215 1.5810002
0.067932382 0.16604763 1.5850002
0.072640002 0.16041334 1.5890001
-0.51226336 0.17630336 1.5890001
-0.50654262 0.17540191 1.5876666
-0.49839148 0.17466287 1.5810002
0.067262039 0.17504165 1.5844287
-0.51302004 0.18311334 1.5890001
-0.50554359 0.18323313 1.5874001
-0.49433762 0.18485539 1.5810001
-0.48709857 0.18595572 1.5810001
0.066405505 0.18411197 1.5845556
-0.50242668 0.19068001 1.5890001
-0.49498838 0.19618307 1.5845556
-0.48785147 0.19574286 1.581
0.064985171 0.19493808 1.5867145
0.072640002 0.19370668 1.5890001
-0.50242668 0.20884001 1.5890001
-0.49554545 0.20546797 1.5863334
-0.48664683 0.20537944 1.5810001
0.057217143 0.20176572 1.5810001
0.063105479 0.20517406 1.587
-0.50242668 0.21338001 1.5890001
-0.49306709 0.21363886 1.5842001
-0.48456624 0.2149065 1.5810002
-0.47881716 0.21832858 1.5810001
0.061656334 0.21513553 1.5844288
-0.50242668 0.22700001 1.5890001
-0.49284223 0.22397333 1.5890001
-0.48446357 0.22623357 1.5810002
-0.47881714 0.22585714 1.581
0.057217143 0.22886857 1.5810001
0.062227428 0.22412458 1.5858001
-0.49233779 0.23557556 1.5890001
-0.48503107 0.23497061 1.5844287
-0.47881714 0.23489146 1.581
0.057313651 0.23529272 1.5836668
0.061138671 0.23365867 1.5890001
-0.48365021 0.24483651 1.5836668
-0.47680956 0.24593335 1.5810002
-0.46978289 0.24994858 1.5810001
0.05721714 0.24392574 1.581
0.060533334 0.24516003 1.5890001
-0.4833343 0.25597143 1.5810002
-0.47580576 0.25597143 1.5810002
-0.46978289 0.2544657 1.5810001
0.057217143 0.25747716 1.5810001
0.061699871 0.25454965 1.5855714
-0.49032003 0.26483333 1.5890001
-0.4833343 0.26500574 1.5810002
-0.4758057 0.26500571 1.5810002
-0.46827716 0.26801714 1.5810001
0.057217143 0.26651144 1.5810001
0.06208653 0.26471785 1.5844287
-0.48426664 0.27542669 1.589
-0.47510254 0.27450478 1.5836668
-0.46763185 0.27447021 1.5810002
0.05721714 0.27404001 1.581
0.061683051 0.27454704 1.5874002
-0.48426667 0.28148001 1.5890001
-0.47410288 0.28361791 1.5874002
-0.46484861 0.28418908 1.5830002
-0.45623147 0.28458002 1.5810002
0.054654527 0.28569287 1.5830001
0.060533334 0.28450668 1.5890001
-0.4842667 0.29358667 1.5890001
-0.47518668 0.29056001 1.5890001
-0.46483877 0.29544023 1.5881112
-0.45593032 0.29451773 1.5810001
0.04818286 0.29813144 1.5810001
0.054621141 0.2951135 1.5842001
0.060533337 0.2951 1.5890001
-0.46382442 0.30598783 1.5874002
-0.45653257 0.303552 1.5810001
0.04818286 0.30114287 1.5810001
0.054363176 0.30500934 1.5854446
0.060533337 0.30266666 1.5890001
-0.46313432 0.3152886 1.5840001
-0.45623145 0.31469429 1.5810002
0.053692278 0.31440192 1.5854446
-0.47216001 0.32385334 1.5890001
-0.4657084 0.32578403 1.5866001
-0.45510218 0.3256107 1.5810002
0.05307183 0.32530993 1.5855714
-0.47367334 0.33596 1.5890001
-0.46532953 0.3353962 1.5863334
-0.45472574 0.33426854 1.5810002
-0.44870287 0.3357743 1.5810001
0.04818286 0.33728001 1.5810001
0.052076668 0.33436525 1.585
-0.46351239 0.34374288 1.589
-0.45551336 0.34504005 1.5890001
-0.44669521 0.34497589 1.5810002
-0.4396686 0.34631431 1.5810001
0.047027048 0.34546024 1.5826
0.051453337 0.34503999 1.5890001
-0.46156669 0.35260668 1.5890001
-0.45486477 0.35455242 1.589
-0.44483104 0.35491839 1.5810002
-0.4396686 0.35685432 1.5810001
0.046996735 0.35525227 1.5844287
0.051453337 0.35412002 1.5890001
-0.45299113 0.3645452 1.589
-0.4445616 0.36469272 1.5823336
-0.43891573 0.36438286 1.5810001
0.047179047 0.36337903 1.581
0.053384762 0.36426687 1.5863334
-0.45218405 0.37470132 1.5890001
-0.44429281 0.37454966 1.5821429
-0.43966857 0.37542477 1.581
0.046066668 0.37584028 1.5821429
0.052664004 0.37470135 1.5890001
-0.45097336 0.38136002 1.5890001
-0.44531336 0.38492477 1.585
-0.43846402 0.38606513 1.5810001
0.047124572 0.38481718 1.5858001
0.051453337 0.38287336 1.5890001
-0.44391111 0.39548445 1.5890001
-0.43446892 0.39439714 1.5818002
-0.42504165 0.39535758 1.5810002
0.047031563 0.39477307 1.5855714
0.051453337 0.39044002 1.5890001
-0.44189334 0.40557334 1.5890001
-0.43422684 0.40495205 1.5842001
-0.42461148 0.40503716 1.5810002
0.045273747 0.40526697 1.5844287
-0.44265002 0.41465336 1.5890001
-0.43511364 0.41496128 1.5863333
-0.42547184 0.41514692 1.5810002
0.039148573 0.41708285 1.5810001
0.044895556 0.41566226 1.5890001
-0.44189334 0.42222002 1.5890001
-0.43591702 0.42546546 1.5882728
-0.42611718 0.42461142 1.5810002
0.039148573 0.42310572 1.5810001
0.043382224 0.42423782 1.5890001
-0.43584001 0.43281335 1.5890001
-0.42492783 0.43533924 1.5831819
-0.41858855 0.43665719 1.581
0.039148573 0.43063429 1.5810001
0.043311115 0.4366143 1.5863334
-0.43432668 0.44643334 1.5890001
-0.42534536 0.44553566 1.5826001
-0.41858855 0.44569147 1.581
0.039148573 0.44569144 1.581
0.044824447 0.4441708 1.5863334
-0.44189334 0.45400003 1.5890001
-0.43456256 0.4541699 1.5843333
-0.42461142 0.45472574 1.5810002
-0.41783571 0.45397288 1.5810001
0.038445238 0.45530099 1.5830002
0.043886665 0.454 1.5890001
-0.44189334 0.46005335 1.5890001
-0.4355979 0.46584761 1.5881112
-0.42461145 0.46376002 1.5810002
-0.41633001 0.46677142 1.5810002
0.038144764 0.46626958 1.5810002
0.043623701 0.46438774 1.5854446
-0.43281335 0.47216001 1.5890001
-0.42575112 0.47417781 1.5890001
-0.41557717 0.47580576 1.5810002
-0.4095543 0.47731143 1.5810001
0.037642859 0.47580573 1.5810002
0.044103999 0.474832 1.5858002
-0.42373335 0.48426667 1.5890001
-0.41514698 0.48397955 1.5810002
-0.4080486 0.48484004 1.5810002
0.037420955 0.48521605 1.5842001
0.044535238 0.48383433 1.589
-0.42131203 0.49455732 1.5890001
-0.4151856 0.49408489 1.5844288
-0.40538457 0.4954958 1.5810001
-0.39630404 0.49748802 1.5810001
0.037741907 0.49512005 1.5850002
0.042978667 0.49395204 1.5890001
-0.42070669 0.50393999 1.5890001
-0.41465339 0.50545335 1.589
-0.40341216 0.50586361 1.5820001
0.037741907 0.50568664 1.585
-0.41427505 0.51415497 1.589
-0.40421715 0.51481402 1.5836668
-0.39750859 0.5134486 1.5810001
0.037741907 0.51474386 1.585
0.042373333 0.51302004 1.5890001
-0.4116267 0.52361327 1.5890001
-0.40526646 0.52524227 1.5866001
-0.39492735 0.524849 1.5810002
0.038445242 0.52163237 1.5830002
0.045028757 0.5252347 1.5865999
0.051194288 0.52700001 1.5810001
-0.4116267 0.53723335 1.5890001
-0.4046627 0.53551161 1.5866001
-0.39449716 0.53452867 1.5810002
-0.38787201 0.53543204 1.5810001
0.045171428 0.53001148 1.581
-0.41263556 0.54379112 1.5890001
-0.40489781 0.54337877 1.5863334
-0.39449716 0.5450685 1.5810002
-0.38696858 0.54356283 1.5810001
0.054720003 -0.13832001 1.5960001
0.063840002 -0.13376001 1.5960001
0.072960004 -0.13072 1.5960001
0.077013336 -0.12464 1.5960001
0.079040006 -0.11856 1.5960001
0.0836 -0.11704001 1.5960001
0.091200002 -0.11248001 1.5960001
0.096520007 -0.10716 1.5960001
0.10032 -0.10336 1.5960001
0.10184 -0.094240002 1.5960001
0.10336 -0.08512 1.5960001
0.10336 -0.077520005 1.5960001
0.10108 -0.063079998 1.5960001
0.10153599 -0.055328004 1.5960001
0.097280003 -0.045600001 1.5960001
0.10032 -0.045600001 1.5960001
0.097280003 -0.035466667 1.5960001
0.095000006 -0.023560001 1.5960001
0.094240002 -0.0152 1.5960001
0.094240002 -0.0060800002 1.5960001
0.092213333 0.0035466666 1.5960001
0.088160001 0.01368 1.5960001
0.091959998 0.01596 1.5960001
0.091200002 0.024320001 1.5960001
-0.51376003 0.039520003 1.5960001
-0.48944002 0.038000003 1.5960001
0.091200002 0.034960002 1.5960001
-0.52288002 0.045600001 1.5960001
-0.51636571 0.045165718 1.596
-0.50464004 0.04256 1.5960001
0.088160001 0.045600001 1.5960001
-0.54111999 0.057760004 1.5960001
-0.53443205 0.053504001 1.5960001
-0.52794671 0.052693337 1.5960001
0.086943999 0.054112006 1.5960001
0.091200002 0.057760004 1.5960001
-0.54294401 0.065664008 1.5960001
0.08664 0.065360002 1.596
-0.54111999 0.074480005 1.5960001
-0.53808004 0.077520005 1.5960001
0.086336002 0.075392 1.5960001
-0.53590864 0.085554294 1.596
0.08512 0.08512 1.5960001
-0.53504002 0.09424001 1.596
0.08512 0.091200002 1.5960001
-0.53351998 0.10032 1.5960001
-0.52558225 0.10471111 1.596
-0.51882666 0.10842667 1.5960001
0.08512 0.10538667 1.5960001
-0.52592003 0.11552 1.596
-0.51908004 0.11476001 1.5960001
0.08512 0.11552 1.5960001
-0.52693337 0.12464 1.5960001
-0.51984 0.1216 1.5960001
0.08512 0.12464001 1.5960001
-0.52364004 0.13528001 1.5960001
-0.51984 0.13680001 1.5960001
0.079040006 0.13984001 1.5960001
0.083817139 0.13593143 1.596
-0.52288002 0.14744002 1.5960001
-0.51984 0.14744002 1.5960001
0.079040006 0.14592001 1.5960001
0.082840003 0.14516002 1.5960001
-0.52288002 0.15504001 1.5960001
-0.51832002 0.15808001 1.5960001
0.077520005 0.15504001 1.5960001
0.082080007 0.15200001 1.5960001
-0.52288002 0.16416001 1.5960001
-0.51832002 0.16416001 1.5960001
0.075493343 0.16416 1.5960001
0.082080007 0.16112001 1.5960001
-0.52288002 0.17328 1.5960001
-0.51853716 0.17414857 1.596
0.073973335 0.17479999 1.5960001
-0.52288002 0.1824 1.5960001
-0.51604003 0.18658003 1.596
-0.50768 0.18696001 1.5960001
0.074175999 0.186048 1.5960001
-0.52288002 0.19152001 1.5960001
-0.51528001 0.19455999 1.5960001
-0.506464 0.19516799 1.5960001
0.074480005 0.1938 1.5960001
-0.51376003 0.20281145 1.596
-0.50637716 0.20454857 1.596
0.069311999 0.206112 1.5960001
0.072960004 0.20367999 1.5960001
-0.51072001 0.21280001 1.5960001
-0.50463998 0.21627429 1.596
-0.49856001 0.21888001 1.5960001
0.068400003 0.21584 1.5960001
-0.51072001 0.22800002 1.5960001
-0.50464004 0.22458002 1.596
-0.49856001 0.22344002 1.5960001
0.068096004 0.22435203 1.5960001
-0.50342405 0.23408 1.5960001
-0.49856004 0.23408 1.5960001
0.064853333 0.23408002 1.5960001
-0.50160003 0.24522667 1.5960001
-0.49552003 0.24509999 1.596
-0.48944002 0.24928001 1.5960001
0.065360002 0.24472 1.596
-0.49248001 0.25536001 1.5960001
-0.48944002 0.25232002 1.5960001
0.066880003 0.25536001 1.5960001
-0.49628001 0.26372001 1.5960001
0.066880003 0.26448002 1.5960001
-0.49324003 0.27512002 1.5960001
0.065866672 0.27664 1.5960001
-0.49248001 0.28576002 1.5960001
-0.48488003 0.28728002 1.596
-0.47728002 0.2888 1.5960001
0.063840002 0.28576002 1.5960001
-0.49248001 0.29488 1.5960001
-0.48504889 0.29521781 1.596
-0.47576001 0.29640001 1.5960001
0.063840002 0.29488003 1.5960001
-0.49248001 0.30096 1.5960001
-0.48457599 0.30369601 1.596
-0.47373334 0.30450669 1.5960001
-0.46816 0.30248001 1.5960001
0.063079998 0.30476001 1.5960001
-0.48412001 0.31084001 1.5960001
-0.47396365 0.31450185 1.596
0.057760004 0.31920001 1.5960001
0.060800001 0.31464002 1.5960001
-0.48108 0.32528001 1.5960001
-0.47606403 0.32528001 1.5960001
0.057760004 0.32528004 1.5960001
0.060800001 0.32528001 1.5960001
-0.48184001 0.3344 1.5960001
-0.47652003 0.33364001 1.5960001
0.056746673 0.33440003 1.5960001
-0.48133335 0.34402665 1.5960001
-0.47462004 0.34580001 1.596
-0.46613336 0.34858668 1.5960001
0.054720003 0.34504002 1.5960001
-0.48032001 0.35416001 1.5960001
-0.47424003 0.35416004 1.5960001
-0.46633601 0.35689601 1.5960001
0.056240004 0.35568002 1.5960001
-0.46410668 0.36429334 1.5960001
-0.45904002 0.36480004 1.5960001
0.057760004 0.36328 1.5960001
0.060800001 0.36632001 1.5960001
-0.46208003 0.37544 1.5960001
-0.45904002 0.37391999 1.5960001
0.057760004 0.37391999 1.5960001
0.060800001 0.37088001 1.5960001
-0.46208003 0.38405335 1.5960001
-0.45600003 0.38456002 1.596
0.054720003 0.38456002 1.5960001
-0.46208003 0.39520001 1.5960001
-0.45397338 0.39317337 1.5960001
-0.44840002 0.39671999 1.5960001
0.052693337 0.39520001 1.5960001
-0.45296001 0.40736002 1.5960001
-0.44809604 0.40492803 1.5960001
0.051680002 0.40432 1.5960001
-0.45296001 0.41496003 1.5960001
-0.44861716 0.41474286 1.596
0.048640002 0.41344002 1.5960001
0.052982863 0.41561145 1.596
-0.45296001 0.42560002 1.5960001
-0.4477486 0.4260343 1.596
0.047880001 0.42636001 1.5960001
0.052896004 0.42499202 1.5960001
-0.443232 0.43411201 1.5960001
-0.43573335 0.43674669 1.5960001
0.047424 0.43411198 1.5960001
0.051680002 0.43472004 1.5960001
-0.44140801 0.44627205 1.5960001
-0.43624002 0.44231999 1.5960001
0.048640002 0.44586667 1.5960001
0.052288003 0.44627205 1.5960001
-0.44384003 0.45600003 1.5960001
0.048640002 0.456 1.5960001
0.052896004 0.45539203 1.5960001
-0.44384003 0.46664 1.5960001
0.048640002 0.46512005 1.5960001
0.051680002 0.46512005 1.5960001
-0.44232002 0.47424001 1.5960001
-0.43548 0.47652 1.5960001
0.048640002 0.47272003 1.5960001
0.054720003 0.47272003 1.5960001
-0.4332 0.48336002 1.5960001
-0.42864001 0.48488 1.5960001
0.048640002 0.4853867 1.5960001
-0.42742404 0.49552003 1.5960001
0.047424 0.49612802 1.5960001
-0.42712006 0.50464004 1.5960001
0.045980003 0.50502002 1.596
-0.42458665 0.51511121 1.596
-0.41952002 0.51984 1.5960001
0.046208002 0.51528007 1.596
0.051680002 0.51832002 1.5960001
-0.42408001 0.52516007 1.5960001
-0.41799998 0.52592003 1.5960001
0.047120001 0.52288002 1.5960001
0.053851429 0.52592003 1.596
-0.42560002 0.53200001 1.5960001
-0.41686001 0.53465998 1.596
0.054720003 0.53200001 1.5960001
-0.44080001 0.54416001 1.5960001
-0.42560005 0.54264003 1.5960001
-0.41800004 0.54263997 1.5960001
0.070226669 -0.13129334 1.603
0.082440004 -0.12213334 1.603
0.087020002 -0.11755334 1.603
0.096180007 -0.11297334 1.603
0.10228668 -0.10534 1.603
0.10534 -0.094653338 1.603
0.10686668 -0.085493334 1.603
0.10534 -0.074806668 1.603
0.10534 -0.064120002 1.603
0.10610335 -0.054196671 1.603
0.10381334 -0.047326669 1.603
0.097706668 -0.03358667 1.603
0.10076001 -0.03664 1.603
0.097706668 -0.025953334 1.603
0.10076001 -0.021373333 1.603
0.097706668 -0.015266667 1.603
0.097706668 -0.0061066668 1.603
0.096485339 0.0048853336 1.603
0.094653338 0.013740001 1.603
0.095874675 0.023816001 1.603
-0.53128004 0.039693333 1.603
-0.52415562 0.038675558 1.603
-0.51601332 0.037861332 1.603
-0.50532669 0.038166668 1.603
0.094653338 0.035113335 1.603
-0.54044002 0.048853334 1.603
-0.53346097 0.046236191 1.6029999
-0.52669996 0.045036666 1.603
0.091600001 0.0458 1.603
-0.55265337 0.058013335 1.603
-0.54471469 0.054960001 1.603
0.091600001 0.053433336 1.603
-0.55387467 0.06350933 1.603
-0.54960001 0.064120002 1.603
0.092363335 0.064120002 1.603
-0.55265337 0.071753338 1.603
-0.54730999 0.07480666 1.6029999
0.088546671 0.079386666 1.603
0.091600001 0.074806668 1.603
-0.54501998 0.085493334 1.603
0.088546671 0.085493334 1.603
0.091600001 0.082440004 1.603
-0.54501998 0.094653331 1.603
0.087325335 0.095264003 1.603
-0.54288268 0.10472934 1.6029999
-0.53471506 0.10724834 1.6029999
0.087935999 0.10503467 1.603
-0.54166138 0.11541601 1.603
-0.53586006 0.11602667 1.603
0.088546671 0.11602667 1.603
0.091600001 0.11297334 1.603
-0.54044002 0.12518667 1.603
-0.53586006 0.12518667 1.603
-0.52822667 0.12213334 1.603
0.088546671 0.12518667 1.603
-0.54044002 0.13282001 1.603
-0.53433335 0.13434666 1.6029999
-0.52822667 0.13587335 1.603
0.088546671 0.13434668 1.603
-0.53204334 0.14427 1.603
-0.52822667 0.14503333 1.603
0.087325335 0.14533867 1.603
-0.53128004 0.15572001 1.603
-0.52822667 0.15572001 1.603
0.084272005 0.15633067 1.603
-0.53128004 0.16488001 1.603
-0.52822667 0.16488001 1.603
0.079386666 0.16640668 1.603
-0.53128004 0.17404 1.603
-0.52746332 0.17404 1.603
0.07816533 0.17465067 1.603
-0.53258854 0.18538097 1.6029999
-0.52691811 0.18494476 1.6029999
0.078776002 0.18442135 1.603
-0.53250134 0.19480267 1.603
-0.52700537 0.19602402 1.603
0.078623332 0.19617666 1.603
0.082440004 0.19541334 1.603
-0.53128004 0.20152001 1.603
-0.52456272 0.20396268 1.603
-0.51677668 0.20686333 1.603
0.076333337 0.20304668 1.603
-0.52212 0.21220668 1.603
-0.51601338 0.21526 1.6029999
0.073279999 0.21373333 1.603
-0.52395201 0.22716799 1.603
-0.51639503 0.225565 1.6029999
0.070226669 0.229 1.603
-0.52288336 0.23587 1.603
-0.51601338 0.23510668 1.6029999
-0.50838006 0.23510668 1.603
0.067173339 0.23663335 1.603
0.070226669 0.23510668 1.603
-0.52441001 0.24197666 1.603
-0.51601332 0.24426667 1.6029999
-0.50772578 0.24426666 1.6029999
-0.49769336 0.24732001 1.603
0.070226669 0.24426667 1.603
-0.51486838 0.25380835 1.6029999
-0.50542849 0.25525865 1.6030002
-0.49769339 0.25648001 1.603
0.070226669 0.2554622 1.603
-0.51296002 0.26258668 1.603
-0.50532669 0.26563999 1.6029999
0.071244448 0.26360446 1.603
-0.50380003 0.2748 1.6029999
-0.49769336 0.27632666 1.603
0.067173339 0.27174667 1.603
0.070226669 0.27480003 1.603
-0.50379997 0.28395998 1.6029999
-0.49769339 0.28396001 1.603
0.067173339 0.28396001 1.603
0.070226669 0.28090668 1.603
-0.50502139 0.29434136 1.6030002
-0.49769336 0.29464668 1.603
0.067173339 0.29464668 1.603
-0.50380003 0.30489716 1.6029999
-0.4956578 0.30635113 1.603
-0.48548001 0.30533335 1.603
-0.47733781 0.30431557 1.603
0.067173339 0.30533335 1.603
-0.50074667 0.31449336 1.603
-0.49464002 0.31449333 1.6029999
-0.48486933 0.31632534 1.603
-0.47937337 0.31754667 1.603
0.065646671 0.31449333 1.603
-0.50074667 0.32365334 1.603
-0.4938767 0.32365334 1.6029999
-0.48662502 0.3244167 1.6029999
0.065137781 0.32416224 1.603
-0.49158669 0.33586669 1.603
-0.48777002 0.33510336 1.603
0.058013335 0.33892003 1.603
0.062084448 0.33383116 1.603
-0.48777002 0.34579003 1.603
0.058013335 0.34502664 1.603
0.061066668 0.34197333 1.603
-0.48700666 0.35418668 1.603
-0.47937337 0.35113335 1.603
0.058013335 0.35113335 1.603
0.061066668 0.35418668 1.603
-0.48486939 0.3642627 1.6029999
-0.47544765 0.36509147 1.603
-0.46716002 0.36945334 1.603
0.062593333 0.36487335 1.603
-0.4747934 0.37556002 1.603
-0.46639669 0.37479669 1.603
0.061066668 0.3770867 1.603
-0.47465459 0.38472003 1.6029999
-0.46532804 0.38594133 1.603
0.058013335 0.38624668 1.603
0.061066668 0.38472 1.603
-0.48242667 0.39540669 1.603
-0.47479337 0.39540672 1.6030002
-0.46410671 0.39571202 1.6029999
-0.45698223 0.39896891 1.603
0.056995552 0.39642444 1.603
-0.47174001 0.40609336 1.603
-0.46410668 0.40609333 1.6029999
-0.45596445 0.40507558 1.603
0.055723332 0.40533003 1.603
-0.47021335 0.4122 1.603
-0.46410668 0.41525331 1.6029999
-0.45723665 0.41449001 1.603
0.056995556 0.41525337 1.603
-0.46258005 0.42441335 1.603
-0.45677868 0.42380267 1.603
0.058013335 0.42441335 1.603
-0.46227464 0.43296266 1.603
-0.45562521 0.43459111 1.6029999
-0.44782224 0.4386622 1.603
0.056181334 0.43296272 1.603
-0.4473134 0.44578668 1.603
0.055723332 0.44655001 1.603
-0.46105334 0.45189336 1.603
-0.45189336 0.458 1.603
-0.44884002 0.45494667 1.603
0.058013335 0.45494667 1.603
-0.46105334 0.46410668 1.603
-0.45407432 0.46454287 1.6029999
-0.44884002 0.46410668 1.603
0.056181334 0.46349603 1.603
-0.46105334 0.47021335 1.603
-0.45433602 0.4741827 1.6029999
-0.44822937 0.47570935 1.603
0.048853334 0.47937337 1.603
0.052670002 0.47479334 1.603
-0.45189336 0.48547998 1.603
-0.44578668 0.48547998 1.6029999
-0.43968001 0.48547998 1.603
0.052670002 0.48471668 1.603
-0.44273338 0.49464002 1.603
-0.43662667 0.49464002 1.6029999
0.051906664 0.49464002 1.603
-0.4437511 0.5063445 1.603
-0.43662667 0.50532669 1.603
0.052517336 0.50624269 1.603
-0.44426 0.51601332 1.603
-0.43551639 0.51601332 1.6029999
0.053433333 0.51524997 1.603
-0.44502336 0.52593666 1.603
-0.43509999 0.52517331 1.603
-0.42441335 0.52822667 1.603
0.056486666 0.52364671 1.603
0.061066668 0.52670002 1.603
-0.44273335 0.53586006 1.603
-0.43468362 0.53405577 1.6029999
-0.42594004 0.5350967 1.603
-0.4437511 0.54349333 1.603
-0.43601599 0.54318804 1.6029999
-0.42594004 0.54044002 1.603
0.076714292 -0.13194858 1.6110001
0.079782858 -0.12734571 1.6110001
0.085530296 -0.12552571 1.6152
0.094922669 -0.12142706 1.618
0.088988572 -0.11967429 1.6110001
0.095267944 -0.11677461 1.6133333
0.10463587 -0.1133546 1.6156667
0.1062659 -0.10503848 1.6124001
0.11094858 -0.10324381 1.618
0.10740001 -0.098194286 1.6110001
0.11240952 -0.095472388 1.6168333
0.11314 -0.084660724 1.61625
0.10740001 -0.072111428 1.6110001
0.1119951 -0.074659593 1.6140001
0.10740001 -0.067508571 1.6110001
0.11224952 -0.064580008 1.6145
0.11189333 -0.055330288 1.6138
0.10663286 -0.045261431 1.6110001
0.11294983 -0.044835135 1.6172223
0.10535429 -0.034777146 1.6110001
0.11094858 -0.033900954 1.618
0.10488667 -0.02497381 1.613625
0.11094858 -0.02465524 1.618
0.1044855 -0.015362118 1.6133333
0.11094858 -0.016950477 1.618
0.10448698 -0.0061460314 1.6133333
0.11094858 -0.0092457142 1.618
0.098194286 0.0092057148 1.6110001
0.10463809 0.0046161907 1.6156667
0.098194279 0.015342858 1.6110001
0.10463809 0.015387301 1.6156667
0.098194286 0.027617143 1.6110001
0.10365089 0.024154013 1.6140001
-0.53306741 0.036457621 1.6118751
-0.52446288 0.034826033 1.6133333
-0.51552004 0.034777146 1.6110001
0.098194286 0.035288572 1.6110001
0.10275961 0.033228572 1.6152
-0.56244767 0.047769524 1.618
-0.554932 0.04792871 1.6160001
-0.54372716 0.044539291 1.6127501
0.096873343 0.046128571 1.6145
0.10170286 0.044687621 1.618
-0.57374793 0.057528894 1.618
-0.56452054 0.054997824 1.617
-0.55541146 0.054722857 1.6110001
-0.54927433 0.0537 1.6110001
0.096802235 0.055312067 1.6133333
0.10293563 0.056090672 1.618
-0.57508343 0.064411812 1.618
-0.56409091 0.064918377 1.6120001
-0.55848002 0.067508571 1.6110001
0.097137533 0.064552002 1.6138
0.10324381 0.064720005 1.618
-0.57477522 0.072424762 1.618
-0.56393528 0.073986664 1.6110001
-0.55672657 0.076714285 1.6110001
0.096873336 0.073805712 1.6145
0.10324381 0.072424762 1.618
-0.56090671 0.083211429 1.618
-0.55405301 0.085380957 1.6124001
0.096075431 0.085292764 1.6166
-0.56090671 0.098620959 1.618
-0.55387717 0.095125712 1.6110001
0.095359795 0.095356837 1.6148889
0.10170286 0.092457145 1.618
-0.56213945 0.10478476 1.618
-0.55387712 0.10433143 1.6110001
-0.54927433 0.10740001 1.6110001
0.095405728 0.10463366 1.6156667
-0.57117969 0.11608508 1.618
-0.56338477 0.11472 1.6133333
-0.55513245 0.11548987 1.6110001
-0.54866064 0.11599199 1.6110001
0.093798101 0.11480666 1.6145
-0.5713852 0.12265982 1.618
-0.56452054 0.12672219 1.617
-0.55502784 0.12542787 1.6110001
-0.54774004 0.12581144 1.6110001
0.094487078 0.124803 1.615
-0.56213945 0.13498743 1.618
-0.55424821 0.13571265 1.6140001
-0.54671723 0.13501716 1.6110001
0.092057146 0.13501716 1.6110001
-0.56090671 0.14793143 1.618
-0.55386233 0.14484952 1.618
-0.54313713 0.14422286 1.6110001
-0.53597713 0.14524572 1.6110001
0.092057146 0.14422286 1.6110001
-0.56090671 0.1525543 1.618
-0.55320191 0.15409525 1.618
-0.54285818 0.15454441 1.6110001
-0.537 0.15496287 1.6110001
0.088988572 0.15496287 1.6110001
0.092190474 0.15365525 1.6133333
-0.55298173 0.1642215 1.618
-0.54439336 0.16537449 1.6138
-0.537 0.16570286 1.6110001
0.086400241 0.1662681 1.6127501
0.093484439 0.16385461 1.618
-0.55166095 0.17258668 1.618
-0.54423022 0.17500167 1.615375
-0.53623289 0.17490858 1.6110001
0.086090378 0.17524785 1.6141112
0.092457145 0.17566858 1.618
-0.54238957 0.18438095 1.6133333
-0.537 0.18104573 1.6110001
0.086131856 0.18455727 1.6148889
-0.54006857 0.19485429 1.6110001
-0.537 0.19945715 1.6110001
0.086048894 0.19394097 1.6133333
0.092457145 0.19416001 1.618
-0.54006857 0.2055943 1.6110001
-0.53436977 0.20647104 1.6110001
-0.5277943 0.20866287 1.6110001
0.078760006 0.2055943 1.6110001
0.084923595 0.20546032 1.618
-0.54163301 0.21542668 1.6156667
-0.53393143 0.21480002 1.6110001
-0.52595317 0.21602742 1.6110001
0.076825403 0.21511556 1.6133333
0.08277116 0.21485278 1.618
-0.54241526 0.22497906 1.618
-0.53393143 0.22400573 1.6110001
-0.52595317 0.22277829 1.6110001
0.075346671 0.22449239 1.6145
0.080129527 0.22497906 1.618
-0.54241526 0.23422477 1.618
-0.53421038 0.23516417 1.6110001
-0.5277943 0.23474573 1.6110001
0.074711025 0.23423076 1.615
0.080129527 0.23114286 1.618
-0.5346067 0.24600428 1.6118751
-0.52677149 0.24753143 1.6110001
0.075386666 0.24461141 1.615375
0.080129527 0.24655239 1.618
-0.53522474 0.25530776 1.6148889
-0.52510929 0.25507504 1.6110001
0.074802458 0.25564 1.617
0.080129527 0.25425714 1.618
-0.53500122 0.26461381 1.615375
-0.52472574 0.26389715 1.6110001
-0.51782143 0.26466429 1.6110001
0.075814858 0.26504382 1.618
0.080129527 0.26504382 1.618
-0.53455734 0.27282208 1.6166
-0.52444679 0.27421874 1.6110001
-0.51552004 0.27463713 1.6110001
0.074577861 0.2740781 1.6145
-0.53140843 0.28441578 1.618
-0.52546477 0.28661716 1.618
-0.51552004 0.28537714 1.6110001
0.074511327 0.28572214 1.6148889
0.080129527 0.28558984 1.618
-0.53228903 0.29586288 1.618
-0.52395147 0.29500952 1.6133333
-0.51705432 0.29458287 1.6110001
0.073465481 0.2949976 1.615375
0.080129527 0.29278097 1.618
-0.53278434 0.30472335 1.618
-0.5236237 0.30504057 1.613
-0.5155201 0.30532286 1.6110001
-0.50631428 0.30839145 1.6110001
0.07198368 0.30504438 1.613
-0.531115 0.3122997 1.618
-0.52454025 0.31497067 1.618
-0.51449716 0.31504002 1.6110001
-0.50784862 0.31606284 1.6110001
0.072271429 0.31520858 1.6145
-0.5208419 0.32360002 1.618
-0.51612109 0.32559949 1.617
-0.50597334 0.32560956 1.6110001
-0.49710858 0.32833716 1.6110001
0.067508571 0.32833716 1.6110001
0.073080242 0.32461095 1.615375
-0.51467812 0.33592761 1.618
-0.50436157 0.33419535 1.6110001
-0.49710858 0.3344743 1.6110001
0.066741429 0.33524144 1.6110001
0.072055236 0.33502057 1.6166
-0.51236665 0.34440288 1.618
-0.50336677 0.34506857 1.6122727
-0.49579349 0.34587187 1.6110001
0.064528003 0.34535545 1.6131001
0.070883811 0.34517336 1.618
-0.51236665 0.35441905 1.618
-0.50434405 0.35518837 1.6145
-0.49557433 0.35595429 1.6110001
0.06544245 0.35529631 1.6140001
0.070883811 0.35441908 1.618
-0.51262349 0.36263749 1.618
-0.50531626 0.36533993 1.6167274
-0.49491671 0.36559838 1.6110001
0.066681273 0.36467907 1.6156667
0.070883811 0.36212382 1.618
-0.51236665 0.3767629 1.618
-0.50446498 0.37526944 1.6148889
-0.49404001 0.37436575 1.6110001
-0.4863686 0.3759 1.6110001
0.066457152 0.37595543 1.6152
0.070883811 0.37599239 1.618
-0.50470799 0.38468254 1.6156667
-0.49404001 0.38510573 1.6110001
-0.4863686 0.38510573 1.6110001
-0.47869715 0.38664001 1.6110001
0.065838918 0.38492247 1.613
0.070883811 0.38523808 1.618
-0.50312102 0.39371333 1.618
-0.4942188 0.39545852 1.613
-0.48790288 0.39584574 1.6110001
0.0645689 0.39558285 1.6141112
0.070883811 0.39140192 1.618
-0.50235051 0.40372956 1.618
-0.49597335 0.40509582 1.6173
-0.48527268 0.40592816 1.6110001
-0.47869715 0.40658572 1.6110001
0.058302861 0.40812001 1.6110001
0.064920202 0.40549237 1.6152
0.070883811 0.40989333 1.618
-0.49233431 0.41528666 1.618
-0.48455948 0.41433498 1.613
-0.47665143 0.41528001 1.6110001
0.058302861 0.41272289 1.6110001
0.064629637 0.4154557 1.6156667
-0.49002287 0.42222098 1.618
-0.48473957 0.42574316 1.618
-0.47534955 0.42485765 1.6110001
-0.46949145 0.42653143 1.6110001
0.064241044 0.42508051 1.6129092
-0.48540005 0.43454859 1.618
-0.475245 0.43535361 1.6110001
-0.46872431 0.4365043 1.6110001
0.058302861 0.43880573 1.6110001
0.064550005 0.43490788 1.613625
-0.48139352 0.44502705 1.618
-0.47409427 0.44494286 1.6110001
-0.46530703 0.44522187 1.6110001
-0.45568287 0.44494286 1.6110001
0.057535719 0.44417572 1.6110001
0.064927459 0.44522822 1.6160909
0.070883811 0.44533527 1.618
-0.48077717 0.45458096 1.618
-0.47478318 0.45480859 1.6133333
-0.46502808 0.45414859 1.6110001
-0.45568287 0.45414862 1.6110001
0.064234763 0.45499668 1.615375
-0.48154762 0.46459717 1.618
-0.4743526 0.46514025 1.6118751
-0.46532696 0.46445021 1.6110001
-0.45721716 0.46028572 1.6110001
0.058302861 0.46949145 1.6110001
0.062806532 0.46509388 1.6140001
-0.48154762 0.47384286 1.618
-0.47461408 0.47583884 1.6138
-0.46608189 0.47631046 1.6110001
0.058429524 0.47512764 1.6145
0.063179053 0.47461334 1.618
-0.48077717 0.48385906 1.618
-0.47529843 0.48453751 1.6168333
-0.46396798 0.48452744 1.6110001
-0.45721716 0.4863686 1.6110001
0.057176761 0.48382783 1.6138
0.062408574 0.48462954 1.618
-0.47214785 0.49372116 1.618
-0.46380466 0.49451855 1.6125556
-0.45458698 0.49491671 1.6110001
-0.44801146 0.4955743 1.6110001
0.057132516 0.49438614 1.615
0.061638098 0.49310479 1.618
-0.47153145 0.50235051 1.618
-0.46469948 0.5047065 1.6156667
-0.45414862 0.50478011 1.6110001
-0.44801149 0.50324571 1.6110001
0.056341588 0.50448388 1.6133333
-0.46351847 0.51406175 1.618
-0.45401335 0.51541644 1.6118751
0.057448894 0.5170089 1.6156667
-0.46228573 0.52392381 1.618
-0.45481077 0.52445847 1.6133333
-0.44494286 0.52626002 1.6110001
0.058556188 0.52392381 1.618
0.061638098 0.52700573 1.618
-0.46331301 0.53573781 1.618
-0.45525008 0.53424305 1.6138
-0.44698858 0.53495431 1.6110001
-0.46228573 0.54395622 1.618
-0.45486146 0.54490554 1.61625
-0.44647717 0.54237002 1.6110001
-0.43608955 0.55474287 1.618
0.085171439 -0.13162857 1.626
0.092914291 -0.13008 1.626
0.089817144 -0.12698287 1.626
0.09601143 -0.12595049 1.626
0.10452858 -0.12156286 1.626
0.10685143 -0.11769143 1.626
0.11227144 -0.11382 1.626
0.11547918 -0.10574532 1.6260002
0.12078857 -0.1037543 1.626
0.11769143 -0.09601143 1.626
0.12078857 -0.09601143 1.626
0.11769143 -0.086720012 1.626
0.121408 -0.084242292 1.626
0.11769143 -0.074331433 1.626
0.12078857 -0.071234286 1.626
0.11769143 -0.06504 1.626
0.12078857 -0.06504 1.626
0.11691714 -0.055748574 1.626
0.12078857 -0.055748578 1.626
0.11769143 -0.049554288 1.626
0.12078857 -0.048005715 1.626
0.11614286 -0.034068573 1.626
0.11614285 -0.024777144 1.626
0.11511048 -0.015485715 1.626
0.11335544 -0.0055748574 1.626
0.11304572 0.0046457145 1.6260002
0.11227144 0.014711429 1.626
0.1084 0.026325716 1.626
0.11149714 0.024777144 1.626
-0.54664576 0.037165716 1.626
0.10762571 0.034842856 1.626
0.11149715 0.03097143 1.626
-0.58226287 0.049554288 1.626
-0.57606858 0.048005715 1.626
-0.5661577 0.045837719 1.626
-0.55438858 0.042327624 1.626
-0.54819429 0.040262859 1.626
0.10685143 0.044908572 1.6260002
-0.58381146 0.055748574 1.626
-0.5768429 0.053425714 1.626
0.10762571 0.054974288 1.626
-0.58690858 0.06504 1.626
-0.57916576 0.06504 1.626
0.10840001 0.06504 1.626
-0.58742481 0.07329905 1.626
0.10654172 0.075570285 1.626
-0.57297146 0.080525719 1.626
-0.56643301 0.08637587 1.6260002
0.10502131 0.085030653 1.6260002
-0.57297146 0.099108577 1.626
-0.56600285 0.09601143 1.626
0.10478667 0.09601143 1.626
-0.57482976 0.10654172 1.626
-0.56910002 0.10530287 1.626
0.10344458 0.10468344 1.626
-0.57503623 0.11252952 1.626
0.099108577 0.11459429 1.626
0.10220572 0.11459428 1.626
-0.57839143 0.12466001 1.626
0.099108577 0.12233715 1.626
0.10375429 0.12388572 1.626
-0.57572442 0.13386542 1.6260002
-0.56910002 0.13704859 1.626
0.097338781 0.13406204 1.6260002
-0.56540066 0.14556569 1.6260002
0.09601143 0.14556572 1.626
-0.56553829 0.15516688 1.6260002
0.09601143 0.15485714 1.626
-0.56522864 0.16414858 1.626
0.098076195 0.16414857 1.626
-0.5618217 0.17282058 1.626
-0.55571598 0.17653716 1.6260002
0.097560003 0.17498857 1.6260002
-0.55335623 0.1847962 1.626
0.094462864 0.18582858 1.626
-0.54819429 0.19512002 1.626
0.09477257 0.19512001 1.626
-0.55500805 0.20503087 1.626
-0.54819429 0.20286286 1.626
0.089817144 0.20596001 1.626
0.093688577 0.20363715 1.626
-0.55253029 0.21370287 1.626
-0.54819429 0.21525143 1.626
0.088268571 0.21680002 1.626
0.092914291 0.21525145 1.626
-0.55253029 0.22547202 1.626
-0.54819429 0.22609144 1.626
0.086100578 0.22609143 1.6260002
