# .PCD v0.7 - Point Cloud Data file format
VERSION 0.7
FIELDS x y z
SIZE 4 4 4
TYPE F F F
COUNT 1 1 1
WIDTH 1507
HEIGHT 1
VIEWPOINT 0 0 0 1 0 0 0
POINTS 1507
DATA ascii
-0.076363817 0.18522286 1.7060001
-0.064990476 0.18197334 1.7060001
-0.058491431 0.18197334 1.7060001
-0.047118098 0.18197334 1.7060001
-0.0081238095 0.18197334 1.7060001
0.064990476 0.18197334 1.706
0.076363817 0.18197334 1.7060001
0.082862861 0.18197334 1.7060001
0.21663493 0.18305652 1.706
0.22205079 0.18738921 1.706
-0.26754412 0.19497144 1.706
0.22665429 0.19415906 1.7060001
0.2307162 0.19497144 1.7060001
-0.27458477 0.20472001 1.7060001
-0.26754415 0.20580317 1.7060002
0.22746667 0.20309524 1.7060001
0.23234096 0.20309524 1.7060001
-0.27620956 0.21284382 1.7060002
-0.26646098 0.21284382 1.7060002
-0.26786667 0.17966667 1.715
-0.22213334 0.17966667 1.715
-0.21886668 0.17966667 1.715
-0.20906667 0.17966667 1.715
-0.016333334 0.17966667 1.715
-0.0065333336 0.17966668 1.715
0.0043555559 0.17966668 1.715
0.013066667 0.17966667 1.715
0.032666668 0.17640001 1.715
0.045733333 0.17640001 1.715
0.058800001 0.17966667 1.715
0.065333337 0.17966668 1.715
0.077311113 0.17857778 1.715
0.084116675 0.17721668 1.715
0.093100004 0.17640001 1.715
0.10126667 0.17640001 1.715
0.12740001 0.17313334 1.715
0.13556667 0.17476667 1.715
0.14046668 0.17640001 1.715
0.1666 0.17531113 1.715
0.17705335 0.17770667 1.7149999
0.18456668 0.17640001 1.715
0.19763334 0.17640001 1.715
0.20580001 0.17640001 1.715
0.21560001 0.17966668 1.715
0.22540002 0.17966667 1.715
-0.27113333 0.18946667 1.715
-0.26786667 0.18620001 1.715
-0.25316668 0.18620001 1.715
-0.245 0.18620001 1.715
-0.2352 0.18620001 1.715
-0.22866668 0.18293335 1.715
-0.20253333 0.18620001 1.715
-0.19926667 0.18946667 1.715
-0.18620001 0.18837778 1.715
-0.17640001 0.18511112 1.715
-0.16496667 0.18538335 1.715
-0.15353334 0.18293335 1.715
-0.14373334 0.18293335 1.715
-0.13393334 0.18293335 1.715
-0.12740001 0.18620001 1.715
-0.11433334 0.18620001 1.715
-0.065333337 0.18293335 1.715
0.071866669 0.18293335 1.715
0.2264889 0.18511112 1.715
0.23193334 0.18946667 1.715
-0.27309331 0.19534668 1.7149999
0.23302223 0.19491112 1.715
-0.28093335 0.20743334 1.715
-0.27766669 0.20253333 1.715
-0.21332382 0.17722286 1.723
0.016409524 0.17722286 1.723
0.026255241 0.17722286 1.723
0.052510478 0.17722286 1.723
0.067279048 0.17722286 1.723
0.073842861 0.17722286 1.723
0.082047619 0.17394096 1.723
0.09845715 0.17722286 1.723
0.1345581 0.17394096 1.723
0.16737714 0.17230001 1.723
0.17230001 0.17394096 1.723
0.18706858 0.17394096 1.723
0.19199145 0.17394096 1.723
0.21660572 0.17722286 1.723
0.22481048 0.17722286 1.723
-0.27349207 0.18597461 1.723
-0.24450192 0.18542764 1.723
-0.23629713 0.18378668 1.723
-0.2280924 0.18050477 1.723
-0.21496478 0.18050477 1.723
-0.2034781 0.18378668 1.7229999
-0.19428878 0.18509944 1.7229999
-0.18378668 0.18597461 1.723
-0.17394096 0.18378668 1.723
-0.1657362 0.18378668 1.723
-0.15424953 0.18050477 1.723
-0.14440382 0.18050475 1.723
-0.12471239 0.18597461 1.723
-0.11486667 0.18488066 1.723
-0.10502096 0.18378668 1.723
-0.09845715 0.18378668 1.723
-0.072201908 0.18378668 1.723
-0.054151431 0.18050477 1.723
-0.047587622 0.18050477 1.723
-0.036100954 0.18050475 1.723
0.072201908 0.18050477 1.723
0.22645144 0.18050477 1.723
0.23465618 0.18542764 1.723
-0.28224382 0.19199145 1.723
-0.27814144 0.19281191 1.723
0.23629715 0.19363239 1.723
-0.28388479 0.2034781 1.723
-0.27896193 0.20019619 1.723
0.23848508 0.20129018 1.723
-0.28552574 0.21004191 1.723
-0.23093334 0.17814858 1.7320001
-0.2276343 0.17814858 1.7320001
-0.1444983 0.17682895 1.7320001
-0.13691048 0.17484953 1.7320001
-0.052784763 0.17814858 1.7320001
-0.026392382 0.17814858 1.7320001
-0.016495239 0.17814858 1.732
-0.0082476195 0.17814858 1.7320001
0.0082476195 0.17814858 1.7320001
0.058283176 0.17704891 1.732
0.065156192 0.17567429 1.7320001
0.075878106 0.17484953 1.732
0.085775241 0.17484953 1.7320001
0.13196191 0.17484953 1.7320001
0.14350858 0.17484953 1.7320001
0.16165334 0.17484953 1.7320001
0.17484954 0.17320001 1.7320001
0.18309715 0.17484953 1.7320001
0.19794287 0.17484953 1.7320001
0.20454097 0.17484953 1.732
0.21773715 0.17814858 1.7320001
0.23258287 0.17814858 1.7320001
-0.28305832 0.18672611 1.7320001
-0.27712002 0.18474667 1.7320001
-0.25402668 0.18474667 1.732
-0.24412954 0.18254732 1.732
-0.23588192 0.18144763 1.7320001
-0.20289144 0.18144763 1.7320001
-0.19464381 0.18144763 1.732
-0.1863962 0.18474667 1.7320001
-0.17155048 0.18474667 1.7320001
-0.16330287 0.18144763 1.7320001
-0.15505525 0.18144763 1.7320001
-0.13691048 0.18144763 1.7320001
-0.12371429 0.18474667 1.7320001
-0.1171162 0.18309715 1.7320001
-0.095672384 0.18474667 1.7320001
-0.082476191 0.18474667 1.7320001
-0.077527627 0.18474667 1.7320001
-0.064331427 0.18144763 1.7320001
-0.05938286 0.18144763 1.7320001
-0.042887621 0.18144763 1.7320001
0.23588192 0.18144763 1.7320001
0.24083048 0.1863962 1.7320001
-0.28619242 0.19546857 1.7320001
0.24083048 0.19464381 1.732
-0.29031619 0.20454097 1.7320001
-0.28701717 0.20124191 1.7320001
-0.29031619 0.21113905 1.7320001
-0.24374001 0.17907429 1.7410001
-0.23710763 0.17907429 1.7410001
-0.22384286 0.17907429 1.7410001
-0.2122362 0.17907429 1.7410001
-0.20560382 0.17824525 1.7410001
-0.19731334 0.17907429 1.7410001
-0.15586096 0.17907429 1.7410001
-0.13762191 0.17907429 1.7410001
-0.063007623 0.17907429 1.7410001
-0.058033332 0.17907429 1.7410001
-0.048637465 0.1779689 1.7410001
-0.036478095 0.17907429 1.7410001
-0.023213334 0.17907429 1.7410001
-0.016580954 0.17575811 1.7410001
-0.0058033336 0.17658716 1.7410001
0.0033161908 0.1779689 1.7410001
0.013264762 0.17575811 1.7410001
0.089537144 0.17575811 1.7410001
0.094511434 0.17575811 1.7410001
0.10446 0.17741621 1.7410001
0.12601525 0.17575811 1.7410001
0.13928001 0.17244191 1.7410001
0.14922857 0.17575811 1.7410001
0.17741621 0.17244191 1.7410001
0.18736477 0.17244191 1.7410001
0.19233905 0.17244191 1.7410001
0.21555239 0.17575811 1.7410001
0.22550096 0.17575811 1.7410001
0.23627858 0.17658716 1.7410001
0.24208191 0.17741621 1.7410001
-0.29182476 0.18736477 1.7410001
-0.2874032 0.18349588 1.7410001
-0.2769019 0.18239048 1.7410001
-0.25368857 0.18239048 1.7410001
-0.2487143 0.18239048 1.7410001
-0.18570668 0.1823905 1.7410001
-0.17410001 0.18239048 1.7410001
-0.16912572 0.18239048 1.7410001
-0.13264762 0.18239048 1.7410001
-0.12933144 0.18239048 1.7410001
-0.11275048 0.18239048 1.7410001
-0.10611811 0.1823905 1.7410001
-0.096169531 0.18404858 1.7410001
-0.086220957 0.18570668 1.7410001
-0.07295619 0.18239048 1.7410001
-0.069640003 0.18239048 1.7410001
0.2453981 0.18681209 1.7410001
-0.29381448 0.19565524 1.7409999
0.24672461 0.19499201 1.7409999
-0.29646745 0.20494059 1.7409999
0.2453981 0.20394573 1.7410001
0.060308572 0.16752382 1.7590001
-0.29149145 0.17757525 1.7590001
-0.24458477 0.17757525 1.7590001
-0.23620859 0.17757525 1.7590001
-0.21221524 0.17712095 1.7545002
-0.20411763 0.17567286 1.7567501
-0.15386476 0.17727238 1.7560002
-0.072035238 0.17757525 1.7590001
-0.063500479 0.17628334 1.7545
-0.055 0.17666668 1.7500001
-0.046666667 0.17666668 1.7500001
-0.023397621 0.17545 1.7545002
-0.013333335 0.17333335 1.7500001
-0.0050257146 0.17422476 1.7590001
0.0026769522 0.17520151 1.7554001
0.013374476 0.17520151 1.7554001
0.023393333 0.17544572 1.7545
0.031829525 0.17757525 1.7590001
0.043556191 0.17757525 1.7590001
0.053955715 0.17441642 1.75675
0.063496195 0.17210382 1.7545
0.073710479 0.17422478 1.7590002
0.082086667 0.17422476 1.7590001
0.095488578 0.17422476 1.7590001
0.10276143 0.17544572 1.7545
0.11482731 0.17727238 1.7560002
0.12333333 0.17666668 1.7500001
0.13578413 0.17251937 1.7530001
0.14415088 0.17150821 1.7518002
0.154245 0.1734674 1.755625
0.16388763 0.17392762 1.7560002
0.17757525 0.1708743 1.7590001
0.18404049 0.17148906 1.7567501
0.19382191 0.17210382 1.7545002
0.2044324 0.17271858 1.7522501
0.21332495 0.172528 1.7554001
0.22448193 0.17422478 1.7590002
0.23506668 0.17316428 1.7567501
0.24434586 0.17275564 1.7538573
0.25442192 0.17574857 1.7575001
0.26636285 0.17757525 1.7590001
0.27138859 0.17757525 1.7590001
-0.30405575 0.18678905 1.7590001
-0.29430515 0.18285525 1.7518002
-0.28405765 0.1812962 1.7545
-0.27641428 0.18092573 1.7590001
-0.26000002 0.18333334 1.7500001
-0.2546362 0.18092573 1.7590001
-0.25 0.18000001 1.7500001
-0.22113144 0.18092573 1.7590001
-0.19215524 0.18046287 1.7545002
-0.18000001 0.18333334 1.7500001
-0.16500001 0.18000001 1.7500001
-0.12465587 0.18253081 1.7530001
-0.11594412 0.18172826 1.756
-0.10333333 0.18000001 1.7500001
-0.093197547 0.18304709 1.7564286
-0.083547629 0.18212955 1.7545
-0.074359521 0.1812962 1.7545002
-0.06666667 0.18000001 1.7500001
-0.041666672 0.18000001 1.7500001
-0.031666666 0.18000001 1.7500001
0.24666667 0.18333334 1.7500001
0.25420761 0.18396193 1.756
0.2643829 0.18406859 1.757
0.27046287 0.18365334 1.7530001
-0.30403236 0.19377334 1.7540001
-0.29666668 0.19333334 1.7500001
0.25566 0.19383049 1.7545
0.26420897 0.19528489 1.7589999
-0.30333334 0.2 1.7500001
-0.29666668 0.20333335 1.7500001
0.2532343 0.20267729 1.7525715
0.26401755 0.20236878 1.7590001
-0.29666668 0.21000001 1.7500001
0.055004448 0.16725843 1.7680001
0.063984767 0.16725843 1.7680001
0.24752 0.16838096 1.7680001
-0.29635048 0.17848381 1.7680001
-0.28961524 0.17848381 1.7680001
-0.25257143 0.17848381 1.7680001
-0.2458362 0.17848381 1.7680001
-0.22226286 0.17848381 1.7680001
-0.21216001 0.1751162 1.7680001
-0.20458286 0.17259048 1.7680001
-0.19700572 0.17848381 1.7680001
-0.16332954 0.17848381 1.7680001
-0.094293334 0.1784838 1.7680001
-0.083516955 0.17713678 1.768
-0.07492952 0.1759581 1.7680001
-0.063984767 0.1751162 1.7680001
-0.053881902 0.1751162 1.7680001
-0.030308573 0.17848381 1.7680001
-0.023573335 0.17343238 1.7680001
-0.013470476 0.17174858 1.7680001
-0.0050514285 0.17174858 1.7680001
0.0033676191 0.17174858 1.7680001
0.013470476 0.17174858 1.7680001
0.023573335 0.17174858 1.7680001
0.033676192 0.17623873 1.7680001
0.043779049 0.1759581 1.7680001
0.050514288 0.17174858 1.7680001
0.07408762 0.17174858 1.7680001
0.087558098 0.1751162 1.7680001
0.090925716 0.1751162 1.7680001
0.10776381 0.1751162 1.7680001
0.11786667 0.17848381 1.7680001
0.12460191 0.1751162 1.7680001
0.13302097 0.17343238 1.7680001
0.16164573 0.17174858 1.7680001
0.1751162 0.17174858 1.7680001
0.19700572 0.17174858 1.7680001
0.20374095 0.17174858 1.7680001
0.21889524 0.17174858 1.7680001
0.22563048 0.17174858 1.7680001
0.23573335 0.17174858 1.7680001
0.25593904 0.17174858 1.7680001
0.26556084 0.17415401 1.7679999
0.27277714 0.17343238 1.7680001
-0.30712685 0.18319848 1.768
-0.29971811 0.18185143 1.7680001
-0.17343238 0.18185143 1.7680001
-0.13302097 0.18185143 1.7680001
-0.12460192 0.18185143 1.7680001
-0.11449905 0.18185143 1.7680001
0.26772571 0.1919543 1.7680001
0.27277714 0.19363812 1.7680001
0.045694288 0.16923811 1.7770001
0.054156192 0.16754572 1.7770001
0.071079999 0.16923811 1.7770001
0.13877524 0.16923811 1.7770001
0.14385238 0.16923811 1.7770001
0.15908381 0.16923811 1.7770001
0.18616192 0.16923811 1.7770001
0.1963162 0.16923811 1.7770001
0.20647049 0.16923811 1.7770001
0.21493238 0.16923811 1.7770001
0.2233943 0.16923811 1.7770001
0.23016381 0.16923811 1.7770001
0.24201047 0.16923811 1.7770001
0.25554955 0.16923811 1.7770001
0.26401144 0.16923811 1.7770001
0.27247334 0.16923811 1.7770001
-0.3029362 0.17939238 1.7770001
-0.29785907 0.17600763 1.7770001
-0.23016381 0.17939238 1.7770001
-0.22000954 0.17939238 1.7770001
-0.21324001 0.17262286 1.7770001
-0.16923811 0.17939238 1.7770001
-0.15739143 0.17600763 1.7770001
-0.12692857 0.17939238 1.7770001
-0.11338952 0.17939238 1.7770001
-0.10662 0.17939238 1.7770001
-0.09477333 0.17600763 1.7770001
-0.088003814 0.17600763 1.7770001
-0.040617146 0.17939238 1.7770001
-0.033847619 0.17826414 1.7770001
0.003384762 0.17262286 1.7770001
0.023693334 0.17262286 1.7770001
0.034693811 0.17346905 1.7770001
0.044001907 0.17262286 1.7770001
0.084619053 0.17262286 1.7770001
0.091388576 0.17262286 1.7770001
0.11338952 0.17600763 1.7770001
0.16754572 0.17262286 1.7770001
0.17262286 0.17262286 1.7770001
0.23354858 0.17262286 1.7770001
-0.26231906 0.18277715 1.7770001
-0.18954667 0.18277715 1.7770001
0.045358729 0.16555937 1.7860001
0.051028572 0.16499239 1.7860001
0.064636193 0.16669334 1.7860001
0.15988953 0.16669334 1.7860001
0.22792763 0.16669334 1.7860001
0.23303048 0.16669334 1.7860001
0.2466381 0.16669334 1.7860001
0.25174096 0.16669334 1.7860001
0.26704955 0.16669334 1.7860001
0.27215239 0.16669334 1.7860001
-0.30276954 0.17689906 1.7860001
-0.29426479 0.17689906 1.7860001
-0.25174096 0.17689906 1.7860001
-0.24833906 0.17689906 1.7860001
-0.22452572 0.17689906 1.7860001
-0.21772191 0.17689906 1.7860001
-0.20071238 0.17689906 1.7860001
-0.19731048 0.17689906 1.7860001
-0.16329144 0.17689906 1.7860001
-0.15308572 0.17689906 1.7860001
-0.08164572 0.17349716 1.7860001
-0.078243814 0.17349716 1.7860001
-0.047626667 0.17689906 1.7860001
-0.034019049 0.17689906 1.7860001
-0.025514286 0.17349716 1.7860001
0.023813335 0.17009525 1.7860001
0.035720002 0.17009525 1.7860001
0.04082286 0.17009525 1.7860001
0.076542862 0.17009525 1.7860001
0.08164572 0.17009525 1.7860001
0.096954286 0.17349716 1.7860001
0.1037581 0.17349716 1.7860001
0.11906667 0.17689906 1.7860001
0.12587048 0.17349716 1.7860001
0.13437524 0.1717962 1.7860001
0.14968382 0.17009525 1.7860001
0.15478668 0.17009525 1.7860001
0.16329144 0.17009525 1.7860001
0.22452572 0.17009525 1.7860001
0.23643239 0.17009525 1.7860001
-0.31297526 0.18030097 1.7860001
-0.30957335 0.18030097 1.7860001
-0.28576002 0.18030097 1.7860001
-0.2755543 0.18256891 1.7860001
-0.26534858 0.18143493 1.7860001
-0.25854477 0.18030097 1.7860001
-0.23473144 0.18030097 1.7860001
-0.22792763 0.18030097 1.7860001
-0.19220762 0.18030097 1.7860001
-0.18540382 0.18370287 1.7860001
-0.17349716 0.18030097 1.7860001
-0.13437524 0.18030097 1.7860001
-0.12246858 0.18030097 1.7860001
-0.11906667 0.18030097 1.7860001
-0.10205714 0.18030097 1.7860001
-0.044224765 0.18030097 1.7860001
0.036754765 0.16496906 1.7950001
0.042738095 0.1641143 1.7950001
0.068380952 0.16753334 1.7950001
0.15556666 0.16753334 1.7950001
0.1641143 0.16639365 1.7950001
0.17437144 0.16616572 1.7950001
0.18120953 0.16753334 1.7950001
0.21540003 0.16753334 1.7950001
0.22394763 0.16753334 1.7950001
0.23933335 0.16753334 1.7950001
0.24275239 0.16753334 1.7950001
0.25642857 0.16753334 1.7950001
-0.31284288 0.17779048 1.7950001
-0.30429524 0.17608096 1.7950001
-0.29403812 0.17608096 1.7950001
-0.28378096 0.17779048 1.7950001
-0.27010477 0.17779048 1.7950001
-0.2649762 0.17779048 1.7950001
-0.25813812 0.17779048 1.7950001
-0.24446192 0.17779048 1.7950001
-0.23505953 0.17693572 1.7950001
-0.22565715 0.17573905 1.7950001
-0.21540003 0.17209208 1.7950001
-0.19374603 0.17665081 1.7950001
-0.17437144 0.17779048 1.7950001
-0.1641143 0.17608096 1.7950001
-0.15385714 0.17608096 1.7950001
-0.1436 0.17779048 1.7950001
-0.13334286 0.17779048 1.7950001
-0.12735954 0.17693572 1.7950001
-0.11624762 0.17779048 1.7950001
-0.10599048 0.17779048 1.7950001
-0.092314288 0.17437144 1.7950001
-0.087185718 0.17437144 1.7950001
-0.042738095 0.17779048 1.7950001
-0.034190476 0.17608096 1.7950001
0.017095238 0.17095239 1.7950001
0.030771431 0.17095239 1.7950001
0.087185718 0.17095239 1.7950001
0.095733337 0.17095239 1.7950001
0.10599049 0.17209208 1.7950001
0.11693144 0.17300382 1.7950001
0.12650478 0.17095239 1.7950001
0.13334286 0.17095239 1.7950001
0.16753334 0.17095239 1.7950001
0.17437144 0.17095239 1.7950001
0.18120953 0.17095239 1.7950001
-0.27352381 0.18120952 1.7950001
-0.18377382 0.18206429 1.7950001
-0.17779048 0.18120953 1.7950001
0.024053335 0.16837335 1.8040003
0.03264381 0.16665524 1.8040001
0.075596191 0.16837335 1.8040003
0.08590477 0.16837335 1.8040003
0.096213341 0.16837335 1.8040003
0.10308572 0.16837335 1.8040001
0.12713905 0.16837335 1.8040001
0.14088382 0.16837335 1.8040001
0.15806477 0.16493715 1.8040001
0.16665524 0.16493715 1.8040001
0.17352763 0.16321906 1.8040001
0.1872724 0.16837335 1.8040001
0.19758096 0.16837335 1.8040001
0.20617144 0.16837335 1.8040003
0.22507048 0.16493715 1.8040001
0.23366095 0.16493715 1.8040003
0.24053334 0.16493715 1.8040001
0.26286858 0.16837335 1.8040001
-0.31612954 0.17696381 1.8040001
-0.30753905 0.17524572 1.8040001
-0.29379427 0.17524572 1.8040001
-0.28864002 0.17524572 1.8040001
-0.27489525 0.1775365 1.8040003
-0.26630479 0.17524572 1.8040001
-0.25256002 0.17524572 1.8040001
-0.24396951 0.17524572 1.8040003
-0.23366095 0.17295492 1.8040003
-0.20273525 0.17524572 1.8040001
-0.19586286 0.17524572 1.8040001
-0.18506341 0.1762275 1.804
-0.17524572 0.17352761 1.804
-0.16493715 0.17410032 1.8040003
-0.15462857 0.17524572 1.8040001
-0.14346096 0.17696381 1.8040001
-0.13487048 0.17524572 1.8040001
-0.12439009 0.17387123 1.8040001
-0.11511239 0.17524572 1.8040001
-0.10824001 0.17696381 1.8040001
-0.09793143 0.17524572 1.8040001
-0.073878095 0.17524572 1.8040001
-0.06528762 0.17524572 1.8040001
-0.044670478 0.17524572 1.8040001
-0.036080003 0.17524572 1.8040001
-0.025771428 0.17180952 1.8040001
0.0068723811 0.17180952 1.8040001
0.1099581 0.17180952 1.8040001
0.11339429 0.17180952 1.8040001
-0.31956571 0.18383619 1.8040001
-0.23150097 0.16930667 1.8140001
-0.18485525 0.16930667 1.8140001
-0.17621715 0.16930668 1.8140001
0.01727619 0.16930667 1.8140001
0.079470478 0.16585143 1.8140001
0.086380959 0.16585143 1.8140001
0.09501905 0.16585143 1.8140001
0.10711239 0.16930667 1.8140001
0.11402286 0.16930668 1.8140001
0.12266096 0.16930667 1.8140001
0.13129905 0.16930667 1.8140001
0.14684764 0.16930667 1.8140001
0.15203048 0.16930667 1.8140001
0.19349334 0.16930667 1.8140001
-0.29024002 0.17276192 1.8140001
-0.28505716 0.17448953 1.8140001
-0.2771101 0.174144 1.8140001
-0.26605332 0.17448953 1.8140001
-0.25568765 0.17448953 1.8140001
-0.24186668 0.17276192 1.8140001
-0.23841144 0.17276192 1.8140001
-0.22459048 0.17276192 1.8140001
-0.19349335 0.17276192 1.8140001
-0.18658286 0.17276192 1.8140001
-0.16757905 0.17276192 1.8140001
-0.15548572 0.17391366 1.8140001
-0.14512001 0.17448953 1.8140001
-0.13648191 0.17276192 1.8140001
-0.12093334 0.17276192 1.8140001
-0.11575048 0.17276192 1.8140001
-0.10365715 0.1750654 1.8140001
-0.09501905 0.17276192 1.8140001
-0.089836195 0.17276192 1.8140001
-0.076015241 0.17276192 1.8140001
-0.065649524 0.17621715 1.8140001
-0.058739051 0.17621715 1.8140001
-0.044918098 0.17621715 1.8140001
-0.031097144 0.17276192 1.8140001
-0.020731429 0.17276192 1.8140001
-0.013820953 0.17276192 1.8140001
0.0017276191 0.17276192 1.8140001
0.012093334 0.17276192 1.8140001
0.026057143 0.16676572 1.8240001
0.031268574 0.16676572 1.8240001
0.093805723 0.16329144 1.824
0.10422858 0.16676573 1.824
0.11465143 0.16676573 1.824
0.1250743 0.16676573 1.824
0.13202286 0.16676572 1.8240001
0.17024 0.16329144 1.8240001
0.20845716 0.16676572 1.8240001
0.21888001 0.16676572 1.8240001
0.22582859 0.16502857 1.8240001
-0.29531428 0.1737143 1.8240001
-0.26578286 0.1737143 1.8240001
-0.25014859 0.1737143 1.8240001
-0.24493715 0.17197715 1.8240001
-0.23798859 0.17024 1.8240001
-0.22756572 0.17024 1.8240001
-0.19108573 0.17024 1.8240001
-0.16329144 0.17024 1.8240001
-0.15634286 0.1713981 1.824
-0.14765716 0.1737143 1.8240001
-0.13376001 0.17024 1.8240001
-0.1250743 0.17024 1.824
-0.11465143 0.17197715 1.8240001
-0.10422858 0.17255621 1.824
-0.093805723 0.17024 1.824
-0.085120007 0.1737143 1.8240001
-0.076434284 0.1737143 1.8240001
-0.055588573 0.17718858 1.8240001
-0.043428574 0.1737143 1.8240001
-0.036480002 0.1737143 1.8240001
-0.026057143 0.17024 1.8240001
-0.013897143 0.1737143 1.8240001
-0.0052114287 0.1737143 1.8240001
0.0052114287 0.17024 1.8240001
0.012159999 0.17024 1.8240001
0.1372343 0.17024 1.8240001
0.0052114287 0.28315431 1.8240001
0.0039706123 0.29630694 1.8240002
0.011812571 0.29600915 1.8240001
0.013897143 0.30226287 1.8240001
-0.020948572 0.16758858 1.8330001
0.017457144 0.16758858 1.8330001
0.024440002 0.16584286 1.8330001
0.076811433 0.16758858 1.8330001
0.083794288 0.16409715 1.8330001
0.094268575 0.16060571 1.8330001
0.10125143 0.16409715 1.8330001
0.11347143 0.16409715 1.8330001
0.12918286 0.16409715 1.8330001
0.13546744 0.16479543 1.8329999
0.14314857 0.16758858 1.8330001
0.15362287 0.16758858 1.8330001
0.19552001 0.16758858 1.8330001
0.20424858 0.16758858 1.8330001
0.21472287 0.16758858 1.8330001
0.22694287 0.16409715 1.8330001
0.23567143 0.16409715 1.8330001
0.24090858 0.16409715 1.8330001
0.27582288 0.16758858 1.8330001
-0.31772003 0.17282572 1.8330001
-0.27756858 0.17108001 1.8330001
-0.26185715 0.17457144 1.8330001
-0.25487429 0.17282572 1.8330001
-0.24789144 0.17108001 1.8330001
-0.22345144 0.17108001 1.8330001
-0.17108001 0.17108001 1.8330001
-0.16758858 0.17108001 1.8330001
-0.15187715 0.17108001 1.8330001
-0.14489429 0.17108001 1.8330001
-0.13965715 0.17108001 1.8330001
-0.11347143 0.17108001 1.8330001
-0.10648857 0.17108001 1.8330001
-0.083794288 0.17108001 1.8330001
-0.076811433 0.17108001 1.8330001
-0.066337146 0.17457144 1.8330001
-0.052371431 0.17457144 1.8330001
-0.045388568 0.17224382 1.8330001
-0.034914289 0.17108001 1.8330001
-0.020948572 0.17108001 1.8330001
-0.005237143 0.17108001 1.8330001
0 0.17108001 1.8330001
-0.020948572 0.25836572 1.8330001
-0.01571143 0.25836572 1.8330001
0.0026185715 0.28891572 1.8330001
0.0017457143 0.29328001 1.8330001
-0.2808381 0.16850287 1.8430001
-0.27732763 0.16850287 1.8430001
-0.2439781 0.16850287 1.8430001
-0.23520191 0.16850287 1.8430001
-0.19307619 0.16850287 1.8430001
-0.18781048 0.16850287 1.8430001
-0.15563112 0.16733271 1.8430001
-0.14392953 0.16850287 1.8430001
-0.13515334 0.16850287 1.8430001
-0.12637715 0.16850287 1.8430001
-0.11584572 0.16850287 1.8430001
-0.10461219 0.16709867 1.8430001
-0.094782859 0.16674763 1.8430001
-0.087761909 0.16850287 1.8430001
-0.043880954 0.16850287 1.8430001
-0.035104763 0.16850287 1.8430001
-0.026328571 0.16850287 1.8430001
-0.0035104763 0.16850287 1.8430001
0.0035104763 0.16850287 1.8430001
0.012286667 0.16850287 1.8430001
0.024573334 0.16499239 1.8430001
0.033349525 0.16499239 1.8430001
0.087761909 0.16148192 1.8430001
0.094782859 0.16148192 1.8430001
0.10706953 0.16499239 1.8430001
0.11584572 0.16323715 1.8430001
0.12637715 0.16382223 1.8430001
0.13690858 0.16148192 1.8430001
0.14392953 0.16499239 1.8430001
0.15446097 0.16850287 1.8430001
0.19658667 0.16850287 1.8430001
0.22467048 0.16499239 1.8430001
0.26328573 0.16850287 1.8430001
0.27030668 0.16850287 1.8430001
-0.31477273 0.17435366 1.8430001
-0.29488 0.17201334 1.8430001
-0.28610381 0.17201334 1.8430001
-0.27206191 0.17201334 1.8430001
-0.26504096 0.17201334 1.8430001
-0.25802001 0.17201334 1.8430001
-0.22116001 0.17201334 1.8430001
-0.20360763 0.17552382 1.8430001
-0.071964763 0.17201334 1.8430001
-0.055290002 0.17552382 1.8430001
-0.049146667 0.17201334 1.8430001
-0.014041905 0.17201334 1.8430001
-0.010531429 0.25977525 1.8430001
-0.014041905 0.26328573 1.8430001
-0.0070209526 0.26328573 1.8430001
0 0.28434858 1.8430001
-0.27353811 0.16941714 1.853
-0.26294953 0.16941714 1.853
-0.25412571 0.16941714 1.853
-0.18353525 0.16941714 1.853
-0.16235811 0.16941714 1.853
-0.15176953 0.16941714 1.853
-0.13588667 0.16588762 1.853
-0.12000381 0.16588762 1.853
-0.11647429 0.16588762 1.853
-0.082943812 0.16941714 1.853
-0.075884759 0.16941714 1.853
-0.054707624 0.16941714 1.853
-0.045883808 0.16706413 1.853
-0.03706 0.16588762 1.853
-0.0052942857 0.16765238 1.853
0.0035295237 0.16588762 1.853
0.013235715 0.16500524 1.853
0.024706667 0.16412286 1.853
0.07412 0.16824062 1.853
0.1023562 0.16235811 1.853
0.11647429 0.16235811 1.853
0.12353334 0.16235811 1.853
0.14471048 0.16765238 1.853
0.15353429 0.16588762 1.853
0.19059429 0.16941714 1.853
0.20471239 0.16588762 1.853
0.21530096 0.16588762 1.853
0.22236001 0.16588762 1.853
0.24706668 0.16588762 1.853
0.2647143 0.16824062 1.853
0.27530289 0.16588762 1.853
0.28236192 0.16588762 1.853
-0.31236285 0.17471144 1.853
-0.30353907 0.17471144 1.853
-0.20118286 0.17294668 1.853
-0.19765334 0.17294668 1.853
-0.063531429 0.17294668 1.853
-0.056472383 0.17294668 1.853
-0.024706667 0.26412603 1.853
-0.014118095 0.26824382 1.853
-0.0070590479 0.26824382 1.853
-0.012353334 0.27177334 1.853
-0.004941334 0.27459696 1.853
-0.004941334 0.28589144 1.853
0.0035295237 0.28236192 1.853
-0.003529524 0.29295048 1.853
-0.003529524 0.30000955 1.853
0.010645715 0.15968572 1.863
0.13484572 0.15968572 1.863
0.27678859 0.15968572 1.863
0.28211144 0.15968572 1.863
-0.26259428 0.16678286 1.863
-0.14904 0.16678286 1.863
-0.085165717 0.16678286 1.863
-0.076294288 0.16678286 1.863
-0.055002861 0.16678286 1.863
-0.049680002 0.16678286 1.863
-0.0053228573 0.16500857 1.863
0.0035485716 0.16323429 1.863
0.014194286 0.16323429 1.863
0.072745711 0.16678286 1.863
0.083391428 0.16323429 1.863
0.10645714 0.16323429 1.863
0.11000572 0.16323429 1.863
0.14549142 0.16441715 1.863
0.15791143 0.16500857 1.863
0.16500857 0.16678286 1.863
0.17210573 0.16500857 1.863
0.19872001 0.16678286 1.863
0.20581715 0.16323429 1.863
0.21468857 0.16323429 1.863
0.22356002 0.16323429 1.863
0.23243144 0.16323429 1.863
0.25904572 0.16678286 1.863
0.26703 0.16500857 1.863
0.27501428 0.16323429 1.863
0.28211144 0.16323429 1.863
-0.31493574 0.17121857 1.863
-0.30636001 0.17388 1.863
-0.29453143 0.17033143 1.863
-0.28743431 0.17033143 1.863
-0.26969144 0.17033143 1.863
-0.21468857 0.17742857 1.863
-0.20759144 0.17565429 1.863
-0.18097715 0.17033143 1.863
-0.17388003 0.17033143 1.863
-0.16678286 0.17033143 1.863
-0.070971429 0.17033143 1.863
-0.063874282 0.17033143 1.863
-0.010645715 0.17033143 1.863
0.067422859 0.17033143 1.863
0.18807429 0.17033143 1.863
0.25549716 0.17033143 1.863
-0.026614286 0.26969144 1.863
-0.024840003 0.27501431 1.863
-0.015081429 0.27590144 1.863
0.0070971432 0.27501428 1.863
-0.011532857 0.28299859 1.863
-0.0070971432 0.28388572 1.863
0.0070971432 0.28033715 1.863
-0.010645715 0.29275715 1.863
-0.0059142858 0.29689714 1.863
-0.01242 0.30517715 1.863
-0.0056777145 0.30588686 1.8630002
0.0035485716 0.30872571 1.863
0.010645715 0.30872571 1.863
-0.025549715 0.31795201 1.8630002
-0.014194286 0.31582287 1.863
-0.0053228573 0.31227431 1.863
-0.031937145 0.32469431 1.863
-0.024839999 0.32469431 1.863
-0.017742857 0.32469431 1.863
-0.024840003 0.33001715 1.863
-0.015968572 0.33001715 1.863
-0.023952859 0.3557443 1.863
0.27470669 0.15697524 1.8730001
0.2818419 0.15697524 1.8730001
-0.32108572 0.1676781 1.8730001
-0.31395048 0.16678619 1.8730001
-0.30503142 0.1676781 1.8730001
-0.27292287 0.1676781 1.8730001
-0.26400381 0.16500239 1.8730001
-0.25330096 0.1676781 1.8730001
-0.16411048 0.1676781 1.8730001
-0.15340762 0.1676781 1.8730001
-0.14448857 0.1676781 1.8730001
-0.13200191 0.1676781 1.8730001
-0.085622862 0.16411048 1.8730001
-0.071352385 0.1676781 1.8730001
-0.064217143 0.1676781 1.8730001
-0.055298097 0.16411048 1.8730001
-0.046379048 0.16411048 1.8730001
-0.035676189 0.1658943 1.8730001
-0.028540954 0.1676781 1.8730001
-0.0053514289 0.16232666 1.8730001
0.0053514289 0.16054286 1.8730001
0.016054288 0.16232666 1.8730001
0.023189526 0.16411048 1.8730001
0.033892382 0.16411048 1.8730001
0.067784764 0.1676781 1.8730001
0.074920006 0.16411048 1.8730001
0.11416382 0.16054286 1.8730001
0.12129905 0.16054286 1.8730001
0.13200191 0.16054286 1.8730001
0.14984001 0.16411048 1.8730001
0.15340762 0.16411048 1.8730001
0.16411048 0.16411048 1.8730001
0.17124572 0.16411048 1.8730001
0.18194857 0.1676781 1.8730001
0.19621907 0.1664889 1.8730001
0.2033543 0.16054286 1.8730001
0.21405715 0.16054286 1.8730001
0.22119239 0.16054286 1.8730001
0.23903048 0.16411048 1.8730001
0.25508475 0.1676781 1.8730001
0.26329029 0.1619699 1.8730001
0.27292287 0.16054286 1.8730001
-0.31038287 0.17124572 1.8730001
-0.30681524 0.17124572 1.8730001
-0.29611242 0.17124572 1.8730001
-0.23189525 0.17124572 1.8730001
-0.22119239 0.17481335 1.8730001
-0.21405715 0.17481335 1.8730001
-0.2051381 0.17124572 1.8730001
-0.19978668 0.17124572 1.8730001
-0.016054288 0.17124572 1.8730001
0.057081908 0.17124572 1.8730001
0.062433332 0.17124572 1.8730001
-0.042811431 0.26757145 1.8730001
-0.035676192 0.2657876 1.8730001
-0.034486983 0.27232826 1.8730001
-0.024973333 0.28540951 1.8730003
-0.016411049 0.28612307 1.8730001
-0.024463674 0.29509309 1.8730001
-0.015289797 0.29662207 1.8730001
-0.022594923 0.30443683 1.8730001
-0.017838096 0.30503142 1.8730001
-0.033892382 0.31751812 1.8730001
-0.024463672 0.31293121 1.8730001
-0.015697526 0.31537753 1.8730001
-0.0053514289 0.31751812 1.8730001
0.0042811432 0.31537753 1.8730001
0.010702858 0.3157343 1.8730001
-0.03669551 0.32414368 1.8730001
-0.012129906 0.32536688 1.8730001
-0.0053514293 0.32465336 1.8730001
0.0035676195 0.32465336 1.8730003
0.010702858 0.32108572 1.8730001
-0.042811431 0.33892381 1.8730001
-0.035676189 0.33357239 1.8730001
-0.024973333 0.33713999 1.8730001
-0.014270477 0.33595082 1.8730001
-0.0049946671 0.33464268 1.8730001
0.0035676195 0.33535621 1.8730003
-0.024973335 0.34605902 1.8730003
-0.013675873 0.34605905 1.8730001
-0.0047568255 0.34368065 1.8730001
0 0.34427524 1.8730001
-0.024973335 0.35319433 1.8730001
-0.015459684 0.3555727 1.8730001
-0.042811431 0.36211336 1.8730001
-0.035676192 0.36032954 1.8730001
-0.026757143 0.36211336 1.8730001
-0.017838096 0.36032954 1.8730001
0.01076 0.15781334 1.8830001
0.20444001 0.15781334 1.8830001
0.21520001 0.15781334 1.883
0.22416666 0.15781334 1.8830001
0.26541331 0.15781334 1.883
-0.32280001 0.16498667 1.8830001
-0.31562665 0.16283467 1.8830001
-0.30486667 0.16618222 1.883
-0.29769334 0.16857333 1.8830001
-0.27438003 0.16498667 1.8830001
-0.26421776 0.16379112 1.883
-0.25584891 0.16618222 1.883
-0.08608 0.16498667 1.8830001
-0.076216668 0.16409001 1.8830001
-0.063663334 0.16409001 1.8830001
-0.053800002 0.16140001 1.883
-0.04304 0.16140001 1.8830001
-0.037660003 0.16319335 1.8830001
-0.026900001 0.16677999 1.8830001
-0.01076 0.16857333 1.8830001
0 0.16140001 1.8830001
0.028693335 0.16140001 1.8830001
0.032280002 0.16140001 1.8830001
0.05738667 0.16857333 1.8830001
0.066353336 0.16677999 1.8830001
0.077113338 0.16140001 1.8830001
0.089666672 0.16140001 1.8830001
0.10401334 0.16140001 1.8830001
0.12912001 0.16140001 1.8830001
0.13988 0.16140001 1.8830001
0.14526001 0.16140001 1.8830001
0.15602002 0.16140001 1.8830001
0.16498667 0.16140001 1.883
0.17574668 0.16259557 1.883
0.18531112 0.16618222 1.883
0.19278334 0.16588333 1.8830001
0.20444001 0.16140001 1.8830001
0.22596 0.16140001 1.8830001
0.25824001 0.16319335 1.8830001
-0.22954668 0.17216 1.8830001
-0.21340668 0.17216 1.8830001
-0.046626668 0.26900002 1.8830001
-0.050213337 0.27438003 1.8830001
-0.044833332 0.27617335 1.8830003
-0.036464445 0.2773689 1.8830003
-0.050213337 0.28514001 1.8830001
-0.044833336 0.28514001 1.8830001
-0.035866667 0.28514001 1.8830003
-0.050213337 0.29410669 1.883
-0.044235557 0.29291114 1.883
-0.035418332 0.29365832 1.8830003
-0.050213337 0.30307335 1.8830001
-0.027258668 0.30486667 1.8830001
-0.032280002 0.31383336 1.8830001
0 0.31921333 1.8830001
-0.050213337 0.32638669 1.883
-0.044833336 0.32638669 1.8830003
-0.050213337 0.33356002 1.8830001
-0.044833332 0.33535334 1.8830001
-0.035866667 0.33535334 1.8830001
-0.044833332 0.34611332 1.8830001
-0.035268888 0.34312448 1.8830003
-0.013151112 0.34432003 1.883
-0.0071733338 0.34432 1.8830001
0.0053800005 0.34611335 1.8830001
0.01076 0.34611332 1.8830001
-0.052006669 0.35687333 1.8830001
-0.044833336 0.35508001 1.8830003
-0.035866667 0.35687336 1.8830003
-0.014346667 0.35508001 1.8830001
-0.0053800005 0.35508004 1.8830003
0.0023911113 0.35388446 1.8830003
0.01076 0.35149336 1.8830001
-0.050213337 0.36404669 1.8830001
-0.046626668 0.36404669 1.8830001
-0.31025526 0.15873525 1.8940001
0.11364 0.15873525 1.8940001
0.20924191 0.15873525 1.8940001
0.21284953 0.15512763 1.8940001
0.22186857 0.15512763 1.8940001
0.25974858 0.15873525 1.8940001
0.26516002 0.15512763 1.8940001
-0.31025526 0.16234286 1.8940001
-0.30664763 0.16234286 1.8940001
-0.29582477 0.16835557 1.8940001
-0.28500193 0.16955811 1.8940001
-0.25794476 0.16595048 1.8940001
-0.17496952 0.16955811 1.8940001
-0.12807047 0.16955811 1.8940001
-0.073956192 0.16234286 1.8940001
-0.06674096 0.16234286 1.8940001
-0.04689905 0.16234286 1.8940001
-0.03427238 0.16414666 1.8940001
-0.024531811 0.16522895 1.8940001
-0.015152 0.16739354 1.8940001
-0.0072152382 0.16234286 1.8940001
0.018038096 0.16234286 1.8940001
0.023449525 0.16234286 1.8940001
0.037880003 0.16414666 1.8940001
0.04689905 0.16955811 1.8940001
0.054114286 0.16835557 1.8940001
0.062532067 0.16715302 1.8940001
0.072152384 0.16234286 1.8940001
0.082975239 0.16234286 1.8940001
0.093798101 0.16234286 1.8940001
0.10462096 0.16234286 1.8940001
0.12626667 0.16234286 1.8940001
0.15152 0.16234286 1.8940001
0.18398857 0.16234286 1.8940001
0.19481145 0.16234286 1.8940001
0.23449524 0.16234286 1.8940001
0.2453181 0.16414666 1.8940001
0.25493839 0.16474794 1.8940001
-0.22367239 0.17316572 1.8940001
-0.05050667 0.2813943 1.8940001
-0.045696512 0.29702732 1.8940001
-0.039683811 0.2994324 1.8940001
-0.043291431 0.30304 1.8940001
-0.036076192 0.30484381 1.8940001
-0.037106939 0.31334752 1.8940001
-0.045095243 0.32107812 1.8940001
-0.039683811 0.32107812 1.8940001
-0.05050667 0.34813523 1.8940001
-0.03727873 0.34873652 1.8940001
-0.05050667 0.35354668 1.8940001
-0.036076192 0.35354671 1.8940001
-0.03427238 0.36797714 1.8940001
-0.03427238 0.37158477 1.8940001
-0.034453336 0.15957335 1.904
-0.025386667 0.15957335 1.9039999
-0.018133335 0.15957335 1.904
-0.0036266667 0.15957335 1.904
0.014506667 0.15957335 1.904
0.025386667 0.15957335 1.9039999
0.034453336 0.15957335 1.904
0.11968 0.15957335 1.904
0.12512 0.15957335 1.904
0.16501334 0.15957335 1.904
0.18677333 0.15957335 1.904
0.19584 0.15957335 1.9039999
0.20490667 0.15776001 1.904
0.21397334 0.15594667 1.904
0.22485334 0.15413335 1.904
0.23573335 0.15957335 1.9039999
0.2448 0.15957335 1.904
0.25749335 0.15957335 1.904
0.26112002 0.15594667 1.904
-0.30464002 0.16682667 1.904
-0.27562666 0.16320001 1.904
-0.25568002 0.16501334 1.904
-0.20309334 0.16682667 1.904
-0.032640003 0.16320001 1.904
-0.02176 0.16320001 1.904
-0.014506668 0.16320001 1.9039999
0.039893337 0.16320001 1.904
0.04472889 0.16561778 1.9039999
0.054400001 0.16501334 1.904
0.065279998 0.16320001 1.9039999
0.08704 0.16320001 1.904
0.25205332 0.16320001 1.904
-0.25024 0.17045334 1.904
-0.24298668 0.17408 1.904
-0.23573333 0.17045334 1.904
-0.21397333 0.17045335 1.9039999
-0.20490667 0.17045334 1.904
-0.19946668 0.17045334 1.904
-0.18133333 0.17045334 1.904
-0.11424001 0.17045334 1.904
-0.045937777 0.30705777 1.9039999
-0.04533333 0.31552002 1.9040002
-0.039893337 0.36992002 1.904
-0.039893337 0.37354669 1.904
-0.31369525 0.15684763 1.9150001
-0.029180953 0.15684763 1.9150001
0.018238096 0.15684763 1.9150001
0.021885715 0.15684763 1.9150001
0.11672381 0.15684763 1.9150001
0.12401905 0.15684763 1.9150001
0.20426667 0.15684763 1.9150001
0.21520953 0.1532 1.9150001
0.22615239 0.1532 1.9150001
0.23527144 0.15684763 1.9150001
0.24439049 0.15684763 1.9150001
0.25533333 0.15684763 1.9150001
-0.31004763 0.16049525 1.9150001
-0.30457622 0.16414286 1.9150001
-0.28451431 0.16779049 1.9150001
-0.25350952 0.16596667 1.9150001
-0.24439049 0.16779049 1.9150001
-0.21520954 0.16779049 1.9150001
-0.20517857 0.16596667 1.9150001
-0.19697143 0.16779049 1.9150001
-0.17326191 0.16779049 1.9150001
-0.16414286 0.16779049 1.9150001
-0.15502381 0.16779049 1.9150001
-0.11490001 0.16779049 1.9150001
-0.10578096 0.16779049 1.9150001
-0.09666191 0.16779049 1.9150001
-0.012766667 0.16049525 1.9150001
-0.0072952383 0.16049525 1.9150001
0.0018238096 0.16049525 1.9150001
0.018238096 0.16049525 1.9150001
0.043771431 0.16171113 1.9150001
0.053802382 0.16140716 1.9150001
0.065657146 0.16049525 1.9150001
0.074776188 0.16049525 1.9150001
0.082071438 0.16049525 1.9150001
0.098485716 0.16414286 1.9150001
0.10760477 0.16049525 1.9150001
0.1349619 0.16049525 1.9150001
0.14772858 0.16049525 1.9150001
0.15502381 0.16049525 1.9150001
0.16049525 0.16049525 1.9150001
0.17508572 0.16049525 1.9150001
0.18238096 0.16049525 1.9150001
0.25350952 0.16049525 1.9150001
-0.2881619 0.1714381 1.9150001
-0.2462143 0.1714381 1.9150001
-0.23709525 0.1714381 1.9150001
-0.22615238 0.1714381 1.9150001
-0.19514763 0.1714381 1.9150001
-0.18785238 0.1714381 1.9150001
0.24933334 0.13933334 1.9250001
0.25300002 0.13933334 1.9250001
0.24933334 0.14483334 1.9250001
0.25483334 0.14483334 1.9250001
-0.31258333 0.154 1.9250001
0.0275 0.15766667 1.9250001
0.034833334 0.15766667 1.9250001
0.044 0.15766667 1.9250001
0.055000003 0.15766667 1.9250001
0.066 0.15766667 1.9250001
0.10633334 0.15766667 1.9250001
0.11183333 0.15766667 1.9250001
0.13566667 0.15766667 1.9250001
0.18700001 0.15766667 1.9250001
0.19433336 0.15766667 1.9250001
0.20533334 0.15583333 1.9250001
0.21450001 0.15033334 1.9250001
0.22366667 0.15033334 1.9250001
0.23466668 0.15308334 1.9250001
0.2464 0.15253332 1.925
0.25483334 0.15216666 1.9250001
0.26155555 0.15277778 1.9250001
-0.30311111 0.16500001 1.9250001
-0.29333335 0.16866668 1.9250001
-0.28600001 0.16500001 1.9250001
-0.27866668 0.16500001 1.9250001
-0.25300002 0.16500001 1.9250001
-0.24566668 0.16622223 1.9250001
-0.23466666 0.16866668 1.9250001
-0.22366667 0.16744445 1.9250001
-0.21450001 0.16500001 1.9250001
-0.20166667 0.16500001 1.9250001
-0.19341668 0.16683334 1.9250001
-0.18516667 0.16866668 1.9250001
-0.176 0.16622223 1.9250001
-0.16500001 0.16500001 1.9250001
-0.154 0.16622223 1.9250001
-0.12283334 0.16866668 1.9250001
0.047666669 0.16133334 1.9250001
0.088 0.16133334 1.9250001
0.095333338 0.16133334 1.9250001
0.10266667 0.16133334 1.9250001
0.14300001 0.16133334 1.9250001
0.21756953 0.14750476 1.9360001
0.22310096 0.14566095 1.9360001
0.24614859 0.14381714 1.9360001
0.26366478 0.14750476 1.9360001
-0.3088381 0.15580191 1.9360001
-0.035032384 0.15856762 1.9360001
-0.023969524 0.15856762 1.9360001
0.012906667 0.15856762 1.9360001
0.059001908 0.15488 1.9360001
0.064533338 0.15488 1.9360001
0.073752381 0.15733843 1.9360002
0.084815241 0.15856762 1.9360002
0.095878102 0.15856762 1.9360002
0.10325333 0.15856762 1.9360001
0.11800382 0.15488 1.9360001
0.12906668 0.15488 1.9360001
0.1327543 0.15488 1.9360001
0.14566095 0.15856762 1.9360001
0.15488 0.15856762 1.9360002
0.16594286 0.15856762 1.9360002
0.17516191 0.15856762 1.9360001
0.18438096 0.15856762 1.9360001
0.20466286 0.15488 1.9360001
0.21019429 0.15119238 1.9360001
0.23600763 0.15119238 1.9360001
0.24338287 0.15119238 1.9360001
0.26550859 0.15119238 1.9360001
-0.30607238 0.16225524 1.9360001
-0.29746795 0.16717207 1.9360002
-0.24707049 0.16594286 1.9360001
-0.23600763 0.16594286 1.9360001
-0.22494477 0.16471367 1.9360002
-0.21019429 0.16225524 1.9360001
-0.20650667 0.16225524 1.9360001
-0.19544382 0.16594286 1.9360001
-0.18806858 0.16594286 1.9360001
-0.16409905 0.16225524 1.9360001
-0.15672381 0.16225524 1.9360001
-0.14750476 0.16963048 1.9360001
-0.1143162 0.16594286 1.9360002
-0.042407621 0.16225524 1.9360001
0.0073752385 0.16225524 1.9360001
0.21509714 0.14648858 1.9470001
0.22993144 0.14834286 1.9470001
0.2361124 0.14710666 1.9470001
0.2425406 0.14463428 1.9470001
-0.30657524 0.15576001 1.9470001
-0.27072573 0.15946858 1.9470001
-0.26701716 0.15946858 1.9470001
-0.040794287 0.15946858 1.9470001
0.022251429 0.15576001 1.9470001
0.05192 0.15576001 1.9470001
0.076025717 0.15576001 1.9470001
0.087151431 0.15576001 1.9470001
0.096422859 0.15576001 1.9470001
0.10384 0.15576001 1.9470001
0.11311144 0.15576001 1.9470001
0.12423715 0.15576001 1.9470001
0.15205143 0.15576001 1.9470001
0.16503143 0.15576001 1.9470001
0.17059429 0.15576001 1.9470001
0.18172 0.15946858 1.9470001
0.1947 0.15576001 1.9470001
0.20397143 0.15328763 1.9470001
-0.3022486 0.16317715 1.9470001
-0.29421335 0.16441333 1.9470001
-0.28741431 0.16317715 1.9470001
-0.2744343 0.16317715 1.9470001
-0.23734859 0.16688572 1.9470001
-0.22807716 0.16317715 1.9470001
-0.21695143 0.16317715 1.9470001
-0.20397143 0.16317715 1.9470001
-0.19284572 0.16317715 1.9470001
-0.18357429 0.16688572 1.9470001
-0.17059429 0.16317715 1.9470001
-0.15205143 0.16688572 1.9470001
-0.14834286 0.16688572 1.9470001
-0.12423715 0.16688572 1.9470001
-0.11682001 0.16317715 1.9470001
-0.10569429 0.16688572 1.9470001
-0.096422859 0.16688572 1.9470001
-0.087151431 0.16688572 1.9470001
-0.074171431 0.16317715 1.9470001
-0.066754289 0.16317715 1.9470001
-0.055628575 0.16317715 1.9470001
-0.048211429 0.16317715 1.9470001
-0.29297715 0.17059429 1.9470001
-0.14463429 0.17059429 1.9470001
-0.13536286 0.17059429 1.9470001
-0.12980001 0.17059429 1.9470001
-0.30209145 0.14918096 1.9580001
-0.29836193 0.14918096 1.9580001
0.20698857 0.14918096 1.9580001
0.21258287 0.14545143 1.9580001
0.2342141 0.14321372 1.9579999
-0.30395621 0.15477525 1.9580001
-0.29463241 0.15477525 1.9580001
-0.28344381 0.15664001 1.9580001
-0.27971429 0.15664001 1.9580001
0.016782857 0.15664001 1.9580001
0.048483811 0.15664001 1.9580001
0.05594286 0.15664001 1.9580001
0.065266669 0.15291049 1.9580001
0.070860952 0.15291049 1.9580001
0.082049526 0.15664001 1.9580001
0.0932381 0.15664001 1.9580001
0.10442667 0.15664001 1.9580001
0.11561524 0.15291049 1.9580001
0.13799238 0.15664001 1.9580001
0.14545143 0.15664001 1.9580001
0.15477525 0.15477525 1.9580001
0.16409905 0.15415366 1.9580001
0.1771524 0.15664001 1.9580001
0.18274668 0.15664001 1.9580001
0.19393525 0.15477525 1.9580001
0.20139429 0.15291049 1.9580001
-0.30209145 0.16036953 1.9580001
-0.29463241 0.16036953 1.9580001
-0.28468698 0.1616127 1.9580001
-0.27784953 0.16036953 1.9580001
-0.2647962 0.16409905 1.9580001
-0.24428383 0.16409905 1.9580001
-0.23496 0.16285588 1.9580001
-0.22377144 0.16036953 1.9580001
-0.21444763 0.16036953 1.9580001
-0.20512383 0.1616127 1.9580001
-0.19393525 0.16409905 1.9580001
-0.18461144 0.16409905 1.9580001
-0.1771524 0.16409905 1.9580001
-0.15291049 0.16409905 1.9580001
-0.14545143 0.1665854 1.9580001
-0.13426286 0.16782857 1.9580001
-0.12493905 0.16409905 1.9580001
-0.11437207 0.1616127 1.9580001
-0.10535905 0.16409905 1.9580001
-0.095102862 0.16596381 1.9580001
-0.085779049 0.16409905 1.9580001
-0.074590482 0.16036953 1.9580001
-0.063401908 0.16409905 1.9580001
-0.05594286 0.16409905 1.9580001
-0.044754289 0.16036953 1.9580001
-0.01864762 0.16036953 1.9580001
0.0037295239 0.16036953 1.9580001
-0.1417219 0.1715581 1.9580001
0.063758098 0.14533097 1.9690001
0.071259052 0.14626858 1.9690001
-0.23252954 0.15752001 1.9690001
-0.22502859 0.15752001 1.9690002
-0.12001524 0.15752001 1.9690001
-0.045005713 0.15752001 1.9690002
-0.035629526 0.15752001 1.9690001
0 0.15752001 1.9690001
0.011251429 0.15752001 1.9690001
0.035629526 0.15752001 1.9690001
0.041255239 0.15752001 1.9690001
0.053756829 0.15251936 1.9690002
0.062820479 0.15095666 1.9690001
0.075759619 0.15151924 1.9690001
0.084385715 0.15376952 1.9690001
0.10876381 0.15376952 1.9690001
0.11251429 0.15376952 1.9690001
0.14439334 0.15376952 1.9690001
0.15376952 0.15376952 1.9690001
0.16127048 0.15376952 1.9690001
0.17439714 0.15376952 1.9690001
0.18752381 0.15752001 1.9690001
0.19314954 0.15376952 1.9690001
0.20252572 0.15001905 1.9690001
-0.25503239 0.16502096 1.9690001
-0.24190572 0.16127048 1.9690001
-0.23628001 0.16127048 1.9690001
-0.19502477 0.16127048 1.9690002
-0.18377334 0.16127048 1.9690002
-0.17439714 0.16127048 1.9690001
-0.16689619 0.16127048 1.9690001
-0.14439334 0.16502096 1.9690001
-0.13501716 0.16502096 1.9690002
-0.12564096 0.16127048 1.9690001
-0.11626477 0.16127048 1.9690001
-0.10251302 0.16252065 1.9690002
-0.093761906 0.16220811 1.9690001
-0.084385715 0.16127048 1.9690001
-0.075009525 0.16127048 1.9690001
-0.063758098 0.16127048 1.9690002
-0.054381907 0.16127048 1.9690001
-0.048756193 0.16127048 1.9690001
-0.013126668 0.16127048 1.9690001
-0.0056257145 0.16127048 1.9690001
0.056571431 0.14708573 1.9800001
0.20742857 0.14708573 1.9800001
0.21120001 0.14708573 1.9800001
-0.24325715 0.1584 1.9800001
-0.23382859 0.15588571 1.9800001
-0.21874286 0.1584 1.9800001
-0.18480001 0.1584 1.9800001
-0.17348573 0.1584 1.9800001
-0.16782857 0.1584 1.9800001
-0.12445715 0.15714286 1.9800001
-0.11502858 0.1584 1.9800001
-0.10560001 0.1584 1.9800001
-0.090514287 0.1584 1.9800001
-0.086742863 0.1584 1.9800001
-0.075428575 0.1584 1.9800001
-0.064114287 0.1584 1.9800001
-0.054685719 0.1584 1.9800001
-0.04525714 0.15462857 1.9800001
-0.03017143 0.1584 1.9800001
-0.026400002 0.1584 1.9800001
0.005657143 0.1584 1.9800001
0.03017143 0.1584 1.9800001
0.045257144 0.1584 1.9800001
0.056571431 0.15085715 1.9800001
0.082971431 0.15085715 1.9800001
0.12068572 0.15462857 1.9800001
0.16782857 0.15085715 1.9800001
0.18480001 0.15462857 1.9800001
0.19988573 0.15085715 1.9800001
-0.26777145 0.16217144 1.9800001
-0.20365715 0.16217144 1.9800001
-0.16217144 0.16217144 1.9800001
-0.15274286 0.16217144 1.9800001
-0.14520001 0.16217144 1.9800001
-0.13577144 0.16217144 1.9800001
0.20489144 0.14797714 1.9920001
-0.2428343 0.15556572 1.9920001
-0.23904 0.15556572 1.9920001
-0.22386287 0.15556572 1.9920001
-0.21437715 0.15936001 1.9920001
-0.20489144 0.15936001 1.9920001
-0.19540572 0.15936001 1.9920001
-0.18592 0.15936001 1.9920001
-0.17833143 0.15936001 1.9920001
-0.14418286 0.15936001 1.9920001
-0.13469714 0.15936001 1.9920001
-0.12521143 0.15556572 1.9920001
-0.11382857 0.15556572 1.9920001
-0.10434286 0.15556572 1.9920001
-0.09675429 0.15936001 1.9920001
-0.083474286 0.15936001 1.9920001
-0.053120002 0.15556572 1.9920001
-0.022765715 0.15936001 1.9920001
-0.015177143 0.15936001 1.9920001
-0.0056914287 0.15936001 1.9920001
0 0.15556572 1.9920001
0.017074287 0.15556572 1.9920001
0.026560001 0.15936001 1.9920001
0.041737143 0.15556572 1.9920001
0.094857149 0.15556572 1.9920001
0.10434286 0.15556572 1.9920001
0.12710857 0.15556572 1.9920001
0.13469714 0.15556572 1.9920001
0.14038858 0.15556572 1.9920001
0.15936001 0.15177144 1.9920001
0.16315429 0.15177144 1.9920001
0.17643429 0.15177144 1.9920001
0.1897143 0.15177144 1.9920001
0.19540572 0.15177144 1.9920001
-0.2656 0.16315429 1.9920001
-0.25421715 0.16505143 1.9920001
-0.15936001 0.16315429 1.9920001
0.19457714 0.14879429 2.003
0.20220762 0.14879429 2.003
-0.24417524 0.15388127 2.003
-0.23463716 0.15260953 2.003
-0.22509904 0.15260953 2.003
-0.21619684 0.15515302 2.003
-0.20983811 0.15642476 2.003
-0.19457716 0.15642476 2.003
-0.14497906 0.15642476 2.003
-0.13353334 0.15642476 2.003
-0.1297181 0.15642476 2.003
-0.095380962 0.15642476 2.003
-0.083935246 0.15642476 2.003
-0.074397147 0.15642476 2.003
-0.064859048 0.15642476 2.003
-0.057228573 0.15642476 2.003
-0.038152382 0.15642476 2.003
-0.011445715 0.15642476 2.003
-0.0057228571 0.15642476 2.003
0.0057228571 0.15642476 2.003
0.011445715 0.15642476 2.003
0.036244765 0.15642476 2.003
0.047690481 0.15642476 2.003
0.08775048 0.15260953 2.003
0.10301143 0.15260953 2.003
0.12399524 0.15260953 2.003
0.14879429 0.15260953 2.003
0.18503906 0.15260953 2.003
-0.27088192 0.16024001 2.003
-0.26325142 0.16405524 2.003
-0.25562096 0.1627835 2.003
-0.20602286 0.16024001 2.003
-0.16214763 0.16024001 2.003
-0.15451714 0.16024001 2.003
-0.26866668 0.14968573 2.0150001
-0.23412381 0.14968573 2.0150001
-0.22452858 0.14968573 2.0150001
-0.21877144 0.14968573 2.0150001
-0.063328579 0.14968573 2.0150001
0.17655239 0.14776668 2.0150001
0.18477689 0.14694424 2.0150001
0.19519457 0.14584763 2.0150001
0.20533811 0.14584762 2.0150001
0.21301429 0.14584762 2.0150001
-0.27250478 0.15544286 2.0150001
-0.26866668 0.15544286 2.0150001
-0.25523335 0.15544286 2.0150001
-0.24947619 0.15352382 2.0150001
-0.21301429 0.15352382 2.0150001
-0.20533811 0.15736191 2.0150001
-0.19574286 0.15352382 2.0150001
-0.18422858 0.15736191 2.0150001
-0.17399366 0.15608256 2.0150001
-0.1688762 0.15544286 2.0150001
-0.15544286 0.15736191 2.0150001
-0.13817143 0.15736191 2.0150001
-0.1247381 0.15352382 2.0150001
-0.11322381 0.15352382 2.0150001
-0.10554762 0.15352382 2.0150001
-0.095952384 0.15736191 2.0150001
-0.0844381 0.15736191 2.0150001
-0.065247625 0.15352382 2.0150001
-0.05565238 0.15352382 2.0150001
