# .PCD v0.7 - Point Cloud Data file format
VERSION 0.7
FIELDS x y z
SIZE 4 4 4
TYPE F F F
COUNT 1 1 1
WIDTH 1529
HEIGHT 1
VIEWPOINT 0 0 0 1 0 0 0
POINTS 1529
DATA ascii
-0.30478287 0.24220666 1.5460001
-0.29521239 0.24367905 1.5460001
-0.28564191 0.24441524 1.5460001
-0.27680764 0.24220666 1.5460001
-0.24441524 0.2414705 1.5460001
-0.23558097 0.24245207 1.5460001
-0.2247835 0.24245207 1.5460001
-0.21496762 0.2414705 1.5460001
-0.20760572 0.24147049 1.5460001
-0.17226857 0.24147049 1.5460001
-0.16490668 0.2414705 1.5460001
-0.15430553 0.24205944 1.5460001
-0.12220763 0.24147049 1.5460001
-0.11631811 0.24147049 1.5460001
-0.078036189 0.24147049 1.5460001
-0.064784765 0.24343367 1.5460001
-0.053005714 0.2414705 1.5460001
-0.047116194 0.24147049 1.5460001
-0.033864763 0.24147049 1.5460001
-0.026502859 0.24147049 1.5460001
-0.011779048 0.24147049 1.5460001
-0.0073619047 0.24147049 1.5460001
0.0073619047 0.24294287 1.5460001
0.01472381 0.24637842 1.5460001
0.022085715 0.24736001 1.5460001
-0.37692955 0.25535294 1.5460002
0.017668571 0.25030476 1.5460001
0.025913905 0.25089368 1.5460001
0.033864763 0.25766668 1.5460001
-0.37692955 0.2650286 1.5460002
-0.37840194 0.2709181 1.5460001
-0.37666416 0.23467557 1.5530001
-0.24256381 0.23960572 1.5530001
-0.23812667 0.23960572 1.5530001
-0.21298288 0.23960572 1.5530001
-0.17156953 0.23960572 1.5530001
-0.13163525 0.23960572 1.5530001
-0.12424 0.23861969 1.5530001
-0.11684477 0.23664762 1.5530001
-0.10205429 0.23664762 1.5530001
-0.097617149 0.23664762 1.5530001
-0.087263808 0.23960572 1.5530001
-0.056203812 0.23960572 1.5530001
-0.04437143 0.23960572 1.5530001
-0.035497144 0.23960572 1.5530001
-0.026622858 0.23960572 1.5530001
-0.011832382 0.23960572 1.5530001
-0.0073952386 0.23960572 1.5530001
0.004437143 0.23960572 1.5530001
-0.3815943 0.24256381 1.5530001
-0.3224324 0.24552192 1.5530001
-0.31207907 0.24404287 1.5530001
-0.29433048 0.24256381 1.5530001
-0.28693524 0.2425638 1.5530001
-0.27510285 0.24256381 1.5530001
-0.2632705 0.24256381 1.5530001
-0.23221049 0.24256381 1.5530001
-0.22777334 0.24256381 1.5530001
-0.20262954 0.24256381 1.5530001
-0.18783906 0.24256381 1.5530001
-0.072473332 0.24256381 1.5530001
-0.06359905 0.24256381 1.5530001
-0.059161905 0.24256381 1.5530001
-0.020706667 0.24256381 1.5530001
-0.016269524 0.24256381 1.5530001
0.008874286 0.24256381 1.5530001
0.015382096 0.24374704 1.5530001
0.025143811 0.24700096 1.5530001
0.035497144 0.24848001 1.5530001
-0.3815943 0.25735429 1.5530001
0.035497148 0.25390318 1.5530001
0.041413333 0.25735429 1.5530001
-0.38336915 0.26445371 1.5530001
0.03845524 0.26031238 1.5530001
-0.39199874 0.23778604 1.567
-0.38528994 0.23737374 1.5656
-0.37309524 0.23878096 1.567
-0.35220191 0.23878096 1.567
-0.34474 0.23803477 1.567
-0.33428383 0.23707493 1.5623335
-0.32312 0.23824763 1.5635
-0.31041524 0.23878096 1.567
-0.30743048 0.23878096 1.567
-0.29549143 0.23878096 1.567
-0.24176572 0.23878096 1.567
-0.22087239 0.23878096 1.567
-0.21426731 0.23806985 1.5623335
-0.20893334 0.23878096 1.567
-0.18207048 0.23878096 1.567
-0.17610095 0.23878096 1.567
-0.093806669 0.23824763 1.5635
-0.071634285 0.23878096 1.567
-0.065664768 0.23878096 1.567
-0.055218097 0.23878096 1.567
-0.043279048 0.23878096 1.567
-0.038801905 0.23878096 1.567
-0.023281144 0.23758705 1.567
-0.014914921 0.23711081 1.5658334
-0.0059628575 0.23693304 1.5646667
0.004678912 0.23689225 1.5630001
0.01492381 0.23728858 1.567
0.021888254 0.23778604 1.567
0.034324761 0.23878096 1.567
0.04626381 0.23878096 1.567
-0.3924962 0.24475048 1.567
-0.3864215 0.24512519 1.5640001
-0.37309524 0.24176572 1.567
-0.36354402 0.24295962 1.567
-0.35492444 0.24307589 1.5658334
-0.34921715 0.24176572 1.567
-0.3328 0.24068572 1.5600001
-0.32350287 0.24169858 1.5617501
-0.31641373 0.24252228 1.5642
-0.30524811 0.24122572 1.5635
-0.29505146 0.24140573 1.5646667
-0.28504476 0.24176572 1.567
-0.27324191 0.24196859 1.5635
-0.26504713 0.24196859 1.5635
-0.25554287 0.24068572 1.5600001
-0.24811429 0.24068572 1.5600001
-0.23377715 0.24122572 1.5635
-0.22617079 0.24104571 1.5623335
-0.21988572 0.24068572 1.5600001
-0.20502858 0.24068572 1.5600001
-0.19467545 0.24290058 1.5628
-0.18450858 0.24104571 1.5623335
-0.17680001 0.24068572 1.5600001
-0.1649143 0.24068572 1.5600001
-0.15748572 0.24068572 1.5600001
-0.081714287 0.24068572 1.5600001
-0.074285716 0.24068572 1.5600001
-0.065371431 0.24068572 1.5600001
-0.05447619 0.24068572 1.5600001
-0.032685716 0.24068572 1.5600001
-0.024761906 0.24068572 1.5600001
-0.016342858 0.24068572 1.5600001
0.0089142863 0.24068572 1.5600001
0.014857143 0.24068572 1.5600001
0.025876764 0.24327886 1.5614002
0.035700783 0.24503221 1.5619092
0.044656988 0.24559619 1.5629168
0.052233335 0.24475048 1.567
-0.39339164 0.25609261 1.567
-0.3874743 0.25494859 1.5600001
0.038628574 0.25257143 1.5600001
0.044996191 0.25545979 1.5617502
0.05312876 0.25460023 1.5670002
-0.39473477 0.26564381 1.567
-0.38851431 0.26371431 1.5600001
0.044771429 0.26564381 1.5670002
0.050740954 0.26564381 1.567
-0.39398858 0.27161333 1.567
-0.38925716 0.27040002 1.5600001
-0.40174478 0.23834857 1.5740001
-0.39674795 0.23585017 1.5740002
-0.38675427 0.23385143 1.574
-0.37476194 0.23784889 1.574
-0.36576763 0.23984762 1.574
-0.35527429 0.23834859 1.5740001
-0.34478095 0.23585017 1.574
-0.33728573 0.23385143 1.5740001
-0.32479367 0.23784889 1.574
-0.31480002 0.23984763 1.5740001
-0.30430669 0.23984763 1.5740001
-0.29621181 0.23864838 1.5740001
-0.28332001 0.23984763 1.5740001
-0.27582479 0.23984762 1.574
-0.26533145 0.23984763 1.5740001
-0.25483811 0.23984763 1.5740001
-0.24584381 0.23984763 1.5740001
-0.23984763 0.23984763 1.5740001
-0.22635621 0.23984763 1.5740001
-0.20536953 0.23984763 1.5740001
-0.19337714 0.23984763 1.5740001
-0.18738097 0.23984763 1.5740001
-0.17538857 0.23834857 1.5740001
-0.16489524 0.23984762 1.574
-0.15590096 0.23984762 1.574
-0.14840573 0.23984763 1.5740001
-0.12592 0.23984763 1.5740001
-0.11692572 0.23684953 1.574
-0.080948576 0.23984763 1.5740001
-0.074952386 0.23884825 1.574
-0.056963813 0.23684953 1.5740001
-0.047969524 0.23984763 1.5740001
-0.034478098 0.23984763 1.5740001
-0.025483811 0.23610002 1.5740001
-0.014990476 0.23385143 1.574
-0.0074952384 0.23385143 1.5740001
0.0029980952 0.23684953 1.5740001
0.016489524 0.23385143 1.5740001
0.026483176 0.23734921 1.5740002
0.036576763 0.23684955 1.5740001
0.044221904 0.23759906 1.5740001
0.051966984 0.23884825 1.574
-0.40174478 0.24284573 1.5740001
-0.39874664 0.24584383 1.574
-0.20087239 0.24284573 1.5740001
-0.19787429 0.24284573 1.5740001
0.056963813 0.24734285 1.5740001
-0.40174478 0.25184 1.5740001
-0.39874664 0.25483811 1.574
0.059212387 0.25558764 1.5740001
-0.40174475 0.26683047 1.574
-0.39874664 0.26483175 1.574
0.056963809 0.26483175 1.5740002
0.062959999 0.26683047 1.5740001
-0.39874667 0.27282667 1.5740001
-0.40622476 0.23629145 1.5836668
-0.39148572 0.23188001 1.5810001
-0.38568142 0.23321953 1.585
-0.37436956 0.23850477 1.585
-0.36339971 0.23638381 1.5876669
-0.35510287 0.23452382 1.5826002
-0.34615201 0.23378858 1.5858002
-0.3366276 0.2339724 1.585
-0.3243086 0.2387054 1.5863334
-0.31282812 0.23744714 1.5830001
-0.30568001 0.23680916 1.5858002
-0.2953597 0.23649208 1.585
-0.28304189 0.23717372 1.5842001
-0.27450478 0.23679335 1.5836668
-0.26490721 0.23729363 1.5855715
-0.25424001 0.23910667 1.5890001
-0.24516001 0.23910667 1.5890001
-0.23305334 0.23910667 1.5890001
-0.22359747 0.2387054 1.5863334
-0.21381144 0.23790286 1.581
-0.20884001 0.23910667 1.5890001
-0.19522001 0.23910667 1.5890001
-0.18300319 0.23629145 1.5836668
-0.17579544 0.23741448 1.5858002
-0.16591303 0.23830414 1.5836668
-0.15610857 0.2387054 1.5863334
-0.1252943 0.23850477 1.585
-0.11142286 0.23790286 1.5810001
-0.1055727 0.23830414 1.5836668
-0.095339999 0.23910667 1.5890001
-0.076791435 0.23790286 1.5810001
-0.064745717 0.23790286 1.5810001
-0.052837145 0.23850477 1.585
-0.045328889 0.2387054 1.5863334
-0.03471905 0.23850477 1.585
-0.015087619 0.23227112 1.5836668
-0.0060457145 0.2339724 1.585
0.0045209527 0.23518857 1.5830002
0.012045715 0.23489144 1.5810001
0.024745526 0.23355392 1.5842001
0.034516465 0.23384109 1.5855715
0.044657525 0.23415621 1.5842001
0.054346669 0.23699524 1.5850002
0.065073334 0.23759334 1.589
0.075666666 0.23789601 1.5890001
0.083233334 0.23910667 1.5890001
-0.4116267 0.24213335 1.5890001
-0.40553904 0.24643524 1.5810002
-0.31921145 0.2409143 1.5810001
-0.28909716 0.2409143 1.5810001
-0.25597143 0.2409143 1.5810001
-0.24994858 0.2409143 1.5810001
-0.23489143 0.2409143 1.581
-0.20176572 0.2409143 1.5810001
-0.1987543 0.2409143 1.5810001
-0.14340097 0.24152383 1.585
-0.13574794 0.24132065 1.5836668
-0.12949143 0.2409143 1.5810001
-0.090342857 0.2409143 1.5810001
-0.086039051 0.24152383 1.585
0.057217143 0.24242002 1.5810001
0.064529933 0.2455785 1.5861429
0.075666666 0.24516003 1.589
0.083881907 0.24516001 1.589
0.090800002 0.24516001 1.5890001
-0.40503713 0.25597143 1.5810001
0.066405505 0.25453103 1.5845556
0.075666666 0.25423998 1.589
0.084242225 0.25474444 1.5890001
0.090800002 0.25726667 1.5890001
-0.40635198 0.26346093 1.5826002
0.067128003 0.26456669 1.5874
0.074153334 0.26332 1.5890001
0.085957333 0.26210934 1.5890001
0.094734661 0.26271465 1.589
0.057506669 0.27391335 1.5890001
-0.41404802 0.23529598 1.5960001
-0.40736002 0.23408 1.5960001
-0.38304001 0.23712 1.5960001
-0.37392002 0.23529598 1.5960001
-0.36556002 0.23484001 1.5960001
-0.35264 0.23408 1.5960001
-0.33288002 0.23712 1.5960001
-0.32832003 0.23712 1.5960001
-0.31768 0.23712 1.5960001
-0.29488003 0.23610668 1.5960001
-0.28575999 0.23559999 1.5960001
-0.27512002 0.23408 1.5960001
-0.26144001 0.23712 1.5960001
-0.25688002 0.23712 1.5960001
-0.21280001 0.23712 1.5960001
-0.20064001 0.23712 1.5960001
-0.19456001 0.23711999 1.5960001
-0.18848 0.23712 1.5960001
-0.17175999 0.23712 1.5960001
-0.1672 0.23712 1.5960001
-0.072960004 0.23712 1.5960001
-0.066880003 0.23712 1.5960001
-0.053200003 0.23712 1.5960001
-0.04408 0.23712 1.5960001
-0.034453336 0.23711999 1.5960001
-0.024320001 0.23509334 1.5960001
-0.0060800002 0.23408 1.5960001
0.0045600003 0.23408 1.5960001
0.016720001 0.23408 1.5960001
0.027360002 0.23104002 1.5960001
0.034960002 0.23104002 1.5960001
0.045600001 0.23256001 1.5960001
0.054720003 0.23509334 1.5960001
0.065866672 0.23408 1.5960001
0.076000005 0.23509334 1.5960001
0.08512 0.23636001 1.5960001
0.092720002 0.23712 1.5960001
-0.42256001 0.24624 1.5960001
-0.41675636 0.24485821 1.596
-0.2432 0.24016 1.5960001
-0.20520002 0.24016 1.5960001
-0.18848 0.24016 1.5960001
-0.15504001 0.24016 1.5960001
-0.14896001 0.24016 1.5960001
-0.13376002 0.24016 1.5960001
-0.095760003 0.24016 1.5960001
-0.08512 0.24016 1.5960001
0.088160001 0.24421334 1.5960001
0.093480006 0.24510001 1.596
-0.41496003 0.25536001 1.5960001
0.086133339 0.2543467 1.5960001
0.094620004 0.25498003 1.596
0.10336 0.25840002 1.5960001
-0.41344002 0.26448002 1.5960001
0.077520005 0.26600003 1.5960001
0.0836 0.26600003 1.5960001
0.10488001 0.26144001 1.5960001
0.062320001 0.27512002 1.5960001
0.077520005 0.27056 1.5960001
0.0836 0.27056 1.5960001
-0.41830668 0.229 1.603
-0.43052003 0.23816001 1.603
-0.42397717 0.23597907 1.6029999
-0.41525337 0.23205334 1.603
-0.40609336 0.23510668 1.603
-0.38268447 0.23612446 1.603
-0.37556002 0.23816001 1.603
-0.35418668 0.23205334 1.603
-0.33586669 0.23510666 1.603
-0.32304269 0.23571734 1.603
-0.31602001 0.23510668 1.603
-0.29006669 0.23510668 1.603
-0.28472334 0.23358002 1.603
-0.27174667 0.23510668 1.603
-0.26564002 0.23510666 1.603
-0.25190002 0.23816001 1.603
-0.24121334 0.23816001 1.603
-0.23510666 0.23816001 1.603
-0.22594666 0.23816001 1.603
-0.21576889 0.23816001 1.603
-0.20457335 0.23714225 1.603
-0.19541334 0.23510666 1.603
-0.18472667 0.23510668 1.603
-0.16335334 0.23816001 1.603
-0.12824 0.23816001 1.603
-0.10534 0.23816001 1.603
-0.075315557 0.23816001 1.603
-0.062593333 0.23816001 1.603
-0.058013335 0.23816001 1.603
-0.048853334 0.23816001 1.603
-0.03664 0.23816001 1.603
-0.027480001 0.23510668 1.603
-0.0030533334 0.23510668 1.603
0.012213334 0.23510668 1.603
0.0229 0.23205334 1.603
0.0458 0.23205334 1.603
0.058013335 0.23510668 1.603
0.065646671 0.23358001 1.603
0.075112 0.23266402 1.603
0.085493334 0.2340889 1.603
0.094653338 0.23612446 1.603
-0.43052003 0.24426667 1.603
-0.42624536 0.24365601 1.603
-0.14350666 0.24121334 1.603
0.097706668 0.24426667 1.603
-0.43052003 0.25495332 1.603
-0.42441335 0.25525871 1.6029999
0.10152335 0.25419 1.603
-0.43052003 0.26258668 1.603
-0.42365003 0.26335004 1.603
-0.41830668 0.26564002 1.603
-0.4237619 0.22806096 1.618
-0.44071239 0.23730667 1.618
-0.43420288 0.23628001 1.6110001
-0.42699477 0.23192716 1.6127501
-0.41425717 0.23167714 1.6110001
-0.40351716 0.23628001 1.6110001
-0.38468704 0.233887 1.6156667
-0.37445146 0.23422477 1.618
-0.36209145 0.23321144 1.6110001
-0.33212572 0.23525238 1.6145
-0.32673031 0.23320039 1.6152
-0.31503773 0.23504952 1.6152
-0.30598289 0.23525238 1.6145
-0.29513523 0.23364572 1.6140001
-0.28427202 0.23135658 1.6152
-0.27463716 0.23321144 1.6110001
-0.26447713 0.23525238 1.6145
-0.25678575 0.23679334 1.6145
-0.24702001 0.23934858 1.6110001
-0.23218381 0.23679334 1.6145
-0.22433461 0.23662223 1.6133333
-0.2148 0.23628001 1.6110001
-0.20489486 0.23504686 1.6152
-0.19318286 0.23473859 1.61625
-0.18411429 0.23474573 1.6110001
-0.17516191 0.23662223 1.6133333
-0.16642286 0.23730667 1.618
-0.15649715 0.23934858 1.6110001
-0.14115429 0.23934858 1.6110001
-0.13655144 0.23934858 1.6110001
-0.11070857 0.23832762 1.6145
-0.10379095 0.23756048 1.6145
-0.095332384 0.23832764 1.6145
-0.086044453 0.2381565 1.6133333
-0.075180002 0.23628001 1.6110001
-0.064622223 0.23696445 1.6156667
-0.05701524 0.23730667 1.618
-0.041605718 0.23730667 1.618
-0.033856507 0.23696445 1.6156667
-0.027737144 0.23422477 1.618
0.0061638094 0.23422475 1.618
0.016910477 0.2337181 1.6145
0.049097143 0.23321144 1.6110001
0.055896003 0.23218401 1.6124001
0.063826285 0.2313703 1.6110001
0.073756821 0.2304762 1.6133333
0.084565721 0.23217715 1.6145
0.095332384 0.23320223 1.6145
0.10346238 0.23614788 1.615375
0.11094858 0.23730667 1.618
0.12019429 0.23730667 1.618
-0.44225335 0.24501145 1.618
-0.4369646 0.24609943 1.6110001
-0.15101334 0.24038859 1.618
-0.14639047 0.24038859 1.618
-0.13252191 0.24038859 1.618
-0.12173524 0.24038859 1.618
-0.11557143 0.24038859 1.618
0.10482495 0.24529603 1.6138
0.11375031 0.24543168 1.618
0.12259132 0.24552509 1.618
-0.44379434 0.2557981 1.618
-0.43612075 0.25507504 1.6110001
-0.42960003 0.25776002 1.6110001
0.10617258 0.25407773 1.6110001
0.11403048 0.2557981 1.618
0.12019429 0.2557981 1.618
-0.43727145 0.26082858 1.6110001
0.11403048 0.26196191 1.618
0.06504 0.22918858 1.626
0.071234286 0.22918858 1.626
-0.4459886 0.23848 1.626
-0.43669716 0.2338343 1.626
-0.41192001 0.23538287 1.626
-0.38094857 0.23538287 1.626
-0.34223431 0.23538287 1.626
-0.3344914 0.23331811 1.626
-0.32210287 0.23228572 1.626
-0.31590858 0.2338343 1.626
-0.30455241 0.23435049 1.626
-0.27874288 0.23228572 1.626
-0.26480573 0.23538287 1.626
-0.24312572 0.23848 1.626
-0.23538285 0.23693144 1.626
-0.22609143 0.23538287 1.626
-0.21370287 0.23538287 1.626
-0.2013143 0.23228572 1.626
-0.19666858 0.23228572 1.626
-0.17344002 0.23538287 1.626
-0.16337429 0.23615715 1.626
-0.15563144 0.23770571 1.626
-0.14556572 0.23848 1.626
-0.11614285 0.23848 1.626
-0.10530286 0.23538287 1.626
-0.085171431 0.23538287 1.626
-0.074331433 0.23538287 1.626
-0.06504 0.23538287 1.626
-0.055748574 0.23693144 1.626
-0.046457142 0.23744762 1.626
-0.034068573 0.23538287 1.626
-0.023228573 0.23538287 1.626
-0.015485715 0.23538287 1.626
-0.006194286 0.23538287 1.626
0.0041295239 0.23331811 1.626
0.015485715 0.23331811 1.626
0.027874287 0.23228572 1.626
0.03097143 0.23228572 1.626
0.086720005 0.23228572 1.626
0.099108577 0.23228572 1.626
0.10736761 0.23331811 1.626
0.11498143 0.23499574 1.6260002
0.12388571 0.23538287 1.6260002
0.13111238 0.23744762 1.626
-0.45218286 0.24777144 1.626
-0.44753718 0.2446743 1.626
0.11769143 0.24157715 1.626
0.12543429 0.24157715 1.626
0.13162857 0.24467428 1.626
-0.45218286 0.25396571 1.626
-0.44908574 0.25396574 1.626
0.12574401 0.25458515 1.626
0.13279 0.25435287 1.6260002
0.12450515 0.26201826 1.626
0.13240285 0.26093429 1.626
-0.44351429 0.23498477 1.6340001
-0.43884572 0.23342858 1.6340001
-0.42017144 0.23342858 1.6340001
-0.39682859 0.23654096 1.6340001
-0.37348571 0.23654096 1.6340001
-0.35325524 0.23654096 1.6340001
-0.34858668 0.23654096 1.6340001
-0.31435049 0.23342858 1.6340002
-0.30501336 0.23239112 1.6340002
-0.29723239 0.23031619 1.6340001
-0.28633907 0.23031621 1.6340002
-0.27388954 0.23342858 1.6340002
-0.26455238 0.23498477 1.6340001
-0.25521526 0.23861589 1.6340002
-0.24743429 0.23809716 1.6340001
-0.23342858 0.23446603 1.6340002
-0.22097905 0.23654096 1.6340001
-0.21164191 0.23342858 1.6340001
-0.20697334 0.23342858 1.6340001
-0.19296762 0.23342858 1.6340001
-0.18518667 0.23576286 1.6340001
-0.17273715 0.23342858 1.6340001
-0.16557868 0.23218362 1.6340001
-0.15624154 0.23405106 1.6340001
-0.14565942 0.2384084 1.6340001
-0.13072 0.23965335 1.6340001
-0.12293906 0.23965335 1.6340001
-0.11308318 0.23550349 1.6340002
-0.10737714 0.23342858 1.6340001
-0.094927624 0.23576286 1.6340001
-0.084034286 0.23342858 1.6340001
-0.074697144 0.23342858 1.6340001
-0.054466669 0.23654096 1.6340001
-0.044610795 0.23498476 1.6339999
-0.034236189 0.23342858 1.6340002
-0.026455238 0.23342858 1.6340001
-0.0062247622 0.23342858 1.6340002
0.0031123811 0.23342858 1.6340001
0.012449524 0.23342858 1.6340001
0.023342859 0.23342858 1.6340001
0.035792381 0.23342858 1.6340001
0.045129523 0.23342858 1.6340001
0.052910477 0.23342858 1.6340001
0.07625334 0.23031619 1.6340001
0.09804 0.23031619 1.6340001
0.10582095 0.23031621 1.6340002
0.1151581 0.23031621 1.6340002
0.12527335 0.23109427 1.6340001
0.13227619 0.23498477 1.6340001
-0.45337018 0.24380319 1.6340002
-0.12760763 0.24276572 1.6340001
0.13694477 0.2458781 1.6340002
0.13694477 0.25210285 1.6340001
0.14005715 0.25677145 1.6340001
0.14005715 0.26144001 1.6340001
-0.27640381 0.22928953 1.649
0.0047114287 0.22928953 1.649
0.015704762 0.22928953 1.649
0.11778571 0.22928953 1.649
0.1256381 0.22928953 1.649
0.13192001 0.22928953 1.649
-0.4539322 0.23699582 1.6458
-0.44697717 0.23442858 1.641
-0.43710381 0.23186669 1.645
-0.42716953 0.23243049 1.649
-0.41517049 0.23656288 1.645
-0.40732574 0.23656288 1.645
-0.39576003 0.23557144 1.649
-0.3847667 0.23557144 1.649
-0.37377334 0.23557144 1.649
-0.36375621 0.2351905 1.6463333
-0.35806859 0.23557144 1.649
-0.34310383 0.23500001 1.645
-0.33132574 0.23130287 1.641
-0.32980001 0.23243049 1.649
-0.31723621 0.23243049 1.649
-0.30781335 0.23243049 1.649
-0.29381716 0.23130287 1.641
-0.28131428 0.23130287 1.641
-0.27506289 0.23130287 1.6410002
-0.26476288 0.23290856 1.6450001
-0.25393993 0.23515344 1.6436667
-0.24386072 0.23446071 1.6439999
-0.23606715 0.23293 1.6470001
-0.22577779 0.2351905 1.6463333
-0.21630211 0.23322973 1.6458
-0.2047343 0.23130287 1.641
-0.18217525 0.23557144 1.649
-0.17504001 0.23234479 1.6410002
-0.16253714 0.23130287 1.641
-0.15353715 0.23342954 1.645
-0.14395429 0.23628096 1.6430001
-0.13506095 0.23871239 1.649
-0.12523682 0.23794033 1.6436667
-0.11764095 0.23528193 1.6470001
-0.10436826 0.23376255 1.6436667
-0.095570482 0.23500001 1.645
-0.084394291 0.23442858 1.641
-0.07441476 0.23342954 1.645
-0.066396192 0.23362935 1.6442001
-0.053741906 0.23376255 1.6436666
-0.043902222 0.23205464 1.6463333
-0.034489527 0.23205461 1.6463333
-0.025092065 0.23309653 1.6463333
-0.015030858 0.23362932 1.6442001
-0.0062819049 0.2324305 1.649
0.0046885717 0.23130287 1.641
0.015628571 0.23130287 1.6410002
0.02505143 0.23167874 1.6436666
0.034550477 0.2324305 1.649
0.043907303 0.23309653 1.6463333
0.053917717 0.23260459 1.6458
0.08480572 0.2324305 1.649
0.092658103 0.23243049 1.649
0.13567112 0.23376508 1.6436666
0.14238985 0.23766541 1.649
0.15076572 0.23871239 1.649
-0.4629764 0.24562249 1.6489999
-0.45479143 0.24068001 1.641
-0.13596857 0.24068001 1.641
-0.12815429 0.24068001 1.641
0.13753143 0.24068001 1.641
0.14433143 0.24472846 1.6472223
0.15076572 0.24656478 1.649
-0.46486101 0.25441715 1.649
-0.45948002 0.25318286 1.6410002
0.14422476 0.25434503 1.646
0.16332953 0.25598764 1.649
0.14570382 0.26162952 1.645
0.15076572 0.26069906 1.649
0.16647048 0.26069906 1.649
0.18374571 0.26069906 1.649
-0.3724305 0.22724572 1.6570001
-0.3676962 0.22724572 1.6570001
0.11993524 0.22724572 1.6570001
0.12624763 0.22724573 1.6570001
0.13413811 0.22724572 1.6570001
-0.47027239 0.23987049 1.6570001
-0.46396002 0.23724033 1.6569999
-0.45449147 0.2335581 1.6570001
-0.44660097 0.2335581 1.6570001
-0.43239811 0.23040192 1.6570001
-0.42398158 0.23461016 1.6570001
-0.41425002 0.23513618 1.6569998
-0.40399241 0.23671429 1.6570001
-0.39452383 0.2351362 1.6570001
-0.38505521 0.23461016 1.6570001
-0.37558672 0.23198001 1.6569999
-0.36674935 0.23229563 1.6569999
-0.35507143 0.2351362 1.6569999
-0.34402478 0.2335581 1.6570001
-0.33771241 0.2335581 1.6570001
-0.32508764 0.2335581 1.6570001
-0.31404096 0.2335581 1.6570001
-0.27301049 0.23040192 1.6570001
-0.26669812 0.23040192 1.6570001
-0.25880763 0.2335581 1.6570001
-0.24933906 0.23040192 1.6570001
-0.2335581 0.23198001 1.6570001
-0.22566763 0.2335581 1.6570001
-0.21462096 0.2335581 1.6570001
-0.20199619 0.2335581 1.6570001
-0.18779334 0.23671429 1.6570001
-0.15149716 0.2335581 1.6570001
-0.14202857 0.23671429 1.6570001
-0.1357162 0.23671429 1.6570001
-0.12545857 0.23592524 1.6570001
-0.11677904 0.2335581 1.6570001
-0.091529526 0.2335581 1.6570001
-0.083639055 0.2335581 1.6570001
-0.078904763 0.2335581 1.6570001
-0.063123815 0.2335581 1.6570001
-0.058389526 0.2335581 1.6570001
-0.022093333 0.2335581 1.6570001
-0.018937144 0.2335581 1.6570001
-0.0063123815 0.23040192 1.6570001
0.025249524 0.23040192 1.6570001
0.0347181 0.23040192 1.6570001
0.044186667 0.23145397 1.6570001
0.059967622 0.23040192 1.6570001
0.075748578 0.23040192 1.6570001
0.088373333 0.23040192 1.6570001
0.093107626 0.23040192 1.6570001
0.11204477 0.23040192 1.6570001
0.13729429 0.23040192 1.6570001
0.14588612 0.23390879 1.6569998
0.15465333 0.2351362 1.6569998
0.16372739 0.23710883 1.6569998
-0.47027239 0.24618286 1.6570001
-0.46711621 0.24302667 1.6570001
0.1555551 0.24573199 1.6569998
0.16412191 0.24618289 1.6569998
0.1704343 0.24618286 1.6570001
-0.47027239 0.25565144 1.6570001
0.14834096 0.25565144 1.6570001
0.15465333 0.25565144 1.6569998
0.16412191 0.25438899 1.6569999
0.17477407 0.25683501 1.6569998
0.18411112 0.25775555 1.6570001
0.15623143 0.26196381 1.6570001
0.16096573 0.26196381 1.6570001
0.17832476 0.26196381 1.6570001
-0.41545716 0.22834286 1.6650001
-0.38057145 0.22834286 1.6650001
-0.3742286 0.22622858 1.6650001
-0.0031714286 0.22834286 1.6650001
0.0063428576 0.22834285 1.6650001
0.014271429 0.22834286 1.6650001
0.033300001 0.22834286 1.6650001
0.044400003 0.22834286 1.6650001
0.11417142 0.22834285 1.6650001
0.12368572 0.22517143 1.6650001
0.13425715 0.22622858 1.6650001
0.14588572 0.22834285 1.6650001
-0.4741286 0.23627144 1.6650001
-0.46683431 0.23278284 1.6650002
-0.45827144 0.23151429 1.6650001
-0.44400001 0.23151429 1.6650001
-0.43448573 0.23151429 1.6650001
-0.42497146 0.23151429 1.6650001
-0.41439998 0.23257142 1.6650001
-0.40673572 0.2331 1.6650001
-0.39325714 0.23362857 1.6650001
-0.38480005 0.23257144 1.6650001
-0.3631286 0.23151429 1.6650001
-0.35202858 0.23468572 1.6650001
-0.33458573 0.23151429 1.6650001
-0.32982859 0.23151429 1.6650001
-0.31080002 0.23151429 1.6650001
-0.30445716 0.23151429 1.6650001
-0.29335713 0.23151429 1.6650001
-0.28542855 0.23151429 1.6650001
-0.26164287 0.23151429 1.6650001
-0.25530002 0.23151429 1.6650001
-0.24420001 0.23151429 1.6650001
-0.2331 0.23151429 1.6650001
-0.22517143 0.23151429 1.6650001
-0.21565716 0.23151429 1.6650001
-0.19980001 0.23468572 1.6650001
-0.18077144 0.23468572 1.6650001
-0.15540001 0.23151429 1.6650001
-0.14588572 0.23468572 1.6650001
-0.13425715 0.23362856 1.6650001
-0.12447858 0.23230715 1.6650001
-0.11734286 0.23151429 1.6650001
-0.10465714 0.23468572 1.6650001
-0.095142864 0.23468572 1.6650001
-0.088800006 0.23468572 1.6650001
-0.074528575 0.23151429 1.6650001
-0.066600002 0.23151429 1.6650001
-0.026957143 0.23151429 1.6650001
-0.015857143 0.23151429 1.6650001
0.041228574 0.23151429 1.6650001
0.05391429 0.23151429 1.6650001
0.069771431 0.23151429 1.6650001
0.079285719 0.23151429 1.6650001
0.084042862 0.23151429 1.6650001
0.098314293 0.23151429 1.6650001
0.10465714 0.23151429 1.6650001
0.15857144 0.23151429 1.6650001
0.16570714 0.23230715 1.6650001
0.17125715 0.23627144 1.6650001
-0.4757143 0.24419999 1.6650001
0.17495716 0.24420001 1.6650001
-0.4757143 0.25371432 1.6650001
0.17569716 0.25308001 1.6650002
0.18077144 0.25371429 1.6650001
0.17442858 0.2632286 1.6650001
-0.47481334 0.22944002 1.673
-0.46206668 0.22944 1.6730001
-0.45888001 0.22944 1.6730001
-0.42223334 0.22944 1.6730001
-0.41426668 0.22784668 1.6730001
-0.36646667 0.22944 1.6730001
-0.29636002 0.22944 1.6730001
-0.28361335 0.22944002 1.673
-0.27086666 0.22944 1.6730001
-0.26768002 0.22944 1.6730001
-0.25174668 0.22944 1.6730001
-0.24537334 0.22944 1.6730001
-0.23740667 0.22944 1.6730001
-0.22944 0.22944 1.6730001
-0.13065334 0.22944 1.6730001
-0.12109334 0.22944 1.6730001
-0.11790667 0.22944 1.6730001
-0.07010667 0.22944 1.6730001
-0.025493335 0.22944 1.6730001
-0.015933333 0.22944002 1.673
-0.0079666674 0.22944 1.6730001
0 0.22944 1.6730001
0.038240001 0.22944 1.6730001
0.044613335 0.22752801 1.6730001
0.054173335 0.22944002 1.673
0.062140003 0.22944 1.6730001
0.079666667 0.22944 1.6730001
0.086040013 0.22944002 1.673
0.095600002 0.22944002 1.673
0.10516001 0.22944002 1.673
0.11790667 0.22625335 1.6730001
0.12746668 0.22306667 1.6730001
0.13543335 0.22466001 1.6730001
0.14021334 0.22625335 1.6730001
0.15296 0.22944 1.6730001
-0.48118669 0.23900001 1.6730001
-0.47640669 0.23262668 1.6730001
-0.45410001 0.23262668 1.6730001
-0.44613335 0.23262668 1.6730001
-0.40470669 0.23262668 1.6730001
-0.39674002 0.23262668 1.6730001
-0.36009336 0.23262668 1.6730001
-0.35371998 0.23262668 1.673
-0.34416002 0.23262668 1.6730001
-0.32504001 0.23262668 1.673
-0.31707335 0.23262668 1.6730001
-0.30910668 0.23262668 1.6730001
-0.29954669 0.23262668 1.6730001
-0.21032001 0.23262668 1.6730001
-0.20713334 0.23262668 1.6730001
-0.19757333 0.23581333 1.6730001
-0.18642001 0.23581333 1.6730001
-0.16570668 0.23262668 1.6730001
-0.15614668 0.23262668 1.6730001
-0.14499334 0.23262668 1.6730001
-0.13384001 0.23262668 1.6730001
-0.11472 0.23262668 1.6730001
-0.098786667 0.23581333 1.6730001
-0.086040013 0.23262668 1.673
-0.079666667 0.23262668 1.6730001
-0.063733339 0.23262668 1.6730001
-0.054173335 0.23262668 1.673
-0.043020003 0.23262668 1.6730001
-0.035053335 0.23262668 1.673
-0.022306668 0.23262668 1.6730001
0.065326676 0.23262668 1.6730001
0.073293336 0.23262668 1.6730001
0.17526667 0.23581335 1.6730001
-0.48198336 0.24617 1.6730001
0.17845334 0.24218668 1.6730001
0.18164001 0.24696667 1.6730001
-0.48118672 0.25493336 1.673
0.18164001 0.25174668 1.6730001
-0.48028573 0.22733524 1.6810001
-0.45627144 0.22733524 1.6810001
-0.41304573 0.22733524 1.6810001
-0.40984383 0.22733524 1.6810001
-0.38743049 0.22733524 1.6810001
-0.37142098 0.22733524 1.6810001
-0.28817144 0.22733524 1.6810001
-0.1312781 0.22733524 1.6810001
-0.12487429 0.22733526 1.6810001
-0.11847048 0.22733524 1.6810001
-0.064038098 0.22733524 1.6810001
-0.016009524 0.22733526 1.6810001
-0.0064038099 0.22733526 1.6810001
0.0032019049 0.22733526 1.6810001
0.014408572 0.22733524 1.6810001
0.027216192 0.22733524 1.6810001
0.035220955 0.22733526 1.6810001
0.054432381 0.22733526 1.6810001
0.062437147 0.22733524 1.6810001
0.073643811 0.22733526 1.6810001
0.084850475 0.22733524 1.6810001
0.096057147 0.22653475 1.6810001
0.10486239 0.22653475 1.6810001
0.11366762 0.22733524 1.6810001
0.12327333 0.22413334 1.6810001
0.1312781 0.22413334 1.6810001
-0.48508859 0.23373906 1.6810001
-0.47068003 0.23053715 1.6810001
-0.46747813 0.23053715 1.6810001
-0.45467052 0.23053713 1.6810001
-0.44506478 0.23053713 1.6810001
-0.43545905 0.23053713 1.6810001
-0.42905524 0.23053715 1.6810001
-0.40504098 0.23053715 1.6810001
-0.39063239 0.23053715 1.6810001
-0.38743049 0.23053715 1.6810001
-0.36341619 0.23053715 1.6810001
-0.35541144 0.23053713 1.6810001
-0.34420478 0.2321381 1.6810001
-0.33940193 0.23053715 1.6810001
-0.32339239 0.23053713 1.6810001
-0.31378669 0.23053715 1.6810001
-0.30418095 0.23160446 1.6810001
-0.29297429 0.23053715 1.6810001
-0.27696478 0.23053715 1.6810001
-0.26415715 0.23053715 1.6810001
-0.25775334 0.23053715 1.6810001
-0.24654667 0.23053715 1.6810001
-0.23373906 0.23053715 1.6810001
-0.22413333 0.23053713 1.6810001
-0.21612859 0.23053715 1.6810001
-0.20492192 0.23373906 1.6810001
-0.19371524 0.23694097 1.6810001
-0.18410954 0.23373906 1.6810001
-0.17610477 0.23373906 1.6810001
-0.16543175 0.23160446 1.6810001
-0.15369143 0.23053713 1.6810001
-0.14408572 0.23053713 1.6810001
-0.13608095 0.23053715 1.6810001
-0.12647524 0.23053715 1.6810001
-0.11366762 0.2321381 1.6810001
-0.10566286 0.23373906 1.6810001
-0.094456196 0.23373906 1.6810001
-0.081648573 0.23053715 1.6810001
-0.075244769 0.23053715 1.6810001
-0.065639049 0.23053715 1.6810001
-0.056033336 0.23053715 1.6810001
-0.044826668 0.2321381 1.6810001
-0.025615238 0.23053715 1.6810001
0.01921143 0.23053715 1.6810001
0.027216192 0.23053715 1.6810001
0.06724 0.23053715 1.6810001
0.073643811 0.23053713 1.6810001
0.15689334 0.23053715 1.6810001
0.16329715 0.23053713 1.6810001
0.17717206 0.23373906 1.6810001
0.18531024 0.23413929 1.681
0.19211429 0.23694097 1.6810001
-0.48851919 0.2442596 1.681
0.18635087 0.24430534 1.681
0.19211429 0.24494573 1.6810001
-0.48797029 0.25679278 1.6810001
0.18763164 0.255512 1.6810001
0.19485879 0.25615239 1.681
0.19371524 0.2625562 1.6810001
-0.33313143 0.21993144 1.6980001
0.074388571 0.21993144 1.6980001
0.080476195 0.21889524 1.6900001
0.097028576 0.21993144 1.6980001
0.10349715 0.21993144 1.6980001
-0.50131428 0.2296343 1.6980001
-0.49529335 0.22747619 1.694
-0.48672 0.22662096 1.6900002
-0.47662923 0.22729842 1.6926666
-0.46624956 0.22747619 1.6940001
-0.45453104 0.22726095 1.6948
-0.4452762 0.22828476 1.694
-0.43482289 0.22732246 1.6945715
-0.42442518 0.22704764 1.6932001
-0.41345906 0.2238225 1.6931999
-0.40549663 0.22717008 1.6934286
-0.39526287 0.22747618 1.6939999
-0.38427052 0.22819556 1.6953335
-0.37393048 0.2269381 1.696
-0.36461338 0.22747618 1.6940002
-0.35577145 0.2296343 1.6980001
-0.34687716 0.22801715 1.6980001
-0.33368635 0.22819556 1.6953334
-0.3250792 0.22732246 1.6945715
-0.31422096 0.22793904 1.6957142
-0.30402288 0.2296343 1.6980001
-0.29559046 0.22774668 1.696
-0.2855562 0.22747873 1.6939999
-0.27448255 0.22927366 1.6953335
-0.23448572 0.2296343 1.6980001
-0.22478285 0.2296343 1.6980001
-0.18273714 0.2296343 1.6980001
-0.17364097 0.22855525 1.696
-0.16456001 0.22747619 1.6940001
-0.15488 0.22747619 1.6940001
-0.14600477 0.22828478 1.694
-0.1355162 0.22747619 1.694
-0.12642744 0.22446629 1.6931999
-0.11545829 0.22704764 1.6932001
-0.10598096 0.22877106 1.6964
-0.092177145 0.2296343 1.6980001
-0.083964445 0.22927366 1.6953335
-0.073317148 0.22801429 1.692
-0.064563811 0.22726095 1.6948
-0.055658098 0.22828476 1.694
-0.045279998 0.2296343 1.6980001
-0.035577144 0.2296343 1.6980001
-0.025154287 0.22769144 1.6932001
-0.015328571 0.22505811 1.694
-0.0064380956 0.22533335 1.6900001
0.004836191 0.22568636 1.6926666
0.019405715 0.2296343 1.6980001
0.025874287 0.22801715 1.6980001
0.035521273 0.22604446 1.6953334
0.045798857 0.22446629 1.6932001
0.05398 0.22479144 1.692
0.064971432 0.22486424 1.6934286
0.074213333 0.22424954 1.6939999
0.08369524 0.22372383 1.6900002
0.094731979 0.2234939 1.6900003
0.10707657 0.22382247 1.6931999
0.11616 0.22424954 1.6939999
0.12232381 0.22211429 1.6900001
0.1390743 0.2264 1.6980001
0.14508064 0.22783493 1.6926666
0.15524572 0.2296343 1.6980001
0.16494857 0.2296343 1.6980001
0.17504478 0.22828478 1.6940001
0.18512906 0.22707191 1.694
0.19471565 0.22701497 1.6957144
0.20440689 0.22769372 1.6980002
-0.50535715 0.23691145 1.6980001
-0.49573332 0.23499049 1.6900003
-0.39755237 0.23177144 1.6900001
-0.35087621 0.23177144 1.6900001
-0.34765714 0.23177144 1.6900001
-0.33478096 0.23177142 1.6900001
-0.3154667 0.23177144 1.6900001
-0.30580953 0.23177144 1.6900001
-0.21184573 0.23286858 1.6980001
-0.20489715 0.23392953 1.694
-0.19520955 0.23392953 1.6940001
-0.18531621 0.23285049 1.692
-0.17543811 0.23177144 1.6900001
-0.11266667 0.23177144 1.6900001
-0.10473715 0.23204574 1.692
-0.094961904 0.23257619 1.6900001
-0.086914286 0.23177144 1.6900001
-0.061161906 0.23177144 1.6900001
-0.051504765 0.23177144 1.6900001
-0.046676192 0.23177144 1.6900001
-0.035409525 0.23177142 1.6900001
0.022533335 0.23177144 1.6900001
0.17382857 0.23177144 1.6900001
0.18509525 0.23177144 1.6900001
0.19676428 0.23458809 1.6900003
0.20601906 0.23499046 1.6900003
0.21636194 0.23573208 1.6953332
0.22316571 0.23610286 1.6980001
-0.51101714 0.24742287 1.6980001
-0.50616574 0.24580573 1.6980001
-0.49734285 0.24464762 1.6900002
0.19797145 0.24464762 1.6900002
0.20509933 0.24418774 1.6900003
0.21524678 0.24578391 1.6958183
0.22397429 0.24661431 1.6980001
-0.52395433 0.2522743 1.6980001
-0.51101714 0.25550857 1.6980001
-0.50576699 0.25530541 1.6966667
-0.49665308 0.25430477 1.6900003
0.19743492 0.25215876 1.6900001
0.20561667 0.25470716 1.6900003
0.21562941 0.25348842 1.6968572
0.22424382 0.2533524 1.6980001
-0.50539047 0.26235238 1.6900002
-0.49787939 0.26181588 1.6900001
-0.50367624 0.22746667 1.7060001
-0.49392763 0.22421713 1.706
-0.48417911 0.22421713 1.706
-0.47768003 0.22746667 1.7060001
-0.46468192 0.22421715 1.7060001
-0.45168382 0.22746667 1.7060001
-0.44356 0.22584191 1.7060001
-0.43543622 0.22421713 1.706
-0.42568764 0.22421713 1.706
-0.40619048 0.22421713 1.706
-0.39969143 0.22421715 1.7060001
-0.38831812 0.22746667 1.7060001
-0.37044573 0.22421715 1.7060001
-0.36394668 0.22584191 1.7060001
-0.3541981 0.22746666 1.706
-0.34607428 0.22746667 1.7060001
-0.30383047 0.22746667 1.7060001
-0.29408193 0.22421715 1.7060001
-0.23396572 0.22746667 1.7060001
-0.22421715 0.22746667 1.7060001
-0.17547429 0.22746667 1.7060001
-0.14460382 0.22746667 1.7060001
-0.13648 0.22584191 1.7060001
-0.10560954 0.22746667 1.7060001
-0.082862861 0.22746667 1.7060001
-0.076363817 0.22746667 1.7060001
-0.064990476 0.22421715 1.7060001
-0.053617142 0.22746667 1.7060001
-0.045493335 0.22746666 1.706
-0.029245716 0.22746667 1.7060001
-0.016247619 0.22421715 1.7060001
-0.0048742858 0.22421715 1.7060001
0.0064990479 0.22421713 1.706
0.016247621 0.22746666 1.706
0.02437143 0.22746667 1.7060001
0.037369527 0.22421715 1.7060001
0.042243812 0.22421715 1.7060001
0.056866668 0.22421715 1.7060001
0.077988572 0.22096762 1.7060001
0.08611238 0.22096762 1.7060001
0.092611432 0.22096762 1.7060001
0.10073524 0.22096762 1.7060001
0.12835619 0.22421715 1.7060001
0.13323048 0.22421715 1.7060001
0.14785334 0.22746667 1.7060001
0.15597714 0.22746666 1.706
0.16572572 0.22746667 1.7060001
0.17547429 0.22746667 1.7060001
0.1835981 0.22421715 1.7060001
0.19659621 0.22421715 1.7060001
0.20147048 0.22421715 1.7060001
-0.51017523 0.23559049 1.7060001
-0.50692576 0.2307162 1.7060001
-0.34120002 0.2307162 1.7060001
-0.26971048 0.2307162 1.7060001
-0.25021335 0.2307162 1.7060001
-0.24371429 0.23071618 1.706
-0.2307162 0.2307162 1.7060001
-0.22096762 0.2307162 1.7060001
-0.21446858 0.23071618 1.706
-0.20309524 0.23396572 1.7060001
-0.19172192 0.2307162 1.7060001
-0.18847239 0.2307162 1.7060001
-0.097485721 0.2307162 1.7060001
0.21446858 0.23071618 1.706
0.22502953 0.23315334 1.7060001
-0.51586187 0.24452667 1.7060001
0.22746666 0.24371429 1.706
-0.52804762 0.25021335 1.7060001
-0.51775748 0.25129652 1.706
0.088200003 0.21886668 1.715
0.098000005 0.21886668 1.715
-0.50633335 0.22703335 1.715
-0.49490002 0.22213334 1.715
-0.47366667 0.22540002 1.715
-0.46223336 0.22540002 1.715
-0.45406666 0.22540002 1.715
-0.44426668 0.22376668 1.715
-0.42140001 0.22213334 1.715
-0.41650003 0.22213334 1.715
-0.40343332 0.22213334 1.715
-0.39200002 0.22540002 1.715
-0.38383335 0.22540002 1.715
-0.37730002 0.22540002 1.715
-0.36423334 0.22540002 1.715
-0.34300002 0.22866668 1.715
-0.33646667 0.22703335 1.715
-0.32557777 0.22540002 1.715
-0.31360003 0.2264889 1.715
-0.28256667 0.22866668 1.715
-0.27766669 0.22866668 1.715
-0.23520002 0.22866668 1.715
-0.2254 0.22866668 1.715
-0.21886668 0.22866668 1.715
-0.19273335 0.22866668 1.715
-0.18783334 0.22866668 1.715
-0.17966667 0.22866668 1.715
-0.14046668 0.22540002 1.715
-0.1372 0.22540002 1.715
-0.11433334 0.22540002 1.715
-0.10126667 0.22866668 1.715
-0.094733335 0.22866668 1.715
-0.088200003 0.22866668 1.715
-0.075133339 0.22540002 1.715
-0.065333337 0.22540002 1.715
-0.058800001 0.22540002 1.715
-0.035933334 0.22866668 1.715
-0.024500001 0.22540002 1.715
-0.0196 0.22540002 1.715
-0.0098000001 0.22540002 1.715
0.016333334 0.22540002 1.715
0.026133334 0.22540002 1.715
0.032666668 0.22540002 1.715
0.044100001 0.22213334 1.715
0.052266669 0.22213334 1.715
0.065333337 0.22213334 1.715
0.071866669 0.22213334 1.715
0.10780001 0.22213334 1.715
0.11433333 0.22213334 1.715
0.1225 0.22213334 1.715
0.1372 0.22540002 1.715
0.14210001 0.22540002 1.715
0.15353334 0.22540002 1.715
0.16333334 0.2264889 1.715
0.17640001 0.2264889 1.715
0.18946667 0.22213334 1.715
0.19600001 0.22213334 1.715
0.20743334 0.22540002 1.715
0.21560001 0.22866668 1.715
0.22540002 0.22866668 1.715
0.23683333 0.22866668 1.715
-0.5166778 0.23520003 1.715
-0.26460001 0.23193334 1.715
-0.25643337 0.23193334 1.715
-0.20580001 0.23193334 1.715
-0.19763334 0.23193334 1.715
0.22866668 0.23193334 1.715
0.2352 0.23520003 1.715
0.24173334 0.23193334 1.715
-0.53246671 0.24826668 1.715
-0.52593333 0.24717779 1.715
-0.5194 0.24336667 1.715
0.2347917 0.245 1.715
-0.53573334 0.25153333 1.715
-0.52429998 0.25561666 1.715
-0.5194 0.25806668 1.715
0.2352 0.25153333 1.715
-0.41023812 0.21988763 1.723
-0.40531525 0.21988763 1.723
-0.39054668 0.21988763 1.723
-0.38726479 0.21988763 1.723
0.095175244 0.21988763 1.723
-0.52182287 0.22973335 1.723
-0.51525909 0.2280924 1.723
-0.50541335 0.2242635 1.723
-0.49228573 0.22316954 1.723
-0.48572195 0.22481048 1.723
-0.45618477 0.22316952 1.723
-0.44798002 0.22316954 1.723
-0.43813431 0.22316954 1.723
-0.41187906 0.22316954 1.723
-0.39300811 0.2248105 1.723
-0.3839829 0.22316952 1.723
-0.37577811 0.22316954 1.723
-0.36100954 0.22645144 1.723
-0.35444576 0.22645144 1.723
-0.34459999 0.22645144 1.723
-0.33475432 0.2242635 1.723
-0.32490858 0.2242635 1.723
-0.31178096 0.22645144 1.723
-0.30521718 0.22645144 1.723
-0.29537141 0.22481048 1.723
-0.28880763 0.22645144 1.723
-0.25434762 0.22973335 1.723
-0.24614286 0.22973335 1.723
-0.23629713 0.22645144 1.723
-0.22645144 0.22645144 1.723
-0.21426149 0.22785796 1.7229998
-0.20413446 0.22842059 1.7229999
-0.19445288 0.22727191 1.723
-0.18542764 0.2280924 1.723
-0.1755819 0.22645144 1.723
-0.095175244 0.22645144 1.723
-0.085329525 0.22645144 1.723
-0.054151431 0.22645144 1.723
-0.045946669 0.22645144 1.723
-0.036100954 0.22645144 1.723
-0.026255237 0.2242635 1.723
-0.016409524 0.22316952 1.723
-0.0065638092 0.22316952 1.723
0.004922857 0.22316954 1.723
0.016409524 0.22316952 1.723
0.026255241 0.22316952 1.723
0.036100954 0.22316952 1.723
0.049228575 0.22316954 1.723
0.057433337 0.22316954 1.723
0.065638095 0.22316954 1.723
0.12799428 0.22316954 1.723
0.13291714 0.22316954 1.723
0.14768572 0.22645144 1.723
0.15753144 0.22316954 1.723
0.16409524 0.2242635 1.723
0.17394096 0.22535747 1.723
0.18542764 0.22316954 1.723
0.1969143 0.22316954 1.723
0.20511904 0.22316954 1.723
0.21463656 0.22513869 1.7229999
0.22645144 0.22645144 1.723
0.23547667 0.22727193 1.723
0.24573262 0.22686169 1.7229998
0.25270668 0.22973335 1.723
-0.5242843 0.23547667 1.723
0.24655309 0.23670739 1.7229998
0.25352713 0.23547667 1.723
-0.53495049 0.24723683 1.723
-0.52729273 0.24395494 1.723
0.23957905 0.24614286 1.723
0.24614286 0.24614286 1.7229998
0.25533217 0.2448301 1.7229999
-0.54315525 0.25270668 1.723
-0.40578288 0.21773715 1.7320001
-0.39588571 0.21773715 1.732
-0.38763809 0.21773715 1.7320001
-0.37609145 0.21773715 1.7320001
-0.2210362 0.21773715 1.7320001
-0.21773715 0.21773715 1.7320001
-0.53444576 0.2276343 1.732
-0.52454859 0.2276343 1.732
-0.51135242 0.22433525 1.7320001
-0.48495999 0.22433525 1.732
-0.47341335 0.22433525 1.7320001
-0.46582556 0.22235581 1.7320001
-0.45526859 0.2210362 1.732
-0.44702098 0.2210362 1.7320001
-0.43382478 0.22433525 1.7320001
-0.42722666 0.22268572 1.7320001
-0.41732955 0.2210362 1.7320001
-0.40248382 0.2276343 1.7320001
-0.39753526 0.22268572 1.7320001
-0.38598859 0.2210362 1.7320001
-0.37444192 0.22268572 1.7320001
-0.36784381 0.22433525 1.7320001
-0.35629717 0.22433525 1.732
-0.34310097 0.22433525 1.7320001
-0.33650288 0.2210362 1.7320001
-0.32330668 0.22433525 1.7320001
-0.31340954 0.22433525 1.7320001
-0.30516192 0.22433525 1.7320001
-0.29526478 0.22433525 1.7320001
-0.28536764 0.2276343 1.7320001
-0.24412954 0.2276343 1.7320001
-0.23258287 0.22433525 1.7320001
-0.22433525 0.22433525 1.732
-0.2144381 0.22433525 1.732
-0.2037162 0.22516002 1.7320001
-0.19794287 0.22433525 1.7320001
-0.18309715 0.2276343 1.7320001
-0.16165334 0.2276343 1.7320001
-0.1583543 0.2276343 1.7320001
-0.14680763 0.2276343 1.7320001
-0.11876572 0.2276343 1.7320001
-0.10556952 0.2276343 1.732
-0.05608381 0.22433525 1.732
-0.047836192 0.22433525 1.7320001
-0.036289524 0.22653462 1.732
0.0065980954 0.2210362 1.7320001
0.014845715 0.2210362 1.7320001
0.082476191 0.2210362 1.7320001
0.10392 0.2210362 1.7320001
0.11876572 0.2210362 1.7320001
0.12371429 0.2210362 1.7320001
0.13856001 0.22433525 1.7320001
0.1451581 0.22433525 1.732
0.15505524 0.22323556 1.732
0.1649524 0.22213589 1.732
0.17320001 0.22433525 1.7320001
0.18144763 0.22433525 1.7320001
0.20289144 0.2210362 1.7320001
0.21443811 0.22268572 1.7320001
0.22433525 0.22433525 1.732
0.23423238 0.22433525 1.732
0.24412954 0.22213589 1.732
0.25402668 0.22598477 1.7320001
0.26062477 0.2276343 1.7320001
-0.54104382 0.23588192 1.7320001
-0.53444576 0.2342324 1.7320002
-0.52784765 0.23093334 1.7320001
-0.27382097 0.23093335 1.732
-0.26392382 0.23093335 1.732
0.25732571 0.2342324 1.7320001
0.26194438 0.2348922 1.7320001
-0.54186857 0.24412954 1.7320001
-0.53510559 0.24215011 1.7320001
0.25732571 0.24083048 1.7320001
0.26260418 0.24346972 1.7320001
-0.55094099 0.25072762 1.7320001
-0.54599237 0.25072762 1.7320001
-0.45100191 0.21886858 1.7410001
-0.44602764 0.21886858 1.7410001
-0.41286573 0.21886858 1.7410001
-0.39462671 0.21555239 1.7410001
0.2122362 0.21886858 1.7410001
-0.53059047 0.22550096 1.7410001
-0.52395809 0.22550096 1.7410001
-0.51732576 0.22550096 1.7410001
-0.48084763 0.22384286 1.7410001
-0.47587335 0.22218478 1.7410001
-0.44436955 0.22218478 1.7410001
-0.40346989 0.22329016 1.7410001
-0.38302001 0.22218478 1.7410001
-0.37472954 0.22218478 1.7410001
-0.36478096 0.22550096 1.7410001
-0.35151622 0.22550096 1.7410001
-0.34488383 0.22329016 1.7410001
-0.33327717 0.22218478 1.7410001
-0.31503811 0.22550096 1.7410001
-0.29182476 0.22550096 1.7410001
-0.28187621 0.22881715 1.7410001
-0.27358574 0.22881715 1.7410001
-0.26529524 0.22881715 1.7410001
-0.25534669 0.22881715 1.7410001
-0.2453981 0.22715905 1.7410001
-0.23544952 0.22384286 1.7410001
-0.22550096 0.22218478 1.7410001
-0.21555239 0.22218478 1.7410001
-0.20560382 0.22218478 1.7410001
-0.19399714 0.22550096 1.7410001
-0.18902287 0.22550096 1.7410001
-0.17907429 0.22550096 1.7410001
-0.15254477 0.22881715 1.7410001
-0.11275048 0.22881715 1.7410001
-0.096169531 0.22550096 1.7410001
-0.087879047 0.22550096 1.7410001
-0.07793048 0.22550096 1.7410001
-0.06466572 0.22550096 1.7410001
-0.043110479 0.22550096 1.7410001
-0.036478095 0.22550096 1.7410001
-0.026529524 0.22384286 1.7410001
-0.016580952 0.22218478 1.7410001
-0.0066323816 0.22218478 1.7410001
0.0044215876 0.22218478 1.7410001
0.019897144 0.22218478 1.7410001
0.026529526 0.22218478 1.7410001
0.036478095 0.22218478 1.7410001
0.043110479 0.22218478 1.7410001
0.056375239 0.22218478 1.7410001
0.069640003 0.22218478 1.7410001
0.076272383 0.22218478 1.7410001
0.086220957 0.22218478 1.7410001
0.092853338 0.22218478 1.7410001
0.10943429 0.22218478 1.7410001
0.11440857 0.22218478 1.7410001
0.13596381 0.22218478 1.7410001
0.14922857 0.22218478 1.7410001
0.15420286 0.22218478 1.7410001
0.16912572 0.22218478 1.7410001
0.17741621 0.22218478 1.7410001
0.19565524 0.22218478 1.7410001
0.20892 0.22218478 1.7410001
0.21721049 0.22218478 1.7410001
0.22550096 0.22218478 1.7410001
0.23544954 0.22218478 1.7410001
0.24208191 0.22218478 1.7410001
0.25617573 0.22301382 1.7410001
0.26529524 0.22605366 1.7410001
0.27192762 0.22881715 1.7410001
-0.54385525 0.23213334 1.7410001
0.26778239 0.23462048 1.7410001
0.27303302 0.23655494 1.7410001
-0.55048764 0.2487143 1.7410001
-0.54717147 0.2453981 1.7410001
0.26861143 0.24374001 1.7410001
0.27192762 0.24374001 1.7410001
-0.46739143 0.21778096 1.7590001
-0.41333333 0.21666665 1.7500001
-0.40500003 0.21666667 1.7500001
-0.0033504763 0.21778096 1.7590001
0.016752381 0.21778096 1.7590001
0.020102859 0.21778096 1.7590001
0.2144305 0.21778096 1.7590002
0.22448193 0.21778096 1.7590002
0.23453332 0.21778096 1.7590002
0.25128573 0.21778096 1.7590001
0.26636285 0.21778096 1.7590001
0.27473906 0.21694335 1.7590001
0.28311527 0.21778096 1.7590001
-0.55282861 0.22783239 1.7590001
-0.54566473 0.22596286 1.7575001
-0.53484809 0.22445382 1.7522501
-0.52333337 0.22333334 1.7500001
-0.5150876 0.22409905 1.756
-0.50629425 0.22390762 1.7545002
-0.49627286 0.22390763 1.7545
-0.48666668 0.22333334 1.7500001
-0.47576761 0.22113144 1.7590002
-0.46412194 0.22037716 1.7530001
-0.45666668 0.22000001 1.7500001
-0.44280243 0.2222324 1.7545002
-0.43578285 0.22224192 1.7572
-0.4255105 0.22224827 1.7590002
-0.4087581 0.22113144 1.7590001
-0.38599432 0.22056574 1.7545002
-0.37357813 0.22448191 1.7590001
-0.36427191 0.22307003 1.7545002
-0.35339013 0.2224526 1.7536001
-0.3445048 0.22075431 1.7560002
-0.33000001 0.22333334 1.7500001
-0.3249962 0.2244819 1.7590002
-0.31330574 0.22307003 1.7545002
-0.30494666 0.22307001 1.7545
-0.29350367 0.22286586 1.7538573
-0.28430191 0.22576858 1.756
-0.2740362 0.2255743 1.7545
-0.26484382 0.22641191 1.7545002
-0.2546362 0.22783239 1.7590002
-0.24510524 0.2250281 1.7567501
-0.23666668 0.22333334 1.7500001
-0.21370478 0.22037716 1.7530001
-0.20386477 0.2222324 1.7545002
-0.185 0.22666667 1.7500001
-0.17544572 0.22724953 1.7545002
-0.16417333 0.22783239 1.7590001
-0.105 0.22666667 1.7500001
-0.083619051 0.22521017 1.756
-0.073464766 0.22593842 1.7530001
-0.06533429 0.22448191 1.7590001
-0.05341905 0.2237162 1.7530001
-0.043407619 0.2237162 1.7530001
-0.033390477 0.2237162 1.7530001
-0.023373336 0.22148828 1.7530001
-0.013401906 0.22113144 1.7590002
-0.0049999999 0.22000001 1.7500001
0.0033333332 0.22000001 1.7500001
0.013333335 0.22000001 1.7500001
0.023379048 0.22037716 1.7530001
0.03344762 0.22075431 1.7560002
0.043476194 0.22186542 1.7560002
0.05166667 0.22333334 1.7500001
0.062577143 0.22278288 1.7522501
0.073710479 0.22113144 1.7590002
0.083333343 0.22000001 1.7500001
0.093333334 0.22000001 1.7500001
0.10333333 0.22000001 1.7500001
0.115 0.22000001 1.7500001
0.12333333 0.22000001 1.7500001
0.13166668 0.22333334 1.7500001
0.14435525 0.22278287 1.7522502
0.15412192 0.22113144 1.7590002
0.16361906 0.22037716 1.7530001
0.17400192 0.22168192 1.7567501
0.18438056 0.22178593 1.7536001
0.19324572 0.22168192 1.7567501
0.20333333 0.22000001 1.7500001
0.21333334 0.22000001 1.7500001
0.22333334 0.22000001 1.7500001
0.23333335 0.22000001 1.7500001
0.2437505 0.22037716 1.7530001
0.25333333 0.22000001 1.7500001
0.26450095 0.22111621 1.7522501
0.27392787 0.2230581 1.7511251
0.28414667 0.22396763 1.755
0.29232907 0.22531952 1.7590001
-0.55356091 0.23413049 1.756
-0.54947811 0.23118286 1.7590001
-0.28 0.23 1.7500001
-0.25666669 0.23 1.7500001
-0.17166668 0.23 1.7500001
-0.16666667 0.23 1.7500001
