# .PCD v0.7 - Point Cloud Data file format
VERSION 0.7
FIELDS x y z
SIZE 4 4 4
TYPE F F F
COUNT 1 1 1
WIDTH 1514
HEIGHT 1
VIEWPOINT 0 0 0 1 0 0 0
POINTS 1514
DATA ascii
0.6111486 0.27464572 1.7320001
0.61472255 0.2826184 1.7320002
0.62187052 0.28536764 1.7320001
0.59052956 0.29361525 1.7320001
0.60372573 0.29691431 1.7320001
0.61444765 0.29279047 1.7320001
0.62269527 0.29279047 1.7320001
0.59448844 0.30549183 1.7320001
0.60317588 0.30461207 1.7320002
0.6119734 0.30351239 1.7320001
0.59580803 0.31340951 1.7320001
0.60042667 0.31340954 1.732
0.59382862 0.32472056 1.7320002
0.60290098 0.32743049 1.7320001
0.6136229 0.32990476 1.732
0.62352002 0.32990476 1.7320001
0.63011813 0.32990476 1.7320001
0.60702479 0.33980191 1.7320001
0.6169219 0.33485335 1.7320001
0.62516952 0.33320382 1.7320001
0.63011813 0.33320382 1.7320001
0.60207617 0.34640002 1.7320001
0.60207617 0.35299811 1.7320001
0.6136229 0.35299811 1.7320001
0.62022096 0.35959619 1.7320001
0.62681907 0.43877336 1.7320001
0.63176763 0.43877336 1.7320001
0.62681907 0.44207239 1.7320001
0.63176763 0.44207239 1.7320001
0.60354668 0.20892 1.7410001
0.61349529 0.20892 1.7410001
0.643341 0.20560382 1.7410001
0.039794289 0.21886858 1.7410001
0.043110479 0.21886858 1.7410001
0.099485718 0.21886858 1.7410001
0.15917715 0.21886858 1.7410001
0.16249333 0.21886858 1.7410001
0.19399714 0.21886858 1.7410001
0.20560382 0.21886857 1.7410001
0.23876572 0.21886858 1.7410001
0.2453981 0.21886857 1.7410001
0.25368857 0.21886858 1.7410001
0.28685051 0.21886858 1.7410001
0.29514095 0.21886857 1.7410001
0.31503811 0.21886858 1.7410001
0.32664478 0.21886858 1.7410001
0.33161905 0.21886858 1.7410001
0.34322572 0.21886858 1.7410001
0.37804574 0.21886858 1.7410001
0.38467813 0.21721049 1.7410001
0.3929686 0.21555239 1.7410001
0.40457526 0.21555239 1.7410001
0.41452384 0.21555239 1.7410001
0.4211562 0.21555239 1.7410001
0.43442097 0.21886857 1.7410001
0.44436955 0.21721049 1.7410001
0.45431811 0.21555239 1.7410001
0.46095049 0.21555239 1.7410001
0.47421527 0.21555239 1.7410001
0.48416382 0.21555239 1.7410001
0.50406098 0.21555239 1.7410001
0.5538038 0.2122362 1.7410001
0.56375241 0.21223621 1.7410001
0.5853076 0.2122362 1.7410001
0.59359813 0.21223621 1.7410001
0.62344384 0.21334159 1.7410001
0.63339245 0.2122362 1.7410001
0.67816097 0.21555239 1.7410001
-0.19565524 0.22881715 1.7410001
-0.18736477 0.22550096 1.7410001
-0.16249333 0.22881715 1.7410001
-0.15254477 0.22881715 1.7410001
-0.06466572 0.22550096 1.7410001
-0.056375235 0.22550096 1.7410001
-0.046426669 0.22550096 1.7410001
-0.036478095 0.22550096 1.7410001
-0.026529524 0.22384286 1.7410001
-0.016580952 0.22218478 1.7410001
-0.0082904771 0.22218478 1.7410001
0.0055269846 0.22218478 1.7410001
0.016580954 0.22218478 1.7410001
0.048084766 0.22218478 1.7410001
0.054717146 0.22218478 1.7410001
0.07793048 0.22218478 1.7410001
0.086220957 0.22218478 1.7410001
0.092853338 0.22218478 1.7410001
0.1061181 0.22218478 1.7410001
0.11606666 0.22218478 1.7410001
0.12684429 0.22301382 1.7410001
0.13485841 0.22329016 1.7410001
0.14591238 0.22329016 1.7410001
0.15254477 0.22218478 1.7410001
0.16912572 0.22218478 1.7410001
0.17575811 0.22218478 1.7410001
0.18570668 0.22218478 1.7410001
0.21721049 0.22218478 1.7410001
0.22715905 0.22218478 1.7410001
0.23213334 0.22218478 1.7410001
0.26197904 0.22218478 1.7410001
0.2769019 0.22218478 1.7410001
0.35483238 0.22218478 1.7410001
0.36146477 0.22218478 1.7410001
0.37307143 0.22218478 1.7410001
-0.19814238 0.23462048 1.7410001
-0.19897144 0.2453981 1.7410001
-0.19897144 0.25203049 1.7410001
0.59691429 0.26861143 1.7410001
0.60354668 0.26861143 1.7410001
0.57701719 0.27358574 1.7410001
0.58033335 0.27524382 1.7410001
0.6068629 0.27192762 1.7410001
0.61017907 0.27524382 1.7410001
0.59194005 0.28850859 1.7410001
0.61283207 0.28585562 1.7409999
0.59359813 0.29514095 1.7410001
0.60313219 0.29472643 1.7410001
0.61183715 0.29514095 1.7410001
0.59249276 0.30398414 1.7410001
0.6018886 0.30177334 1.7410001
0.61128443 0.30287874 1.7410001
0.59359813 0.31437486 1.7409999
0.59359813 0.3216705 1.7410001
0.59580892 0.33493528 1.7410001
0.60420996 0.33692497 1.7409999
0.61266619 0.3374224 1.7410001
0.62510192 0.33576432 1.7410001
0.63173431 0.33825144 1.7410001
0.56541049 0.34488383 1.7410001
0.59691429 0.34488383 1.7410001
0.60354668 0.3448838 1.7410001
0.61390978 0.34529838 1.7410001
0.62344384 0.3448838 1.7410001
0.63173431 0.34488383 1.7410001
0.60288346 0.35483241 1.7409999
0.61349523 0.35483241 1.7410001
0.62385839 0.35483241 1.7410001
0.60520482 0.36312288 1.7410001
0.61415851 0.36279124 1.7409999
0.62344384 0.36422825 1.7410001
0.57701719 0.38799429 1.7410001
0.6068629 0.39628476 1.7410001
0.62510192 0.4261305 1.7410001
0.63272917 0.42646211 1.7409999
0.62676001 0.43442097 1.7410001
0.63339239 0.43442094 1.7410001
0.64002478 0.43773717 1.7410001
0.62676001 0.44271147 1.7410001
0.63339239 0.44768572 1.7410001
0.64002478 0.44105336 1.7410001
0.56706858 0.45266002 1.7410001
0.5703848 0.45266002 1.7410001
0.61017907 0.4576343 1.7410001
0.63173431 0.52727431 1.7410001
0.63173431 0.53059047 1.7410001
0.59973526 0.20772953 1.7590001
0.60710633 0.20638934 1.7590001
0.61439049 0.20702095 1.7530001
0.62318861 0.20772953 1.7590001
0.64331245 0.20719811 1.7545002
0.097163811 0.21778096 1.7590001
0.10051429 0.21778096 1.7590001
0.11726667 0.21778096 1.7590001
0.12061714 0.21778096 1.7590001
0.15385334 0.21740954 1.7560002
0.16361906 0.21703811 1.7530001
0.1708743 0.21778096 1.7590001
0.18762667 0.21778096 1.7590001
0.19365905 0.21703811 1.7530001
0.20403619 0.21740954 1.7560002
0.21275525 0.21778096 1.7590001
0.24793525 0.21778096 1.7590001
0.2546362 0.21778096 1.7590001
0.26636285 0.21778096 1.7590001
0.27473903 0.21694334 1.7590001
0.28449565 0.21621791 1.7572
0.2931667 0.21778096 1.7590001
0.31829524 0.21778096 1.7590001
0.32443622 0.21740954 1.7560002
0.33292431 0.21610761 1.7522502
0.3445048 0.21740954 1.7560002
0.35180002 0.21778096 1.7590001
0.36520195 0.21778096 1.7590002
0.37525335 0.21778096 1.7590002
0.38466382 0.21610761 1.7522502
0.39535621 0.21443048 1.7590001
0.40205717 0.21443048 1.7590001
0.41440478 0.21554857 1.7545002
0.42441335 0.21554857 1.7545002
0.43333337 0.21666665 1.7500001
0.44280243 0.21554857 1.7545
0.47333336 0.21666667 1.7500001
0.48416767 0.21592128 1.7530001
0.4950183 0.2157722 1.7536001
0.5045324 0.21359597 1.755625
0.51513577 0.21359286 1.7590001
0.52467906 0.21220668 1.7545
0.53516477 0.21238954 1.756
0.54389399 0.21331365 1.7590002
0.55617905 0.21443048 1.7590001
0.56 0.21333334 1.7500001
0.58465815 0.21443048 1.7590001
0.59638476 0.21108001 1.7590002
0.60000002 0.21000001 1.7500001
0.6274724 0.21110335 1.7522501
0.63555557 0.21111111 1.7500001
0.64000005 0.21000001 1.7500001
-0.21108001 0.22783239 1.7590001
-0.20403619 0.22744381 1.756
-0.19500001 0.22666667 1.7500001
-0.18166667 0.22666667 1.7500001
-0.17757525 0.22783239 1.7590001
-0.16417333 0.22783239 1.7590001
-0.14072001 0.22783239 1.7590001
-0.093333334 0.22666667 1.7500001
-0.082602866 0.22612049 1.7522501
-0.073521905 0.2255743 1.7545
-0.063333333 0.22333334 1.7500001
-0.053510476 0.22409904 1.7560002
-0.043333337 0.22333334 1.7500001
-0.033333335 0.22333334 1.7500001
-0.023407618 0.22186542 1.756
-0.016752381 0.22113144 1.7590001
-0.0050171427 0.22056574 1.7545002
0.0033447619 0.22037716 1.7530001
0.013373334 0.22075431 1.7560002
0.023373334 0.22037716 1.7530001
0.033333335 0.22000001 1.7500001
0.046906669 0.22113144 1.7590001
0.053510476 0.22075431 1.7560002
0.064661592 0.22186542 1.756
0.070360005 0.22113144 1.7590001
0.086666673 0.22000001 1.7500001
0.093333334 0.22000001 1.7500001
0.105 0.22000001 1.7500001
0.115 0.22000001 1.7500001
0.12532571 0.22056574 1.7545002
0.13450524 0.22306573 1.7545
0.14666668 0.22333334 1.7500001
0.15385334 0.22075431 1.756
0.16666667 0.22000001 1.7500001
0.1736362 0.22037716 1.7530001
0.18395619 0.22075431 1.756
0.19000001 0.22000001 1.7500001
0.215 0.22000001 1.7500001
0.22391193 0.22139907 1.7545
0.23333335 0.22000001 1.7500001
0.26333335 0.22000001 1.7500001
0.27333334 0.22000001 1.7500001
0.28166667 0.22000001 1.7500001
0.31 0.22000001 1.7500001
0.32166669 0.22000001 1.7500001
0.33666667 0.22000001 1.7500001
0.34 0.22000001 1.7500001
0.35333335 0.22000001 1.7500001
0.36463812 0.22111621 1.7522501
0.37297571 0.2211162 1.7522502
-0.2124202 0.23520343 1.7590001
-0.20553146 0.23393334 1.7545
-0.17166668 0.23 1.7500001
-0.16752382 0.23118286 1.7590001
-0.15666667 0.23 1.7500001
-0.21108001 0.24458478 1.7590002
-0.20517717 0.24353905 1.7515001
-0.21108001 0.2546362 1.7590002
-0.20553146 0.25398475 1.7545
-0.20333335 0.26000002 1.7500001
0.58333337 0.26666668 1.7500001
0.59333336 0.26666668 1.7500001
0.57666671 0.27500001 1.7500001
0.58444446 0.27222222 1.7500001
0.59333342 0.27333334 1.7500001
0.60333329 0.27500001 1.7500001
0.61000001 0.27666667 1.7500001
0.57598287 0.28381622 1.7530001
0.58366859 0.28349712 1.751
0.59367055 0.28349712 1.751
0.60333335 0.28333333 1.7500001
0.61000001 0.28333333 1.7500001
0.56999999 0.29333335 1.7500001
0.57522005 0.29408765 1.7545
0.58333331 0.29333332 1.7500001
0.59000003 0.29333335 1.7500001
0.60333335 0.29000002 1.7500001
0.61166668 0.29000002 1.7500001
0.57595241 0.30472001 1.7579999
0.58333331 0.30333331 1.7500001
0.59000003 0.30333334 1.7500001
0.57676059 0.31398749 1.7589999
0.58399808 0.31369522 1.7520001
0.59083337 0.31416667 1.7500001
0.5796324 0.32164574 1.7590001
0.58532763 0.32444191 1.756
0.59267813 0.32388765 1.7530001
0.57739878 0.33616447 1.7589999
0.58467048 0.33409527 1.7540001
0.59324789 0.33429936 1.7525715
0.60333335 0.33666667 1.7500001
0.61666667 0.33666667 1.7500001
0.62 0.33666667 1.7500001
0.5688889 0.34222221 1.7500001
0.57500005 0.34333336 1.7500001
0.58467048 0.3441219 1.7540001
0.59468383 0.34411812 1.7540001
0.60000002 0.34333333 1.7500001
0.567083 0.35264301 1.7512858
0.57597065 0.35485527 1.7551429
0.58633339 0.35515049 1.7589999
0.59468383 0.35414281 1.7540001
0.60000002 0.35333335 1.7500001
0.63500005 0.35500002 1.7500001
0.64000005 0.35500002 1.7500001
0.56734729 0.3629683 1.7590002
0.57628191 0.36185145 1.7590002
0.58856702 0.3629683 1.7590002
0.59604383 0.36499622 1.7579999
0.60166669 0.36333334 1.7500001
0.61333334 0.36666667 1.7500001
0.63500005 0.36333334 1.7500001
0.6413334 0.36266667 1.7500002
0.57814956 0.37596002 1.7545002
0.58681202 0.37621063 1.7589999
0.59638476 0.37525335 1.7589999
0.60505527 0.37440574 1.755
0.61403245 0.37376383 1.7520001
0.62484843 0.37363636 1.7500001
0.63500005 0.37333333 1.7500001
0.64276671 0.37396765 1.7530001
0.57666671 0.38333336 1.7500001
0.58467048 0.3842057 1.7540001
0.59604764 0.38508379 1.7579999
0.60643619 0.38530478 1.7589999
0.61579055 0.38486478 1.757
0.62547046 0.3846533 1.756
0.63576245 0.38464165 1.757875
0.64220828 0.38176826 1.7530001
0.57681555 0.39554831 1.7577143
0.58418804 0.39391619 1.7525715
0.59638476 0.39423934 1.7589999
0.6065045 0.39525196 1.7564286
0.61533141 0.39392382 1.7545
0.62653899 0.39535618 1.7589999
0.6361118 0.39631346 1.7589999
0.64329147 0.39703143 1.7590001
0.57561177 0.40473756 1.7590001
0.58800858 0.40457004 1.7590001
0.59638476 0.40540764 1.7589999
0.60436374 0.40402862 1.753
0.61493719 0.40453005 1.7533751
0.62318861 0.40708286 1.7590001
0.63659048 0.40205717 1.7590002
0.56623048 0.41713428 1.7590001
0.57628191 0.41679925 1.7590001
0.58729064 0.41593769 1.7589999
0.59638476 0.41545907 1.7589999
0.60643619 0.41504025 1.7589999
0.61613911 0.41522476 1.7579999
0.62402624 0.41629669 1.7590001
0.5796324 0.42216003 1.7590001
0.58633333 0.42417032 1.7590001
0.59638476 0.42216003 1.7590002
0.60811144 0.42467287 1.7590001
0.6161353 0.42526665 1.7579999
0.62497622 0.42309871 1.7518002
0.63444448 0.42222223 1.7500001
0.58633333 0.43221146 1.7590001
0.59806001 0.43723714 1.7590001
0.60699469 0.43667874 1.7589999
0.61543053 0.43481907 1.756
0.6229167 0.43375003 1.7500001
0.56804824 0.44484767 1.756
0.57628191 0.44896382 1.7590001
0.58633339 0.44896382 1.7590001
0.59527999 0.4448922 1.7545
0.60643619 0.44561338 1.7589999
0.61543053 0.44485337 1.756
0.62333333 0.44333336 1.7500001
0.56611109 0.45333335 1.7500001
0.57879478 0.45482716 1.7590001
0.58633333 0.45608366 1.7589999
0.59604573 0.45540768 1.7579999
0.60574478 0.45514292 1.757
0.61508387 0.4546248 1.755
0.62600416 0.45409164 1.7540911
0.6366092 0.45720878 1.7572
0.64329147 0.45734 1.7590001
0.56707847 0.4647699 1.7554001
0.57512379 0.46512476 1.75675
0.58767354 0.46437603 1.7590001
0.59638482 0.46571615 1.7589999
0.60540193 0.46492761 1.756
0.61420661 0.46435705 1.7538573
0.62780929 0.4649995 1.757875
0.63565987 0.46551156 1.7564286
0.64496672 0.46571615 1.7589999
0.56696081 0.47437415 1.7538573
0.57586068 0.47494122 1.7577143
0.58681202 0.47481036 1.7589999
0.59638476 0.47576767 1.7589999
0.60643625 0.47576767 1.7589999
0.61553037 0.47576761 1.7589999
0.6279124 0.47436723 1.7563
0.63500005 0.47333336 1.7500001
0.642214 0.47191682 1.7530001
0.56833333 0.48333335 1.7500001
0.57684034 0.48526064 1.7589999
0.58800858 0.48581907 1.7589999
0.59638476 0.48246858 1.7590002
0.60643625 0.48246858 1.7590002
0.63586485 0.4852705 1.757
0.56999999 0.49333334 1.7500001
0.57795715 0.49419525 1.7590001
0.58767354 0.49453029 1.7590001
0.59806001 0.49922097 1.7590001
0.604761 0.49754575 1.7590001
0.63659048 0.49252 1.7590002
0.57628191 0.50424665 1.7590001
0.58834362 0.50525177 1.7590001
0.59571469 0.50525177 1.7590001
0.60308576 0.50257146 1.7590001
0.62318861 0.5092724 1.7590001
0.63994098 0.51932383 1.7590001
0.64329147 0.51932383 1.7590001
0.62991714 0.52618527 1.7567501
0.63578361 0.5245924 1.755625
0.64000005 0.52333337 1.7500001
0.56958097 0.53942668 1.7590001
0.59638476 0.53942668 1.7590002
0.604761 0.53942668 1.7590001
0.6299448 0.53136289 1.7545002
0.56958097 0.54612762 1.7590002
0.57628191 0.54612762 1.7589999
0.58566332 0.54679775 1.7590001
0.59638476 0.54612762 1.7589999
0.60308576 0.54612762 1.7590002
0.58968383 0.5545038 1.7590001
0.59571469 0.55416876 1.7590001
0.60308576 0.55282861 1.7590001
0.61983812 0.55282861 1.7590001
0.62720919 0.55416876 1.7590001
0.63324004 0.5545038 1.7590001
0.61648762 0.56623048 1.7590001
0.62653905 0.56623054 1.7589999
0.6282143 0.57795715 1.7590001
0.63324004 0.57795715 1.7590001
0.6282143 0.58633333 1.7589999
0.63324004 0.58633333 1.7590002
0.61983812 0.60643619 1.7590001
0.6282143 0.60643619 1.7590001
0.63491523 0.604761 1.7590001
0.5034591 0.20879239 1.7680001
0.52703238 0.20879239 1.7680001
0.53545147 0.20879239 1.7680001
0.59775245 0.20879239 1.7680001
0.60448766 0.20542477 1.7680001
0.63984764 0.20710859 1.7680001
0.64321524 0.20710859 1.7680001
-0.072403811 0.21889524 1.7680001
0.016838096 0.21889524 1.7680001
0.023573333 0.21889524 1.7680001
0.033676192 0.21889524 1.7680001
0.04209524 0.21889524 1.7680001
0.057249527 0.21889524 1.7680001
0.060617145 0.21889524 1.7680001
0.095977142 0.21721143 1.7680001
0.1052381 0.21721144 1.7680001
0.11449905 0.21777271 1.7680001
0.12460191 0.21889524 1.7680001
0.17680001 0.21889524 1.7680001
0.18353525 0.21889524 1.7680001
0.19700572 0.21552762 1.7680001
0.20374095 0.21552762 1.7680001
0.21552762 0.21721143 1.7680001
0.22563048 0.21889524 1.7680001
0.23573335 0.21889524 1.7680001
0.2441524 0.21889524 1.7680001
0.25593907 0.21889524 1.7680001
0.2660419 0.21665017 1.7680001
0.27614477 0.2144051 1.7680001
0.28456384 0.21384382 1.7680001
0.29298288 0.21552762 1.7680001
0.30308571 0.21889524 1.7680001
0.31655622 0.21889524 1.7680001
0.32497525 0.21552762 1.7680001
0.33339429 0.21440507 1.7680001
0.34012952 0.21552762 1.7680001
0.35696763 0.21889524 1.7680001
0.36033526 0.21889524 1.7680001
0.37380573 0.21552761 1.7680001
0.3839086 0.21552761 1.7680001
0.39737907 0.21552762 1.7680001
0.40748191 0.21552762 1.7680001
0.41590095 0.21552762 1.7680001
0.42768764 0.21552762 1.7680001
0.43442288 0.21552761 1.7680001
0.44115812 0.21552762 1.7680001
0.45462859 0.21552761 1.7680001
0.46136382 0.21552762 1.7680001
0.48493716 0.21552762 1.7680001
0.49504003 0.21328254 1.7680001
0.50177526 0.21216001 1.7680001
0.521981 0.21216001 1.7680001
0.54892194 0.21216001 1.7680001
0.55397332 0.21552762 1.7680001
0.56912762 0.21216001 1.7680001
0.57754672 0.21384382 1.7680001
0.58259809 0.21552762 1.7680001
-0.22226286 0.22899811 1.7680001
-0.21552764 0.22619176 1.768
-0.20626667 0.22478856 1.7680001
-0.19532192 0.22563048 1.7680001
-0.17343238 0.22899811 1.7680001
-0.16164573 0.22899811 1.7680001
-0.15491049 0.22899811 1.7680001
-0.14649144 0.22899811 1.7680001
-0.13638857 0.22899811 1.7680001
-0.1229181 0.22899811 1.7680001
-0.11449905 0.22899811 1.7680001
-0.092609525 0.22563048 1.7680001
-0.08419048 0.22450793 1.7680001
-0.07408762 0.22226286 1.7680001
-0.063984767 0.22226286 1.7680001
-0.011786667 0.22226286 1.7680001
0.075771429 0.22226286 1.7680001
0.082506672 0.22226286 1.7680001
0.13807239 0.22226286 1.7680001
0.14817524 0.22226286 1.7680001
-0.22226286 0.23573335 1.7680001
-0.21805334 0.23489144 1.7680001
-0.21721143 0.2458362 1.768
-0.21552762 0.25257143 1.7680001
0.57923049 0.31992382 1.7680001
0.57923049 0.32497525 1.7680001
0.58259809 0.32665905 1.7680001
0.57923049 0.33339429 1.7680001
0.58259809 0.33002669 1.7680001
0.57586288 0.36707053 1.7680001
0.58596575 0.36622858 1.7680001
0.57586288 0.3754895 1.768
0.58596575 0.37380573 1.7680001
0.59270096 0.3704381 1.7680001
0.57923049 0.38054097 1.7680001
0.60504889 0.39625654 1.7680001
0.63984764 0.39401144 1.7680001
0.64489907 0.39232767 1.7680001
0.57754672 0.40748191 1.7680001
0.58680761 0.40663999 1.7680001
0.59606862 0.40074667 1.7680001
0.62862223 0.40523684 1.7680001
0.63311243 0.40579811 1.7680001
0.57417905 0.41590095 1.7680001
0.58500355 0.41373608 1.7679999
0.57586288 0.42263621 1.7680001
0.58428192 0.42768764 1.7680001
0.59606862 0.42768764 1.7680001
0.60751855 0.42566711 1.768
0.57923049 0.43105525 1.7680001
0.58540446 0.43498418 1.768
0.59354287 0.43358096 1.7680001
0.60869718 0.43358096 1.7680001
0.5767048 0.44536763 1.7680001
0.58692789 0.44452572 1.7679999
0.59270096 0.44452572 1.7680001
0.58708829 0.45238349 1.7680001
0.58596575 0.46809903 1.7680001
0.62637717 0.46809906 1.7680001
0.64321524 0.46473145 1.7680001
0.58764958 0.47146669 1.7680001
0.6241321 0.47258922 1.7680001
0.58540446 0.48437592 1.768
0.59775245 0.48830479 1.7680001
0.60280383 0.48830479 1.7680001
0.61851937 0.4860597 1.7680001
0.62685823 0.48397499 1.7679999
0.63311243 0.48662096 1.7680001
0.58708829 0.49616256 1.7680001
0.59775245 0.49504003 1.768
0.60504889 0.49447879 1.768
0.6196419 0.49504003 1.7680001
0.62637717 0.49504 1.7679999
0.63311243 0.49504003 1.7680001
0.57923049 0.50514287 1.7680001
0.58596575 0.5037958 1.768
0.59606862 0.5034591 1.7680001
0.60617143 0.50738794 1.7680001
0.62553525 0.50682664 1.7680001
0.57586288 0.51187813 1.7680001
0.58596575 0.51187813 1.7680001
0.59438479 0.51524574 1.7680001
0.60392636 0.51300067 1.7680001
0.62685823 0.51524574 1.7679999
0.63732195 0.51777142 1.7680001
0.64489907 0.51861334 1.7680001
0.60841656 0.52759367 1.7680001
0.61290669 0.52703238 1.7680001
0.63648003 0.521981 1.7680001
0.57586288 0.53881907 1.7680001
0.59674215 0.53747201 1.768
0.60617143 0.53545147 1.7679999
0.61290669 0.53545141 1.7680001
0.57754672 0.54218668 1.7680001
0.58933336 0.54723811 1.7680001
0.59270096 0.54387045 1.7680001
0.60953909 0.54723811 1.7680001
0.61515176 0.54667681 1.768
0.62637717 0.54892194 1.7680001
0.63311243 0.54892194 1.7680001
0.60751849 0.55700421 1.768
0.61669523 0.55607808 1.7679999
0.62570363 0.55498362 1.768
0.63311243 0.55228955 1.7680001
0.60617143 0.56239241 1.7680001
0.61795807 0.56576002 1.7680001
0.62435657 0.56508648 1.768
0.61795807 0.57249528 1.7680001
0.62553525 0.5767048 1.7680001
0.63479626 0.57417905 1.7680001
0.62637717 0.58596569 1.7680001
0.62637717 0.59382349 1.7680001
0.63648003 0.59606862 1.7680001
0.60617143 0.60280383 1.7680001
0.6196419 0.60617149 1.7680001
0.62637711 0.60520923 1.7679999
0.63563812 0.60364574 1.7680001
0.6196419 0.61290669 1.7680001
0.62589604 0.61579323 1.7679999
0.63816381 0.61459053 1.7680001
0.33509144 0.20985524 1.7770001
0.43494192 0.20985524 1.7770001
0.49417526 0.20985524 1.7770001
0.50094479 0.20985524 1.7770001
0.51448387 0.20985524 1.7770001
0.52294576 0.20985524 1.7770001
0.53479242 0.20985524 1.7770001
0.54325426 0.20985524 1.7770001
0.59571815 0.20985524 1.7770001
0.63972002 0.20647049 1.7770001
0.64479721 0.20308572 1.7770001
0.10492762 0.21662477 1.7770001
0.11338952 0.21662477 1.7770001
0.15569906 0.21662478 1.7770001
0.16585334 0.21662478 1.7770001
0.17431524 0.21662477 1.7770001
0.18785429 0.21662477 1.7770001
0.19293143 0.21662477 1.7770001
0.20985524 0.21662477 1.7770001
0.21662477 0.21662477 1.7770001
0.23524097 0.21662477 1.7770001
0.24370284 0.21662478 1.7770001
0.25385717 0.21662478 1.7770001
0.26231906 0.21662477 1.7770001
0.28432 0.21324001 1.7770001
0.2944743 0.21493238 1.7770001
0.31478286 0.21662477 1.7770001
0.32493716 0.21493238 1.7770001
0.33509144 0.21324001 1.7770001
0.34524572 0.21549653 1.7770001
0.3554 0.21662478 1.7770001
0.36623126 0.21527085 1.7770001
0.37570858 0.21324001 1.7770001
0.38417047 0.21324001 1.7770001
0.41632572 0.21436827 1.7770001
0.42648003 0.21324001 1.7770001
0.43494192 0.21324001 1.7770001
0.44340384 0.21324001 1.7770001
0.45017335 0.21324001 1.7770001
0.46709716 0.21662477 1.7770001
0.47302049 0.21577856 1.7770001
0.48402101 0.21459392 1.7770001
0.49417526 0.21324001 1.7770001
0.52125335 0.21324001 1.7770001
0.55679333 0.21324001 1.7770001
0.56525522 0.21324001 1.7770001
0.57540953 0.21324001 1.7770001
0.58556384 0.21324001 1.7770001
0.59402573 0.21324001 1.7770001
-0.22339429 0.22508667 1.7770001
-0.21662477 0.22339429 1.7770001
-0.20647049 0.22339429 1.7770001
-0.18446952 0.22677906 1.7770001
-0.17600763 0.22677906 1.7770001
-0.16585334 0.22677906 1.7770001
-0.1252362 0.22677906 1.7770001
-0.11846667 0.22677906 1.7770001
-0.10662 0.22677906 1.7770001
-0.084619045 0.22226603 1.7770001
-0.07784953 0.22000954 1.7770001
-0.064310476 0.22339429 1.7770001
-0.040617146 0.22339429 1.7770001
-0.03554 0.22339429 1.7770001
0.033847619 0.22000954 1.7770001
0.047386669 0.22000954 1.7770001
0.052463811 0.22000954 1.7770001
0.088003814 0.22000954 1.7770001
0.091388576 0.22000954 1.7770001
0.12862095 0.22000954 1.7770001
0.13539048 0.22000952 1.7770001
0.14554477 0.22170192 1.7770001
0.22339429 0.22000954 1.7770001
0.23016381 0.22000954 1.7770001
0.30462858 0.22000954 1.7770001
0.3130905 0.22000954 1.7770001
-0.22677906 0.23354858 1.7770001
-0.16923811 0.23016381 1.7770001
-0.13200572 0.23016381 1.7770001
-0.12862095 0.23016381 1.7770001
-0.11508191 0.23016381 1.7770001
-0.22542515 0.2443798 1.7770001
-0.22339429 0.2504724 1.7770001
0.57710195 0.37232381 1.7770001
0.58556384 0.37232384 1.7770001
0.59233338 0.37232381 1.7770001
0.5760864 0.42783394 1.7770001
0.58217907 0.42986476 1.7770001
0.59910285 0.42986476 1.7770001
0.57710195 0.43494192 1.7770001
0.58387148 0.4366343 1.7770001
0.57597363 0.44227561 1.7770001
0.58330733 0.44227561 1.7770001
0.59910285 0.44340384 1.7770001
0.58556384 0.45017335 1.7770001
0.60925716 0.49079049 1.7770001
0.61644977 0.49375218 1.7770002
0.62618095 0.49248284 1.7770001
0.61738056 0.50365263 1.7770001
0.62618101 0.50500649 1.7770001
0.63295048 0.50094479 1.7770001
0.5787943 0.51786858 1.7770001
0.58641005 0.51617622 1.7770001
0.59233338 0.51786858 1.7770001
0.60474414 0.51674032 1.7770001
0.61560363 0.51448381 1.7770002
0.62279624 0.51448381 1.7770001
0.63802767 0.51448387 1.7770001
0.64691263 0.51406068 1.7770002
0.5787943 0.52125335 1.7770001
0.5968464 0.52350992 1.7770001
0.60587239 0.52463812 1.7770002
0.6160267 0.5229457 1.7770001
0.62448859 0.52294576 1.7770001
0.5979746 0.53479242 1.7770001
0.60361582 0.53253591 1.7770001
0.58725619 0.54325426 1.7770001
0.59233338 0.54325426 1.7770001
0.62618095 0.54833144 1.7770001
0.6160267 0.55510098 1.7770001
0.59910285 0.56694764 1.7770001
0.60587239 0.56638354 1.7770001
0.61534977 0.5666092 1.7770001
0.60925716 0.57202476 1.7770001
0.61433434 0.57371712 1.7770001
0.62618095 0.5787943 1.7770001
0.61941147 0.58387148 1.7770001
0.62415016 0.58624077 1.7770001
0.60587239 0.59910285 1.7770001
0.61941147 0.59233338 1.7770001
0.62550402 0.59571809 1.7770001
0.60700065 0.60361582 1.7770001
0.6160267 0.60587239 1.7770001
0.62618095 0.60474414 1.7770001
0.63633519 0.60248762 1.7770001
0.61771905 0.61264193 1.7770001
0.62279624 0.61941147 1.7770001
0.635207 0.61828321 1.7770001
0.62702715 0.62448859 1.7770001
0.63633525 0.62448859 1.7770001
0.64310479 0.62279624 1.7770001
0.43714476 0.20751619 1.7860001
0.50518286 0.20751619 1.7860001
0.54770666 0.20751619 1.7860001
0.55791241 0.20751619 1.7860001
0.56471622 0.20751619 1.7860001
0.58682859 0.20751619 1.7860001
0.59193146 0.20751619 1.7860001
0.60383809 0.20751619 1.7860001
0.6378572 0.20411429 1.7860001
-0.078243814 0.21772191 1.7860001
0.08844953 0.21772191 1.7860001
0.093552381 0.21772191 1.7860001
0.10545904 0.21432 1.7860001
0.14798287 0.21772191 1.7860001
0.15648763 0.21432 1.7860001
0.18200192 0.21772191 1.7860001
0.19390857 0.21432 1.7860001
0.20411427 0.21432 1.7860001
0.21432 0.21432 1.7860001
0.22452573 0.21772189 1.7860001
0.23132953 0.21772191 1.7860001
0.26534858 0.21432 1.7860001
0.27385336 0.21432 1.7860001
0.29766667 0.21432 1.7860001
0.30617145 0.21772189 1.7860001
0.31637716 0.21772191 1.7860001
0.32488191 0.21432 1.7860001
0.33338669 0.2109181 1.7860001
0.34444287 0.21176857 1.7860001
0.35379812 0.21432 1.7860001
0.36400381 0.21318603 1.7860001
0.37420952 0.21091811 1.7860001
0.38101333 0.2109181 1.7860001
0.39462093 0.21432 1.7860001
0.40482664 0.21432 1.7860001
0.41503239 0.21318603 1.7860001
0.4252381 0.21091811 1.7860001
0.43204191 0.2109181 1.7860001
0.44564953 0.21091811 1.7860001
0.45585525 0.21318603 1.7860001
0.46606097 0.21432 1.7860001
0.47626665 0.21318603 1.7860001
0.48647237 0.21091811 1.7860001
0.49327621 0.2109181 1.7860001
0.50007999 0.2109181 1.7860001
0.55451053 0.21091811 1.7860001
0.56471616 0.21091811 1.7860001
0.57492191 0.21091811 1.7860001
0.58512765 0.21091811 1.7860001
0.5936324 0.2109181 1.7860001
0.6378572 0.2109181 1.7860001
-0.22792763 0.22452572 1.7860001
-0.20241334 0.22452572 1.7860001
-0.19390857 0.22565968 1.7860001
-0.18030097 0.22452572 1.7860001
-0.17349716 0.22565968 1.7860001
-0.16329144 0.22792763 1.7860001
-0.15818858 0.22792763 1.7860001
-0.14628191 0.22792763 1.7860001
-0.1360762 0.22792763 1.7860001
-0.11566477 0.22679365 1.7860001
-0.10205714 0.22792763 1.7860001
-0.095253326 0.22565968 1.7860001
-0.085047625 0.22112381 1.7860001
-0.054430474 0.22452573 1.7860001
-0.045925714 0.22452572 1.7860001
-0.030617144 0.22452572 1.7860001
-0.023813333 0.22282477 1.7860001
-0.015308572 0.22112381 1.7860001
-0.005102857 0.22112381 1.7860001
0 0.22112381 1.7860001
0.065770157 0.22225778 1.7860001
0.074841909 0.22112381 1.7860001
0.083346672 0.22112381 1.7860001
0.14288001 0.22112381 1.7860001
-0.23132953 0.23132953 1.7860001
-0.23132953 0.2466381 1.7860001
0.57492191 0.43544379 1.7860001
0.60621941 0.43748498 1.786
0.61234289 0.43884572 1.7860001
0.6378572 0.5068838 1.7860001
0.64636189 0.50518286 1.7860001
0.65316576 0.50518286 1.7860001
0.62368256 0.51255369 1.7860001
0.6378572 0.51028574 1.7860001
0.64636189 0.51028574 1.7860001
0.65316576 0.51028574 1.7860001
0.58569461 0.52502733 1.7860001
0.59306544 0.52616125 1.7860001
0.58444726 0.53205788 1.786
0.59646732 0.53296512 1.7860001
0.58682859 0.54090285 1.7860001
0.5936324 0.54090285 1.7860001
0.59703434 0.57832384 1.7860001
0.6059643 0.57534713 1.7860001
0.61234289 0.57832384 1.7860001
0.59630531 0.58561361 1.7860001
0.60553908 0.58512759 1.7860001
0.61574483 0.58512759 1.7860001
0.62254858 0.58172572 1.7860001
0.59533334 0.5953334 1.786
0.60553908 0.59533334 1.7860001
0.61574477 0.59533334 1.7860001
0.62254858 0.59533334 1.7860001
0.58852953 0.60724002 1.7860001
0.59533334 0.60553908 1.7860001
0.60383809 0.60553902 1.7860001
0.61642516 0.60349786 1.786
0.62424958 0.60383809 1.7860001
0.59533334 0.61234289 1.7860001
0.60638952 0.61319339 1.7860001
0.61531955 0.61574477 1.7860001
0.62254858 0.61574483 1.7860001
0.61801273 0.62368256 1.7860001
0.62368256 0.62595052 1.7860001
0.64466095 0.62935239 1.7860001
0.42738098 0.19830477 1.7950001
0.43421903 0.19659525 1.7950001
0.33506668 0.20856191 1.7950001
0.34532383 0.20856191 1.7950001
0.36583814 0.20856191 1.7950001
0.37609527 0.20856191 1.7950001
0.38635239 0.20856191 1.7950001
0.4154143 0.20856191 1.7950001
0.42396197 0.20557025 1.7950001
0.43379167 0.20471548 1.7950001
0.44447619 0.20685239 1.7950001
0.46328098 0.20856191 1.7950001
0.47524765 0.20856191 1.7950001
0.49576196 0.20856191 1.7950001
0.50260001 0.20856191 1.7950001
0.51627618 0.20856191 1.7950001
0.52653337 0.20856191 1.7950001
0.53508097 0.20856191 1.7950001
0.54431236 0.2071943 1.7950001
0.5545696 0.2065105 1.7950001
0.56414288 0.20457302 1.7950001
0.57488841 0.20611975 1.7950001
0.58368027 0.20514286 1.7950001
0.59833336 0.20856191 1.7950001
0.6017524 0.20856191 1.7950001
0.63594288 0.20856191 1.7950001
0.6462 0.20856191 1.7950001
-0.082057148 0.21881905 1.7950001
-0.020514287 0.21881905 1.7950001
-0.013676192 0.21881907 1.7950001
-0.0068380954 0.21881905 1.7950001
0.041028574 0.21881905 1.7950001
0.06496191 0.21881907 1.7950001
0.075219043 0.21881907 1.7950001
0.083766669 0.21881905 1.7950001
0.12479524 0.21881905 1.7950001
0.1367619 0.21881905 1.7950001
0.1436 0.21710953 1.7950001
0.15385714 0.21312064 1.7950001
0.1641143 0.21426034 1.7950001
0.17437144 0.21540003 1.7950001
0.1863381 0.21540001 1.7950001
0.21540001 0.21540001 1.7950001
0.22565715 0.21540003 1.7950001
0.23591429 0.21540003 1.7950001
0.24617143 0.21540003 1.7950001
0.25471905 0.21540001 1.7950001
0.26668572 0.21540001 1.7950001
0.28378096 0.21198095 1.7950001
0.2923286 0.21198095 1.7950001
0.30429524 0.21369049 1.7950001
0.3145524 0.21540003 1.7950001
0.32480955 0.21312064 1.7950001
0.33164763 0.21198095 1.7950001
0.35558096 0.21198095 1.7950001
0.36412859 0.21198095 1.7950001
0.38806191 0.21198095 1.7950001
0.39660954 0.21198095 1.7950001
0.40344763 0.21198095 1.7950001
0.41370478 0.21198095 1.7950001
0.45815238 0.21198095 1.7950001
0.4649905 0.21198095 1.7950001
0.47524762 0.21198095 1.7950001
0.48208573 0.21198095 1.7950001
-0.23249525 0.22736667 1.7950001
-0.22223811 0.22223811 1.7950001
-0.21540003 0.22223811 1.7950001
-0.20514286 0.22223811 1.7950001
-0.19146667 0.22565715 1.7950001
-0.1863381 0.22565715 1.7950001
-0.17095239 0.22565715 1.7950001
-0.1641143 0.22565715 1.7950001
-0.15214762 0.22736667 1.7950001
-0.14018096 0.22565715 1.7950001
-0.13505238 0.22565715 1.7950001
-0.12650478 0.22565715 1.7950001
-0.1145381 0.22565715 1.7950001
-0.10599049 0.22565715 1.7950001
-0.099152386 0.22565715 1.7950001
-0.088895239 0.22223811 1.7950001
-0.044447619 0.22223811 1.7950001
-0.034190476 0.22223811 1.7950001
-0.023933334 0.22223811 1.7950001
-0.010257144 0.22223811 1.7950001
0.0051285718 0.22223811 1.7950001
0.011966668 0.22223811 1.7950001
0.07521905 0.22223811 1.7950001
-0.23249525 0.23762381 1.7950001
-0.23249525 0.24275239 1.7950001
0.5932048 0.53679049 1.7950001
0.59491432 0.54020953 1.7950001
0.59377462 0.58693653 1.7950001
0.57781905 0.59833336 1.7950001
0.58693653 0.59491432 1.7950001
0.5928629 0.5955981 1.7950001
0.6017524 0.59833336 1.7950001
0.57781905 0.60517144 1.7950001
0.58563405 0.6051715 1.7950001
0.59149528 0.60346192 1.7950001
0.6017524 0.6017524 1.7950001
0.57781905 0.61200953 1.7950001
0.58465719 0.61286426 1.7950001
0.59491432 0.61713815 1.7950001
0.60431671 0.61799288 1.7950001
0.58807623 0.62739527 1.7950001
0.59833336 0.62226671 1.7950001
0.60688096 0.62397623 1.7950001
0.61457384 0.62568575 1.7950001
0.42265144 0.19929905 1.8040001
0.56525332 0.19586284 1.804
0.57286209 0.19635375 1.804
0.58071619 0.19929905 1.8040001
0.3281562 0.20960763 1.8040001
0.33674669 0.20617144 1.8040001
0.34361908 0.20445335 1.804
0.35306856 0.20703049 1.8040001
0.36080003 0.20960763 1.8040001
0.38485333 0.20960763 1.8040001
0.39172572 0.20960763 1.8040001
0.40890667 0.20960763 1.8040001
0.41692448 0.20617144 1.8040003
0.42608765 0.20273525 1.8040001
0.4449867 0.20273525 1.8040001
0.45357716 0.20846224 1.8040003
0.46044955 0.20960763 1.8040001
0.47591239 0.20788953 1.8040001
0.48450288 0.20960765 1.8040003
0.49137527 0.20960763 1.8040001
0.50512004 0.20617144 1.8040001
0.51199239 0.20617144 1.8040001
0.52573717 0.20617144 1.8040001
0.53604573 0.20617144 1.8040001
0.54406351 0.20388065 1.8040003
0.56353521 0.20273525 1.8040001
0.57556194 0.20273525 1.8040001
0.64600384 0.20960763 1.8040001
-0.085904762 0.21991619 1.8040001
-0.037798095 0.21991619 1.8040001
-0.024053333 0.21991619 1.8040001
-0.013744763 0.21648 1.8040003
-0.0051542856 0.21819809 1.8040001
0.0017180953 0.21991619 1.8040001
0.027489524 0.21991619 1.8040001
0.034361906 0.21991619 1.8040001
0.046388574 0.21991619 1.8040001
0.05154286 0.21991619 1.8040001
0.099649526 0.21648 1.8040001
0.11511239 0.21648 1.8040001
0.12026667 0.21648 1.8040001
0.13229334 0.21991619 1.8040001
0.14432001 0.21476191 1.8040001
0.15119238 0.21304382 1.8040001
0.1821181 0.21648 1.8040001
0.19586284 0.21304382 1.8040003
0.20445335 0.21304382 1.8040001
0.21648 0.21304382 1.8040001
0.22507048 0.21304382 1.8040001
0.23366098 0.21304382 1.8040003
0.24568763 0.21304382 1.8040001
0.25084192 0.21304382 1.8040001
0.26286858 0.21476191 1.8040001
0.27145904 0.21304382 1.8040001
0.28864002 0.21304382 1.8040001
0.29894859 0.21304382 1.8040001
0.30925715 0.21304382 1.8040001
0.31612954 0.21304382 1.8040003
0.32300192 0.21304382 1.8040001
0.39516193 0.21304382 1.8040001
-0.23366098 0.22449778 1.8040003
-0.22678858 0.22335239 1.8040001
-0.20617144 0.22335239 1.8040001
-0.19586284 0.22335239 1.8040003
-0.1821181 0.22335239 1.8040001
-0.17868191 0.22335239 1.8040001
-0.16493715 0.22678858 1.8040001
-0.15462857 0.22564317 1.8040003
-0.1466108 0.22564317 1.8040003
-0.13401143 0.22335239 1.8040003
-0.12198476 0.22335239 1.8040001
-0.11511239 0.22335239 1.8040001
-0.10652191 0.22335239 1.8040003
-0.096213341 0.22335239 1.8040003
-0.067005716 0.22335239 1.8040001
-0.054979045 0.22335239 1.8040003
-0.027489524 0.22335239 1.8040001
-0.24053334 0.23366098 1.8040003
-0.23709716 0.23366098 1.8040003
-0.24053334 0.24396953 1.8040001
-0.23709716 0.24396951 1.8040003
-0.24053334 0.25084192 1.8040001
-0.23709716 0.25084192 1.8040001
0.59274286 0.58758861 1.8040001
0.57556194 0.59789717 1.8040001
0.58458191 0.59489048 1.804
0.59102476 0.59102476 1.8040001
0.57556194 0.60476953 1.804
0.5841524 0.60305142 1.8040001
0.59102476 0.60133338 1.8040001
0.57556194 0.61336005 1.8040001
0.58300704 0.61622351 1.8040003
0.59102476 0.6185143 1.8040001
0.58672953 0.62624574 1.8040001
0.59308648 0.62469947 1.8040001
0.60362411 0.6276775 1.8040003
0.54592764 0.19694857 1.8140001
0.55974859 0.19349334 1.8140001
0.56320381 0.19349334 1.8140001
0.33343047 0.2073143 1.8140001
0.36798286 0.2073143 1.8140001
0.37316573 0.2073143 1.8140001
0.3800762 0.2073143 1.8140001
0.39044192 0.2073143 1.8140001
0.41808382 0.2073143 1.8140001
0.45609143 0.20558669 1.8140001
0.46645716 0.2073143 1.8140001
0.47682288 0.2073143 1.8140001
0.48546097 0.2073143 1.8140001
0.4975543 0.2073143 1.8140001
0.50446475 0.2073143 1.8140001
0.51828575 0.2073143 1.8140001
0.52519619 0.2073143 1.8140001
0.53642577 0.20472287 1.8140001
0.54592764 0.20155556 1.8140001
-0.20385906 0.21768001 1.8140001
-0.13475429 0.21768001 1.8140001
-0.12093334 0.21768001 1.8140001
-0.1174781 0.21768001 1.8140001
-0.022459049 0.21768001 1.8140001
-0.010365714 0.21422477 1.8140001
-0.0034552382 0.21768001 1.8140001
0.0034552382 0.21768002 1.8140001
0.048373334 0.21768001 1.8140001
0.051828574 0.21768001 1.8140001
0.065649524 0.21768002 1.8140001
0.076879054 0.2168162 1.8140001
0.08568991 0.21629791 1.8140001
0.09501905 0.21768001 1.8140001
0.1261162 0.21768001 1.8140001
0.13475429 0.21768002 1.8140001
0.16757905 0.21422477 1.8140001
0.17621715 0.21422477 1.8140001
0.18485525 0.21422477 1.8140001
0.21249714 0.21422477 1.8140001
0.22113524 0.21422477 1.8140001
0.2349562 0.21076953 1.8140001
0.24359429 0.21249714 1.8140001
0.25741524 0.21422477 1.8140001
0.26720509 0.21307302 1.8140001
0.27814668 0.21422477 1.8140001
0.28332955 0.21422477 1.8140001
0.31442666 0.21076953 1.8140001
0.32306477 0.21076953 1.8140001
0.3973524 0.21076953 1.8140001
0.40426287 0.21076953 1.8140001
0.47336763 0.21076953 1.8140001
-0.24186668 0.22631809 1.8140001
-0.2349562 0.22286287 1.8140001
-0.22631809 0.22113524 1.8140001
-0.21422477 0.22113524 1.8140001
-0.20385906 0.22113524 1.8140001
-0.1900381 0.22459048 1.8140001
-0.18658286 0.22459048 1.8140001
-0.17276192 0.22459048 1.8140001
-0.16585143 0.22459048 1.8140001
-0.15548572 0.22343874 1.8140001
-0.14512001 0.22343874 1.8140001
-0.13475429 0.22113524 1.8140001
-0.12525238 0.22199906 1.8140001
-0.11402286 0.22113524 1.8140001
-0.10365714 0.22113524 1.8140001
-0.089836195 0.22113524 1.8140001
-0.062194288 0.22459048 1.8140001
-0.051828574 0.22113524 1.8140001
-0.044918094 0.22113524 1.8140001
-0.032824762 0.22113524 1.8140001
-0.027641905 0.22113524 1.8140001
0.0069104764 0.22113524 1.8140001
0.013820953 0.22113524 1.8140001
0.022459049 0.22113524 1.8140001
0.03455238 0.22113524 1.8140001
0.057011433 0.22113524 1.8140001
-0.24532191 0.23668382 1.8140001
-0.24359429 0.24704954 1.8140001
-0.24532191 0.2522324 1.8140001
0.58739048 0.58739048 1.8140001
0.5925734 0.58739048 1.8140001
0.57702476 0.59602857 1.8140001
0.58307147 0.59430099 1.8140001
0.59084576 0.59084576 1.8140001
0.58566284 0.62712574 1.8140001
0.43254858 0.19803429 1.8240001
0.44818288 0.19803429 1.8240001
0.45339429 0.19803429 1.8240001
0.53504008 0.19803429 1.824
0.54372573 0.19803429 1.8240001
0.55588573 0.19803429 1.824
0.56630862 0.19803429 1.8240001
0.31789714 0.20845716 1.8240001
0.32484573 0.20845716 1.8240001
0.33353147 0.20614095 1.824
0.34048 0.20498286 1.8240001
0.37522286 0.20672001 1.8240001
0.38738286 0.20845716 1.8240001
0.39606857 0.20845716 1.8240001
0.40996572 0.20845716 1.8240001
0.41517717 0.20845716 1.8240001
0.42038858 0.20498286 1.8240001
0.43081143 0.20150858 1.8240001
0.44818288 0.20150858 1.8240001
0.45339429 0.20150858 1.8240001
0.46381718 0.20498286 1.8240001
0.47597715 0.20845716 1.8240001
0.49508572 0.20845716 1.8240001
0.50724572 0.20498286 1.8240001
0.51419431 0.20498286 1.824
0.5246172 0.20498286 1.824
0.53417146 0.20237716 1.8240001
0.54372573 0.20150858 1.8240001
0.55704385 0.20382476 1.824
0.5645715 0.20324573 1.8240001
-0.2345143 0.21888001 1.8240001
-0.22582859 0.21888001 1.824
-0.21540572 0.21888001 1.824
-0.20845716 0.21888001 1.8240001
-0.17024 0.21888001 1.8240001
-0.16676572 0.21888001 1.8240001
-0.15460572 0.21888001 1.8240001
-0.14939429 0.21888001 1.8240001
-0.13549715 0.21888001 1.8240001
-0.12681144 0.21888001 1.8240001
-0.11291429 0.21888001 1.8240001
-0.10422858 0.21888001 1.824
-0.085120007 0.21888001 1.8240001
-0.04169143 0.21888001 1.8240001
-0.034742862 0.21888001 1.8240001
-0.022582859 0.21540572 1.8240001
-0.015634287 0.21540572 1.8240001
-0.0069485717 0.21540572 1.8240001
0.0034742858 0.21540572 1.8240001
0.013897143 0.21888001 1.824
0.024320001 0.21888001 1.824
0.034742858 0.21888001 1.824
0.045165718 0.21772192 1.824
0.055588573 0.21772192 1.824
0.066011436 0.21540572 1.824
0.075739428 0.21332116 1.8240001
0.085120007 0.21193144 1.8240001
0.093805723 0.21540572 1.824
0.10422858 0.21540572 1.824
0.11465143 0.21540572 1.824
0.12507428 0.21540572 1.824
0.13897143 0.21540572 1.8240001
0.14418286 0.21540572 1.8240001
0.19369143 0.2128 1.8240001
0.20498288 0.21193142 1.824
0.21888001 0.21193144 1.8240001
0.22582859 0.21193142 1.824
0.23625144 0.21193144 1.8240001
0.2432 0.21193144 1.8240001
0.25362286 0.21193142 1.824
0.26404575 0.21193142 1.824
0.27620572 0.21193144 1.8240001
0.28489146 0.21193142 1.824
0.29531428 0.21193144 1.8240001
0.30747432 0.21193144 1.8240001
-0.2455162 0.22582859 1.824
-0.23798859 0.22235429 1.8240001
-0.22235429 0.22235429 1.8240001
-0.20498288 0.22235429 1.8240001
-0.19629714 0.22235429 1.8240001
-0.18240002 0.22235429 1.8240001
-0.17458285 0.22322287 1.8240001
-0.16502857 0.22235429 1.8240001
-0.15808001 0.22235429 1.8240001
-0.14418286 0.22235429 1.8240001
-0.10422858 0.22235429 1.8240001
-0.095542863 0.22235429 1.8240001
-0.074697152 0.22235429 1.8240001
-0.069485717 0.22235429 1.8240001
-0.057325717 0.22235429 1.8240001
-0.25014859 0.23798859 1.8240001
-0.2466743 0.23277715 1.8240001
-0.2466743 0.24493715 1.8240001
0.59236574 0.58715433 1.8240001
0.58715433 0.59236574 1.8240001
0.58194292 0.62537146 1.8240001
0.53069717 0.19901143 1.8330001
0.56561142 0.19901143 1.8330001
0.059354287 0.20948572 1.8330001
0.066337146 0.20948572 1.8330001
0.075647622 0.20832191 1.8330001
0.083794288 0.20948572 1.8330001
0.23741715 0.20948572 1.8330001
0.24440001 0.20948572 1.8330001
0.25487432 0.20948572 1.8330001
0.26534858 0.20948572 1.8330001
0.27582288 0.20948572 1.8330001
0.28280571 0.20948572 1.8330001
0.31422859 0.20948572 1.8330001
0.32819429 0.20599429 1.8330001
0.33168572 0.20599429 1.8330001
0.35961714 0.20948572 1.8330001
0.36660001 0.20948572 1.8330001
0.37358287 0.20599429 1.8330001
0.38405716 0.20599429 1.8330001
0.39278573 0.20599429 1.8330001
0.40500572 0.20948572 1.8330001
0.41722572 0.20599429 1.8330001
0.42595431 0.20250286 1.8330001
0.4626143 0.20250286 1.8330001
0.47483429 0.20599429 1.8330001
0.48530856 0.20599429 1.8330001
0.49578288 0.20599429 1.8330001
0.50451148 0.20599429 1.8330001
0.5219686 0.20250286 1.8330001
0.53069717 0.20250286 1.8330001
0.56386572 0.20250286 1.8330001
-0.24440001 0.21996002 1.8330001
-0.23305286 0.21559572 1.8330001
-0.22519715 0.21472287 1.8330001
-0.21716686 0.21507201 1.8329999
-0.20599429 0.21821429 1.8330001
-0.1833 0.21996 1.8330001
-0.17457144 0.21879619 1.8330001
-0.16235143 0.21996 1.8330001
-0.14489429 0.21996 1.8330001
-0.13965715 0.21646857 1.8330001
-0.12394571 0.21646857 1.8330001
-0.10474286 0.21646857 1.8330001
-0.093395725 0.21908715 1.8330001
-0.083794288 0.21821429 1.8330001
-0.076811433 0.21996 1.8330001
-0.052371431 0.21996 1.8330001
-0.047134288 0.21996 1.8330001
-0.034914289 0.21996 1.8330001
-0.027931429 0.21996 1.8330001
-0.013965716 0.21297716 1.8330001
-0.0034914287 0.21646857 1.8330001
0.0034914287 0.21646857 1.8330001
0.013965716 0.21646857 1.8330001
0.02444 0.21646857 1.8330001
0.033168573 0.21646857 1.8330001
0.043642856 0.21646857 1.8330001
0.05819048 0.21530478 1.8330001
0.066337146 0.21297716 1.8330001
0.094268583 0.21297716 1.8330001
0.10823429 0.21297716 1.8330001
0.11870857 0.21297716 1.8330001
0.12569143 0.21297716 1.8330001
0.13546744 0.21437374 1.8329999
0.14489429 0.21297716 1.8330001
0.15362287 0.21297716 1.8330001
0.16060571 0.21297716 1.8330001
0.17282572 0.21297716 1.8330001
0.18853715 0.21297716 1.8330001
0.21472287 0.21297716 1.8330001
0.29328001 0.21297716 1.8330001
0.30200857 0.21297716 1.8330001
-0.25138286 0.22694287 1.8330001
-0.24789144 0.22345144 1.8330001
-0.19202858 0.22345144 1.8330001
-0.18853715 0.22345144 1.8330001
-0.06459143 0.22345144 1.8330001
-0.25487429 0.2339257 1.8330001
-0.25531071 0.24483645 1.8330001
-0.25312859 0.25138286 1.8330001
-0.22467048 0.20711811 1.8430001
0.057922859 0.20711811 1.8430001
0.064943813 0.20711811 1.8430001
0.071964763 0.20711811 1.8430001
0.12813239 0.20711811 1.8430001
0.29839048 0.20711811 1.8430001
0.31769812 0.20711811 1.8430001
0.32471907 0.20711811 1.8430001
0.3352505 0.20360763 1.8430001
0.34051621 0.20360763 1.8430001
0.38615239 0.20360763 1.8430001
0.40194952 0.20711811 1.8430001
0.41248098 0.20711811 1.8430001
0.4739143 0.20360763 1.8430001
0.48444572 0.20360763 1.8430001
0.49322191 0.20360763 1.8430001
0.50901908 0.20360763 1.8430001
0.51604003 0.20360763 1.8430001
0.52481622 0.20009714 1.8430001
0.53008193 0.20360763 1.8430001
-0.2439781 0.21764953 1.8430001
-0.23520191 0.2129689 1.8430001
-0.22467048 0.21062858 1.8430001
-0.21413906 0.2129689 1.8430001
-0.20711811 0.2158943 1.8430001
-0.18254477 0.21764953 1.8430001
-0.17727906 0.21764953 1.8430001
-0.16499239 0.21764953 1.8430001
-0.15446097 0.21764953 1.8430001
-0.14568476 0.21764953 1.8430001
-0.13515334 0.21764953 1.8430001
-0.12988763 0.21764953 1.8430001
-0.11584572 0.21764953 1.8430001
-0.096538097 0.21764953 1.8430001
-0.084251434 0.21764953 1.8430001
-0.045636192 0.21764953 1.8430001
-0.03686 0.21764953 1.8430001
-0.024573334 0.21530922 1.8430001
-0.0052657146 0.21413906 1.8430001
0.0035104763 0.21413906 1.8430001
0.015797144 0.21413906 1.8430001
0.024573334 0.21413906 1.8430001
0.038615238 0.21764953 1.8430001
0.047976509 0.2129689 1.8430001
0.054412384 0.21238382 1.8430001
0.094782859 0.21062858 1.8430001
0.10355905 0.21413906 1.8430001
0.11584572 0.2129689 1.8430001
0.12637715 0.21062858 1.8430001
0.13515334 0.21062858 1.8430001
0.14217429 0.21062858 1.8430001
0.15446097 0.21413906 1.8430001
0.16674763 0.21413906 1.8430001
0.17903429 0.21413906 1.8430001
0.18430001 0.21413906 1.8430001
0.28785905 0.21062858 1.8430001
0.29488 0.21062858 1.8430001
0.30365619 0.21062858 1.8430001
0.36508954 0.21062858 1.8430001
-0.25556269 0.22537258 1.8430001
-0.20009714 0.22116001 1.8430001
-0.19483143 0.22116001 1.8430001
-0.18956572 0.22116001 1.8430001
-0.071964763 0.22116001 1.8430001
-0.06669905 0.22116001 1.8430001
-0.057922859 0.22116001 1.8430001
-0.26328573 0.23520191 1.8430001
-0.25977525 0.23169143 1.8430001
-0.26328573 0.2439781 1.8430001
-0.22941905 0.20824191 1.853
0.052942861 0.20824191 1.853
0.075884759 0.20471239 1.853
0.084708571 0.20824191 1.853
0.12353334 0.20824191 1.853
0.13412191 0.20824191 1.853
0.28589144 0.20824191 1.853
0.29471523 0.20824191 1.853
0.30530381 0.20824191 1.853
0.31059811 0.20824191 1.853
0.38295335 0.20471239 1.853
0.39530668 0.20471239 1.853
0.40942478 0.20824191 1.853
0.42354286 0.20471239 1.853
0.43236667 0.20118286 1.853
0.48354477 0.20118286 1.853
0.50472194 0.20471239 1.853
0.51884001 0.20118286 1.853
0.52236956 0.20118286 1.853
-0.25236094 0.21883048 1.853
-0.24353716 0.21530096 1.853
-0.21530096 0.21177144 1.853
-0.20471239 0.21883048 1.853
-0.19235906 0.21883048 1.853
-0.18441764 0.21618335 1.853
-0.17471144 0.21530096 1.853
-0.16588762 0.21530096 1.853
-0.15529905 0.21530096 1.853
-0.14471048 0.21530096 1.853
-0.13412191 0.21530096 1.853
-0.12706286 0.21530096 1.853
-0.11294477 0.21530096 1.853
-0.10588572 0.21530096 1.853
-0.094591238 0.21388915 1.853
-0.084708571 0.21647747 1.853
-0.07412 0.21883048 1.853
-0.054707624 0.21883048 1.853
-0.045883812 0.21883048 1.853
-0.031765714 0.21883048 1.853
-0.024706667 0.21294795 1.853
-0.014118095 0.21177144 1.853
-0.0052942857 0.21177144 1.853
0.014118095 0.21294795 1.853
0.021177143 0.21177144 1.853
0.035295237 0.21530096 1.853
0.044119049 0.2135362 1.853
0.10765048 0.21177144 1.853
0.11470953 0.21177144 1.853
0.17471144 0.21177144 1.853
0.18706477 0.21177144 1.853
0.20824191 0.21177144 1.853
0.21883048 0.21177144 1.853
0.22236001 0.21177144 1.853
0.31236285 0.21177144 1.853
-0.26294953 0.22588953 1.853
-0.25765523 0.22236001 1.853
-0.063531429 0.22236001 1.853
-0.26824382 0.23471335 1.853
-0.26824382 0.24177238 1.853
0.52873719 0.19872001 1.863
0.049680002 0.20936573 1.863
0.067422859 0.20581715 1.863
0.070971429 0.20581715 1.863
0.085165717 0.20936573 1.863
0.095811434 0.20936573 1.863
0.11178 0.20936573 1.863
0.12065143 0.20936573 1.863
0.1383943 0.20936573 1.863
0.14194286 0.20936573 1.863
0.17388001 0.20936573 1.863
0.2484 0.20936573 1.863
0.25549716 0.20936573 1.863
0.26259428 0.20936573 1.863
0.28566003 0.20759144 1.863
0.29364428 0.2067043 1.863
0.30340287 0.20581715 1.863
0.31582287 0.20936573 1.863
0.36727715 0.20936573 1.863
0.37614858 0.20759144 1.863
0.3867943 0.20226859 1.863
0.39211714 0.20226859 1.863
0.40631145 0.20581715 1.863
0.41518286 0.20581715 1.863
0.42582861 0.20226859 1.863
0.48970288 0.20226859 1.863
0.50744575 0.20226859 1.863
0.51454288 0.20226859 1.863
0.53583431 0.20226859 1.863
-0.2484 0.21646287 1.863
-0.2377543 0.21291429 1.863
-0.21291429 0.21291429 1.863
-0.20581716 0.21528 1.863
-0.19517143 0.21646287 1.863
-0.14194286 0.21291429 1.863
-0.13307142 0.21291429 1.863
-0.12242572 0.21646287 1.863
-0.11710286 0.21646287 1.863
