# .PCD v0.7 - Point Cloud Data file format
VERSION 0.7
FIELDS x y z
SIZE 4 4 4
TYPE F F F
COUNT 1 1 1
WIDTH 1538
HEIGHT 1
VIEWPOINT 0 0 0 1 0 0 0
POINTS 1538
DATA ascii
-0.18129143 0.071891434 1.641
-0.17504001 0.075017154 1.6409999
-0.16584064 0.075095028 1.6427777
-0.15472285 0.075017147 1.6410002
-0.14690858 0.075017147 1.6410002
-0.12268429 0.075798579 1.641
-0.11608826 0.07530497 1.6472223
-0.10513766 0.075017147 1.641
-0.095855244 0.073975243 1.6410002
-0.084394291 0.078142859 1.641
-0.075017147 0.078142859 1.641
-0.06251429 0.076580003 1.641
-0.054387428 0.076267429 1.641
-0.043313473 0.075910211 1.6409999
-0.035424765 0.076059051 1.6409999
0.12659144 0.076580003 1.641
0.13479643 0.07540787 1.6409999
0.14065714 0.076580003 1.641
0.15628572 0.076267429 1.641
0.16566287 0.075017147 1.6409999
0.17504001 0.075017147 1.6409999
0.1937943 0.078142859 1.641
0.20448953 0.074802257 1.6424545
0.21536152 0.075444005 1.6434
0.2249331 0.075503096 1.6429999
0.23494954 0.076059051 1.6409999
0.24380572 0.075017147 1.6409999
0.25474572 0.075017147 1.6410002
0.26568571 0.075017154 1.6409999
0.27506286 0.073766865 1.641
0.28339812 0.076059051 1.6410002
0.29694286 0.076580003 1.641
0.30006859 0.076580003 1.641
-0.36362478 0.086478092 1.6410002
-0.3547686 0.085957147 1.641
-0.29256687 0.083769143 1.641
-0.28756574 0.082831427 1.641
-0.25005716 0.087520003 1.641
-0.24224287 0.087520003 1.641
-0.2375543 0.087520003 1.641
-0.18397062 0.085287347 1.6409999
-0.17522962 0.08448571 1.6427778
-0.16474096 0.084220946 1.6431817
-0.15385982 0.084748 1.6417999
-0.14378285 0.084394284 1.6409999
-0.13440572 0.084394284 1.6409999
-0.12550096 0.084717661 1.6472223
-0.11621524 0.084805712 1.649
-0.10564915 0.084081702 1.641
-0.096897148 0.081268571 1.641
-0.082518861 0.085019432 1.641
-0.075017147 0.084394284 1.6409999
-0.065640002 0.084394284 1.6409999
-0.056262858 0.085175708 1.6409999
-0.042197142 0.084394284 1.6409999
-0.034399793 0.084441684 1.6418887
-0.023442857 0.087520003 1.641
0.12659144 0.084394284 1.6409999
0.13440572 0.084394284 1.6409999
0.14378285 0.084394291 1.6409999
0.15458079 0.084678441 1.641
0.16566285 0.084394284 1.6409999
0.17414697 0.083947755 1.6409999
0.19457573 0.082049996 1.641
0.20393737 0.084155947 1.6439999
0.21506637 0.08477015 1.6483334
0.22534072 0.08425881 1.646
0.23521002 0.083612859 1.641
0.24419643 0.084784999 1.6409999
0.25474572 0.084394276 1.6410002
0.26568571 0.084394284 1.6409999
0.27545357 0.084784999 1.6409999
0.28444001 0.084394284 1.6409999
0.29426366 0.083947755 1.6409999
0.30006859 0.082831427 1.641
-0.36414573 0.090645716 1.641
-0.35570627 0.091895998 1.641
-0.24328476 0.094292395 1.6409999
-0.23599143 0.092990011 1.641
-0.22817715 0.090645716 1.641
-0.21478124 0.094217971 1.6409999
-0.20942287 0.096897148 1.641
-0.18441716 0.093771428 1.6409999
-0.17504001 0.093771428 1.6409999
-0.16449365 0.094002537 1.6450001
-0.15374075 0.094130374 1.6472222
-0.14417735 0.094027095 1.6454444
-0.13469523 0.093979694 1.6445556
-0.1256381 0.094228581 1.649
-0.11778571 0.093443334 1.649
-0.10532883 0.094224595 1.6439091
-0.095855244 0.095855244 1.6410002
-0.082518861 0.093771435 1.641
-0.075135671 0.093925506 1.6436667
-0.0657873 0.093976296 1.6445556
-0.054700002 0.093771435 1.6410002
-0.043760002 0.093771435 1.6409999
-0.034470901 0.094023712 1.6454444
-0.025005713 0.093771428 1.6409999
-0.018754287 0.092208579 1.641
0.10314857 0.096897148 1.641
0.11877715 0.092208579 1.641
0.12581001 0.09142714 1.641
0.13440572 0.093771428 1.6409999
0.14378285 0.093771428 1.6409999
0.15472287 0.093771435 1.6410002
0.16584402 0.093876407 1.6427778
0.17475405 0.094221197 1.6419998
0.18754287 0.095334291 1.641
0.1937943 0.093771435 1.6409999
0.20383683 0.094076194 1.6463333
0.21506637 0.094191752 1.6483334
0.22547787 0.094505012 1.6470001
0.23599145 0.095334291 1.641
0.24419643 0.093771435 1.6409999
0.25474572 0.093771428 1.6410002
0.26568571 0.093771428 1.6409999
0.27506286 0.093771435 1.6409999
0.28444001 0.093771428 1.6409999
0.29381716 0.093771435 1.6409999
0.30538231 0.093146294 1.641
0.3141343 0.093771435 1.6409999
-0.25005716 0.10783714 1.641
-0.24473763 0.1047762 1.642
-0.23532164 0.10538123 1.6409999
-0.22192572 0.10314858 1.641
-0.21567433 0.10471144 1.6410002
-0.20509496 0.1057934 1.6410002
-0.19223145 0.10314858 1.641
-0.18470131 0.1042852 1.641
-0.17504001 0.10377371 1.641
-0.16459335 0.10503048 1.6460003
-0.15390669 0.10522189 1.649
-0.14448382 0.1052219 1.649
-0.13506095 0.1052219 1.649
-0.12563811 0.10522192 1.649
-0.11756136 0.10589497 1.649
-0.10323828 0.10418209 1.6474001
-0.093810804 0.10475588 1.6416668
-0.082930483 0.10483905 1.6429999
-0.075255871 0.10505175 1.6463333
-0.065959997 0.1052219 1.649
-0.054918095 0.10513047 1.6475002
-0.043883175 0.1050162 1.6456667
-0.034507301 0.10509873 1.647
-0.026345307 0.10404164 1.6409999
0.078142859 0.1094 1.641
0.083612859 0.10627429 1.641
0.095855244 0.10835809 1.6410002
0.10314856 0.10408629 1.641
0.11252572 0.10158572 1.641
0.13529877 0.10270204 1.6409999
0.14378287 0.10225552 1.6409999
0.15446009 0.10484813 1.6415335
0.16598725 0.10510111 1.649
0.17574984 0.10514063 1.6476668
0.18471812 0.10488795 1.6436666
0.19426668 0.1049743 1.645
0.20408063 0.10518127 1.6483334
0.21515524 0.1052219 1.649
0.22577779 0.10505175 1.6463333
0.23471275 0.10513765 1.641
0.24380572 0.10471142 1.6410002
0.25474572 0.10471144 1.6410003
0.26568577 0.10471144 1.6410002
0.27506286 0.10471144 1.6410002
0.28444001 0.10471144 1.6410002
0.29381716 0.10471144 1.6410002
0.30475718 0.10471144 1.6410003
0.315072 0.10533657 1.641
0.32194811 0.10574429 1.645
-0.25005716 0.11408858 1.641
-0.24448709 0.11597579 1.6455715
-0.23585397 0.11688637 1.6436667
-0.22817715 0.11877715 1.641
-0.2156743 0.11565144 1.6409999
-0.20489812 0.11574795 1.6423334
-0.19391429 0.11611453 1.6419998
-0.18441716 0.11565144 1.6409999
-0.17464928 0.11604214 1.6409999
-0.16449365 0.11593207 1.6450001
-0.15390667 0.11621524 1.649
-0.14417735 0.11596467 1.6454444
-0.13469523 0.11590203 1.6445556
-0.12536213 0.11596635 1.6454444
-0.11621524 0.11621524 1.649
-0.1049078 0.11652933 1.6489999
-0.094076201 0.1160273 1.6463333
-0.084580526 0.11590539 1.6445556
-0.076280273 0.11666395 1.649
-0.065960005 0.11621524 1.649
-0.05496667 0.11621523 1.649
-0.04397333 0.11621524 1.649
-0.034443811 0.11583938 1.6436666
-0.025005715 0.11799572 1.641
-0.012502857 0.11877715 1.641
-0.0093771433 0.11877715 1.641
0.075910203 0.11565144 1.6409999
0.084394284 0.11565144 1.6409999
0.093771428 0.11565144 1.6409999
0.10456936 0.11536727 1.641
0.11330715 0.11565143 1.641
0.12502858 0.11877715 1.641
0.13503085 0.11752687 1.641
0.14378287 0.11721429 1.6409999
0.15316002 0.11565144 1.6409999
0.1649 0.11621523 1.649
0.17589334 0.11621524 1.649
0.18481843 0.11589694 1.6445556
0.19473904 0.11621524 1.649
0.20416191 0.11621524 1.649
0.21515526 0.11621525 1.649
0.22577779 0.1160273 1.6463335
0.23442858 0.11565144 1.6409999
0.24380572 0.11565144 1.6409999
0.25474572 0.11565144 1.6410002
0.26568574 0.11565144 1.6409999
0.27506289 0.11565144 1.6409999
0.28444001 0.11565142 1.6409999
0.29381716 0.11565144 1.6409999
0.30458352 0.11530413 1.6409999
0.31569716 0.11565144 1.6409999
0.32351145 0.11565143 1.6409999
-0.24394731 0.12459111 1.649
-0.23517883 0.12524548 1.649
-0.22529186 0.12516572 1.6427777
-0.21515523 0.12563811 1.649
-0.20416191 0.1256381 1.649
-0.19421926 0.12530118 1.6445556
-0.18441716 0.12502858 1.6409999
-0.17513314 0.12509799 1.6418889
-0.16462825 0.12543748 1.6463333
-0.15374243 0.12549926 1.6472222
-0.14402159 0.12523176 1.6436666
-0.13447683 0.12509799 1.6418889
-0.12542984 0.12543494 1.6463333
-0.11621524 0.1256381 1.649
-0.10485904 0.12588972 1.6482
-0.094228581 0.1256381 1.649
-0.084717669 0.12550434 1.6472223
-0.075382859 0.1256381 1.649
-0.065960005 0.1256381 1.649
-0.05496667 0.12563811 1.649
-0.043951318 0.12556869 1.6481111
-0.034423497 0.12516235 1.6427778
-0.024615001 0.12463786 1.6409999
-0.015628573 0.12502858 1.6409999
-0.0085957153 0.12581001 1.641
0.0052095242 0.12398667 1.6410002
0.016410001 0.12737286 1.641
0.043760002 0.12815429 1.641
0.05001143 0.12815429 1.641
0.08595714 0.12502858 1.641
0.096897148 0.12190286 1.641
0.11604215 0.12463786 1.6409999
0.12502858 0.12502858 1.6409999
0.13462412 0.12523682 1.6436667
0.1440165 0.12523682 1.6436667
0.15400915 0.12521601 1.6434
0.16525628 0.12558271 1.6482728
0.17589334 0.1256381 1.649
0.18501651 0.12544002 1.6463333
0.19473906 0.1256381 1.649
0.20416191 0.1256381 1.649
0.21515526 0.12563811 1.649
0.2257778 0.12543494 1.6463333
0.23442858 0.12502858 1.6409999
0.24380572 0.12502857 1.6409999
0.25474572 0.12502858 1.6410002
0.26568574 0.12502857 1.6409999
0.27506289 0.12502858 1.6409999
0.28444001 0.12502857 1.6409999
0.29381716 0.12502858 1.6409999
0.30489922 0.12531275 1.641
0.31530645 0.12463788 1.6409999
0.32473335 0.12600085 1.6445556
-0.24446604 0.13476464 1.6454444
-0.2365962 0.13367048 1.6474001
-0.22455049 0.13369143 1.645
-0.21515524 0.13506095 1.649
-0.20353372 0.13506095 1.6489999
-0.1956311 0.1339073 1.6476666
-0.18363571 0.13206144 1.641
-0.17579682 0.13498645 1.6481112
-0.16490002 0.13506095 1.649
-0.15366286 0.13484254 1.6463333
-0.14432804 0.13491365 1.6472223
-0.13506095 0.13506097 1.649
-0.12668508 0.13401397 1.649
-0.11433067 0.13443276 1.6489999
-0.10479359 0.1347754 1.649
-0.094228581 0.13506097 1.649
-0.084805712 0.13506095 1.649
-0.075382859 0.13506097 1.649
-0.065960005 0.13506095 1.649
-0.05496667 0.13506095 1.649
-0.043951321 0.13498646 1.6481111
-0.034382861 0.13440572 1.6409999
-0.023442857 0.13284287 1.641
-0.015628573 0.13440572 1.6409999
-0.0071444898 0.13485225 1.6409999
0.0062514287 0.13479643 1.6409999
0.015638731 0.13448021 1.6418889
0.024484761 0.13492666 1.6409999
0.033861909 0.13492666 1.6409999
0.043760002 0.13440572 1.6409999
0.052095238 0.13544762 1.6409999
0.085957147 0.13753143 1.641
0.1172143 0.13362429 1.641
0.12509799 0.13447851 1.6418889
0.13498816 0.13498646 1.6481111
0.14417058 0.13476805 1.6454444
0.15472285 0.13440572 1.6410002
0.16647047 0.13506095 1.649
0.17589334 0.13506095 1.649
0.18531621 0.13506097 1.649
0.19473904 0.13506095 1.649
0.20416191 0.13506095 1.649
0.21515524 0.13506095 1.649
0.2257778 0.13484253 1.6463333
0.23442858 0.13440572 1.6409999
0.24420023 0.13462242 1.6436667
0.25474575 0.13440572 1.6410002
0.26568574 0.13440572 1.6409999
0.27521357 0.13448022 1.6418889
0.28474817 0.13455471 1.6427778
0.29397464 0.13448021 1.6418889
0.30475715 0.13440572 1.6410002
0.31530645 0.13401501 1.6409999
0.32526156 0.13526772 1.6472222
-0.245056 0.14503315 1.641
-0.2375543 0.14690858 1.641
-0.21288858 0.14331748 1.6476668
-0.2044899 0.14458306 1.6466
-0.19447525 0.14285524 1.6423334
-0.18351714 0.14352715 1.6470001
-0.17824905 0.14369859 1.649
-0.16332951 0.1444838 1.649
-0.15374415 0.14432636 1.6472223
-0.14432804 0.14432636 1.6472223
-0.13694552 0.14511201 1.6489999
-0.11307428 0.14448382 1.649
-0.10459372 0.14511199 1.6489999
-0.094228573 0.14291334 1.649
-0.084357008 0.1435864 1.649
-0.075304978 0.14432636 1.6472223
-0.065782227 0.14409608 1.6445556
-0.05496667 0.14448382 1.649
-0.0439073 0.14425017 1.6463333
-0.034382861 0.14378285 1.6409999
-0.021880001 0.14378287 1.6410002
-0.015628573 0.14378287 1.6409999
-0.0062514292 0.14378287 1.6409999
0.0046885717 0.14378285 1.6410002
0.015628573 0.14378287 1.6409999
0.025005713 0.14378285 1.6409999
0.034399793 0.14386074 1.6418889
0.043760002 0.14378287 1.6409999
0.054179054 0.14378285 1.6409999
0.065640002 0.14378285 1.6409999
0.075059474 0.14386243 1.6418889
0.084394284 0.14378285 1.6409999
0.093771435 0.14534572 1.6409999
0.10456935 0.14406703 1.641
0.11565144 0.14378288 1.6409999
0.12547509 0.14288981 1.6409999
0.13462412 0.14401144 1.6436666
0.14378285 0.14378287 1.6409999
0.15450305 0.14369264 1.6431819
0.16584229 0.14479789 1.6489999
0.17589334 0.14448382 1.649
0.18531619 0.14448382 1.649
0.19473906 0.14448382 1.649
0.20376928 0.14409119 1.649
0.21515523 0.1444838 1.649
0.22565757 0.14417227 1.6454445
0.23442858 0.14378285 1.6409999
0.24393779 0.14386243 1.6418889
0.25474572 0.14378285 1.6410002
0.26568571 0.14378285 1.6409999
0.27596191 0.14425017 1.6463333
0.28551853 0.14432974 1.6472222
0.29460782 0.14417228 1.6454444
0.30433095 0.14378287 1.641
0.31482288 0.14386074 1.6418889
0.32491845 0.14399162 1.6434
-0.2439395 0.15324467 1.6418887
-0.2375543 0.15003429 1.641
-0.21358478 0.15076572 1.649
-0.20284346 0.15463886 1.6434
-0.19442062 0.15457231 1.6439093
-0.18531619 0.15390667 1.649
-0.17746381 0.15390669 1.649
-0.1629369 0.15351406 1.649
-0.15337315 0.15430629 1.6466
-0.14375222 0.15456396 1.6439091
-0.13715492 0.15600064 1.649
-0.11307428 0.15390667 1.649
-0.10639976 0.15272883 1.649
-0.081664763 0.15390667 1.649
-0.075225398 0.15357654 1.6454444
-0.065887198 0.15374415 1.6472223
-0.05496667 0.15390666 1.649
-0.043951318 0.1538254 1.6481111
-0.034457356 0.15349525 1.6445556
-0.025005717 0.15503542 1.641
-0.015633652 0.15478508 1.6416668
-0.0062641278 0.15497302 1.6436667
0.0046885717 0.15472285 1.6410003
0.015628574 0.15429662 1.641
0.024706857 0.15386134 1.6417999
0.034382857 0.15472285 1.6410002
0.043760002 0.15472287 1.6410002
0.054700006 0.15472288 1.6410003
0.065639995 0.15472285 1.6410002
0.075017147 0.15472287 1.6410002
0.084428579 0.15478382 1.6416668
0.093530223 0.1543659 1.6417273
0.10500857 0.15360065 1.6456667
0.11565144 0.15472285 1.6410002
0.12502857 0.1562857 1.6409999
0.13446158 0.15478636 1.6416668
0.14433141 0.15374245 1.6472223
0.15390667 0.15390666 1.649
0.1649 0.15390669 1.649
0.17589334 0.15390667 1.649
0.18531621 0.15390667 1.649
0.19473904 0.15390667 1.649
0.2037693 0.15390667 1.649
0.21515524 0.15390666 1.649
0.22601774 0.15423314 1.6458
0.23434612 0.15393753 1.6426001
0.24433398 0.15349525 1.6445556
0.25539121 0.15381671 1.6428462
0.26596993 0.15429664 1.641
0.27618307 0.15423621 1.6458
0.28567261 0.15382372 1.6481112
0.29448783 0.15450028 1.6431819
0.30397573 0.15394144 1.6410002
0.31392619 0.15382691 1.6439999
0.32303998 0.15307143 1.6434
-0.24326858 0.16552231 1.6458
-0.23130287 0.16722572 1.641
-0.22567658 0.16753832 1.641
-0.21410629 0.1667023 1.6482
-0.20418188 0.1656 1.6466
-0.19404249 0.16552077 1.6458
-0.18486416 0.16449746 1.6450001
-0.17589332 0.1649 1.649
-0.16453759 0.16526243 1.649
-0.15419222 0.16532832 1.649
-0.14479791 0.16584228 1.6489999
-0.1353465 0.16532832 1.649
-0.12563811 0.16647047 1.649
-0.11531783 0.16512437 1.649
-0.1091481 0.16411476 1.649
-0.081664763 0.16175905 1.649
-0.075382859 0.16332954 1.649
-0.065674469 0.1644717 1.649
-0.054966662 0.1649 1.649
-0.04397333 0.16489999 1.649
-0.033503495 0.1643765 1.649
-0.025020951 0.16575429 1.6418889
-0.015628571 0.16566285 1.6409999
-0.0062548155 0.16584402 1.6427778
0.0046885717 0.16566285 1.6410002
0.015689524 0.16568382 1.6474001
0.025392383 0.16518424 1.6475456
0.034433652 0.16593207 1.6436667
0.043760002 0.16566284 1.6409999
0.054768573 0.16586858 1.6430001
0.065711111 0.16584572 1.6427777
0.075056091 0.16575429 1.6418887
0.084394284 0.16566287 1.6409999
0.094408579 0.16560307 1.6466
0.1052219 0.1649 1.649
0.11583597 0.16593546 1.6436666
0.12530117 0.16602688 1.6445556
0.13498814 0.16638245 1.6481112
0.1444838 0.16490002 1.649
0.15390669 0.16490002 1.649
0.16490002 0.16490002 1.649
0.17589335 0.16228254 1.649
0.18531621 0.16490002 1.649
0.19473906 0.16490002 1.649
0.2041619 0.16489999 1.649
0.21515526 0.16332954 1.649
0.2259014 0.16419874 1.6472223
0.23575447 0.16525629 1.6482728
0.2449943 0.1649 1.649
0.25441715 0.1649 1.649
0.26417419 0.1654698 1.6475456
0.27478081 0.16549951 1.6465385
0.28582668 0.16489999 1.649
0.29450569 0.16560002 1.6466
0.30495796 0.16532832 1.649
0.31409526 0.16532832 1.649
0.32320398 0.16395772 1.6489999
-0.23255315 0.17441486 1.641
-0.22517334 0.17513651 1.6418889
-0.21510287 0.17521991 1.6453637
-0.20409675 0.17560706 1.6433998
-0.19410752 0.17532274 1.6436666
-0.18461525 0.17523302 1.6427778
-0.17579682 0.17580022 1.6481112
-0.16751747 0.17379935 1.649
-0.15076572 0.17275238 1.649
-0.14409119 0.17550071 1.649
-0.13506095 0.17589334 1.649
-0.12537228 0.17551237 1.6454444
-0.11608827 0.17570032 1.6472223
-0.10783937 0.17694032 1.649
-0.081664763 0.17589334 1.649
-0.065331809 0.17400876 1.6489999
-0.054538358 0.17560779 1.649
-0.043973334 0.17589334 1.649
-0.035178669 0.17589334 1.6489999
-0.025076827 0.17551747 1.6454444
-0.015638731 0.17513312 1.6418887
-0.0062531224 0.17513481 1.6418889
0.0047076191 0.17574857 1.6476668
0.015704762 0.17589334 1.649
0.02512762 0.17589334 1.649
0.034550473 0.17589334 1.649
0.04387683 0.17551579 1.6454444
0.054838415 0.17546666 1.6450001
0.065960005 0.17589334 1.649
0.075340539 0.17580019 1.6481112
0.084668577 0.17561395 1.6463333
0.094128683 0.17570707 1.6472223
0.1052219 0.17589332 1.649
0.11615089 0.17579852 1.6481111
0.1256381 0.17589334 1.649
0.13506097 0.17589334 1.649
0.1444838 0.17589334 1.649
0.15390667 0.17589334 1.649
0.1649 0.17589331 1.649
0.17353761 0.17589334 1.649
0.18621361 0.17544463 1.649
0.19473906 0.17589334 1.649
0.20311493 0.17589332 1.649
0.22928953 0.17589335 1.649
0.23557144 0.17589334 1.649
0.2449943 0.17589331 1.649
0.25441715 0.17589334 1.649
0.26384002 0.17589334 1.649
0.27483335 0.17589332 1.649
0.28582668 0.17589334 1.649
0.29509035 0.17580022 1.6481111
0.30467239 0.17589334 1.649
0.31409526 0.17589334 1.649
0.32391071 0.17707118 1.649
-0.23286574 0.18441714 1.6409999
-0.22566096 0.18491323 1.6454444
-0.2161416 0.18481167 1.6445556
-0.20540407 0.18307756 1.6409999
-0.19290124 0.18441714 1.6409999
-0.18514121 0.1847543 1.6439999
-0.14500731 0.18531621 1.649
-0.13466834 0.18492359 1.649
-0.12557207 0.18521799 1.6481111
-0.1160273 0.18502159 1.6463333
-0.1091481 0.18453096 1.649
-0.052768003 0.18343163 1.6489999
-0.04397333 0.18531621 1.649
-0.035447888 0.18576491 1.649
-0.025102222 0.18511303 1.6472223
-0.015635347 0.18451537 1.6418889
-0.0062548155 0.18461527 1.6427778
0.0047076191 0.18516384 1.6476668
0.015694603 0.18521461 1.6481111
0.02512762 0.18531621 1.649
0.034550481 0.18531619 1.649
0.04397333 0.18531619 1.649
0.054942545 0.18524127 1.6483334
0.065960005 0.18531621 1.649
0.075382859 0.18531619 1.649
0.084805712 0.18531619 1.649
0.093835957 0.18492359 1.649
0.1052219 0.18531619 1.649
0.11621524 0.18531621 1.649
0.1256381 0.18531619 1.649
0.13466835 0.18492357 1.649
0.14291334 0.18453096 1.649
0.15390666 0.18531621 1.649
0.1649 0.18531619 1.649
0.17499591 0.18576491 1.649
0.18570882 0.18570881 1.649
0.19473904 0.18531621 1.649
0.20102096 0.18531621 1.649
0.22928953 0.18531621 1.649
0.23557144 0.18531621 1.649
0.2449943 0.18531621 1.649
0.25441715 0.18531621 1.649
0.26384005 0.18531619 1.649
0.27483335 0.18531619 1.649
0.28582668 0.18531621 1.649
0.29524952 0.18531619 1.649
0.30467239 0.18531621 1.649
0.31409526 0.18531619 1.649
0.32508856 0.18531619 1.649
0.33294097 0.18531619 1.649
-0.24068001 0.19535714 1.641
-0.23403786 0.19418502 1.6409999
-0.22529353 0.19400761 1.6427778
-0.21702014 0.19375703 1.6444285
-0.2047343 0.19066858 1.641
-0.19275241 0.19275241 1.6409999
-0.18582177 0.19388546 1.6455715
-0.15076572 0.1915981 1.649
-0.14762476 0.19316858 1.649
-0.12249715 0.1915981 1.649
-0.11621524 0.19348268 1.6489999
-0.10993334 0.1915981 1.649
-0.045020316 0.19264509 1.649
-0.034550477 0.19316858 1.649
-0.025075132 0.19432425 1.6454444
-0.015628573 0.19379431 1.6409999
-0.0058607147 0.19340359 1.6409999
0.0046923812 0.19394921 1.6423335
0.015674286 0.19442412 1.6463333
0.02512762 0.19473906 1.649
0.034550477 0.19473906 1.649
0.04397333 0.19473904 1.649
0.054966662 0.19473906 1.649
0.065960005 0.19473904 1.649
0.075382859 0.19473906 1.649
0.084805712 0.19473904 1.649
0.094228581 0.19473907 1.649
0.1052219 0.19473906 1.649
0.11621524 0.19473907 1.649
0.12524548 0.19434641 1.649
0.13349047 0.19316858 1.649
0.14134286 0.1915981 1.649
0.15390667 0.19473906 1.649
0.1649 0.19473906 1.649
0.17463695 0.19348268 1.6489999
0.18531621 0.19473906 1.649
0.19473906 0.19434643 1.649
0.20227733 0.19411086 1.6489999
0.22928953 0.19473904 1.649
0.23531577 0.19452572 1.6472223
0.24472676 0.19452742 1.6472223
0.25441715 0.19473904 1.649
0.26384002 0.19473906 1.649
0.27483335 0.19473906 1.649
0.28551516 0.19452743 1.6472223
0.29509205 0.19463579 1.6481112
0.30467239 0.19473906 1.649
0.31409526 0.19473907 1.649
0.32508856 0.19473906 1.649
0.33294097 0.19473904 1.649
-0.24185334 0.20259143 1.649
-0.23517881 0.20376928 1.649
-0.226025 0.20405357 1.6481112
-0.21637672 0.2048599 1.649
-0.20313287 0.20627001 1.6470001
-0.19388546 0.20463702 1.6455715
-0.18521461 0.20405357 1.6481111
-0.15076572 0.20102096 1.649
-0.14448382 0.20102096 1.649
-0.02512762 0.20416191 1.649
-0.015325144 0.20389715 1.6417999
-0.0062514287 0.20473428 1.6410002
0.004255102 0.20441823 1.6438572
0.015684444 0.20394346 1.6472223
0.025102222 0.20394179 1.6472223
0.034550477 0.20416191 1.649
0.043973334 0.20416191 1.649
0.05496667 0.20416188 1.649
0.065960005 0.20416191 1.649
0.075382859 0.20416191 1.649
0.084758312 0.20405187 1.6481111
0.094126984 0.20394179 1.6472223
0.1052219 0.2041619 1.649
0.11531783 0.20371321 1.649
0.12249715 0.20102096 1.649
0.1460543 0.20573238 1.649
0.15390669 0.20416188 1.649
0.16175905 0.20337668 1.649
0.17275238 0.20102096 1.649
0.18688667 0.20102096 1.649
0.1915981 0.20416193 1.649
0.22821638 0.20564115 1.6458
0.23452257 0.20481683 1.6416668
0.24473016 0.20394519 1.6472223
0.25441715 0.20416191 1.649
0.26384002 0.20416191 1.649
0.27483332 0.2041619 1.649
0.28567091 0.20405354 1.6481111
0.29524949 0.20416191 1.649
0.30525616 0.20511843 1.6475456
0.31436747 0.20539331 1.6463333
0.32463577 0.20476981 1.6467144
-0.23557144 0.21044382 1.649
-0.22575596 0.21319216 1.649
-0.21551766 0.21503446 1.649
-0.20416191 0.21044382 1.649
-0.19411086 0.21232839 1.6489999
-0.1848675 0.21448219 1.649
-0.17903429 0.2182962 1.649
-0.11464477 0.2182962 1.649
-0.10993334 0.21672572 1.649
-0.07381238 0.21358477 1.649
-0.02512762 0.21515526 1.649
-0.015990304 0.21558355 1.649
-0.0062700533 0.2162635 1.6454444
0.0051601357 0.2156792 1.6478571
0.015704764 0.21515529 1.649
0.02512762 0.21515526 1.649
0.034236383 0.21452704 1.6489999
0.043345146 0.2117002 1.6489999
0.059049904 0.21421297 1.6489999
0.065960005 0.21515523 1.649
0.075382859 0.21515524 1.649
0.08480572 0.21515526 1.649
0.094228588 0.21515526 1.649
0.1052219 0.21515524 1.649
0.11370249 0.21421297 1.6489999
0.14448382 0.21044382 1.649
0.15312144 0.21122906 1.649
0.16018857 0.21044382 1.649
0.22625038 0.21544677 1.6472223
0.23493654 0.21614666 1.6445556
0.2449943 0.21515523 1.649
0.25441715 0.21515523 1.649
0.26384002 0.21515523 1.649
0.27451923 0.21484117 1.649
0.28582668 0.21319215 1.649
0.29553506 0.21472694 1.649
0.30483526 0.21515024 1.6438571
0.31491572 0.21333 1.641
0.32695848 0.21296 1.6442
0.33294097 0.21201429 1.649
-0.22426403 0.22677676 1.6489999
-0.215298 0.22643414 1.649
-0.20573239 0.22614858 1.649
-0.18217525 0.22300763 1.649
-0.17903429 0.22457811 1.649
-0.16647048 0.22614858 1.649
-0.11558704 0.22740498 1.6489999
-0.10836286 0.22771905 1.649
-0.02512762 0.22614858 1.649
-0.015704762 0.22614858 1.649
-0.0062819049 0.22614858 1.649
0.0047114287 0.22614861 1.649
0.015704762 0.22614858 1.649
0.02512762 0.22614861 1.649
0.034101769 0.227046 1.649
0.043973334 0.22928953 1.649
0.066588201 0.22426403 1.6489999
0.075382859 0.22614861 1.649
0.084805712 0.22614861 1.649
0.094228581 0.22614858 1.649
0.10507913 0.22586304 1.649
0.22928953 0.22300763 1.649
0.23557143 0.22457813 1.649
0.2449943 0.22300763 1.649
0.25441718 0.22614858 1.649
0.26384002 0.22614858 1.649
0.2701219 0.22614859 1.649
0.29682001 0.22614859 1.649
0.30187526 0.22523683 1.6423334
-0.22824256 0.23452444 1.649
-0.21411145 0.23286572 1.641
-0.20490795 0.2340813 1.6409999
-0.19399215 0.23552978 1.646
-0.18610144 0.23792715 1.649
-0.17903429 0.23557144 1.649
-0.16175905 0.23871239 1.649
-0.1256381 0.23557144 1.649
-0.11531782 0.23602013 1.649
-0.10867696 0.23557143 1.6489999
-0.069100954 0.23243049 1.649
-0.02512762 0.23557144 1.649
-0.01570476 0.23557144 1.649
-0.0062819049 0.23557141 1.649
0.0047114287 0.23557144 1.649
0.01570476 0.23557144 1.649
0.02512762 0.23557141 1.649
0.034550473 0.23557141 1.649
0.044601526 0.23619965 1.6489999
0.053396191 0.23871239 1.649
0.067530483 0.23871239 1.649
0.075382859 0.23557144 1.649
0.084805712 0.23557144 1.649
0.094228581 0.23517883 1.649
0.10507913 0.23557143 1.649
0.11558704 0.23368685 1.6489999
0.25486585 0.23467401 1.649
0.26384002 0.23557144 1.649
0.2701219 0.23871239 1.649
0.29682001 0.23557143 1.649
0.30522162 0.23449758 1.6463333
0.31254974 0.23488876 1.6442
-0.2375543 0.24536857 1.641
-0.22928953 0.24185334 1.649
-0.21379888 0.24443087 1.641
-0.20490064 0.24400635 1.6423335
-0.19410583 0.2442053 1.6436666
-0.18521461 0.24486393 1.6481112
-0.1774638 0.24656478 1.649
-0.1649 0.24394731 1.649
-0.15600064 0.24290033 1.649
-0.11464477 0.2449943 1.649
-0.10761361 0.24527538 1.6478573
-0.025651112 0.24551779 1.649
-0.015312144 0.2449943 1.649
-0.0062819049 0.2449943 1.649
0.0047114287 0.24499428 1.649
0.015704762 0.2449943 1.649
0.023243045 0.24436612 1.6489999
0.034550477 0.24342382 1.649
0.047114287 0.24813525 1.649
0.051825717 0.24813525 1.649
0.069100954 0.24656478 1.649
0.074990243 0.2449943 1.649
0.084282227 0.24447079 1.649
0.094228573 0.24185334 1.649
0.10679239 0.24373791 1.6489999
0.11621524 0.2449943 1.649
0.15076572 0.24813525 1.649
0.16332953 0.24735001 1.649
0.24562249 0.24687886 1.6489999
0.25441715 0.2449943 1.649
0.26384002 0.2449943 1.649
0.27404812 0.24617215 1.649
0.28582668 0.24813525 1.649
0.29524949 0.24589169 1.649
0.3055698 0.245443 1.649
0.31392425 0.24486221 1.6481112
0.32194763 0.24185334 1.649
-0.24177448 0.2561802 1.6442
-0.23481931 0.25591788 1.6409999
-0.22505145 0.25474569 1.6409999
-0.21455033 0.25432837 1.6453078
-0.20395826 0.25548264 1.6434617
-0.19442074 0.25504595 1.6463333
-0.18531619 0.25441718 1.649
-0.17589334 0.2512762 1.649
-0.16175905 0.25755811 1.649
-0.15390667 0.25441715 1.649
-0.1444838 0.25402454 1.649
-0.13820191 0.25441715 1.649
-0.1052219 0.2512762 1.649
-0.024735 0.25441718 1.649
-0.015704764 0.25441715 1.649
-0.0062819049 0.25441715 1.649
0.0038389419 0.25371918 1.649
0.015256055 0.25351974 1.649
0.02512762 0.25441715 1.649
0.035597462 0.25546417 1.649
0.043973334 0.25480977 1.649
0.053396191 0.25441715 1.649
0.069100954 0.25284666 1.649
0.075382859 0.25441715 1.649
0.083235241 0.25441718 1.649
0.091087624 0.2512762 1.649
0.10993334 0.2512762 1.649
0.16437651 0.25232318 1.649
0.23619962 0.25567356 1.6489999
0.24499427 0.25441715 1.649
0.25441715 0.25441718 1.649
0.26383999 0.25441715 1.649
0.27483332 0.25441715 1.649
0.28582668 0.25441718 1.649
0.29524952 0.25441715 1.649
0.30467239 0.25441715 1.649
0.31409526 0.25441718 1.649
0.32371071 0.25465739 1.6480001
0.33449653 0.25191683 1.6463333
-0.24440381 0.26398525 1.645
-0.23478621 0.26305479 1.649
-0.22575597 0.2634474 1.649
-0.2162616 0.26404512 1.6481111
-0.20409067 0.26607126 1.6434
-0.19536725 0.26321182 1.6489999
-0.16293691 0.26423264 1.649
-0.021986667 0.26069906 1.649
-0.015704764 0.26384002 1.649
-0.0062819049 0.26384002 1.649
0.0036644444 0.26279303 1.649
0.026698096 0.26698098 1.649
0.035597462 0.26593399 1.649
0.04436595 0.26423261 1.649
0.054024387 0.26383999 1.6489999
0.062819049 0.26541048 1.649
0.075382859 0.26069906 1.649
0.08480572 0.26069906 1.649
0.22928953 0.26226956 1.649
0.23557144 0.26383999 1.649
0.24436609 0.26195544 1.6489999
0.25441715 0.26069906 1.649
0.26174605 0.26174605 1.649
0.27526167 0.26355445 1.649
0.28268573 0.26384002 1.649
0.29681998 0.26069906 1.649
0.30388713 0.2614843 1.649
0.31448787 0.26344737 1.649
0.32351807 0.26226953 1.649
0.33482552 0.26321182 1.6489999
-0.24656478 0.2716924 1.649
-0.22405462 0.27378634 1.649
-0.2157543 0.2747387 1.6484287
-0.20475687 0.27539238 1.6446365
-0.19473906 0.27326286 1.649
-0.16422696 0.2750577 1.649
-0.15579125 0.27577561 1.6489999
-0.026174605 0.2774508 1.649
-0.015704762 0.2701219 1.649
-0.0062819049 0.2701219 1.649
0.01256381 0.27954477 1.649
0.021986667 0.2701219 1.649
0.031409524 0.2701219 1.649
0.050255239 0.2701219 1.649
0.062819049 0.27640381 1.649
0.22928953 0.27326286 1.649
0.23588555 0.27483335 1.6489999
0.2449943 0.27483332 1.649
0.25441715 0.27954477 1.649
0.31566572 0.27483332 1.649
0.32288989 0.27546155 1.6489999
-0.22300763 0.28268573 1.649
-0.21558355 0.28554115 1.649
-0.20439239 0.28558153 1.6458
-0.19434644 0.2862193 1.649
-0.18531621 0.28672409 1.649
-0.17550072 0.2862193 1.649
-0.16568524 0.28504145 1.649
-0.15704763 0.28268573 1.649
-0.14134286 0.28739715 1.649
-0.13820191 0.28739715 1.649
-0.10208096 0.28896764 1.649
-0.093600385 0.28771123 1.6489999
-0.087946668 0.28582668 1.649
-0.024735 0.28543407 1.649
-0.018845715 0.28582668 1.649
0.018845715 0.28268573 1.649
0.023033651 0.28373274 1.649
0.047114287 0.28582668 1.649
0.054966666 0.28425622 1.649
0.064389527 0.28582668 1.649
0.30676636 0.28792065 1.649
0.31448787 0.2862193 1.649
0.32508859 0.28582668 1.649
0.33294097 0.28896764 1.649
-0.22300763 0.29524952 1.649
-0.21548797 0.29540345 1.6482728
-0.204688 0.2947937 1.6482
-0.19473904 0.29524952 1.649
-0.18472022 0.2942912 1.6436666
-0.17513312 0.29397634 1.6418889
-0.16751747 0.29420254 1.649
-0.14134286 0.29839048 1.649
-0.13820191 0.29681998 1.649
-0.10051048 0.29367906 1.649
-0.095799051 0.29367906 1.649
-0.023243049 0.29587772 1.6489999
-0.018845715 0.29524952 1.649
0.068053968 0.29420254 1.649
0.30545762 0.29367906 1.649
0.31448787 0.29485688 1.649
0.32508853 0.29524949 1.649
0.33294097 0.29839048 1.649
-0.22300763 0.30781335 1.649
-0.21762313 0.30422369 1.649
-0.20206793 0.30257842 1.649
-0.19369207 0.30362538 1.649
-0.18482012 0.30385292 1.6445556
-0.17560551 0.3041831 1.6463333
-0.16961144 0.30153143 1.649
-0.14134286 0.30153143 1.649
-0.13820191 0.30153143 1.649
-0.023033651 0.30571938 1.649
-0.017275238 0.30467239 1.649
0.094228573 0.30153143 1.649
0.31723621 0.3031019 1.649
0.32603088 0.30215961 1.6489999
0.33294097 0.30467239 1.649
-0.23243049 0.31566572 1.649
-0.22569989 0.31499267 1.649
-0.21861029 0.31472343 1.6489999
-0.1915981 0.3109543 1.649
-0.1844188 0.31364655 1.649
-0.17903429 0.3109543 1.649
-0.023243045 0.31409526 1.6489999
-0.017275238 0.3125248 1.649
0.24342382 0.31566572 1.649
0.31723621 0.31723621 1.649
0.32508856 0.31723621 1.649
-0.24068001 0.32507429 1.641
-0.23468439 0.32523388 1.6450001
-0.22583449 0.32603085 1.6489999
-0.21747075 0.3264305 1.6478573
-0.20730287 0.32980001 1.649
-0.1915981 0.32194763 1.649
0.017275238 0.32980001 1.649
0.023557143 0.32980001 1.649
0.31723621 0.32037714 1.649
0.32519037 0.32498199 1.6479335
-0.23458967 0.33423567 1.6421429
-0.22614858 0.33451143 1.649
-0.21672572 0.33294097 1.649
0.023557143 0.33608192 1.649
0.31723621 0.33294097 1.649
0.32455775 0.33554101 1.6463336
-0.23585145 0.34230351 1.6436667
0.32523134 0.3457903 1.649
0.26069906 0.35492763 1.649
0.32530978 0.35557464 1.6478573
0.33132574 0.35945717 1.641
0.32429239 0.36189619 1.645
0.33132574 0.36414573 1.641
-0.23243049 0.3753438 1.649
-0.22928953 0.3753438 1.649
0.32703525 0.37397242 1.6429999
-0.23373771 0.38463211 1.6455715
-0.22928953 0.38790762 1.649
0.32820001 0.38133717 1.641
-0.23400095 0.39576 1.649
-0.22928953 0.39261907 1.649
-0.19473906 0.39890096 1.649
0.32508859 0.40361238 1.649
0.0063123815 0.047342855 1.6570001
0.11520096 0.047342859 1.6570001
0.12940381 0.047342859 1.6570001
0.13650525 0.046553813 1.6570001
0.14518477 0.045764763 1.6569999
0.15307525 0.042608574 1.6570001
0.20830858 0.047342859 1.6570001
0.22408952 0.045764763 1.6569999
0.25880763 0.044186667 1.6570001
0.26354191 0.04260857 1.6570001
-0.32508764 0.059967622 1.6570001
-0.25249526 0.059967622 1.6570001
-0.24933906 0.059967622 1.6570001
-0.19568382 0.059967622 1.6570001
-0.18621525 0.05681143 1.6570001
-0.1657 0.050499048 1.6570001
-0.11362286 0.05681143 1.6570001
-0.066280007 0.054917715 1.6569999
-0.055233337 0.055233333 1.6570001
-0.0047342856 0.053655241 1.6570001
0.0015780953 0.052077144 1.6570001
0.036296193 0.053655241 1.6570001
0.1241435 0.051551115 1.6570001
0.20199619 0.050499048 1.6570001
-0.32508764 0.063123815 1.6570001
-0.31877524 0.063123815 1.6570001
-0.26196381 0.063123815 1.6570001
-0.25565144 0.063123815 1.6570001
-0.21146476 0.063123815 1.6570001
-0.20515239 0.063123815 1.6570001
-0.16254382 0.06628 1.6570001
-0.15780953 0.06628 1.6570001
-0.11551657 0.095316961 1.6569999
-0.11362285 0.10505605 1.6569998
-0.10731048 0.10573238 1.6570001
-0.24933906 0.11993524 1.6570001
-0.11046667 0.11046667 1.6570001
-0.10731048 0.11362287 1.6570001
-0.072592385 0.11520095 1.6570001
-0.25249526 0.12782572 1.6570001
-0.24670891 0.12677366 1.6569999
-0.23987049 0.12940381 1.6570001
-0.10731048 0.12466953 1.6570001
-0.25249526 0.13256 1.6570001
-0.20594144 0.1357162 1.6570001
-0.1241435 0.13782032 1.6570001
-0.11741029 0.13697867 1.6569999
-0.17319596 0.14557928 1.6569998
-0.16412191 0.14518477 1.6570001
-0.13334906 0.14439571 1.6570001
-0.12624763 0.14518476 1.6569998
-0.11722993 0.14473388 1.6569998
-0.10731048 0.14202857 1.6570001
-0.094685726 0.14834096 1.6570001
-0.086795241 0.14834096 1.6570001
0.20830858 0.14834096 1.6570001
-0.25249526 0.15780953 1.6570001
-0.17201239 0.15465333 1.6569999
-0.1672781 0.15780953 1.6570001
-0.13466413 0.15360127 1.6569999
-0.12624763 0.15465333 1.6569998
-0.11835714 0.15465333 1.6569999
-0.10336524 0.15702048 1.6570001
-0.094685726 0.15465333 1.6569998
-0.086795241 0.15465333 1.6569999
0.20830858 0.15465334 1.6570001
-0.24855001 0.16333286 1.6570001
-0.1704343 0.16096573 1.6570001
-0.1672781 0.16096573 1.6570001
-0.13256 0.16096573 1.6570001
-0.12624763 0.16096573 1.6570001
-0.11677905 0.16475315 1.6569999
-0.10375977 0.16412191 1.6569998
-0.094685718 0.16412191 1.6569998
-0.086118922 0.16457281 1.6569998
-0.037874289 0.1657 1.6570001
0.17674667 0.16622603 1.6570001
-0.24933906 0.1704343 1.6570001
-0.1704343 0.17990287 1.6570001
-0.16412191 0.176396 1.6569998
-0.15504785 0.1771412 1.6569998
-0.14834096 0.17990287 1.6570001
-0.11677905 0.1704343 1.6570001
-0.10345291 0.17394117 1.6569998
-0.094685726 0.17516856 1.6569997
-0.085504062 0.17502512 1.6569997
-0.07574857 0.17516857 1.6569997
-0.067542478 0.17737791 1.6569999
-0.059967622 0.17990287 1.6570001
-0.034718096 0.1754842 1.6569999
0.17793024 0.17437953 1.6569998
0.18305905 0.17832476 1.6570001
0.20725651 0.17674667 1.6570001
0.21462096 0.17516857 1.6569997
0.22408955 0.17516856 1.6569997
0.32666573 0.17201239 1.6570001
-0.18305905 0.18621525 1.6570001
-0.17516857 0.18621524 1.6569997
-0.16412191 0.18621525 1.6569998
-0.15465333 0.18621527 1.6569998
-0.14413269 0.18621524 1.6570001
-0.13887239 0.18937144 1.6570001
-0.10375977 0.18660977 1.6569998
-0.094685726 0.18621525 1.6569998
-0.085217148 0.18621525 1.6569998
-0.07574857 0.18621527 1.6569998
-0.066280007 0.18621525 1.6569998
-0.05681143 0.18756792 1.6569998
-0.044186667 0.18621525 1.6570001
-0.031561907 0.18463716 1.6570001
0.097841911 0.18937144 1.6570001
0.13887239 0.18937144 1.6570001
0.14644724 0.18684649 1.6569999
0.17990287 0.18463716 1.6570001
0.18305905 0.18305905 1.6570001
0.20605417 0.18621525 1.6569998
0.21462095 0.18621527 1.6569998
0.22408952 0.18621525 1.6569998
-0.18305905 0.19726191 1.6570001
-0.17516859 0.19568382 1.6569997
-0.16412191 0.19568382 1.6569998
-0.15504785 0.19607835 1.6569998
-0.14428301 0.1961347 1.6569998
-0.1357162 0.19568382 1.6569998
-0.12664215 0.19607835 1.6569998
-0.11467492 0.19726191 1.6569999
-0.10454881 0.1952893 1.6569998
-0.094234832 0.19478205 1.6569998
-0.085217148 0.19568382 1.6569998
-0.07574857 0.19568382 1.6569998
-0.066280007 0.19568382 1.6569998
-0.055233333 0.19568382 1.6569997
-0.043660641 0.19673587 1.6569999
-0.0347181 0.19884001 1.6570001
0.12940381 0.19884001 1.6570001
0.13697867 0.19694629 1.6569999
0.14557928 0.19607835 1.6569998
0.17832476 0.19726191 1.6570001
0.19568382 0.19884001 1.6570001
0.20751953 0.19647287 1.6570001
0.21462095 0.19568382 1.6569998
0.22408952 0.19568382 1.6569998
-0.24539381 0.20594144 1.6570001
-0.23987049 0.20830858 1.6570001
-0.17516857 0.20515239 1.6569997
-0.16412191 0.20515239 1.6569998
-0.15504785 0.20554692 1.6569998
-0.14518476 0.20554692 1.6569998
-0.1357162 0.20515239 1.6569998
-0.12624763 0.20515238 1.6569998
-0.11520096 0.20515238 1.6569997
-0.10415429 0.20515239 1.6569998
-0.093783952 0.20470151 1.6569998
-0.085217148 0.20515238 1.6569998
-0.07574857 0.20515239 1.6569998
-0.066280007 0.20515239 1.6569998
-0.055233333 0.20515238 1.6569997
-0.044186667 0.20515238 1.6569998
-0.034718096 0.20515239 1.6569998
0.11993524 0.20673048 1.6570001
0.12664215 0.20554692 1.6569998
0.1357162 0.20515239 1.6569998
0.14392228 0.20388989 1.6569999
0.16538438 0.20578364 1.6569999
0.17531204 0.20543931 1.6569997
0.18576436 0.20605417 1.6569998
0.19726191 0.20515239 1.6569999
0.20515239 0.20515239 1.6569998
0.21462095 0.20515239 1.6569998
0.223695 0.20475787 1.6569998
-0.24407874 0.21251683 1.6570001
-0.23601291 0.21532232 1.6569998
-0.21462096 0.21462095 1.6570001
-0.20515239 0.21501549 1.6569998
-0.19647287 0.21619906 1.6570001
-0.18621524 0.21462095 1.6570001
-0.17473818 0.21433406 1.6569997
-0.16412191 0.21462095 1.6569998
-0.15465333 0.21422642 1.6569998
-0.14644723 0.21335848 1.6569999
-0.1357162 0.21462095 1.6569998
-0.12624763 0.21462095 1.6569998
-0.11583219 0.21398973 1.6569998
-0.10415429 0.21462096 1.6569998
-0.094685726 0.21462095 1.6569998
-0.085217148 0.21462095 1.6569998
-0.076199457 0.21462096 1.6569998
-0.06628 0.21462096 1.6569998
-0.055233341 0.21462096 1.6569997
-0.044186667 0.21462095 1.6569998
-0.034718096 0.21462095 1.6569998
0.037874289 0.21777715 1.6570001
0.044975713 0.2169881 1.6570001
0.053260718 0.21501547 1.6569998
0.11867277 0.21525221 1.6569999
0.12624763 0.21462095 1.6569998
0.1357162 0.21462095 1.6569998
0.14518476 0.21501547 1.6569998
0.15528457 0.21651468 1.6569999
0.16451643 0.21501549 1.6569998
0.17516857 0.21462099 1.6569997
0.18621527 0.21462095 1.6569998
0.19568382 0.21462095 1.6569998
0.20515239 0.21462096 1.6569998
0.21462095 0.21462095 1.6569998
0.22172239 0.2138319 1.6570001
0.28721336 0.21777715 1.6570001
-0.24302667 0.22408955 1.6570001
-0.23513621 0.22408955 1.6569997
-0.22619367 0.22198541 1.6570001
-0.21462096 0.22251144 1.6570001
-0.20475787 0.22408952 1.6569998
-0.19568382 0.22408952 1.6569998
-0.18711701 0.2245404 1.6569998
-0.17359048 0.22408952 1.6569998
-0.16372739 0.223695 1.6569998
-0.15504785 0.22408952 1.6569998
-0.14644724 0.22282705 1.6569999
-0.13532168 0.223695 1.6569998
-0.12624763 0.22408952 1.6569998
-0.1149755 0.22273687 1.6569998
-0.10375977 0.223695 1.6569998
-0.094685718 0.22408952 1.6569998
-0.085217148 0.22408952 1.6569998
-0.07574857 0.22408952 1.6569998
-0.066280007 0.22408952 1.6569998
-0.055233341 0.22408955 1.6569997
-0.044186674 0.22408952 1.6569998
-0.034718096 0.22408952 1.6569998
0.035770159 0.22303748 1.6570001
0.044186667 0.22408952 1.6569998
0.05480295 0.22437645 1.6569997
0.063123815 0.22724572 1.6570001
0.11717356 0.22448404 1.6569998
0.12624763 0.22408952 1.6569998
0.1357162 0.22408952 1.6569998
0.14518477 0.22408952 1.6569998
0.15465333 0.22408952 1.6569998
0.16412191 0.22408952 1.6569998
0.17516857 0.22408955 1.6569997
0.18621525 0.22408952 1.6569998
0.19568382 0.22408952 1.6569998
0.20515239 0.22408952 1.6569998
0.21462096 0.22408952 1.6569998
0.223695 0.22448404 1.6569998
0.23040192 0.22724572 1.6570001
0.24618286 0.22724573 1.6570001
0.27616668 0.22566763 1.6570001
0.28366262 0.223695 1.6569998
0.29194763 0.22408952 1.6569999
-0.23581254 0.23513624 1.6569997
-0.20410033 0.23145397 1.6570001
-0.19647287 0.23119096 1.6570001
-0.18582074 0.23316357 1.6569998
-0.17449224 0.23491077 1.6569997
-0.16443752 0.23418935 1.6569998
-0.15465333 0.23513623 1.6569997
-0.14518477 0.23513623 1.6569997
-0.1357162 0.23513621 1.6569997
-0.12624763 0.23499274 1.6569997
-0.11993524 0.2335581 1.6570001
-0.10310223 0.23531154 1.6569998
-0.094685726 0.23513621 1.6569997
-0.084930211 0.23470582 1.6569997
-0.07574857 0.23513621 1.6569997
-0.065993078 0.23527969 1.6569997
-0.055233341 0.23513623 1.6569997
-0.043871049 0.23482057 1.6569998
-0.0347181 0.23513621 1.6569997
0.043660637 0.23408413 1.6569999
0.055338547 0.23482062 1.6569997
0.065964386 0.23418935 1.6569998
0.094685718 0.23987049 1.6570001
0.10731048 0.2335581 1.6570001
0.11722993 0.23536162 1.6569998
0.12624763 0.23513621 1.6569997
0.1357162 0.23513621 1.6569997
0.14518477 0.23513621 1.6569997
0.15465333 0.23513621 1.6569997
0.16440882 0.23470582 1.6569997
0.17516857 0.23513623 1.6569997
0.1851632 0.23496085 1.6569998
0.19252762 0.23198001 1.6570001
0.20410033 0.23566222 1.6569998
0.21462095 0.23513621 1.6570001
0.22093335 0.2351362 1.6570001
0.23513623 0.23513623 1.6569997
0.2461829 0.23513621 1.6569997
0.25407335 0.23987049 1.6570001
0.27521983 0.2351362 1.6569998
0.28370646 0.23636362 1.6569998
0.29194763 0.23513618 1.6569998
0.30299431 0.23987049 1.6570001
0.31561905 0.23671429 1.6570001
-0.2351362 0.24302667 1.6570001
-0.17404138 0.24483024 1.6569998
-0.16333286 0.24855001 1.6570001
-0.15360127 0.24723494 1.6569999
-0.14518476 0.24618289 1.6569998
-0.1357162 0.24618289 1.6569998
-0.12624763 0.24618289 1.6569998
-0.11993524 0.24618286 1.6570001
-0.10226057 0.24555163 1.6569999
-0.094685718 0.24618289 1.6569998
-0.084315382 0.24663377 1.6569998
-0.07574857 0.24618289 1.6569998
-0.066280007 0.24618289 1.6569998
-0.055759363 0.24513084 1.6569998
-0.04418667 0.24460478 1.6569999
-0.035112619 0.24578837 1.6569998
-0.024197459 0.24513079 1.6570001
-0.018937144 0.24618286 1.6570001
0.027616665 0.24697191 1.6570001
0.034718096 0.24933906 1.6570001
0.043792143 0.24578837 1.6569998
0.05586458 0.24555166 1.6569998
0.065378234 0.24573199 1.6569998
0.078904763 0.24618286 1.6570001
0.086269207 0.24723493 1.6570001
0.094685711 0.24776097 1.6569999
0.10460518 0.24708465 1.6569998
0.11677904 0.24618289 1.6569998
0.12624763 0.24618289 1.6569998
0.1357162 0.24618289 1.6569998
0.14518476 0.24618289 1.6569998
0.15504785 0.24578837 1.6569998
0.16412191 0.24428916 1.6569999
0.17516857 0.2461829 1.6569997
0.18432154 0.24555163 1.6569999
0.2035743 0.24460477 1.6570001
0.23513621 0.2461829 1.6569997
0.24539381 0.24381572 1.6570001
0.27669272 0.24407874 1.6570001
0.28468838 0.24428916 1.6569999
0.29352573 0.24381572 1.6570001
0.30299431 0.24460477 1.6570001
0.32508764 0.24776097 1.6569999
0.3329781 0.24933906 1.6570001
-0.19884001 0.25249526 1.6570001
-0.17502509 0.25593838 1.6569997
-0.16457281 0.25474969 1.6569998
-0.14518477 0.25880763 1.6570001
-0.1357162 0.25520056 1.6569998
-0.12579675 0.25474969 1.6569998
-0.11520096 0.25565144 1.6569997
-0.1037034 0.25655323 1.6569998
-0.094685718 0.25565144 1.6569998
-0.085217148 0.25565144 1.6569998
-0.07574857 0.25565144 1.6569998
-0.066280007 0.25565144 1.6569998
-0.056360546 0.25655323 1.6569998
-0.042924188 0.25565144 1.6569999
-0.034718096 0.25565144 1.6569998
-0.028405715 0.25565144 1.6570001
0.0073644449 0.25775555 1.6570001
0.017359048 0.25880763 1.6570001
0.025249526 0.25565144 1.6569999
0.034192067 0.25512543 1.6569999
0.044186667 0.25249526 1.6570001
0.059967622 0.25565144 1.6570001
0.065378234 0.25610235 1.6569998
0.088373333 0.25565144 1.6570001
0.095080249 0.25604597 1.6569998
0.10415429 0.25565144 1.6569998
0.11563135 0.25593838 1.6569997
0.12624763 0.25565144 1.6569998
0.1357162 0.25565144 1.6569998
0.14518476 0.25565144 1.6569998
0.15465333 0.25565144 1.6569998
0.16359589 0.25670353 1.6569999
0.17516857 0.25565144 1.6569997
0.18463714 0.25565144 1.6569999
0.20452115 0.25628269 1.6569999
0.21304286 0.25565144 1.6569999
0.23355809 0.25474969 1.6569998
0.28721336 0.25565144 1.6570001
0.32666573 0.25249526 1.6570001
-0.24618286 0.26827621 1.6570001
-0.23513621 0.26827621 1.6570001
-0.19357967 0.26722416 1.6570001
-0.18621527 0.26512003 1.6569998
-0.17516857 0.26512003 1.6569997
-0.1672781 0.26196381 1.6570001
-0.15465333 0.26512003 1.6569998
-0.14518477 0.26512003 1.6569998
-0.13661797 0.26557091 1.6569998
-0.11432423 0.26441863 1.6569998
-0.10454881 0.26472551 1.6569998
-0.094685711 0.26354191 1.6569999
-0.085217148 0.26512003 1.6569998
-0.07574857 0.26512003 1.6569998
-0.066280007 0.26512003 1.6569998
-0.056811433 0.26512003 1.6569998
-0.047342859 0.26196381 1.6570001
-0.035770159 0.26301587 1.6570001
-0.025644047 0.26551452 1.6569998
0.0057863495 0.26617208 1.6569999
0.015780952 0.26512003 1.6569998
0.024798641 0.26421827 1.6569998
0.034192067 0.26406795 1.6569999
0.041030478 0.26196381 1.6570001
0.059967622 0.26512003 1.6570001
0.067181773 0.26466912 1.6569998
0.07574857 0.26551455 1.6569998
0.085668035 0.26557091 1.6569998
0.094685726 0.26512003 1.6569998
0.10415429 0.26512003 1.6569998
0.11520096 0.26512003 1.6569997
0.12624763 0.26354191 1.6569999
0.1357162 0.26512003 1.6569998
0.14518476 0.26512003 1.6569998
0.15465333 0.26512003 1.6569998
0.16412191 0.26512 1.6569998
0.17473818 0.26483309 1.6569997
0.18463716 0.26354191 1.6570001
0.20554692 0.26551455 1.6569998
0.21462095 0.26512003 1.6569998
0.22408952 0.26512 1.6569998
0.23040192 0.26827621 1.6570001
0.24697191 0.26748717 1.6570001
0.25610235 0.26512 1.6569998
0.26590908 0.26512 1.6570001
0.2714324 0.26827621 1.6570001
0.28595084 0.26512003 1.6569999
0.29447258 0.26575127 1.6569998
0.30678171 0.26701373 1.6569999
0.31246287 0.26827621 1.6570001
0.32508764 0.26827621 1.6570001
0.33245206 0.26722416 1.6570001
-0.25249526 0.27301049 1.6570001
-0.24573199 0.27503946 1.6569998
-0.23450498 0.27458858 1.6569998
-0.22724572 0.27774477 1.6570001
-0.19568381 0.27458858 1.6570001
-0.18621525 0.27458858 1.6569998
-0.17559896 0.27458858 1.6569997
-0.15339085 0.2733261 1.6569999
-0.14518476 0.27458858 1.6569998
-0.1357162 0.27458858 1.6569998
-0.12669851 0.27549034 1.6569998
-0.11425409 0.27521983 1.6569999
-0.10520635 0.27564064 1.6569999
-0.094685711 0.27774477 1.6570001
-0.084315382 0.27503946 1.6569998
-0.07574857 0.27458858 1.6569998
-0.066280007 0.27458858 1.6569998
-0.055233333 0.27458858 1.6569997
-0.047342855 0.27458858 1.6570001
-0.034192067 0.27564064 1.6569999
-0.024197459 0.27353653 1.6569999
-0.015780954 0.27616668 1.6569999
-0.0063123815 0.27616668 1.6569999
0.0047342856 0.27458858 1.6569997
0.015780954 0.27458858 1.6569998
0.025644045 0.27498311 1.6569998
0.035112619 0.27498311 1.6569998
0.044186667 0.27458858 1.6569998
0.05566372 0.27487552 1.6569997
0.066674523 0.27419406 1.6569998
0.07574857 0.27458858 1.6569998
0.086118922 0.27413771 1.6569998
0.094685718 0.27458858 1.6569998
0.10415429 0.27458858 1.6569998
0.11542638 0.27594122 1.6569998
0.12703668 0.27695572 1.6570001
0.1357162 0.27458858 1.6569998
0.14518476 0.27458858 1.6569998
0.15465333 0.27458858 1.6569998
0.16372739 0.27419406 1.6569998
0.1704343 0.2714324 1.6570001
0.20725651 0.27248445 1.6570001
0.21588342 0.2733261 1.6569999
0.223695 0.27419406 1.6569998
0.23250604 0.27353653 1.6570001
0.24618289 0.27413771 1.6569998
0.25565144 0.27549034 1.6569998
0.26196381 0.27458858 1.6570001
0.27616668 0.27458858 1.6569999
0.28405714 0.27458858 1.6569998
0.29510382 0.27458858 1.6569997
0.30615047 0.27458858 1.6569998
0.31246287 0.27458858 1.6570001
0.3329781 0.2714324 1.6570001
-0.24573199 0.28315538 1.6569998
-0.23527966 0.28434408 1.6569997
-0.22645667 0.28484619 1.6570001
-0.19647285 0.28169 1.6570001
-0.18621525 0.28216344 1.6569999
-0.17753573 0.28169 1.6570001
-0.16412191 0.28405714 1.6570001
-0.15375157 0.28450802 1.6569998
-0.14557928 0.28366262 1.6569998
-0.13526532 0.28405714 1.6569998
-0.12624763 0.28405714 1.6569998
-0.11467491 0.28300509 1.6569998
-0.10415429 0.28405714 1.6569998
-0.095211752 0.2835311 1.6569999
-0.084822625 0.28366262 1.6569998
-0.075354047 0.28445166 1.6569998
-0.065378234 0.28405714 1.6569998
-0.054005928 0.28370646 1.6569998
-0.044186667 0.28405714 1.6569998
-0.034718096 0.28405714 1.6569998
-0.014879185 0.28360626 1.6569998
-0.0063123805 0.28405714 1.6569998
0.0047342856 0.28405714 1.6569997
0.015780954 0.28450802 1.6569998
0.026301587 0.2835311 1.6569999
0.034718096 0.28405714 1.6569998
0.04373578 0.28315538 1.6569998
0.05523333 0.28374153 1.6569998
0.066674523 0.28405714 1.6569998
0.07574857 0.28405714 1.6569998
0.086118922 0.28450802 1.6569998
0.094291195 0.28445166 1.6569998
