# .PCD v0.7 - Point Cloud Data file format
VERSION 0.7
FIELDS x y z
SIZE 4 4 4
TYPE F F F
COUNT 1 1 1
WIDTH 1495
HEIGHT 1
VIEWPOINT 0 0 0 1 0 0 0
POINTS 1495
DATA ascii
0.07507357 0.14399359 1.7229998
0.082047619 0.14276287 1.723
-0.34460002 0.15753144 1.723
0.059074286 0.15424953 1.723
0.06470041 0.15378068 1.7229998
-0.3413181 0.16737714 1.723
0.059074286 0.1657362 1.723
0.065638095 0.16409525 1.7229998
0.072201908 0.16245429 1.723
-0.3413181 0.1755819 1.723
0.059074286 0.17394096 1.723
0.065638095 0.17394096 1.7229998
0.072201908 0.17394096 1.723
0.057433337 0.18378668 1.7229999
0.065638095 0.18378669 1.7229998
0.057761528 0.19297603 1.7229999
0.065638095 0.19363239 1.7229998
0.072201908 0.1969143 1.723
0.049228575 0.20676 1.723
0.05620262 0.20388834 1.7229998
0.065638095 0.20347808 1.7229998
0.072201908 0.2034781 1.723
0.029537143 0.21660572 1.723
0.0365698 0.21707456 1.7229998
0.047353201 0.21613689 1.7229998
0.055382144 0.21291357 1.7229998
0.064817622 0.2108624 1.723
0.029537143 0.22645144 1.723
0.036100954 0.22645144 1.7229998
0.046356909 0.22686167 1.7229998
0.054479621 0.22645144 1.7229999
-0.33475429 0.23957905 1.723
0.02789619 0.23629713 1.7229999
0.036100954 0.23629716 1.7229998
0.045946669 0.23629716 1.7229998
0.052510478 0.23629715 1.723
-0.33311334 0.24450192 1.723
-0.32819048 0.24942477 1.723
0.01969143 0.24614286 1.723
0.028716667 0.24614286 1.723
0.036100954 0.24614286 1.7229998
0.045946673 0.24614286 1.7229998
0.053604443 0.24833079 1.723
-0.32490858 0.25598857 1.723
0.027896192 0.25270668 1.723
0.03692143 0.25434762 1.723
0.045946669 0.2559886 1.7229998
0.052510481 0.25598857 1.723
-0.3314724 0.26747525 1.723
-0.32709649 0.2658343 1.723
0.029537143 0.2658343 1.723
0.036100954 0.2658343 1.7229999
0.045946673 0.2658343 1.7229998
0.05333095 0.26501381 1.723
-0.3314724 0.27568001 1.723
-0.32819048 0.27403906 1.723
0.045946669 0.27568001 1.7229998
-0.3314724 0.28552571 1.723
-0.32819048 0.28224382 1.723
0.037413716 0.28683847 1.7229999
0.045477826 0.28458804 1.7229998
0.028443174 0.29755938 1.723
0.03413181 0.29471508 1.7229999
0.026665475 0.30562741 1.7229998
0.035163265 0.305686 1.7229998
0.01969143 0.31834477 1.723
0.026255237 0.31506288 1.7229998
0.035163265 0.31506285 1.7229998
-0.32819048 0.32654953 1.723
0.01969143 0.32490858 1.723
0.026255237 0.32490855 1.7229998
0.036100954 0.32654953 1.7229999
0.046493653 0.32545558 1.7229999
-0.32819048 0.33475432 1.723
0.009845715 0.33311334 1.723
0.018050477 0.33475432 1.7229999
0.026255237 0.33475432 1.7229998
0.036100954 0.33475432 1.7229999
0.044305716 0.33475432 1.7229999
-0.32490858 0.34459999 1.723
0.009845715 0.34295905 1.723
0.018050477 0.34295905 1.723
0.027192924 0.34459999 1.7229998
0.036100954 0.34501025 1.7229998
0.045126192 0.34542048 1.723
-0.32490858 0.35444573 1.723
0.0090252385 0.35526621 1.723
0.01969143 0.35608667 1.723
0.026665477 0.35485595 1.7229998
0.035006985 0.35335174 1.7229999
-0.32490858 0.36429143 1.723
0.0085329525 0.36429149 1.7229999
0.015862539 0.36374447 1.7229999
0.025317552 0.36382261 1.7229998
0.034460001 0.36100954 1.723
-0.32490858 0.37085524 1.723
0.0087517463 0.3719492 1.723
0.01969143 0.37413716 1.723
0.026255239 0.37085524 1.723
-0.32162669 0.3839829 1.723
0.01969143 0.38070098 1.723
0.024614286 0.38562384 1.723
-0.32244715 0.39464906 1.723
0.017065905 0.39579773 1.7229999
0.02531755 0.39429742 1.7229998
-0.32162669 0.40039238 1.723
0.009845715 0.4069562 1.723
0.016409524 0.4036743 1.7229998
0.02531755 0.40320545 1.7229998
-0.32162669 0.41516095 1.723
0.009845715 0.41352001 1.723
0.016409524 0.41351998 1.7229998
0.022973334 0.41023812 1.723
-0.32162669 0.4217248 1.723
-0.31752431 0.42746812 1.723
0.0087517463 0.42391273 1.7229999
0.01453415 0.42430344 1.7229998
-0.31287491 0.43430543 1.723
0.0090252385 0.4373138 1.723
0.013127619 0.43321145 1.723
-0.31178096 0.44633904 1.723
0.0072201909 0.44699544 1.7229999
-0.31178096 0.45454383 1.723
0.0032819046 0.45665362 1.7229998
-0.31506288 0.4693124 1.723
0.0032819049 0.46603048 1.7229998
-0.31506288 0.47587618 1.723
0.0044753249 0.47617456 1.7229997
-0.31178096 0.48572195 1.723
0.0036465609 0.48499262 1.7229998
-0.31178096 0.4939267 1.723
-0.30849907 0.49884954 1.723
-0.0032819049 0.49884954 1.723
0.0021879366 0.49775556 1.723
-0.30849907 0.50541335 1.723
-0.0049228575 0.50541329 1.7229999
0.0039382856 0.50574154 1.7229998
-0.30849907 0.51361811 1.723
-0.0043758731 0.5141651 1.723
0.0049228575 0.51525909 1.7229997
0.014440382 0.51591551 1.7229999
-0.30849907 0.52510482 1.723
-0.0049228575 0.52182287 1.723
0.0041023809 0.52387404 1.7229998
0.013127619 0.52346385 1.723
-0.30718631 0.53560686 1.7229999
-0.036100954 0.53659147 1.7229999
-0.013127619 0.53823239 1.723
-0.0073842863 0.53495049 1.723
0 0.53330958 1.723
-0.30603763 0.54397571 1.723
-0.033639524 0.54397571 1.723
-0.013948096 0.54561669 1.723
-0.009845715 0.54479623 1.723
0 0.54807812 1.723
-0.30390438 0.55398548 1.7229999
-0.032819048 0.55136001 1.723
-0.014768571 0.5546419 1.7229999
-0.0085329525 0.5546419 1.7229999
0.0049228575 0.55464196 1.723
-0.30521715 0.56448764 1.723
-0.013127619 0.56120574 1.723
-0.0057433336 0.5620262 1.723
0.004922857 0.56448764 1.7229997
0.013127619 0.56776953 1.723
-0.30439669 0.57351291 1.723
0.0061535714 0.57310265 1.7229998
-0.30302921 0.5841791 1.723
-0.29865333 0.58746099 1.723
0.009845715 0.5841791 1.723
0.013127619 0.58253813 1.723
-0.30193526 0.59402484 1.723
-0.29865333 0.59402472 1.723
-0.0043758731 0.59621269 1.723
0.0043758731 0.59402484 1.7229998
-0.29701242 0.60387051 1.7229999
-0.0065638097 0.60387045 1.7229998
0.0032819051 0.60058862 1.723
-0.29701239 0.61371619 1.7229999
-0.0056261229 0.61371619 1.7229998
0 0.61535716 1.723
-0.29668421 0.62356198 1.7229999
-0.0061535714 0.62315172 1.7229998
0.0032819049 0.62496853 1.7229998
-0.30193526 0.63997144 1.723
-0.29755938 0.63395464 1.7229999
-0.004922857 0.63504863 1.7229998
0.0049228575 0.63504857 1.7229997
0.03938286 0.63340765 1.723
0.045946669 0.63121969 1.723
-0.30302921 0.64544135 1.723
-0.29865333 0.64653528 1.723
-0.0032819049 0.64325339 1.723
0.0032819051 0.64325339 1.723
-0.042664763 0.65638095 1.723
-0.036100954 0.65638095 1.723
-0.029537143 0.65638095 1.723
-0.052784763 0.049485717 1.7320001
-0.042887621 0.046186667 1.7320001
-0.036289528 0.048660953 1.7320001
0.016495239 0.049485717 1.7320001
0.026392382 0.046186667 1.7320001
0.10556952 0.047836188 1.7320002
-0.32825524 0.056083813 1.7320001
-0.042887621 0.056083813 1.7320001
0.096332192 0.056743622 1.7320001
-0.35723975 0.065509669 1.7320002
0.089074291 0.069280006 1.7320001
0.095672376 0.065980956 1.7320002
0.10227048 0.062681906 1.7320001
-0.35712191 0.075053334 1.7320001
0.089074291 0.075878106 1.732
0.093692951 0.076537907 1.7320001
-0.35409781 0.085775234 1.732
0.086325079 0.086325087 1.7320002
0.094022855 0.082476191 1.7320001
-0.34804952 0.094022855 1.7320001
0.085775241 0.095260002 1.7320002
-0.34310097 0.10886858 1.7320001
0.088249527 0.10556953 1.7320001
0.092373334 0.10886858 1.7320001
-0.35299811 0.1171162 1.7320001
-0.34969905 0.11216763 1.7320001
0.085775241 0.11546668 1.7320002
-0.35464764 0.12536381 1.7320001
0.085362867 0.12536381 1.7320002
-0.35629717 0.13416128 1.732
-0.34969905 0.13526097 1.7320001
0.085775249 0.13478966 1.7320002
-0.35519746 0.14405842 1.732
-0.34804952 0.14598288 1.7320001
0.079177149 0.14845715 1.7320001
0.086717829 0.14562941 1.7320002
-0.3474997 0.15505524 1.732
0.069280006 0.15670477 1.7320001
0.075878099 0.15505525 1.7320002
0.085775249 0.15505524 1.7320002
0.092373334 0.15505524 1.732
-0.34837943 0.16495238 1.7320001
0.076820679 0.16542368 1.7320002
0.08412572 0.16495238 1.7320002
-0.34557527 0.17402476 1.7320001
0.076427944 0.17484953 1.7320002
0.083575875 0.17374985 1.732
-0.34442058 0.18408686 1.7320001
0.072579049 0.18474667 1.732
-0.34442058 0.19530362 1.7320001
0.075878099 0.19464383 1.7320002
0.082476191 0.19629334 1.7320001
-0.34310097 0.20289144 1.7320001
-0.33980191 0.20619048 1.7320001
0.076820679 0.20454097 1.7320002
0.082476191 0.20124191 1.7320001
-0.33980191 0.2144381 1.732
0.05938286 0.21773715 1.7320001
0.06680572 0.21608762 1.7320001
0.075053334 0.21196383 1.7320001
-0.34310097 0.2276343 1.7320001
-0.33980191 0.22433525 1.732
0.056633655 0.2237854 1.7320002
0.064881273 0.22543494 1.732
-0.33980191 0.23423238 1.732
0.057183493 0.23478223 1.7320002
0.065509662 0.23517498 1.7320002
0.056496195 0.24371716 1.7320002
0.065568581 0.24454191 1.7320002
-0.33320382 0.25072762 1.7320001
-0.32990476 0.25567621 1.7320001
0.056083813 0.25567621 1.7320001
0.062681906 0.25072762 1.7320001
-0.33485335 0.26557335 1.7320001
-0.32990476 0.2622743 1.7320001
0.056083813 0.26062477 1.7320001
-0.3354032 0.27382097 1.732
0.054434288 0.27712002 1.7320001
0.053884447 0.28151873 1.732
-0.33320382 0.29691431 1.7320001
0.039588574 0.29526478 1.7320001
0.046186667 0.29455784 1.7320002
0.055424005 0.29559469 1.7320001
-0.33320382 0.30351239 1.732
0.03876381 0.30268764 1.7320001
0.045086984 0.30461207 1.7320002
0.052784763 0.30351239 1.7320001
-0.33320382 0.31340954 1.732
0.039588574 0.31340954 1.7320001
0.046186671 0.31340954 1.7320002
0.053884447 0.31560889 1.732
-0.33320382 0.32000762 1.7320001
0.037114285 0.32248193 1.7320001
0.045636829 0.32275686 1.7320002
0.054984134 0.32477292 1.7320002
0.062681906 0.32990476 1.7320001
0.036289524 0.33650288 1.732
0.049485717 0.33650288 1.732
0.05608381 0.33556029 1.7320002
0.062681906 0.33485335 1.7320001
-0.32990476 0.34640002 1.732
0.036289524 0.34310097 1.7320001
0.046846475 0.3457402 1.7320001
0.052784763 0.34969905 1.7320001
-0.32990476 0.35464764 1.7320001
0.038488891 0.35849652 1.732
0.046186667 0.35629714 1.7320002
0.02969143 0.36784381 1.7320001
0.035189845 0.36619434 1.732
0.046186671 0.36289525 1.732
0.052784763 0.36289525 1.7320001
-0.32495621 0.37774098 1.7320001
0.026392382 0.37650383 1.7320002
0.032990478 0.37279239 1.7320001
0.027711999 0.38466892 1.7320001
0.032990478 0.38928762 1.7320001
0.02969143 0.39423621 1.7320001
0.034640003 0.39588571 1.7320002
0.02969143 0.40743238 1.7320001
0.034639999 0.40578285 1.7320002
0.026804762 0.41609243 1.7320002
0.035346944 0.41615131 1.7320002
0.042887621 0.41897905 1.7320001
0.019794287 0.42557716 1.732
0.02639238 0.42557716 1.7320002
0.034639999 0.42887619 1.7320001
0.042887621 0.42887619 1.7320001
-0.32000762 0.43712384 1.7320001
-0.31670859 0.43877336 1.7320001
0.016495239 0.43547431 1.7320001
0.023093333 0.43217525 1.7320001
0.034639999 0.43217525 1.7320001
0.042887621 0.43217525 1.7320001
-0.31588382 0.4445467 1.7320001
0.015395556 0.4448216 1.7320002
-0.31670859 0.45526859 1.732
0.0090723811 0.45609334 1.7320001
0.016023947 0.45621118 1.7320002
-0.32000762 0.46516573 1.732
0.0098971436 0.46516573 1.732
0.016495239 0.46516573 1.7320002
0.023093333 0.46516573 1.732
-0.32000762 0.47176382 1.7320001
0.0098971436 0.47341335 1.7320001
0.016495239 0.47506291 1.7320002
0.024193017 0.47616255 1.732
-0.31670859 0.48660955 1.7320001
0.0098971436 0.48825908 1.7320001
0.016495237 0.48495996 1.7320002
0.023093333 0.48331049 1.7320001
-0.31670859 0.49485716 1.732
0.0053609526 0.49526951 1.7320002
0.01583543 0.49551696 1.7320001
0.026392382 0.49815622 1.7320001
-0.31423432 0.50392956 1.7320001
0.0090723811 0.50392956 1.7320001
0.016495239 0.5047543 1.7320002
0.026392382 0.5047543 1.7320002
0.035189841 0.50365466 1.732
-0.31340954 0.51465142 1.732
0.017594922 0.51355177 1.7320002
0.026392382 0.51465148 1.7320002
-0.31230986 0.52454859 1.732
0.0065980954 0.52784765 1.7320001
0.018474668 0.52520841 1.7320001
0.025979999 0.52413619 1.7320002
-0.31340954 0.53444576 1.732
-0.0032990477 0.53774476 1.7320001
0.0065980954 0.53444576 1.7320002
0.016082859 0.53444576 1.7320002
0.025842542 0.53389591 1.7320002
-0.31230986 0.54434294 1.732
-0.0049485718 0.54434288 1.7320002
0.0049485718 0.54434282 1.7320002
0.016082859 0.54475528 1.7320002
0.023093333 0.54599237 1.7320001
-0.31011048 0.55424005 1.732
-0.0046186671 0.55423999 1.7320001
0.005938286 0.5545699 1.7320001
0.016495237 0.55423999 1.7320002
0.025979999 0.55465239 1.7320002
-0.31011048 0.56413716 1.732
-0.0032990477 0.5608381 1.7320001
0.0032990475 0.5608381 1.732
0.016495239 0.56413722 1.7320002
0.02592109 0.56319457 1.7320002
-0.31011048 0.57403427 1.732
0.016907619 0.57444668 1.7320002
0.024193017 0.57183498 1.732
-0.31011048 0.58393145 1.732
-0.30681145 0.5872305 1.7320001
0.017437825 0.58346015 1.7320002
-0.31011048 0.59217906 1.7320001
-0.30681145 0.59382862 1.732
0.0098971436 0.59712762 1.7320001
0.016495239 0.59341621 1.7320002
0.023093333 0.59217906 1.7320001
-0.30549183 0.60438555 1.7320001
0.005938286 0.60504532 1.7320001
0.019794287 0.60372573 1.732
-0.30433714 0.6136229 1.7320001
-0.0032990477 0.61032385 1.7320001
0.0043987301 0.6136229 1.7320002
0.017320001 0.61444765 1.7320001
0.023093333 0.61032385 1.7320001
-0.30351239 0.62352002 1.7320001
0.0070104762 0.62310767 1.7320002
0.01319619 0.62352008 1.732
-0.30516192 0.63341719 1.7320002
0.01319619 0.63341719 1.732
0.036289524 0.63671619 1.7320001
-0.3059867 0.64248955 1.7320001
0.013196191 0.64001524 1.7320001
-0.046186667 0.65980953 1.7320001
-0.046426669 0.047532067 1.7410001
-0.036478095 0.044436954 1.7409999
-0.023213334 0.046426669 1.7410001
-0.019897144 0.046426669 1.7410001
0.11606666 0.046426669 1.7410001
-0.36146477 0.059691429 1.7410001
-0.35649049 0.059691429 1.7410001
-0.3249867 0.053059053 1.7410001
-0.31835431 0.054717146 1.7410001
0.099485718 0.056375239 1.7410001
0.10611811 0.056375239 1.7410001
0.11606667 0.059691429 1.7410001
-0.36478096 0.067981906 1.7410001
0.099485718 0.069640003 1.7410001
0.10653263 0.066738337 1.7410001
0.11606666 0.066323809 1.7410001
0.12269905 0.063007623 1.7410001
-0.36345449 0.076935627 1.7409999
0.098656669 0.075443335 1.7410001
0.10611811 0.07793048 1.7410001
0.11938286 0.076272383 1.7410001
-0.36312288 0.08456286 1.7410001
-0.35814857 0.08622095 1.7410001
0.095506296 0.086884193 1.7409999
0.10280191 0.082904764 1.7410001
-0.35372698 0.095064133 1.7410001
-0.34156764 0.099485718 1.7410001
0.095222041 0.096643269 1.7410001
-0.35151622 0.10943429 1.7410001
-0.34156764 0.10611811 1.7410001
0.095616825 0.10611811 1.7410001
-0.35649049 0.11606666 1.7410001
0.094511427 0.11606666 1.7410001
-0.35814857 0.12767334 1.7410001
0.089537144 0.12601525 1.7410001
0.094511427 0.12601525 1.7410001
-0.36146477 0.13928001 1.7410001
-0.35649049 0.13430572 1.7410001
0.089537144 0.13596381 1.7410001
0.095222048 0.13596381 1.7410001
-0.36146477 0.14591238 1.7410001
-0.35483238 0.14591238 1.7410001
0.095754996 0.14632691 1.7410001
-0.35350591 0.15519771 1.7409999
0.097827621 0.15586095 1.7410001
-0.35483238 0.16580953 1.7410001
-0.34820002 0.16580953 1.7410001
0.089537144 0.16580953 1.7410001
0.095755003 0.16539499 1.7410001
-0.35234526 0.17658715 1.7410001
0.076272383 0.17575809 1.7410001
0.087326348 0.17631079 1.7410001
-0.35284269 0.18504342 1.7409999
-0.34820002 0.18902287 1.7410001
0.07793048 0.18570668 1.7410001
0.08622095 0.18570668 1.7410001
-0.35284269 0.19631848 1.7409999
-0.34820002 0.19233905 1.7410001
0.079588577 0.19233905 1.7410001
0.08716844 0.19518149 1.7410001
-0.35151622 0.20228763 1.7410001
-0.34737098 0.20643286 1.7410001
0.086220957 0.20560384 1.7410001
-0.34571287 0.21472333 1.7410001
0.066323809 0.21886858 1.7410001
0.074614286 0.21721049 1.7410001
0.08622095 0.21223621 1.7410001
-0.34488383 0.22384286 1.7410001
0.066876516 0.22494827 1.7410001
0.074614286 0.22550096 1.7410001
-0.34488383 0.23544954 1.7410001
0.067981906 0.23213334 1.7410001
0.074614286 0.23544954 1.7410001
-0.34322572 0.24208191 1.7410001
-0.33825144 0.2487143 1.7410001
0.069640003 0.24208191 1.7410001
0.074614286 0.24539809 1.7410001
-0.33604065 0.25755748 1.7410001
0.059691429 0.25368857 1.7410001
0.067429207 0.25313589 1.7410001
0.07295619 0.25534669 1.7410001
-0.34156764 0.26695335 1.7410001
-0.33714604 0.26308444 1.7410001
0.058862381 0.26612428 1.7410001
-0.34156764 0.27358574 1.7410001
-0.33825144 0.27856001 1.7410001
0.057038475 0.27524382 1.7409999
0.063007623 0.27856001 1.7410001
-0.33825144 0.2851924 1.7410001
0.057480633 0.28629783 1.7410001
0.064997338 0.2865189 1.7409999
-0.34156764 0.29679906 1.7410001
-0.3374224 0.29514095 1.7410001
0.049742859 0.29182476 1.7410001
0.057204287 0.2926538 1.7410001
0.066323809 0.29514095 1.7410001
0.073785238 0.29596999 1.7410001
-0.34156764 0.3050895 1.7410001
-0.33825144 0.30508956 1.7410001
0.048637465 0.30287874 1.7410001
0.057322718 0.3050895 1.7410001
0.066323817 0.30309981 1.7409999
0.074614286 0.30177334 1.7410001
-0.33825144 0.31503811 1.7410001
0.057038475 0.31437486 1.7409999
0.063007623 0.31835431 1.7410001
-0.33659333 0.3249867 1.7410001
0.059691429 0.3249867 1.7410001
0.064334102 0.32564992 1.7409999
-0.33626172 0.33559847 1.7409999
0.059691429 0.33161905 1.7410001
0.066323809 0.33493528 1.7410001
-0.33659336 0.34488383 1.7410001
0.056375239 0.34529835 1.7410001
0.063007623 0.34488383 1.7410001
-0.33659336 0.35483241 1.7410001
0.056375239 0.35530615 1.7410001
0.063007623 0.35151622 1.7410001
-0.33161905 0.36478093 1.7410001
0.038136192 0.36809716 1.7410001
0.046426669 0.36809716 1.7410001
0.054717146 0.36395189 1.7410001
-0.33161905 0.37472954 1.7410001
0.037425581 0.37520331 1.7410001
0.044436954 0.37406629 1.7409999
-0.33244812 0.38467813 1.7410001
-0.32830286 0.38467813 1.7410001
0.03448838 0.38534135 1.7409999
-0.32830286 0.39462671 1.7410001
0.03896524 0.39379764 1.7410001
0.043110479 0.39628476 1.7410001
-0.33161905 0.40125906 1.7410001
-0.32830286 0.40623337 1.7410001
0.039794289 0.40457526 1.7410001
0.043939527 0.40457526 1.7410001
-0.32830286 0.41452384 1.7410001
0.039794289 0.41452384 1.7410001
0.045321271 0.41562924 1.7410001
-0.32830286 0.42281431 1.7410001
0.036478098 0.42613044 1.7410001
0.046841189 0.42488688 1.7410001
0.053059053 0.42447242 1.7410001
-0.32498667 0.43442097 1.7410001
0.019897144 0.43773717 1.7410001
0.027192762 0.43641073 1.7409999
0.037804574 0.43574744 1.7409999
0.047089908 0.43375772 1.7409999
0.053059049 0.43276286 1.7410001
-0.3216705 0.44602764 1.7410001
0.019897144 0.44271147 1.7410001
0.026529524 0.44436955 1.7410001
0.036063574 0.44395503 1.7410001
0.018239047 0.45266002 1.7410001
0.026529524 0.45431811 1.7410001
0.033990953 0.45348904 1.7410001
0.027477007 0.46379295 1.7410001
0.033990953 0.46343762 1.7410001
0.027477007 0.47468901 1.7410001
0.035151619 0.47554174 1.7409999
0.028519237 0.48482704 1.7409999
0.036063574 0.48374927 1.7410001
0.0099485721 0.4974286 1.7410001
0.017409999 0.49659953 1.7410001
0.026529524 0.49411237 1.7410001
0.036478098 0.49411237 1.7410001
0.044436954 0.49477568 1.7409999
-0.31835431 0.50737715 1.7410001
0.026529524 0.50074476 1.7410001
0.037030797 0.50295562 1.7410001
0.043939523 0.50323194 1.7410001
-0.31835431 0.51069337 1.7410001
0.036478098 0.51400954 1.7410001
0.043110479 0.51235145 1.7410001
-0.31503811 0.52395809 1.7410001
0.033990953 0.52478713 1.7410001
0.019897144 0.53722286 1.7410001
0.029845715 0.53224862 1.7410001
0.033990949 0.53473574 1.7410001
0.046426669 0.53722286 1.7410001
0.019897144 0.54385525 1.7410001
0.027003264 0.54385525 1.7410001
0.036063574 0.5442698 1.7410001
0.046426669 0.54551339 1.7410001
-0.31503811 0.55380386 1.7410001
0.028740317 0.55159301 1.7410001
0.034820002 0.55380386 1.7410001
-0.31503811 0.56209433 1.7410001
0.03448838 0.56308919 1.7409999
0.028519237 0.57370102 1.7409999
0.033161905 0.5703848 1.7410001
0.025203049 0.58232307 1.7409999
0.027192762 0.59426135 1.7409999
0.033161905 0.59691429 1.7410001
-0.31172192 0.60354668 1.7410001
0.015254477 0.6042099 1.7409999
0.026529524 0.60354668 1.7410001
0.03448838 0.60354674 1.7409999
-0.31172192 0.61349529 1.7410001
-0.30840573 0.61349529 1.7410001
0.0099485721 0.61349529 1.7410001
0.014922857 0.61349523 1.7410001
0.026944047 0.61349529 1.7410001
0.034820002 0.61349529 1.7410001
-0.31172192 0.62344384 1.7410001
-0.30840573 0.62344384 1.7410001
0.018570667 0.62410706 1.7409999
0.02453981 0.62278062 1.7409999
-0.31172192 0.63339239 1.7410001
-0.30840573 0.63007623 1.7410001
0.017410001 0.63256335 1.7410001
0.044768572 0.63505054 1.7410001
-0.31238514 0.64466745 1.7409999
0.016580952 0.64168286 1.7410001
0.1356943 0.025128573 1.7590001
0.14239524 0.023453334 1.7590001
0.13488081 0.033956461 1.7577143
0.15747239 0.036855239 1.7590001
-0.030833334 0.042500004 1.7500001
-0.024444446 0.04277778 1.7500001
0.11666667 0.045833334 1.7500001
0.12533334 0.044000003 1.7500002
0.13379619 0.043481909 1.756
0.14311321 0.044034831 1.7589999
0.15244667 0.046906669 1.7590001
-0.37190288 0.056958098 1.7590001
0.11708333 0.053750005 1.7500001
0.12521714 0.053421903 1.7530001
0.13401906 0.053607624 1.7589999
0.14407048 0.053607624 1.7589999
0.15244667 0.053607624 1.7589999
0.16082287 0.056958098 1.7590001
-0.3722648 0.064410955 1.7567501
-0.36760953 0.061820954 1.7545002
0.11666667 0.060000002 1.7500001
0.12533334 0.063333333 1.7500002
0.13394476 0.063622862 1.7579999
0.14359185 0.062701769 1.7589999
0.15244667 0.060308572 1.7590001
0.16082287 0.060308572 1.7590001
-0.37262669 0.073521905 1.7545
0.105 0.073333338 1.7500001
0.114 0.074666664 1.7500002
0.125 0.07333333 1.7500001
0.13387048 0.07362476 1.757
0.14072001 0.077060953 1.7590001
-0.37 0.080000006 1.7500001
-0.36594287 0.085222855 1.7545002
0.10416666 0.085833341 1.7500001
0.11499999 0.083999999 1.7500002
0.125 0.083333343 1.7500001
0.13387047 0.08366476 1.757
0.14072001 0.085437149 1.7590001
-0.36000001 0.096666671 1.7500001
0.10333335 0.093333334 1.7500001
0.115 0.093333341 1.7500001
0.125 0.093333334 1.7500001
0.13379619 0.093653336 1.756
0.1427303 0.095153525 1.7590001
-0.34844953 0.10051429 1.7590001
0.10375001 0.10375001 1.7500001
0.115 0.10333335 1.7500001
0.12521714 0.10351049 1.7530001
0.13364381 0.10357144 1.7540001
0.14072001 0.10386477 1.7590002
-0.36260098 0.11696666 1.7545002
0.10363638 0.11545455 1.7500001
0.11456668 0.11432858 1.7506429
0.12543143 0.11372477 1.756
0.13394475 0.11385334 1.7579999
0.14295365 0.11503302 1.7589999
-0.36557239 0.12464666 1.7567501
0.10333335 0.125 1.7500001
0.11406667 0.12455755 1.7538573
0.12396762 0.12396763 1.7589999
0.13401906 0.12396763 1.7589999
0.14155763 0.12313001 1.7590001
-0.36520192 0.13234381 1.7590001
0.10375001 0.13291667 1.7500001
0.114 0.13366666 1.7500002
0.12430715 0.13351238 1.757875
0.13354041 0.13354041 1.7589999
0.14072001 0.13401905 1.7590001
-0.36594287 0.14537716 1.7545002
0.10375001 0.14291666 1.7500001
0.115 0.14333333 1.7500001
0.12532571 0.14370191 1.7545
0.13066858 0.14407049 1.7590002
-0.36371493 0.15372761 1.7545
0.10500001 0.15333332 1.7500001
0.115 0.15333332 1.7500001
0.12543143 0.1538619 1.756
0.13066858 0.15412192 1.7590002
-0.36245108 0.16317067 1.7554001
-0.35666668 0.16666667 1.7500001
0.10500001 0.16333334 1.7500001
0.11346667 0.16352192 1.7520001
0.12396762 0.16417335 1.7589999
0.13066858 0.16417335 1.7590002
-0.36185145 0.1708743 1.7590001
-0.35666668 0.17500001 1.7500001
0.094999999 0.17500001 1.7500001
0.1033943 0.17343429 1.751
0.11378857 0.17403048 1.757
0.12396762 0.17422478 1.7589999
0.1315062 0.17422476 1.7590001
-0.36346796 0.18284507 1.7560002
0.094999999 0.18333334 1.7500001
0.10369334 0.18396193 1.756
0.1139162 0.18427621 1.7589999
0.12396762 0.18427621 1.7589999
0.13066858 0.18427621 1.7590002
-0.36312115 0.19392991 1.7554001
-0.35666668 0.19166668 1.7500001
0.094999999 0.19333334 1.7500001
0.10375048 0.19410475 1.757
0.1139162 0.19432762 1.7589999
0.12354882 0.19390881 1.7589999
-0.36172828 0.20145969 1.7530001
-0.35616699 0.20590985 1.7530001
0.095000006 0.20333336 1.7500001
0.10375048 0.20414668 1.757
0.1139162 0.20437907 1.7589999
0.12195734 0.20370896 1.7590001
-0.35406363 0.21377221 1.7536001
0.083333343 0.21666665 1.7500001
0.09375 0.21333335 1.7500001
0.10380762 0.21431047 1.7579999
0.1139162 0.21395184 1.7589999
-0.35257521 0.22390763 1.7545
0.076666668 0.22000001 1.7500001
0.083333336 0.22333333 1.7500001
0.09349905 0.2237162 1.753
0.10386477 0.22448193 1.7589999
0.11056572 0.2244819 1.7590002
-0.35173765 0.23393764 1.7545
0.083333328 0.23333335 1.7500001
0.093443818 0.23360001 1.7520001
0.10386477 0.23453334 1.7589999
0.11056572 0.23453335 1.7590002
-0.35180002 0.24123429 1.7590001
-0.34589142 0.24730095 1.7545002
0.083333343 0.24333334 1.7500001
0.093440004 0.24361335 1.7520001
0.10386477 0.24458477 1.7589999
0.11056572 0.24793525 1.7590001
-0.34441856 0.25423858 1.7533751
0.063333333 0.25666669 1.7500001
0.07444445 0.25555554 1.7500001
0.083333336 0.25333333 1.7500001
0.09338668 0.25348002 1.751
0.10380762 0.25449336 1.7579999
-0.35180002 0.26636285 1.7590001
-0.34533337 0.26266667 1.7500002
0.06428571 0.26285714 1.7500001
0.07333333 0.26375002 1.7500001
0.083333336 0.26333335 1.7500001
0.093333334 0.26333335 1.7500001
0.10386476 0.26468763 1.7589999
-0.35180002 0.27306384 1.7590001
-0.34666669 0.27333334 1.7500001
0.06428571 0.27333334 1.7500001
0.073506661 0.27395999 1.7540001
0.083761908 0.27473906 1.7589999
0.093655244 0.27427426 1.756
0.10386477 0.27473903 1.7589999
-0.34589145 0.28406191 1.7545
0.06666667 0.28333333 1.7500001
0.073504761 0.28397715 1.7540001
0.083716191 0.28462669 1.7579999
0.09381333 0.28479052 1.7589999
0.10386477 0.28479052 1.7589999
0.11056572 0.28144002 1.7590001
-0.35180002 0.29819238 1.7590001
-0.34604651 0.29326668 1.7536001
0.075833336 0.29250002 1.7500001
0.083476193 0.29383051 1.753
0.09371049 0.29450476 1.757
0.10135191 0.29400429 1.7590001
-0.35180005 0.30489334 1.7590002
-0.34666669 0.30333334 1.7500001
0.06666667 0.30666667 1.7500001
0.075000003 0.30666667 1.7500001
0.083333336 0.30333331 1.7500001
0.093659051 0.30437332 1.756
0.10051429 0.30656856 1.7590001
-0.35180002 0.31326956 1.7590001
-0.34604648 0.314648 1.7536001
0.06428571 0.31333333 1.7500001
0.073419042 0.31369522 1.7520001
0.083432384 0.31369331 1.7520001
0.093278818 0.31412524 1.75675
0.10051429 0.31326956 1.7590001
-0.3439219 0.32389334 1.7530001
0.06666667 0.32166669 1.7500001
0.07333333 0.32333335 1.7500001
0.083668575 0.3246229 1.757
0.09269651 0.32611302 1.7589999
-0.34305945 0.33369523 1.7554001
0.07333333 0.33333334 1.7500001
0.0834819 0.33390477 1.753
0.092138089 0.33504763 1.7589999
-0.34608608 0.34407926 1.7572
0.06666667 0.34500003 1.7500001
0.07333333 0.3433333 1.7500001
0.0834819 0.34392193 1.753
0.093394525 0.34551787 1.7589999
0.10051429 0.34509906 1.7590001
-0.34509906 0.35515049 1.7590002
0.064666666 0.35466668 1.7500002
0.07337524 0.35353714 1.751
0.083716191 0.35495049 1.7579999
0.09269651 0.35403368 1.7589999
0.10051429 0.35515049 1.7590001
-0.34169969 0.36395049 1.7530001
-0.33666667 0.36500001 1.7500001
0.063749999 0.36375004 1.7500001
0.07333333 0.36333334 1.7500001
0.083577134 0.36437145 1.755
0.09269651 0.36576033 1.7589999
-0.34058285 0.37397906 1.7530001
-0.33666667 0.37333333 1.7500001
0.053809524 0.3742857 1.7500001
0.063407622 0.37376383 1.7520001
0.073670477 0.37504196 1.7579999
0.083761908 0.37483454 1.7589999
0.090462863 0.37190288 1.7590001
-0.33666667 0.38166669 1.7500001
0.036666669 0.38333336 1.7500001
0.043809526 0.38428575 1.7500001
0.053333338 0.38333338 1.7500001
0.063556194 0.38464761 1.756
0.073710471 0.38530478 1.7589999
0.083203495 0.38418794 1.7589999
-0.33602592 0.39481258 1.7536001
0.044444446 0.39222226 1.7500001
0.053333338 0.39333338 1.7500001
0.063556194 0.3946819 1.756
0.073710479 0.39535618 1.7589999
0.080411434 0.39535621 1.7590002
-0.33602589 0.40416306 1.7536001
0.046666667 0.40166667 1.7500001
0.053333338 0.40333337 1.7500001
0.063519999 0.40448573 1.755
0.073710479 0.40540767 1.7589999
0.081751622 0.40473756 1.7590001
-0.33586574 0.41439626 1.7545
0.046666667 0.41166669 1.7500001
0.053333338 0.41333339 1.7500001
0.063519999 0.41451246 1.755
0.073710471 0.41545907 1.7589999
-0.33545667 0.42413288 1.7567501
0.055833332 0.42250001 1.7500001
0.063371427 0.42357337 1.751
0.073710471 0.42551053 1.7589999
-0.33252382 0.43444765 1.7545
0.056666669 0.43333337 1.7500001
0.063333333 0.43333337 1.7500001
0.073670477 0.43531239 1.7579999
0.080411434 0.43723714 1.7590001
-0.3316862 0.44364005 1.7545002
-0.32666668 0.44500002 1.7500001
0.045333333 0.44400001 1.7500002
0.053365722 0.44358861 1.751
0.063516185 0.44460571 1.755
0.073710471 0.44561332 1.7589999
0.081528254 0.44449654 1.7590002
-0.33169717 0.45231432 1.7590001
-0.32634136 0.45539889 1.7554001
0.036666669 0.45666668 1.7500001
0.043360002 0.45359051 1.751
0.053398103 0.45384952 1.7520001
0.06365905 0.45566484 1.7589999
0.071197622 0.45482719 1.7590001
-0.3249962 0.46404096 1.7590001
0.036666669 0.46333337 1.7500001
0.043333333 0.46333334 1.7500001
0.053365722 0.46359813 1.751
0.063624762 0.46544948 1.7579999
0.070360005 0.46571621 1.7590002
0.036666669 0.47333336 1.7500001
0.043333333 0.47333336 1.7500001
0.053333338 0.47333336 1.7500001
0.063556194 0.47495618 1.756
0.073291667 0.47618642 1.7589999
0.082924291 0.47828048 1.7590001
0.090462863 0.47911811 1.7590001
-0.32444191 0.48498479 1.7560002
0.045000002 0.48333335 1.7500001
0.053333335 0.48333338 1.7500001
0.063519999 0.48471239 1.755
0.073668569 0.48554099 1.7579999
0.083761908 0.48581907 1.7589999
0.090462863 0.48414382 1.7590001
-0.33169717 0.49754572 1.7590001
-0.32584003 0.49460194 1.7545
0.044166669 0.49083334 1.7500001
0.053333335 0.49333334 1.7500001
0.063519999 0.49474293 1.755
0.073710479 0.49587047 1.7589999
0.082086667 0.4958705 1.7589999
-0.33169717 0.50424671 1.7590001
-0.32548189 0.50539505 1.7538573
0.046666667 0.50833333 1.7500001
0.053333338 0.50499994 1.7500001
0.063626476 0.50632972 1.7580999
0.073710479 0.50592196 1.7589999
0.08242172 0.50525182 1.7590001
-0.32500461 0.51558399 1.7554001
0.046666667 0.51500005 1.7500001
0.053333338 0.51500005 1.7500001
0.063500471 0.51506788 1.7545
0.073710479 0.51597333 1.7589999
0.084431998 0.51530325 1.7590001
-0.32199851 0.52373981 1.7536001
0.036666669 0.52500004 1.7500001
0.043750003 0.52375001 1.7500001
0.053333338 0.52333331 1.7500001
0.063409522 0.5239296 1.7520001
0.072701767 0.52611649 1.7577143
0.080411434 0.52937526 1.7590001
-0.32054862 0.53424191 1.7530001
0.036666669 0.53500003 1.7500001
0.043333337 0.53333336 1.7500001
0.053333338 0.53333336 1.7500001
0.063409522 0.53394479 1.7520001
0.073291667 0.53607625 1.7589999
0.080411434 0.53942668 1.7590001
-0.32054859 0.54426479 1.7530001
0.04277778 0.54277778 1.7500001
0.053333338 0.54333329 1.7500001
0.063659042 0.54612756 1.7589999
0.073710471 0.54612762 1.7589999
0.080411434 0.54612762 1.7590002
-0.32164574 0.55617905 1.7590002
0.043333333 0.55428571 1.7500001
0.053521909 0.5552305 1.756
0.06365905 0.55617905 1.7589999
0.075385712 0.55617905 1.7589999
0.081249051 0.55701667 1.7590001
-0.32164574 0.56623054 1.7590002
-0.31666669 0.56999999 1.7500001
0.036666669 0.56999999 1.7500001
0.043333337 0.56500006 1.7500001
0.053579051 0.5659067 1.7579999
0.06365905 0.56623054 1.7589999
0.074827299 0.56511372 1.7589999
0.082421713 0.56556046 1.7590001
-0.32248336 0.57628191 1.7590001
-0.31666669 0.57500005 1.7500001
0.03555556 0.57555562 1.7500001
0.043373335 0.57549429 1.7515001
0.053607624 0.57628191 1.7589999
0.063659042 0.57628196 1.7589999
0.071700193 0.57628191 1.7590001
-0.32164574 0.58633333 1.7590002
-0.31666669 0.58333337 1.7500001
0.026666667 0.5866667 1.7500001
0.034285717 0.58380949 1.7500001
0.043386664 0.58399999 1.7520001
0.053607624 0.58633339 1.7589999
0.063659042 0.58633333 1.7589999
0.070360005 0.58633333 1.7590002
-0.32164574 0.59638476 1.7590002
-0.31666669 0.59333336 1.7500001
0.026666667 0.5916667 1.7500001
0.033750001 0.59291673 1.7500001
0.04348762 0.59536767 1.756
0.053188812 0.59596592 1.7589999
0.062821425 0.59387195 1.7590001
0.070360005 0.59303433 1.7590001
-0.32164574 0.60308576 1.7590001
-0.31666669 0.60333335 1.7500001
0.036666669 0.60333335 1.7500001
0.043413337 0.60436761 1.753
0.053188812 0.60685503 1.7589999
-0.31829524 0.61648768 1.7590002
0.043360006 0.61368191 1.751
0.053607624 0.61648762 1.7589999
0.060308572 0.61983812 1.7590001
-0.31829524 0.62653905 1.7590002
0.026666667 0.63 1.7500001
0.033333335 0.62666672 1.7500001
0.043417487 0.6257143 1.7532729
0.053579047 0.6261847 1.7579999
-0.32164574 0.63994098 1.7590001
-0.31775239 0.63549906 1.756
0.024 0.63533342 1.7500002
0.033333335 0.63500005 1.7500001
0.042814922 0.63442898 1.7515001
0.053579051 0.63622665 1.7579999
-0.32000002 0.64166671 1.7500001
-0.31666669 0.64166671 1.7500001
0.023436191 0.64441818 1.7575001
0.033441905 0.64219433 1.756
0.040000003 0.64000005 1.7500001
0.015077143 0.6533429 1.7590001
0.13133715 0.025257144 1.7680001
0.14480762 0.026940951 1.7680001
0.15154286 0.026940953 1.7680001
0.14480762 0.033676192 1.7679999
0.15288989 0.034349717 1.768
0.16585524 0.034518097 1.7680001
0.14817524 0.04209524 1.7680001
0.15539156 0.042816874 1.7679999
0.16248763 0.044620954 1.7680001
0.15827811 0.053881902 1.7680001
0.16366629 0.053208388 1.768
-0.38054097 0.067352384 1.7680001
-0.37717333 0.063984767 1.7680001
0.14649144 0.067352384 1.7680001
0.15539157 0.064946942 1.7679999
0.16433981 0.063311242 1.768
-0.38054097 0.072403811 1.7680001
0.14522858 0.073666669 1.7679999
0.15378794 0.072965078 1.768
0.16164573 0.070720002 1.7680001
-0.37548953 0.082506672 1.7680001
0.1457698 0.083709396 1.7679999
0.15238476 0.085032381 1.7680001
-0.36538666 0.092609525 1.7680001
0.14649144 0.092609525 1.7680001
0.15238476 0.095135242 1.7680001
0.14649144 0.10439619 1.768
0.15154286 0.10439619 1.7680001
-0.37212193 0.11786667 1.7680001
-0.36370289 0.11281523 1.7680001
0.14705271 0.11225396 1.7680001
0.15288991 0.11517258 1.768
-0.37156066 0.12347937 1.7680001
0.1468282 0.12527543 1.768
0.15238476 0.12376001 1.7680001
-0.3704381 0.13470477 1.7680001
0.13638857 0.13638857 1.7680001
0.14480762 0.13217907 1.7680001
-0.3704381 0.14144 1.7680001
0.13638857 0.14480762 1.768
-0.3704381 0.15659429 1.7680001
0.13638857 0.15491049 1.768
0.14368509 0.15715556 1.7680001
-0.3670705 0.16838096 1.7680001
0.13638857 0.16501334 1.768
-0.36572343 0.17578973 1.768
0.13672534 0.1751162 1.768
0.14480762 0.17174858 1.7680001
0.15154286 0.17174858 1.7680001
-0.36370286 0.18521905 1.7680001
0.1360518 0.18589257 1.768
0.14480762 0.18858667 1.7680001
-0.36370286 0.19532192 1.7680001
0.12796953 0.19868954 1.7680001
0.13428381 0.19490096 1.7679999
-0.36538666 0.20710859 1.7680001
0.12712762 0.20626669 1.7680001
0.13358223 0.20430224 1.768
-0.36235583 0.21620114 1.768
0.11449905 0.21721143 1.7680001
0.12418096 0.21510668 1.7679999
0.13133715 0.21216001 1.7680001
-0.36033526 0.22563048 1.7680001
0.11618286 0.22563048 1.768
0.1220762 0.22478858 1.7680001
-0.35696763 0.23573335 1.7680001
0.11618286 0.23573333 1.768
0.1229181 0.23573335 1.768
-0.35360003 0.24752 1.7680001
0.11492001 0.24541526 1.7679999
0.1229181 0.24920382 1.7680001
0.13302097 0.24920382 1.7680001
-0.35360003 0.25930667 1.7680001
0.113152 0.254592 1.768
0.1229181 0.25257143 1.7680001
0.13470477 0.25257143 1.7680001
-0.35584509 0.2660419 1.7680001
0.11449905 0.2660419 1.7679999
0.1229181 0.26772571 1.7680001
-0.35584509 0.27614477 1.7680001
0.11449905 0.27614477 1.7679999
0.12123429 0.27614477 1.7680001
-0.35360003 0.28624764 1.7680001
0.11449905 0.28624764 1.7679999
-0.35562062 0.29567695 1.768
0.10641676 0.29702401 1.768
-0.3569676 0.30645332 1.7680001
0.10535836 0.30597225 1.7679999
-0.35584509 0.31655622 1.7680001
0.097660959 0.31992382 1.7680001
0.10535837 0.31703731 1.7679999
-0.35191619 0.32497525 1.7680001
0.096538417 0.32441399 1.7680001
0.10215112 0.32553652 1.7680001
-0.35191619 0.33339429 1.768
0.097660959 0.33507812 1.7680001
0.10102858 0.33676192 1.7680001
-0.35275811 0.34265521 1.7680001
0.097660959 0.34181333 1.7680001
0.10439619 0.34293589 1.768
0.11113143 0.34686476 1.7680001
-0.35107428 0.35275811 1.7680001
0.097660959 0.35696763 1.7680001
0.10481714 0.35360003 1.7679999
0.11113143 0.35360003 1.7680001
-0.35023239 0.36201906 1.7680001
-0.34686476 0.3670705 1.7680001
0.095977142 0.36201906 1.7680001
0.10439619 0.36418393 1.7679999
0.11113143 0.36033526 1.7680001
-0.34686479 0.37380573 1.7680001
0.095415868 0.37492827 1.768
0.10439619 0.3704381 1.7680001
-0.34551772 0.3845821 1.768
0.08419048 0.38390857 1.7680001
0.094293334 0.38390857 1.7679999
0.10102858 0.38054097 1.7680001
-0.34518096 0.39401141 1.768
0.085874289 0.39401147 1.768
0.093732066 0.39288893 1.768
-0.34518096 0.40411428 1.768
0.08671619 0.40327239 1.7680001
0.092272766 0.40478784 1.768
-0.34461966 0.41197208 1.7680001
0.084611431 0.4146381 1.7679999
-0.34181333 0.42432004 1.7680001
0.083067939 0.42375875 1.768
-0.34012952 0.43442288 1.7680001
0.084611431 0.43400192 1.7679999
0.091767624 0.43526477 1.7680001
-0.34012952 0.44284192 1.7680001
-0.33676192 0.44789335 1.7680001
0.086211056 0.44385219 1.768
0.093872383 0.44494668 1.7679999
-0.34012952 0.45294476 1.7680001
-0.33592004 0.4554705 1.7680001
0.076332696 0.45687369 1.7680001
0.083228305 0.45414752 1.7679999
0.094293334 0.45126095 1.7680001
-0.33204725 0.46540499 1.768
0.075771429 0.46473145 1.768
0.081945397 0.46697652 1.7680001
-0.33137375 0.47416076 1.768
0.076332696 0.47258922 1.7680001
0.08419048 0.47483426 1.7679999
0.093619809 0.47685486 1.768
-0.33002669 0.48493719 1.7680001
0.095640376 0.48493719 1.768
-0.33339429 0.49419811 1.7680001
0.087558098 0.49672383 1.7680001
0.092048258 0.49279496 1.7680001
-0.33676192 0.5034591 1.7680001
0.087558098 0.50514287 1.7680001
-0.33339429 0.51524574 1.7680001
0.083067946 0.51524574 1.7680001
0.093451433 0.51777142 1.7680001
0.10102858 0.51861334 1.7680001
-0.33002669 0.5253486 1.7680001
0.077455238 0.52703238 1.7680001
0.08376953 0.52576953 1.7679999
0.092272766 0.52467507 1.768
-0.33002669 0.53545147 1.7680001
-0.32665905 0.53545141 1.7680001
0.077455238 0.53881907 1.7680001
0.084611431 0.5358724 1.7679999
0.090925716 0.53713524 1.7680001
-0.32665905 0.54555434 1.7680001
0.085874289 0.54555434 1.768
0.090925716 0.54723811 1.7680001
-0.32665905 0.55565715 1.7680001
0.070720002 0.55734098 1.7680001
0.085874289 0.55565715 1.768
0.090925716 0.55565715 1.7680001
-0.33002669 0.56744385 1.7680001
-0.32665905 0.56576002 1.7680001
0.070720002 0.56576002 1.7680001
0.087558098 0.56575996 1.7680001
0.090925716 0.56575996 1.7680001
-0.33002669 0.57586288 1.7680001
-0.32665905 0.57417905 1.7680001
0.074761137 0.57586288 1.768
0.08419048 0.57628381 1.7679999
0.090925716 0.57586288 1.7680001
-0.33002669 0.58259809 1.7680001
-0.32665905 0.58596575 1.7680001
0.076108195 0.58663929 1.768
0.08419048 0.58596575 1.7679999
0.090925716 0.58259809 1.7680001
-0.32665905 0.59438479 1.7680001
0.065668575 0.59943622 1.7680001
0.075049803 0.59654969 1.7679999
0.08376953 0.59564769 1.7679999
0.094293334 0.59522671 1.7680001
-0.32329145 0.60953909 1.7680001
0.057249527 0.60448766 1.7680001
0.063984767 0.60617143 1.7679999
0.07408762 0.60617143 1.7679999
0.082506672 0.60617143 1.768
-0.32329145 0.6162743 1.7680001
0.063984767 0.6162743 1.7679999
0.080822863 0.61290669 1.7680001
-0.32329145 0.62637717 1.7680001
0.064405717 0.62679809 1.7679999
0.070720002 0.62300956 1.7680001
-0.33002669 0.63984764 1.7680001
-0.32413334 0.63732195 1.7680001
0.062300954 0.63563812 1.7680001
0.07408762 0.63648003 1.7680001
-0.33002669 0.64321524 1.7680001
-0.32665905 0.64321524 1.7680001
0.062300958 0.64321524 1.7680001
0.16585334 0.042309526 1.7770001
-0.37909335 0.057540953 1.7770001
-0.34524572 0.057540953 1.7770001
0.16923811 0.054156195 1.7770001
0.17262286 0.054156195 1.7770001
-0.38417047 0.066002861 1.7770001
-0.37909335 0.060925715 1.7770001
0.16810985 0.066566981 1.7770001
0.17262286 0.064310469 1.7770001
0.24539524 0.067695238 1.7770001
-0.38417047 0.074464768 1.7770001
0.15795556 0.076721281 1.7770001
0.16528921 0.074464768 1.7770001
-0.38247812 0.081234291 1.7770001
0.15772991 0.0839421 1.7770001
0.16246858 0.084619053 1.7770001
-0.36893907 0.096465722 1.7770001
0.15772991 0.094096385 1.7770001
0.16416097 0.098158099 1.7770001
-0.36216953 0.10831238 1.7770001
-0.35709241 0.10492762 1.7770001
0.15739144 0.10492761 1.7770001
0.16246858 0.10492762 1.7770001
-0.37486237 0.11508191 1.7770001
-0.36893907 0.11169714 1.7770001
-0.35540003 0.11169714 1.7770001
0.15823764 0.11423571 1.7770001
0.16416097 0.11677429 1.7770001
-0.37740099 0.12439001 1.7770001
0.15772991 0.12591314 1.7770001
0.16331477 0.12439 1.7770001
-0.37570858 0.13539048 1.7770001
0.14639096 0.13792905 1.7770001
0.15521552 0.1344234 1.7770002
0.16517638 0.13403657 1.7770001
-0.37232381 0.14554477 1.7770001
0.14554477 0.14554477 1.7770002
0.15231429 0.14554477 1.7770001
0.1461089 0.1545708 1.7770001
0.15231429 0.15569906 1.7770001
-0.37232384 0.16585334 1.7770001
0.14554477 0.16585332 1.7770002
0.15231429 0.16585334 1.7770001
-0.37232384 0.17600763 1.7770001
0.14554477 0.17697468 1.7770002
0.15612215 0.1764307 1.7770002
0.16246858 0.17262286 1.7770001
-0.37232384 0.18616192 1.7770001
-0.36893907 0.18954667 1.7770001
0.13877524 0.18277715 1.7770001
0.14554477 0.18573882 1.7770002
0.15400667 0.18616192 1.7770001
-0.37232384 0.1963162 1.7770001
0.13877524 0.19970097 1.7770001
0.14554477 0.19631618 1.7770002
0.15569906 0.19462381 1.7770001
-0.37232381 0.20308572 1.7770001
-0.36893907 0.20985524 1.7770001
0.13764699 0.208727 1.7770001
0.14385238 0.20308572 1.7770001
-0.36893907 0.21493238 1.7770001
0.13606742 0.21527085 1.7770001
0.14216 0.21324001 1.7770001
-0.36668256 0.22339429 1.7770001
0.12777478 0.22424048 1.7770001
0.13335963 0.22271736 1.7770001
-0.36329779 0.23354858 1.7770001
0.12777478 0.23270239 1.7770001
0.13539048 0.23524095 1.7770001
-0.35878477 0.24370286 1.7770001
0.12571974 0.24466994 1.7770002
0.13539048 0.24370286 1.7770002
0.14216 0.24370286 1.7770001
-0.35652828 0.25611365 1.7770001
0.11677429 0.2572419 1.7770001
0.1265901 0.25521106 1.7770001
0.13623667 0.25554955 1.7770001
0.14300619 0.25301099 1.7770001
-0.35878477 0.26231906 1.7770001
0.11677429 0.26062667 1.7770001
0.12571974 0.26304439 1.7770002
0.13426222 0.26288319 1.7770001
0.14216 0.26062667 1.7770001
-0.36216953 0.27416572 1.7770001
0.12636445 0.27472985 1.7770001
0.13200572 0.27247334 1.7770001
-0.36216953 0.28770477 1.7770001
-0.35878477 0.28432 1.7770001
0.12354382 0.28432 1.7770001
-0.36216953 0.2944743 1.7770001
-0.35878477 0.29108953 1.7770001
0.11508191 0.2944743 1.7770001
0.12297968 0.29560256 1.7770001
-0.36216953 0.30462858 1.7770001
0.11338952 0.30801335 1.7770001
0.12185143 0.30124381 1.7770001
-0.36216953 0.31478289 1.7770001
0.12692857 0.31816763 1.7770001
-0.35878477 0.32493716 1.7770001
0.10831238 0.32662952 1.7770001
0.11423571 0.32324478 1.7770001
0.1252362 0.3223986 1.7770001
-0.35878477 0.33509144 1.7770001
0.10492762 0.33565557 1.7770001
-0.35878477 0.34524572 1.7770001
0.10662 0.34524572 1.7770001
0.11169714 0.34355336 1.7770001
-0.35652828 0.3554 1.7770001
0.11508191 0.35709238 1.7770001
-0.35370764 0.3655543 1.7770001
0.10831238 0.3655543 1.7770001
0.11423571 0.36640051 1.7770001
-0.35201526 0.37570858 1.7770001
0.10492762 0.37613165 1.7770002
0.11169714 0.37570858 1.7770001
-0.35201526 0.38586286 1.7770001
0.10408144 0.38501668 1.7770001
0.11169714 0.38247812 1.7770001
-0.35201526 0.39601716 1.7770001
0.095901586 0.39827368 1.7770001
0.10379937 0.39545301 1.7770001
0.11169714 0.39601716 1.7770001
-0.35201526 0.40447906 1.7770001
0.097311907 0.40532523 1.7770001
0.10450452 0.40659454 1.7770002
0.11282539 0.40729967 1.7770001
-0.34750223 0.41858223 1.7770001
0.094350249 0.41590264 1.7770002
0.10492761 0.41632575 1.7770002
0.11169714 0.41632572 1.7770001
-0.3472766 0.42715698 1.7770001
0.086875558 0.42760825 1.7770001
0.094350249 0.42690313 1.7770002
0.10379937 0.42535177 1.7770001
-0.34524572 0.43494192 1.7770001
0.096465714 0.43494189 1.7770001
0.10154286 0.43494192 1.7770001
-0.34524572 0.44001907 1.7770001
0.098158099 0.44171146 1.7770001
0.10357372 0.44475776 1.7770001
0.11169714 0.44678858 1.7770001
-0.34186098 0.45017335 1.7770001
0.088003814 0.45694289 1.7770001
0.094773337 0.45558897 1.7770001
0.10396054 0.45307454 1.7770002
-0.34186098 0.46371236 1.7770001
-0.33847621 0.46540478 1.7770001
0.085747302 0.46427655 1.7770001
0.094773337 0.46371242 1.7770002
0.10450452 0.46413553 1.7770002
-0.34186098 0.47048193 1.7770001
-0.33847621 0.4738667 1.7770001
0.088003814 0.47217429 1.7770001
0.09525688 0.47289962 1.7770002
0.10379937 0.47330257 1.7770001
-0.33678386 0.48402095 1.7770001
0.098158099 0.48740572 1.7770001
0.10492761 0.48402098 1.7770002
0.11169714 0.48063621 1.7770001
-0.34186098 0.49417529 1.7770001
-0.33763 0.49332905 1.7770001
0.097029842 0.49643174 1.7770001
0.10492762 0.49417523 1.7770002
-0.34186098 0.5043295 1.7770001
0.094773337 0.50432962 1.7770002
0.10396055 0.50384605 1.7770002
-0.33847621 0.51448387 1.7770001
0.088003814 0.51448381 1.7770001
0.095196433 0.51406068 1.7770002
-0.33509144 0.52633047 1.7770001
0.098158099 0.52633047 1.7770001
0.10267112 0.52689463 1.7770001
-0.33509144 0.53479242 1.7770001
0.09477333 0.53411543 1.7770001
0.10154286 0.53140765 1.7770001
-0.33283493 0.54494667 1.7770001
0.093645073 0.54381841 1.7770001
-0.33170667 0.55510098 1.7770001
0.094773337 0.55848575 1.7770001
-0.33373755 0.56457835 1.7770001
0.09477333 0.56525528 1.7770001
-0.33509144 0.57540953 1.7770001
0.094773337 0.57608652 1.7770001
-0.33424526 0.58641005 1.7770001
0.095196441 0.58556384 1.7770002
0.10154286 0.58556384 1.7770001
-0.33170667 0.59571809 1.7770001
0.094773337 0.59368724 1.7770001
0.10154286 0.59571815 1.7770001
-0.33170667 0.60248762 1.7770001
-0.3283219 0.60587239 1.7770001
0.088003814 0.60587239 1.7770001
0.094773345 0.60587239 1.7770002
0.10154286 0.60417998 1.7770001
-0.3283219 0.61264193 1.7770001
0.074464768 0.61771905 1.7770001
0.085747302 0.61715496 1.7770001
0.093645088 0.61489844 1.7770001
-0.32662952 0.6278733 1.7770001
0.074887857 0.62618095 1.7770002
0.084195957 0.62575781 1.7770002
0.091388576 0.62279624 1.7770001
-0.34186098 0.63633525 1.7770001
-0.33847621 0.63633525 1.7770001
-0.32747573 0.63548911 1.7770001
0.065438733 0.63859177 1.7770001
0.074464768 0.63591218 1.7770002
0.083651975 0.63585174 1.7770002
0.091388576 0.63633525 1.7770001
0.067695238 0.64310479 1.7770001
0.076157153 0.64310479 1.7770001
0.26875049 0.027215239 1.7860001
0.27215239 0.027215239 1.7860001
0.17009525 0.037420955 1.7860001
0.1717962 0.044224765 1.7860001
-0.34427279 0.054430477 1.786
0.17689906 0.054430474 1.7860001
0.18327764 0.054855719 1.7860001
0.19050667 0.057832383 1.7860001
-0.38781714 0.064636193 1.7860001
0.17689906 0.064636193 1.7860001
0.18370286 0.064636201 1.7860001
0.24720509 0.062368255 1.7860001
0.25174096 0.066337146 1.7860001
-0.38781714 0.076542862 1.7860001
0.1739224 0.075267144 1.7860001
0.18370286 0.074841909 1.7860001
0.24833906 0.074841909 1.7860001
0.25174096 0.074841909 1.7860001
-0.38101333 0.085047625 1.7860001
-0.37761143 0.08844953 1.7860001
0.16584286 0.085047625 1.7860001
0.17349716 0.085047632 1.7860001
0.18426986 0.085614614 1.7860001
0.24697831 0.085047625 1.786
0.25174096 0.085047625 1.7860001
-0.37420952 0.091851436 1.7860001
0.16499239 0.093552388 1.7860001
0.1721364 0.096614107 1.786
0.18370287 0.096387304 1.7860001
0.2466381 0.091851436 1.7860001
-0.36570477 0.10460857 1.7860001
0.16584286 0.10545904 1.7860001
0.17252518 0.10497306 1.7860001
-0.38101333 0.11566477 1.7860001
-0.37761143 0.11226286 1.7860001
0.16499239 0.11226286 1.7860001
0.17349716 0.11566476 1.7860001
0.18030097 0.11736572 1.7860001
-0.38101333 0.12927239 1.7860001
0.16669334 0.12757143 1.7860001
0.17349717 0.12587048 1.7860001
0.18030097 0.12587048 1.7860001
-0.38101333 0.13267429 1.7860001
0.15818858 0.1394781 1.7860001
0.16499239 0.1394781 1.7860001
0.1739224 0.1360762 1.7860001
0.18143493 0.13380826 1.7860001
-0.37761143 0.14628191 1.7860001
0.15818858 0.14628191 1.7860001
0.16499239 0.14628191 1.7860001
0.17145601 0.14560154 1.786
-0.37761143 0.15648763 1.7860001
0.15818858 0.15648763 1.7860001
0.16499239 0.15648763 1.7860001
0.17009525 0.15478668 1.7860001
-0.37761143 0.16499239 1.7860001
0.15818858 0.16499239 1.7860001
0.16499239 0.16499239 1.7860001
-0.37761143 0.17349716 1.7860001
0.15818858 0.17009525 1.7860001
0.16533259 0.17349716 1.786
0.1717962 0.17519811 1.7860001
-0.37761143 0.18370287 1.7860001
0.15988953 0.18540382 1.7860001
0.16499239 0.18370287 1.7860001
0.17145601 0.18302247 1.786
