# .PCD v0.7 - Point Cloud Data file format
VERSION 0.7
FIELDS x y z
SIZE 4 4 4
TYPE F F F
COUNT 1 1 1
WIDTH 1511
HEIGHT 1
VIEWPOINT 0 0 0 1 0 0 0
POINTS 1511
DATA ascii
-0.21565714 0.25688574 1.6650001
0.028542856 0.25371432 1.6650001
0.031714287 0.2521286 1.6650001
-0.26294032 0.26524681 1.6650002
-0.2426143 0.26005715 1.6650001
-0.21565714 0.26005715 1.6650001
0.028542858 0.26164287 1.6650001
-0.26232249 0.27591431 1.6650001
-0.25688574 0.27908573 1.6650001
0.028542858 0.27274287 1.6650001
0.031714287 0.27591428 1.6650001
-0.26322863 0.28542855 1.6650001
-0.25688574 0.28542858 1.6650001
0.031714287 0.28542855 1.6650001
-0.2632286 0.29494286 1.6650001
-0.25561717 0.29557714 1.6650002
0.028542858 0.29652858 1.6650001
0.031714287 0.29177144 1.6650001
-0.26322857 0.30445716 1.6650001
-0.25561717 0.30445713 1.6650002
0.025371429 0.30762857 1.6650001
-0.2616429 0.31397143 1.6650001
-0.25530002 0.31397143 1.6650001
0.025371427 0.31397143 1.6650001
-0.26005715 0.32507145 1.6650001
-0.25530002 0.32507142 1.6650001
0.023257144 0.32401431 1.6650001
-0.25371432 0.33617142 1.6650001
0.019028572 0.33617145 1.6650001
0.022200001 0.33617148 1.6650001
-0.25133574 0.34489286 1.6650001
-0.24419999 0.34568572 1.6650001
-0.23785715 0.34727144 1.6650001
0.019028572 0.34568572 1.6650001
0.022200001 0.34251431 1.6650001
-0.25054288 0.35520002 1.6650001
-0.24419999 0.35520002 1.6650001
-0.23785715 0.35520002 1.6650001
0.019028572 0.35520002 1.6650001
0.022200001 0.35202858 1.6650001
-0.24329388 0.3642613 1.6650001
-0.23680001 0.3626 1.6650001
0.019028572 0.3631286 1.6650001
-0.24420001 0.3742286 1.6650001
0.023257144 0.3742286 1.6650001
-0.24420001 0.3837429 1.6650001
0.022200001 0.3837429 1.6650001
-0.24356572 0.3957943 1.6650002
0.019028572 0.39484286 1.6650001
-0.24229714 0.40530857 1.6650002
-0.23785715 0.40277144 1.6650001
0.019028572 0.40594283 1.6650001
-0.24102858 0.41387144 1.6650001
-0.23513879 0.4163633 1.6650001
0.019028572 0.41862857 1.6650001
-0.23310001 0.42497143 1.6650001
0.023785714 0.42655715 1.6650001
-0.23415715 0.4344857 1.6650001
0.022992857 0.43369287 1.6650001
-0.23559184 0.44445306 1.6650001
0.022200001 0.44400001 1.6650001
-0.2346857 0.45509997 1.6650003
-0.22446667 0.45633337 1.6650001
-0.21701632 0.45668575 1.6650001
0.022834286 0.45605144 1.6650002
-0.23278287 0.46556574 1.6650002
-0.22517143 0.46619999 1.6650001
-0.21777143 0.46408573 1.6650001
0.025371429 0.46556574 1.6650002
-0.224775 0.47531784 1.6650001
-0.21656327 0.47571427 1.6650001
0.023785716 0.4757143 1.6650001
-0.22570001 0.48522857 1.6650001
-0.21882857 0.48364288 1.6650001
0.023468573 0.48459429 1.6650002
-0.23151429 0.49791431 1.6650001
-0.22517143 0.49474287 1.6650001
0.022200001 0.49474287 1.6650001
-0.23151429 0.50425714 1.6650001
-0.22517143 0.50425714 1.6650001
-0.21724287 0.50584286 1.6650001
0.022200001 0.50267148 1.6650001
-0.21475101 0.51331842 1.6650001
-0.20741144 0.51504004 1.6650002
0.017125715 0.51440579 1.6650002
-0.21407142 0.52487147 1.6650001
-0.20614289 0.52487153 1.6650003
0.017216329 0.52464497 1.6650001
-0.21375427 0.53660572 1.6650002
-0.2065393 0.53557503 1.6650001
0.019028572 0.53597146 1.6650001
0.022200001 0.53755718 1.6650001
-0.21475102 0.54503268 1.6650001
-0.20772858 0.54548573 1.6650001
0.019028572 0.54390001 1.6650001
0.022992859 0.5462786 1.6650001
-0.21407142 0.55341429 1.6650001
-0.2065393 0.55539644 1.6650001
-0.19821429 0.55817145 1.6650001
0.016914286 0.55500001 1.6650001
0.022200001 0.55182856 1.6650001
-0.21248572 0.5661 1.6650001
-0.20614287 0.56451422 1.6650001
-0.19821429 0.56451434 1.6650001
0.015857143 0.5661 1.6650001
-0.20614287 0.57402855 1.6650001
-0.19821429 0.57402855 1.6650001
0.018235715 0.57323575 1.6650001
0.022200001 0.5772 1.6650001
-0.20402859 0.58407146 1.6650001
-0.19844082 0.58444899 1.6650001
0.019028572 0.58459997 1.6650001
-0.20297143 0.59305716 1.6650001
-0.19789715 0.59559429 1.6650002
0.017442858 0.5962286 1.6650001
-0.1926643 0.60653573 1.6650001
0.015328572 0.60574287 1.6650001
-0.19107859 0.61446428 1.6650001
-0.1871143 0.61525714 1.6650001
0.017442858 0.61367148 1.6650001
-0.19107859 0.62397861 1.6650001
-0.1871143 0.62477148 1.6650001
0.019028572 0.62477148 1.6650001
0.022200001 0.6263572 1.6650001
-0.19028573 0.63428575 1.6650001
-0.1871143 0.63428575 1.6650001
0.019028572 0.63270003 1.6650001
0.023257144 0.63428575 1.6650001
-0.19028573 0.64380002 1.6650001
-0.19028573 0.65172863 1.6650001
-0.16808572 0.66600001 1.6650001
0.03186667 0.047800001 1.6730001
-0.29317334 0.057360001 1.6730001
-0.28998667 0.057360001 1.6730001
-0.27564669 0.057360001 1.6730001
0.017526668 0.05098667 1.6730001
0.02868 0.05098667 1.6730001
0.035053335 0.052580003 1.6730001
0.043020003 0.054173335 1.6730001
-0.29636002 0.063733339 1.6730002
-0.28644595 0.063025191 1.6730002
-0.27469069 0.061821334 1.6730001
0.047800001 0.063733339 1.673
0.05098667 0.065326676 1.6730001
-0.30273333 0.074886665 1.6730001
-0.29604134 0.073930673 1.6730001
-0.28918999 0.076480001 1.6730001
0.047800001 0.074886672 1.6730001
-0.28520668 0.086040013 1.6730002
0.047800001 0.086040013 1.673
0.050986666 0.086040013 1.673
-0.27325666 0.093210004 1.6730001
0.047003336 0.09639667 1.6730001
0.05098667 0.092413336 1.6730001
-0.26449335 0.10516001 1.673
0.043338668 0.10579734 1.6730001
-0.27405334 0.11790667 1.673
-0.2660867 0.11312667 1.6730001
0.043020003 0.11471999 1.6730001
-0.28456935 0.12491734 1.6730001
-0.27724001 0.12109334 1.6730001
0.042488892 0.12428001 1.673
-0.29317334 0.13383999 1.6730001
-0.2868 0.13384001 1.6730001
0.042223338 0.13463667 1.6730001
-0.29499429 0.14658667 1.6730002
-0.28759667 0.14419666 1.6730001
-0.27564669 0.14818001 1.6730001
0.038240001 0.14658667 1.673
0.04142667 0.14499334 1.6730001
-0.29715669 0.15853667 1.6730001
-0.28520668 0.15614666 1.6730002
-0.27564666 0.15614668 1.6730002
0.038240001 0.15614666 1.673
0.04142667 0.15614666 1.673
-0.29508537 0.16506934 1.6730001
-0.28564122 0.16541697 1.6730002
0.038240001 0.16730002 1.6730001
0.04142667 0.16570668 1.673
-0.29444799 0.17590401 1.6730001
-0.28520668 0.17526668 1.6730002
0.038240001 0.17686 1.6730001
0.042223338 0.17447001 1.6730001
-0.29317334 0.18323335 1.6730001
-0.28520668 0.18482666 1.6730002
-0.27644333 0.18562335 1.6730001
0.038240001 0.18482667 1.673
0.04142667 0.18323335 1.6730001
-0.28396741 0.19367853 1.6730002
-0.27564666 0.19438666 1.6730002
0.038240001 0.19438666 1.673
-0.28122336 0.20315 1.6730001
-0.27405334 0.20394666 1.6730002
0.038240001 0.20394666 1.673
-0.28042668 0.21032001 1.6730001
-0.27341598 0.21446267 1.6730001
0.03760267 0.21414402 1.6730001
-0.27245998 0.22625335 1.6730002
0.038240001 0.22625333 1.673
-0.27192888 0.23368889 1.673
0.038240001 0.23581333 1.673
-0.26768002 0.24537335 1.673
0.037443332 0.24617001 1.6730001
0.04142667 0.24218668 1.6730001
-0.2666178 0.25387111 1.673
0.035963811 0.25538856 1.6730002
-0.27086666 0.26768002 1.6730001
-0.26768002 0.26130667 1.6730001
0.033141337 0.26449335 1.6730001
-0.27086666 0.27086666 1.6730001
-0.26768002 0.27405334 1.6730001
0.034522224 0.27405334 1.6730002
-0.27166334 0.28759667 1.6730001
-0.26768002 0.28042668 1.6730001
0.034256667 0.28281671 1.6730001
-0.27314284 0.29590479 1.6730002
0.032928891 0.29848447 1.673
-0.27192888 0.30379555 1.673
0.028680002 0.30592 1.673
0.032663338 0.30512333 1.6730001
-0.26768002 0.31548002 1.673
0.028680002 0.31547999 1.673
0.032928891 0.31441781 1.673
-0.2660867 0.32504001 1.6730002
0.027617777 0.32504001 1.673
-0.26396224 0.3346 1.6730002
0.025493333 0.3346 1.673
-0.26258135 0.3435227 1.6730001
-0.25732332 0.3449567 1.6730001
0.024431115 0.34415999 1.673
-0.26210335 0.35372001 1.6730001
-0.25652668 0.35371998 1.6730002
0.022306668 0.35372001 1.6730001
-0.26236889 0.36381114 1.6730002
-0.25522307 0.3653079 1.6730002
-0.24856001 0.36805999 1.6730001
0.0239 0.36646667 1.6730002
-0.25413668 0.37363669 1.6730001
-0.24856001 0.37602666 1.673
0.027405333 0.37602669 1.6730001
-0.25174668 0.38877335 1.6730001
-0.24856001 0.38558665 1.673
0.027086668 0.38558671 1.6730002
-0.25174668 0.3951467 1.673
-0.24856001 0.3951467 1.673
0.023900002 0.3951467 1.6730002
-0.25493336 0.40470672 1.6730002
-0.24856001 0.40470672 1.673
0.023103334 0.40391004 1.6730001
-0.25652668 0.41267335 1.6730001
-0.24696667 0.41267335 1.6730001
0.023581335 0.41490397 1.6730001
-0.24218668 0.42382669 1.673
-0.23900001 0.42542002 1.6730001
0.024856001 0.42318934 1.6730001
0.03186667 0.42701334 1.6730001
-0.24218668 0.43976003 1.6730001
-0.23900001 0.43338668 1.673
0.027086668 0.43498001 1.6730001
-0.24218668 0.44613335 1.6730001
0.025493333 0.44613335 1.673
-0.24218668 0.45569333 1.673
0.026290003 0.45649001 1.6730001
-0.24218668 0.46525335 1.6730001
-0.23900001 0.4668467 1.6730001
0.02868 0.46366 1.6730001
-0.23581333 0.47481337 1.6730002
0.028680002 0.47481334 1.673
-0.23262668 0.48437333 1.6730001
-0.22944 0.48278004 1.6730001
0.028680002 0.48437336 1.673
-0.23422001 0.49393335 1.6730002
0.027086668 0.49393335 1.6730002
-0.24856001 0.50030667 1.6730001
-0.23475111 0.5056178 1.6730002
0.02469667 0.50508666 1.6730001
-0.22625335 0.51624006 1.6730002
-0.21988001 0.51783335 1.6730001
0.01912 0.51305336 1.6730001
0.022306668 0.51624 1.673
-0.22466001 0.52261335 1.6730001
-0.21988003 0.52579999 1.673
0.01912 0.52898669 1.6730001
0.023581335 0.52516264 1.6730001
-0.22306667 0.53854668 1.6730001
-0.21908335 0.53536004 1.6730001
0.024962224 0.53536004 1.6730002
-0.22306667 0.54491997 1.673
-0.21988001 0.54491997 1.6730001
0.026289999 0.54412329 1.6730001
-0.22306667 0.55448002 1.673
-0.21988003 0.55448002 1.673
0.01912 0.55766666 1.6730001
0.024431115 0.55660444 1.673
-0.21669337 0.56358486 1.6730002
0.01912 0.56404001 1.673
0.022306668 0.56404001 1.673
-0.21633926 0.57572442 1.6730002
0.01912 0.57041335 1.6730001
0.023581335 0.5748747 1.6730001
-0.21111667 0.58555001 1.6730001
-0.20713334 0.58953333 1.6730001
0.023581335 0.58698398 1.6730001
-0.21032001 0.59590673 1.6730001
-0.20633668 0.59670335 1.6730001
0.023900002 0.59590667 1.6730002
-0.21032001 0.60546666 1.6730001
-0.20394666 0.60546672 1.6730002
-0.19757333 0.60706002 1.6730001
0.01912 0.60546672 1.6730001
0.022306668 0.60546666 1.673
-0.20354836 0.61462831 1.6730002
-0.19677667 0.61582339 1.6730001
0.01912 0.61184001 1.6730001
0.025038095 0.61593717 1.6730002
-0.20288445 0.62352449 1.673
-0.19629867 0.6245867 1.6730001
0.01912 0.6214 1.6730001
0.023368889 0.6245867 1.673
-0.19518334 0.63335001 1.6730001
0.026290003 0.63335001 1.6730001
-0.19438668 0.64370668 1.673
0.02868 0.64052004 1.6730001
0.03186667 0.64052004 1.6730001
-0.19438668 0.65167332 1.6730001
0.036821909 0.048028573 1.6810001
0.041624762 0.048028573 1.6810001
-0.25295049 0.057634287 1.6810001
-0.24974859 0.057634287 1.6810001
0.03842286 0.051230479 1.6810001
0.045893967 0.054432381 1.6810001
0.051230479 0.057634287 1.6810001
-0.3057819 0.06724 1.6810001
0.055347215 0.063580684 1.681
0.060836192 0.064038098 1.6810001
-0.31058478 0.075244769 1.6810001
-0.30658239 0.072843336 1.6810001
0.054432385 0.073643811 1.681
-0.31058478 0.080047622 1.6810001
-0.30326611 0.082792103 1.681
-0.29564255 0.084316827 1.6810001
-0.28817144 0.089653336 1.6810001
0.055499688 0.08431682 1.681
-0.28336859 0.092855245 1.6810001
-0.27536383 0.097658098 1.6810001
0.054832626 0.096457377 1.681
-0.26896 0.10566286 1.6810001
0.048028573 0.10566286 1.6810001
0.051230479 0.10566286 1.6810001
-0.28416905 0.11767001 1.6810001
-0.27536383 0.1144681 1.6810001
0.047228098 0.11606905 1.6810001
0.051230479 0.11526857 1.6810001
-0.29350793 0.12487429 1.6810001
-0.28817144 0.12167238 1.6810001
0.046747811 0.12487429 1.6810001
0.051230479 0.12487429 1.6810001
-0.29670987 0.13448 1.6810001
0.046747811 0.13383962 1.6810001
0.051230479 0.13287905 1.6810001
-0.30097905 0.14568667 1.6810001
-0.29777715 0.14408572 1.6810001
0.046427622 0.14408572 1.6810001
-0.30258 0.15209049 1.6810001
-0.2961762 0.15529239 1.6810001
0.046427622 0.15369143 1.6810001
0.051230479 0.15529239 1.6810001
-0.30311367 0.16329715 1.6810001
-0.29777715 0.16649905 1.6810001
0.046427619 0.16489811 1.681
0.05187086 0.16585867 1.6810001
-0.30204633 0.17717206 1.6810001
-0.29777715 0.17290287 1.6810001
0.046747811 0.17674515 1.6810001
0.051230479 0.17610477 1.6810001
-0.29670987 0.18571049 1.6810001
0.044826664 0.18571049 1.6810001
0.051230479 0.18250857 1.6810001
-0.29297429 0.19371524 1.6810001
-0.28817144 0.1985181 1.6810001
0.043225717 0.1953162 1.6810001
-0.28603685 0.20492192 1.6810001
0.042905528 0.20492192 1.6810001
-0.28336859 0.21612857 1.6810001
-0.27856573 0.21772954 1.6810001
0.042905524 0.21388724 1.6810001
-0.2825681 0.2249338 1.6810001
-0.27856573 0.22413333 1.6810001
0.042425238 0.22333285 1.6810001
-0.28336859 0.23053715 1.6810001
-0.27696478 0.23373905 1.6810001
0.041624762 0.23373906 1.6810001
-0.2721619 0.24174382 1.6810001
0.043225717 0.246013 1.6810001
-0.2721619 0.25935429 1.6810001
0.043225717 0.25615239 1.6810001
-0.2721619 0.26415715 1.6810001
0.037622385 0.2657581 1.6810001
0.041624762 0.2657581 1.6810001
-0.28176764 0.2721619 1.6810001
-0.27536383 0.27536383 1.681
0.03842286 0.27376288 1.6810001
0.044186287 0.27664459 1.6810001
-0.27589747 0.28496954 1.6810001
0.03842286 0.28496954 1.6810001
0.041624762 0.28176764 1.6810001
-0.28176764 0.29457524 1.6810001
-0.27856573 0.29457524 1.6810001
0.036821906 0.29457524 1.6810001
-0.27749845 0.30418098 1.6810001
0.037622385 0.30498144 1.6810001
-0.2721619 0.31218573 1.6810001
0.037142098 0.31314629 1.6810001
0.041624762 0.31698859 1.6810001
0.028817143 0.3297962 1.6810001
0.034153651 0.32445967 1.681
-0.26896 0.33780098 1.6810001
0.028817141 0.3362 1.6810001
0.032019049 0.3362 1.6810001
-0.26815951 0.34660619 1.6810001
0.028016668 0.34660619 1.6810001
0.032019049 0.34580573 1.6810001
-0.26767924 0.35541147 1.6810001
0.02721619 0.35541144 1.6810001
0.032819524 0.35461098 1.6810001
-0.26815951 0.36581761 1.6810001
0.02721619 0.36501715 1.6810001
0.033299811 0.36437675 1.6810001
-0.26615834 0.37502313 1.681
-0.25775334 0.37782478 1.6810001
0.032819524 0.37542334 1.6810001
-0.2657581 0.38382837 1.681
-0.25575215 0.38382837 1.681
0.03362 0.38422859 1.6810001
-0.2657581 0.39383432 1.6810001
-0.25695288 0.39463478 1.6810001
0.028817143 0.39543524 1.6810001
0.034306124 0.39337689 1.681
-0.27376288 0.40344003 1.6810001
-0.26575807 0.40504095 1.6809999
-0.25775334 0.4002381 1.6810001
0.027749844 0.40610826 1.6810001
0.033086348 0.40397367 1.6810001
-0.26535785 0.41584736 1.681
-0.25487167 0.41752839 1.6810001
-0.24814764 0.41944954 1.6810001
0.028016668 0.41544718 1.6810001
0.033299811 0.41688806 1.6810001
-0.2625562 0.42265144 1.6810001
-0.24734716 0.42505285 1.6810001
0.028817143 0.42425239 1.6810001
0.034687303 0.42585334 1.6810001
-0.24414524 0.43465859 1.6810001
0.028817143 0.43866098 1.6810001
0.03362 0.43545905 1.6810001
-0.2457462 0.44586527 1.6810001
0.028817141 0.44506478 1.6810001
0.032019049 0.44186288 1.6810001
-0.25295049 0.45467049 1.6810001
-0.24814762 0.45467052 1.6810001
0.028817141 0.45467052 1.6810001
0.032019049 0.45787239 1.6810001
-0.25295049 0.46107429 1.6810001
-0.24708033 0.46427622 1.6810001
0.032819524 0.46507671 1.6810001
-0.2457462 0.47308144 1.6810001
0.033299811 0.47324157 1.6810001
-0.24078324 0.48412806 1.6810001
-0.23614049 0.48668954 1.6810001
0.032019049 0.48455492 1.6810001
-0.25295049 0.49949718 1.6810001
-0.24430534 0.49693567 1.681
-0.25295049 0.50590104 1.6810001
-0.24450909 0.50619197 1.6809999
0.028817141 0.50590092 1.6810001
0.03362 0.50910288 1.6810001
-0.24441205 0.5151509 1.681
-0.23534001 0.51710761 1.6810001
0.027216194 0.51550668 1.6810001
0.032019049 0.51550668 1.6810001
-0.23373905 0.52511239 1.681
-0.22573429 0.52831429 1.6810001
0.028016668 0.5243119 1.6810001
0.032019049 0.52511239 1.6810001
-0.23282422 0.53426069 1.681
-0.22573429 0.5347181 1.6810001
0.028016668 0.53391761 1.6810001
0.032019049 0.5347181 1.6810001
-0.23328163 0.54523867 1.681
-0.22733526 0.5443238 1.6810001
0.028817143 0.54752576 1.6810001
0.032019049 0.54432386 1.6810001
-0.23293859 0.55152816 1.6810001
-0.22733526 0.55392957 1.6810001
0.028817141 0.55392957 1.6810001
0.033086348 0.55179495 1.6810001
-0.22504817 0.5658223 1.681
0.027444901 0.5658223 1.681
-0.22333285 0.57554245 1.6810001
0.027536383 0.57634288 1.6810001
-0.22306603 0.58648223 1.6810001
-0.21666224 0.58808321 1.6810001
0.028016668 0.58594859 1.6810001
0.032019049 0.58594859 1.6810001
-0.22413333 0.59555429 1.681
-0.21506129 0.59555429 1.6810001
0.028817141 0.59555429 1.6810001
0.032019049 0.59395337 1.6810001
-0.22367592 0.60607487 1.681
-0.21506129 0.60516 1.6810001
0.027536383 0.60580039 1.6810001
-0.22199874 0.61263114 1.6810001
-0.21412739 0.61436552 1.681
0.02721619 0.61316478 1.6810001
0.032019049 0.61796767 1.6810001
-0.21132572 0.62437147 1.6810001
-0.20652287 0.62437147 1.6810001
0.027216192 0.62597245 1.6810001
-0.21132572 0.63077527 1.6810001
-0.20385462 0.63290983 1.6810001
-0.1985181 0.63717908 1.6810001
0.028817143 0.63397717 1.6810001
0.032019049 0.63397717 1.6810001
-0.23053715 0.64358288 1.6810001
-0.22733524 0.64358288 1.6810001
-0.20172001 0.64038098 1.6810001
-0.1985181 0.6451838 1.6810001
0.028817143 0.64038098 1.6810001
0.03362 0.64198196 1.6810001
-0.1985181 0.65478957 1.6810001
0.046676192 0.048285715 1.6900001
0.051748574 0.048514288 1.6980001
-0.34445143 0.058217146 1.6980001
-0.33960003 0.058217146 1.6980001
-0.2575238 0.05794286 1.6900001
-0.24257144 0.058217146 1.6980001
-0.23933715 0.058217146 1.6980001
0.046676192 0.051504765 1.6900001
0.054758642 0.054758642 1.691143
0.064602993 0.055830747 1.6957142
0.071154289 0.05498286 1.6980001
-0.34445143 0.06468571 1.6980001
-0.33682775 0.065609798 1.6980001
-0.32601601 0.067273147 1.6980002
-0.31351456 0.06464 1.6968572
-0.30653334 0.062916189 1.694
0.064823329 0.064420953 1.6910002
0.071154289 0.061451431 1.6980001
-0.34445143 0.07277143 1.6980001
-0.3363657 0.074388571 1.6980001
-0.32632425 0.074308999 1.6962223
-0.3163864 0.073578238 1.6900003
0.064416513 0.074075349 1.6908891
0.071154289 0.076005712 1.6980001
-0.33474857 0.082474284 1.6980001
-0.3260681 0.083639525 1.697
-0.31586906 0.084097624 1.6900003
-0.3090286 0.085304767 1.6900001
0.06445206 0.083784975 1.6917779
0.071154289 0.084091432 1.6980001
-0.3201943 0.090560004 1.6980001
-0.31307885 0.091853715 1.6980002
-0.30432871 0.094071291 1.6945716
-0.2962738 0.093119524 1.6930001
-0.28557554 0.097491153 1.6900003
0.063736714 0.093806557 1.6917779
0.071154289 0.092177145 1.6980001
-0.30143541 0.104144 1.6980002
-0.29432002 0.10511429 1.6980001
-0.28402627 0.10650625 1.6944444
-0.27522856 0.10622858 1.6900002
0.056333337 0.10622858 1.6900002
0.063804768 0.10499048 1.6960001
-0.33313143 0.11966857 1.6980001
-0.32669717 0.11814934 1.6948
-0.31372571 0.11966857 1.6980001
-0.30356082 0.11735838 1.6980001
-0.29547238 0.11624635 1.6953335
-0.28595874 0.11373969 1.6900002
-0.27361906 0.11266667 1.6900001
0.056333337 0.11588573 1.6900002
0.062187623 0.11549238 1.696
-0.32491872 0.12608889 1.6973333
-0.31375855 0.12599048 1.6960001
-0.30509442 0.12562558 1.691143
-0.2985667 0.1247381 1.6900001
0.056333333 0.12554286 1.6900002
0.061451431 0.12613715 1.6980001
-0.33636573 0.13260572 1.6980001
-0.32435268 0.13399185 1.6980001
-0.31372571 0.13584 1.6980001
-0.30468002 0.13541333 1.6926666
-0.29937145 0.13520001 1.6900001
0.05564354 0.13565986 1.6900003
0.062260006 0.13584 1.6980001
-0.3201943 0.14877714 1.6980001
-0.31280163 0.1460049 1.6980001
-0.30500478 0.14405239 1.6900001
-0.29937145 0.1416381 1.6900001
0.054723814 0.14485715 1.6900003
0.061451431 0.14554286 1.6980001
-0.31243199 0.15589258 1.6980002
-0.30736509 0.15476318 1.6926666
0.05564354 0.15405442 1.6900003
0.062629335 0.15559696 1.6948
-0.32342854 0.16656572 1.6980001
-0.31422749 0.16426232 1.6957142
-0.30795559 0.16631746 1.6900001
0.056333337 0.16417143 1.6900002
0.061451431 0.16494857 1.6980001
-0.32407543 0.17465143 1.6980002
-0.31435493 0.17410032 1.6926666
-0.30626941 0.17290886 1.6900003
0.056655239 0.17447238 1.6900002
0.062260002 0.17384285 1.6980001
-0.32342857 0.18192858 1.6980001
-0.3140184 0.18421209 1.6966667
-0.30623302 0.18406986 1.6953335
0.048285715 0.18831429 1.6900001
0.055395048 0.18582439 1.6908003
0.061451431 0.18435431 1.6980001
-0.3201943 0.19729143 1.6980001
-0.31291714 0.1956743 1.6980001
-0.30442718 0.19365285 1.6980001
-0.2967962 0.19829334 1.6900002
0.048285712 0.1963619 1.6900001
0.054355714 0.19607572 1.6910002
0.061451431 0.19405715 1.6980001
-0.32296655 0.20468409 1.6980001
-0.31469464 0.20572869 1.6935556
-0.30585399 0.20497906 1.6962223
-0.29550856 0.20408764 1.6900002
-0.28971431 0.20762858 1.6900001
0.047480956 0.20601906 1.6900001
0.05478476 0.20515768 1.6917779
0.062260002 0.20456858 1.6980001
-0.3240166 0.21463896 1.6980001
-0.31422529 0.21687186 1.6957144
-0.30471006 0.21431534 1.6949233
-0.29585654 0.21516359 1.6944444
-0.28890955 0.21487144 1.6900001
0.047480956 0.21648096 1.6900001
0.055155434 0.2154377 1.6932001
0.061451431 0.21508001 1.6980001
-0.3201943 0.22478285 1.6980001
-0.31372574 0.2264 1.6980001
-0.30354542 0.22604448 1.6953332
-0.29547492 0.22604191 1.6953334
-0.2884267 0.22468953 1.6900002
0.046998098 0.22597715 1.6900002
0.054899894 0.22604783 1.6953332
0.061451431 0.22316572 1.6980001
-0.30309877 0.23564079 1.6980001
-0.29484791 0.23624925 1.6957144
-0.28488573 0.23579524 1.6900003
0.046676192 0.23499049 1.6900002
0.053042285 0.23610286 1.6980002
-0.29216382 0.24364953 1.6980001
-0.28432089 0.24555176 1.6962223
-0.27636096 0.24574572 1.692
0.047480956 0.24384287 1.6900001
0.053042285 0.24515887 1.6980002
-0.28219146 0.25631714 1.6980001
-0.27588382 0.25490668 1.6940001
0.048285712 0.25430477 1.6900001
0.051667303 0.25510225 1.6953334
-0.31049144 0.26844573 1.6980001
-0.30564001 0.26844573 1.6980001
-0.29108572 0.26197717 1.6980001
-0.28331432 0.26485664 1.6957144
-0.27683809 0.26396191 1.6900001
0.046998102 0.2646057 1.6900002
0.051748574 0.26521143 1.6980001
-0.31280163 0.27491429 1.6980001
-0.30402288 0.27491432 1.6980001
-0.29485905 0.27491429 1.6980001
-0.28595647 0.27444461 1.6922858
-0.27683809 0.27040002 1.6900001
0.046139687 0.27361906 1.6900002
0.051748574 0.27329713 1.6980001
-0.30402288 0.28138286 1.6980001
-0.29339594 0.2841551 1.6980001
-0.28393522 0.28393358 1.6917779
0.045469049 0.28689763 1.6900003
0.052786034 0.28492764 1.6966667
-0.29237944 0.29367313 1.6980002
-0.2868343 0.29488572 1.692
0.044721432 0.29609859 1.6920002
0.053365715 0.29512855 1.6980001
-0.29302627 0.3053166 1.6980002
-0.28446251 0.30574173 1.6931999
0.045142855 0.30521399 1.6926668
0.053365719 0.30402288 1.6980001
-0.30402288 0.31534287 1.6980001
-0.29432002 0.31372574 1.6980001
-0.28485572 0.31394523 1.697
-0.27603331 0.31627145 1.6900001
0.045526192 0.31422475 1.6920002
0.053042285 0.31307888 1.6980002
-0.30402288 0.3201943 1.6980001
-0.29108572 0.3201943 1.6980001
-0.28432313 0.32460469 1.6980001
-0.27588382 0.32589331 1.6939999
0.038628574 0.32673335 1.6900001
0.045479998 0.32509258 1.6932001
0.051748574 0.32666287 1.6980001
-0.28369308 0.33682778 1.6980001
-0.27544698 0.33504257 1.6913334
0.037340958 0.33542475 1.6900002
0.045212276 0.33584085 1.6953334
0.051748574 0.33313143 1.6980001
-0.29216382 0.34499049 1.6980001
-0.28387725 0.34516105 1.6935556
-0.27522859 0.34443811 1.6900002
0.037049528 0.34471241 1.6913334
0.044850953 0.34546241 1.697
-0.29237944 0.35512459 1.6980002
-0.28402457 0.35502985 1.6944444
-0.27544698 0.35437715 1.6913334
0.037340958 0.35409528 1.6900002
0.044826191 0.35575479 1.6960001
-0.28267655 0.36482745 1.6980002
-0.27588382 0.36461332 1.6940001
0.037823815 0.36294764 1.6900001
0.043563813 0.36461332 1.6939999
-0.28299999 0.37517715 1.6980001
-0.27522856 0.37501907 1.6900003
0.03724898 0.3743293 1.6900003
0.044836361 0.37506217 1.6921821
0.051748574 0.37517715 1.6980001
-0.28179559 0.38665593 1.6939999
-0.27522856 0.38628569 1.6900002
-0.26396191 0.38950479 1.6900001
0.038628574 0.38628569 1.6900001
0.045142855 0.38581717 1.6926668
0.051748574 0.38326287 1.6980001
-0.28241146 0.39679238 1.6964
-0.2756654 0.39656508 1.6926666
-0.26460573 0.39529905 1.6900002
0.038628574 0.39755237 1.6900001
0.045142855 0.39548951 1.6926668
0.051748574 0.39458287 1.6980001
-0.28293335 0.40503892 1.6934286
-0.27522856 0.40560001 1.6900001
0.037823815 0.40640476 1.6900001
0.045142859 0.40516192 1.6926668
0.051748574 0.40590286 1.6980001
-0.28266859 0.41350096 1.696
-0.27588001 0.4146305 1.694
0.037340958 0.41461334 1.6900002
0.045152381 0.41437906 1.6930001
0.051748574 0.41398859 1.6980001
-0.27448761 0.42248449 1.6953334
-0.26396191 0.42684573 1.6900002
-0.25494856 0.42684573 1.6900002
0.038628574 0.42491433 1.6900001
0.044801429 0.42374575 1.6950002
-0.27168 0.43016002 1.6980001
-0.26449668 0.43571386 1.696
-0.25430477 0.43457142 1.6900003
-0.24786668 0.43779048 1.6900001
0.038628574 0.43618095 1.6900001
0.04362984 0.4352102 1.6966667
-0.2635943 0.44633141 1.6980001
-0.25430477 0.44422856 1.6900003
-0.24786668 0.44100955 1.6900001
0.036513019 0.44565463 1.6913334
0.042854287 0.44552287 1.6980001
-0.27168 0.45765144 1.6980001
-0.26507431 0.45579386 1.6971111
-0.25537777 0.45281276 1.6900002
0.035470478 0.45460191 1.6926668
0.042045716 0.4592686 1.6980001
-0.27136001 0.46679813 1.696
-0.26448637 0.46606541 1.6933335
-0.25551188 0.46595713 1.6900003
0.03724898 0.46446261 1.6900003
0.042652953 0.46723279 1.6964
-0.27265716 0.47592953 1.6940001
-0.26396191 0.47641909 1.6900003
-0.25470716 0.47682142 1.6900003
-0.24786668 0.4780286 1.6900001
0.037823815 0.47722381 1.6900001
0.043907054 0.47518784 1.6948
-0.27233145 0.48438096 1.6953334
-0.26458669 0.48561716 1.6939999
-0.25430477 0.48607621 1.6900003
-0.24657905 0.48672003 1.6900002
0.03597651 0.4864597 1.6913334
0.042854287 0.48433429 1.6980001
-0.27168 0.49484575 1.6980001
-0.26451772 0.49478859 1.6955999
-0.25470716 0.49533096 1.6900003
-0.24679367 0.49358734 1.6900001
0.035947759 0.49535295 1.6934286
0.042045716 0.49484572 1.6980001
-0.27168 0.50293148 1.6980001
-0.26483962 0.50544649 1.6956002
-0.2575238 0.50539047 1.6900001
0.035767272 0.50508296 1.6929092
0.042045716 0.50454861 1.6980001
-0.27168 0.5158686 1.6980001
-0.26496384 0.51378667 1.6934286
-0.25537777 0.51612061 1.6900002
-0.24142858 0.51826668 1.6900001
0.037340954 0.5156914 1.6900002
0.044789664 0.51482946 1.6968572
0.051748574 0.51425147 1.6980001
-0.27168 0.52395433 1.6980001
-0.26521146 0.52395433 1.6980001
-0.25384492 0.52378505 1.6900003
-0.24464764 0.52631426 1.6900002
0.036770288 0.52505147 1.6931999
0.044201907 0.5228762 1.6980001
-0.26413336 0.532579 1.6980001
-0.25511238 0.5338921 1.6953335
-0.24464764 0.5343619 1.6900003
-0.23820953 0.53436196 1.6900001
0.037110478 0.53400952 1.6939999
0.043662861 0.53365713 1.6980001
-0.26197717 0.54012573 1.6980001
-0.25569457 0.54518265 1.6972728
-0.24516572 0.54516029 1.6935556
-0.23713653 0.54294604 1.6900001
0.037353475 0.54456657 1.6945716
0.042045716 0.54659432 1.6980001
-0.26197717 0.55629718 1.6980001
-0.25511065 0.55542523 1.6953335
-0.24464764 0.55367619 1.6900003
-0.23660001 0.55689526 1.6900001
0.037377529 0.55419737 1.6916001
0.041946668 0.55336952 1.694
-0.26197717 0.56600004 1.6980001
-0.25537652 0.56570542 1.6971111
-0.24464764 0.56333339 1.6900003
-0.23499048 0.5649429 1.6900004
-0.22855239 0.56977147 1.6900001
0.03513943 0.56478024 1.6924002
0.042045716 0.56438291 1.6980001
-0.26197717 0.57570291 1.6980001
-0.25550857 0.57570291 1.6980001
-0.24580574 0.57570291 1.6980001
-0.23501171 0.57645661 1.6934286
-0.22855239 0.57781911 1.6900001
0.035514668 0.57622749 1.6948
0.042045716 0.57570291 1.6980001
-0.26197717 0.58378857 1.6980001
-0.25550857 0.58540571 1.6980001
-0.24580571 0.58540577 1.6980001
-0.23573716 0.58555943 1.6953332
-0.22774762 0.58667147 1.6900001
0.035880476 0.58569384 1.6930001
0.042045716 0.58540577 1.6980001
-0.2551043 0.59470433 1.6980001
-0.24536803 0.59547198 1.6972001
-0.23548676 0.59486032 1.6914548
-0.22533335 0.59552383 1.6900001
0.037080001 0.59484893 1.6926666
0.042045716 0.59510857 1.6980001
-0.25356799 0.6041646 1.6980002
-0.24606717 0.60485959 1.697
-0.2345881 0.60477865 1.6900003
-0.22640635 0.60410792 1.6900001
-0.21889524 0.60518098 1.6900001
0.035470475 0.60505778 1.6926668
-0.2522743 0.61128002 1.6980001
-0.24567874 0.61419266 1.6971111
-0.23513144 0.61358857 1.6910002
-0.22747938 0.61698419 1.6900001
0.035749715 0.61448228 1.6908003
0.042045716 0.61451435 1.6980001
-0.24499714 0.62179148 1.6980001
-0.23610285 0.62421715 1.6980001
-0.22533335 0.62449521 1.6900003
-0.21760765 0.62513912 1.6900002
0.035811909 0.6248976 1.6900003
0.042045716 0.62583435 1.6980001
-0.23502477 0.63338095 1.6980001
-0.22502804 0.63366157 1.691143
-0.21659593 0.63461226 1.6900003
-0.2092381 0.63737148 1.6900001
0.035834763 0.63412333 1.6910002
0.041996192 0.63478291 1.696
-0.26521143 0.64524001 1.6980001
-0.25874287 0.64685714 1.6980001
-0.2328686 0.64362288 1.6980001
-0.2268043 0.64402717 1.6980001
-0.21551239 0.64375836 1.6922858
-0.20693877 0.64426947 1.6900003
0.036053337 0.64187807 1.6900002
0.043613333 0.64286101 1.6960001
-0.23610286 0.65009147 1.6980001
-0.2253219 0.65116954 1.6980001
-0.2141097 0.65494287 1.6980002
-0.20431891 0.65483052 1.691143
-0.21022858 0.6630286 1.6980001
-0.2069943 0.6630286 1.6980001
0.056866668 0.048742861 1.7060001
0.064990476 0.048742861 1.706
0.071489528 0.048742861 1.7060001
-0.33632573 0.058491431 1.7060001
-0.32495239 0.058491427 1.706
-0.31682858 0.058491431 1.7060001
0.058491431 0.051992383 1.7060001
0.064990476 0.051992383 1.7060001
0.07343924 0.055241905 1.7060001
-0.35311493 0.066073649 1.7060002
-0.33470097 0.061740953 1.706
-0.32495239 0.06336572 1.7060002
-0.31845334 0.061740953 1.7060001
0.072572701 0.066073649 1.706
-0.36394665 0.074739046 1.7060002
-0.3541981 0.074739046 1.7060002
-0.34607428 0.077988572 1.7060001
0.071489528 0.071489528 1.7060001
-0.36329678 0.082537904 1.7060001
-0.35379192 0.084081426 1.7060002
-0.34444955 0.084487617 1.7060002
-0.33470097 0.087737143 1.706
-0.33307621 0.090986669 1.7060001
-0.32495239 0.093694605 1.7060002
-0.3160162 0.09667334 1.7060001
0.068240002 0.097485721 1.7060001
0.073655881 0.096402548 1.706
-0.32170287 0.10398477 1.7060001
-0.31412062 0.10344318 1.7060002
-0.30740494 0.10463468 1.7060001
0.068240002 0.10560954 1.7060001
0.071489528 0.10398477 1.706
-0.34282479 0.11698286 1.7060001
-0.33632573 0.11698286 1.7060001
-0.32332763 0.11698286 1.7060001
-0.31412062 0.11481652 1.7060002
-0.30708 0.11210857 1.7060001
0.06742762 0.11454572 1.7060001
0.072301909 0.11292095 1.7060001
-0.36069715 0.12673144 1.7060001
-0.3539027 0.12554978 1.7060001
-0.34444952 0.12510668 1.706
-0.33655787 0.12580299 1.7060002
-0.32170287 0.12023239 1.7060001
0.066615231 0.12510666 1.7060002
-0.3541981 0.13647999 1.7060002
-0.34444955 0.13647999 1.7060002
-0.33470097 0.13539682 1.706
-0.32495239 0.13972953 1.706
0.066940188 0.13648 1.7060001
0.071489528 0.13648 1.7060001
-0.35224837 0.14557867 1.7060001
-0.34444952 0.14576435 1.7060002
-0.33145145 0.14785334 1.7060001
-0.32535857 0.14582238 1.7060002
-0.31845334 0.14460382 1.7060001
0.066290282 0.14557867 1.7060001
-0.35094857 0.15272762 1.7060001
-0.34444955 0.15597714 1.7060002
-0.33415937 0.15543555 1.7060002
-0.32495239 0.15597714 1.7060002
-0.31845334 0.15597714 1.706
0.067156829 0.15597714 1.706
-0.35094857 0.16897525 1.7060001
-0.34444958 0.16572572 1.7060002
-0.33470097 0.16572572 1.7060002
-0.32495239 0.1624762 1.706
0.066615231 0.16572572 1.7060002
-0.35094857 0.17222477 1.7060001
-0.34444955 0.17547429 1.7060002
-0.33510715 0.17547429 1.7060002
0.066615239 0.17547429 1.7060001
-0.34352112 0.18475865 1.7060002
-0.33470097 0.18522286 1.7060002
-0.32495239 0.18717258 1.7060001
-0.31520382 0.18684763 1.7060001
0.066290282 0.18587276 1.7060001
-0.34282479 0.19172192 1.7060001
-0.3379505 0.19172192 1.7060001
-0.32820192 0.19822095 1.7060001
-0.31585371 0.19367163 1.7060001
0.066615231 0.19497144 1.7060002
-0.33307621 0.20634477 1.7060001
-0.32820192 0.20147048 1.7060001
-0.31357905 0.20147048 1.7060001
0.066940188 0.20407009 1.7060001
-0.33340114 0.21511848 1.7060001
0.064990476 0.21284382 1.7060001
-0.33307621 0.22096762 1.7060001
-0.32690209 0.22486706 1.7060001
0.063365713 0.22584191 1.7060001
-0.32430249 0.23201601 1.7060001
-0.31455392 0.23526554 1.7060001
-0.30870476 0.23721525 1.7060001
0.057408255 0.23613207 1.706
0.061740953 0.23234096 1.7060001
-0.31195429 0.24046478 1.7060001
-0.30464286 0.2437143 1.7060001
-0.29787305 0.24588065 1.706
0.058491431 0.24208954 1.7060001
0.061740953 0.24371429 1.7060001
-0.30220571 0.25508761 1.7060001
-0.294314 0.25439131 1.7060002
-0.28790784 0.25606251 1.7060001
0.055241905 0.25183812 1.7060001
-0.3238692 0.26754415 1.7060002
-0.31560999 0.26605475 1.7060002
-0.30499101 0.26553252 1.7060002
-0.29611287 0.26686716 1.7060002
-0.28920764 0.26646096 1.7060001
0.055241905 0.26971048 1.7060001
-0.32454619 0.27661571 1.7060002
-0.31845334 0.27620953 1.7060001
-0.29895622 0.27296001 1.7060001
-0.28920764 0.27296001 1.7060001
0.055241905 0.27750936 1.7060001
-0.32495239 0.28595811 1.7060002
-0.31520379 0.28595814 1.7060002
-0.30545524 0.28758287 1.7060002
-0.29895622 0.28758287 1.7060001
0.05767905 0.28677049 1.7060001
0.061740953 0.28433335 1.7060001
-0.32495242 0.29570669 1.7060002
-0.31520379 0.29570669 1.7060002
-0.30545527 0.29570669 1.7060002
-0.29814383 0.29651907 1.7060001
0.05767905 0.29570669 1.7060001
0.061740953 0.29570669 1.7060001
-0.32414001 0.30301809 1.7060001
-0.31520382 0.30545524 1.7060002
-0.30545524 0.30545527 1.7060002
-0.29733145 0.30383047 1.7060001
0.058491427 0.30545524 1.706
0.061740953 0.30220571 1.7060001
-0.32170287 0.31520382 1.706
-0.31520382 0.31520379 1.7060002
-0.30545524 0.31195429 1.706
0.056866668 0.31845334 1.7060001
-0.32170287 0.32495239 1.706
-0.31520382 0.32495239 1.7060002
-0.30545524 0.32535857 1.7060002
-0.29611287 0.32535857 1.7060002
0.053942095 0.32430249 1.7060001
-0.32170287 0.33145145 1.7060001
-0.31520382 0.3342948 1.7060002
-0.30545524 0.334701 1.7060002
-0.29570666 0.33470094 1.7060002
-0.28920764 0.33470097 1.706
0.053617142 0.33388859 1.7060001
-0.31520382 0.34282479 1.7060001
-0.30545524 0.34444952 1.7060002
-0.29678985 0.34336638 1.7060002
0.053617146 0.34444952 1.7060002
-0.30301809 0.35338572 1.7060001
-0.29700652 0.3528983 1.7060001
0.048742861 0.35257334 1.7060001
0.052804764 0.35501048 1.7060001
-0.29516509 0.36394668 1.7060002
-0.28920764 0.36557144 1.7060001
0.048742861 0.36557144 1.7060001
0.051992383 0.36394668 1.706
-0.29408193 0.37369525 1.7060002
-0.28839526 0.37288287 1.7060001
0.048742861 0.37044573 1.7060001
0.053075556 0.37369525 1.706
-0.29310709 0.38409373 1.7060001
-0.28812447 0.38506857 1.7060002
0.054777689 0.3853007 1.7060002
-0.29245716 0.39319238 1.7060001
-0.28920764 0.39319238 1.7060001
0.053942095 0.39644191 1.7060001
-0.29245716 0.40781525 1.7060001
-0.28920764 0.40619048 1.7060001
0.054429524 0.4053781 1.7060001
-0.29245716 0.4143143 1.7060001
-0.28839526 0.41675144 1.7060001
0.055241901 0.41593906 1.706
-0.28502968 0.42522341 1.7060002
-0.2778343 0.42893717 1.7060001
0.048742861 0.42893717 1.7060001
0.051992383 0.42406288 1.7060001
-0.28595811 0.43218669 1.7060001
-0.27620953 0.43381146 1.7060001
0.047659684 0.43543622 1.706
0.051992383 0.43543622 1.7060001
-0.26971048 0.4451848 1.706
0.047930479 0.44599712 1.7060001
-0.27296001 0.45493335 1.7060001
-0.26971048 0.45168382 1.7060001
0.045899525 0.45533955 1.7060002
-0.28270859 0.46630669 1.7060001
-0.2778343 0.46468189 1.7060002
0.047118098 0.46468195 1.7060002
-0.28270859 0.47443047 1.706
-0.27864668 0.47361809 1.7060001
0.048742861 0.47443047 1.706
0.051992383 0.4744305 1.7060001
-0.27837589 0.48417905 1.706
0.047118098 0.48417908 1.7060001
-0.27620953 0.49392763 1.706
0.045493335 0.49392763 1.706
-0.27620953 0.50205147 1.7060001
0.046305716 0.50448859 1.7060001
0.051992383 0.505301 1.7060001
-0.27296001 0.51179999 1.7060001
0.047118098 0.51179999 1.7060001
0.053075556 0.51667428 1.706
-0.27296001 0.52642286 1.7060001
0.047659684 0.52858919 1.706
0.051992383 0.52317333 1.7060001
-0.27296001 0.53617144 1.706
-0.26862732 0.53833777 1.706
0.048742861 0.53617144 1.706
-0.27296001 0.54429525 1.7060001
-0.26686716 0.54632616 1.7060002
0.044193525 0.54527009 1.7060001
-0.27296001 0.55566859 1.7060001
-0.26738939 0.55520439 1.7060002
0.045493335 0.55566859 1.7060001
-0.27296001 0.56541717 1.706
-0.26808572 0.56541711 1.7060002
0.044410158 0.56541717 1.706
-0.27296001 0.57516575 1.7060001
-0.26808572 0.57516575 1.7060002
0.045493335 0.57597816 1.7060001
-0.27296001 0.58328956 1.7060001
-0.26808572 0.58491427 1.7060002
0.047118098 0.58491433 1.7060002
-0.26605478 0.5942567 1.7060002
0.046305716 0.59547532 1.7060001
-0.26451126 0.60376155 1.7060001
-0.2599619 0.60441142 1.706
0.043868572 0.60441142 1.7060001
-0.26321143 0.61091048 1.7060001
-0.25725397 0.61416 1.7060002
0.043868572 0.61416 1.7060001
-0.25346288 0.62309617 1.7060001
-0.24696381 0.62715811 1.7060001
0.043868572 0.62553334 1.7060001
-0.25021335 0.63040763 1.7060001
-0.24412049 0.63325095 1.7060002
0.046576511 0.63582349 1.706
0.055241905 0.63609427 1.7060001
0.061740953 0.63690668 1.7060001
-0.2526505 0.64746767 1.7060001
-0.24341887 0.6451782 1.7060001
-0.23721525 0.6450305 1.7060001
0.047659684 0.6412394 1.706
0.053075556 0.6412394 1.706
-0.22259238 0.65640384 1.7060001
-0.20309524 0.66940194 1.7060001
-0.19822095 0.66940194 1.7060001
0.058800001 0.045733336 1.715
0.065333337 0.045733336 1.715
0.075133339 0.049000002 1.715
-0.33320001 0.058800001 1.715
-0.32340002 0.055533335 1.715
0.078400001 0.055533335 1.715
0.081666671 0.057166666 1.715
-0.37240002 0.068599999 1.715
-0.36586666 0.067783333 1.715
-0.35769999 0.063700005 1.715
0.07709334 0.065333337 1.7149999
0.081666671 0.065333337 1.715
-0.37370667 0.074480005 1.7149999
0.07676667 0.075133339 1.715
-0.37240002 0.083300002 1.715
-0.36668333 0.087383337 1.715
-0.35933334 0.088200003 1.715
0.07676667 0.084933333 1.715
-0.35280001 0.091466673 1.715
-0.34561336 0.092773333 1.7149999
-0.33646667 0.093644448 1.715
-0.3283 0.098000005 1.715
0.077583335 0.093916669 1.715
-0.32386667 0.10453334 1.715
-0.31686667 0.10780001 1.715
0.07676667 0.10453334 1.715
-0.35541332 0.11629333 1.7149999
-0.34626666 0.11378888 1.715
-0.33728334 0.11351667 1.715
-0.32433337 0.11293335 1.715
-0.31686667 0.11106667 1.715
0.07709334 0.11498667 1.7149999
-0.36368892 0.12413334 1.715
-0.35933334 0.12086667 1.715
0.074725002 0.12454167 1.715
-0.36341667 0.13393334 1.715
-0.33646667 0.1372 1.715
0.075541668 0.133525 1.715
0.081666671 0.1372 1.715
-0.3626 0.14046668 1.715
-0.35933334 0.14536667 1.715
-0.34300002 0.147 1.715
-0.33687502 0.14332502 1.715
0.075133339 0.14373332 1.715
0.081666671 0.14046668 1.715
-0.35700002 0.154 1.715
-0.34953335 0.15026668 1.715
-0.33810002 0.15353334 1.715
0.068599999 0.15190001 1.715
0.075133346 0.15353334 1.715
-0.35636365 0.16452122 1.715
-0.33646667 0.16006668 1.715
0.07326667 0.16426668 1.715
-0.35606667 0.17531113 1.715
0.068599999 0.17966667 1.715
0.072683334 0.17558333 1.715
-0.35280001 0.18620001 1.715
-0.34953335 0.18783334 1.715
0.068599999 0.18293335 1.715
0.071866669 0.18620001 1.715
-0.33483329 0.19600002 1.715
-0.32666668 0.19506668 1.715
0.0735 0.19599999 1.715
-0.34300002 0.20906667 1.715
-0.33483332 0.20253333 1.715
-0.32666668 0.20253333 1.715
0.073500007 0.20580001 1.715
-0.34300002 0.21560001 1.715
-0.33973333 0.21560001 1.715
0.067783333 0.21641669 1.715
0.071866669 0.21560001 1.715
-0.33646667 0.22648889 1.715
0.067293331 0.22540002 1.7149999
0.071866669 0.22540002 1.715
-0.33320001 0.23193334 1.715
-0.32601336 0.23781332 1.7149999
0.066266671 0.23566668 1.715
-0.32503334 0.24173334 1.715
-0.3136 0.24336667 1.715
-0.30706668 0.24826668 1.715
0.058800001 0.24826668 1.715
0.065741673 0.24500002 1.715
0.071866669 0.245 1.715
-0.32340002 0.25806668 1.715
-0.31033334 0.25480002 1.715
-0.30380002 0.25588891 1.715
-0.29726669 0.25643337 1.715
0.057983331 0.25561666 1.715
0.06288334 0.25398335 1.715
-0.33320001 0.26786667 1.715
-0.32612225 0.26351115 1.715
-0.31360003 0.26133335 1.715
-0.30380002 0.26133335 1.715
0.057166666 0.26460001 1.715
-0.33320001 0.27113333 1.715
-0.32993335 0.2744 1.715
0.058800001 0.2744 1.715
0.062066671 0.27603334 1.715
-0.33320001 0.28583336 1.715
0.065333337 0.28420001 1.715
-0.33401665 0.29481667 1.715
0.065333337 0.2944667 1.715
0.071866669 0.294 1.715
-0.33320001 0.30053335 1.715
-0.3283 0.30706668 1.715
0.06587778 0.30379999 1.715
-0.32585004 0.31278336 1.715
0.058800001 0.31523335 1.715
0.063700005 0.31359997 1.715
-0.32666668 0.32503337 1.715
0.058800001 0.32666668 1.715
0.062720001 0.32405335 1.7149999
-0.32612225 0.33755556 1.715
-0.31686667 0.33973333 1.715
0.057983331 0.33728334 1.715
0.062066671 0.33646667 1.715
-0.32340002 0.34545001 1.715
-0.31604999 0.34708333 1.715
0.058800001 0.34626672 1.715
0.062066671 0.34626672 1.715
-0.31294665 0.35410669 1.7149999
-0.30706668 0.35769999 1.715
0.057493336 0.35541335 1.7149999
0.062066671 0.3560667 1.715
-0.3021667 0.36586669 1.715
0.057166666 0.36586666 1.715
-0.30216667 0.37566671 1.715
0.057493336 0.37501335 1.7149999
0.062066671 0.37730002 1.715
-0.30184001 0.38481337 1.7149999
-0.29726669 0.38710004 1.715
0.058800001 0.38383335 1.715
0.062066671 0.38546669 1.715
-0.30053335 0.39363337 1.715
-0.29530668 0.39657336 1.7149999
0.058800001 0.39526668 1.715
0.062066671 0.39526668 1.715
-0.29446667 0.40413335 1.715
0.058800001 0.40506664 1.715
0.062066671 0.4050667 1.715
-0.29726669 0.41486669 1.715
0.058800001 0.41486669 1.715
0.062066671 0.41486669 1.715
-0.29400003 0.4246667 1.7149999
0.057166666 0.42466667 1.715
-0.29318333 0.43365002 1.715
-0.28583336 0.43610001 1.715
-0.27766669 0.43446669 1.715
0.054226674 0.43381339 1.7149999
-0.294 0.44753334 1.715
-0.28746668 0.44426668 1.715
-0.2744 0.44426668 1.715
0.049000002 0.44100001 1.715
0.054600004 0.44473335 1.715
-0.29334667 0.45210671 1.7149999
-0.28583333 0.45488334 1.715
-0.27636001 0.45341334 1.7149999
0.055124998 0.45406666 1.715
-0.2852889 0.46277782 1.715
-0.27766669 0.46060002 1.715
0.055533331 0.46386665 1.715
-0.28746668 0.47366667 1.715
0.055941664 0.47325838 1.715
0.062066671 0.47693336 1.715
-0.28616002 0.48412004 1.7149999
0.049000002 0.48673335 1.715
0.055533335 0.48346668 1.715
0.062066671 0.48346668 1.715
-0.28093335 0.49000001 1.715
0.049000002 0.49490005 1.715
0.055533335 0.49489999 1.715
0.062066671 0.49490002 1.715
-0.28093335 0.50633335 1.715
-0.27766669 0.50960004 1.715
0.049000002 0.50470001 1.715
0.056466669 0.50586671 1.715
0.062066671 0.50633335 1.715
-0.27766669 0.51613337 1.715
0.056622222 0.51504451 1.715
0.062066671 0.51613337 1.715
0.056077778 0.52593333 1.715
0.0546 0.53619999 1.715
0.049000002 0.54716671 1.715
0.053083338 0.54471666 1.715
-0.2744 0.55533338 1.715
0.049000006 0.55533338 1.715
0.053573333 0.5559867 1.7149999
0.047911111 0.56622225 1.715
0.0546 0.56466669 1.715
0.048183337 0.57493335 1.715
0.053900003 0.57493335 1.715
0.053900003 0.58473331 1.715
0.049000002 0.59616673 1.715
0.053083334 0.59371668 1.715
-0.27113333 0.60433334 1.715
0.049000002 0.60596669 1.715
0.052266669 0.60106671 1.715
-0.27113333 0.61413336 1.715
-0.26705 0.61495006 1.715
0.047366668 0.61413336 1.715
0.052266669 0.61740005 1.715
-0.26419169 0.62352502 1.715
-0.25806668 0.62720001 1.715
0.047693335 0.6245867 1.7149999
0.053900003 0.62393332 1.715
-0.26242223 0.63155556 1.715
-0.25573334 0.63420004 1.715
0.048183337 0.63373333 1.715
0.055533335 0.63332504 1.715
0.063700005 0.63700002 1.715
-0.26394668 0.64549333 1.7149999
-0.25479999 0.64353347 1.715
-0.24826668 0.64680004 1.715
-0.26296669 0.65006667 1.715
0.07876572 0.049228575 1.723
-0.36100954 0.059074286 1.723
-0.35772765 0.059074286 1.723
0.084509052 0.054971904 1.723
-0.38070098 0.068920001 1.723
-0.37413716 0.066732064 1.723
-0.36265048 0.063997142 1.723
0.085329525 0.066106938 1.7229998
-0.38152146 0.074663341 1.723
-0.37741905 0.07876572 1.723
0.084919289 0.075894058 1.7229998
-0.37741905 0.083688572 1.723
0.085329525 0.085329518 1.7229998
-0.37085524 0.091893338 1.723
-0.36347097 0.092713818 1.723
-0.35526621 0.094354764 1.723
-0.3413181 0.095175244 1.723
-0.33475429 0.09845715 1.723
0.083688579 0.095175244 1.7229999
-0.34624097 0.10830286 1.723
-0.33311334 0.10502095 1.7229999
0.082047619 0.10502096 1.723
-0.36319748 0.11596064 1.723
-0.35444573 0.11158476 1.723
-0.33311334 0.11158477 1.723
0.083688579 0.11486667 1.7229999
-0.37249619 0.12471238 1.723
-0.36757335 0.12143048 1.723
0.07876572 0.12143048 1.723
0.083688579 0.12471239 1.7229999
-0.37085524 0.1345581 1.723
0.084782541 0.1345581 1.7229999
0.084016763 0.1450602 1.7229999
-0.36538541 0.15315557 1.723
0.083360381 0.15359315 1.7229999
-0.36429143 0.16081335 1.723
0.07876572 0.16409524 1.723
0.082047619 0.16409524 1.723
-0.36429143 0.17065905 1.723
-0.35608667 0.17722286 1.723
0.077452958 0.17394096 1.7229999
0.082868099 0.17394096 1.723
-0.35608667 0.18214571 1.723
0.077124767 0.18378669 1.7229999
0.082047619 0.18378668 1.723
-0.35116383 0.19363239 1.723
-0.34460005 0.1969143 1.723
0.077945247 0.19281191 1.723
0.082047619 0.19199145 1.723
-0.35116383 0.20183715 1.723
-0.34418976 0.20306784 1.7229998
0.07876572 0.2034781 1.723
0.082047619 0.2034781 1.723
-0.34460002 0.21004191 1.723
0.077124767 0.21496475 1.7229999
-0.35116383 0.22645144 1.723
-0.34514698 0.22645144 1.7229999
0.075483814 0.22645144 1.723
-0.34295905 0.23629715 1.7229999
-0.33672342 0.23695353 1.7229999
0.073842861 0.23629713 1.7229999
-0.34213859 0.24532239 1.723
-0.3342073 0.24614285 1.7229999
-0.32490858 0.24778382 1.7229999
-0.31571925 0.24811201 1.7229999
0.073842861 0.24532239 1.723
-0.33229285 0.25680906 1.723
-0.32490858 0.25434762 1.7229999
-0.31506288 0.25664493 1.7229999
-0.30849907 0.25598857 1.723
0.067607239 0.25664496 1.7229999
0.072201908 0.25598857 1.723
-0.3413181 0.26911619 1.723
-0.33541065 0.26517791 1.7229999
0.065638095 0.2658343 1.7229998
-0.3413181 0.27568001 1.723
-0.33672345 0.27633637 1.7229999
0.066575781 0.27521116 1.7229998
0.072201908 0.27568001 1.723
-0.34295908 0.28716668 1.723
-0.33721572 0.28470525 1.723
0.067826033 0.28443176 1.723
0.073514663 0.28552574 1.7229999
-0.34295905 0.29537141 1.7229999
-0.33803621 0.2937305 1.723
0.068920001 0.29208952 1.723
0.073842861 0.29619193 1.723
-0.3413181 0.3035762 1.723
-0.33639523 0.30521715 1.723
0.068920001 0.30849907 1.723
0.072201908 0.30521718 1.723
-0.3314724 0.31506285 1.723
0.068920001 0.31506288 1.723
0.072201908 0.31178096 1.723
-0.33256635 0.32709649 1.723
0.067607239 0.32556495 1.7229999
0.072201908 0.32162669 1.723
-0.33311334 0.33475432 1.7229999
0.066950858 0.33475429 1.7229999
-0.33344156 0.34525639 1.7229999
-0.32819048 0.34788191 1.723
0.066950858 0.34460002 1.7229999
-0.32359582 0.35510212 1.7229999
-0.31834477 0.35772765 1.723
0.067279048 0.35444573 1.7229999
0.072201908 0.35772765 1.723
-0.32162669 0.36100954 1.723
-0.31375009 0.3629787 1.7229999
-0.30849907 0.3659324 1.723
0.064981714 0.36363506 1.7229999
-0.31178096 0.37413716 1.723
-0.30767861 0.37331665 1.723
0.063450158 0.37413716 1.723
-0.31260142 0.38480335 1.723
-0.30849907 0.38398287 1.723
0.065638095 0.3839829 1.723
-0.31178096 0.39054668 1.723
-0.30685812 0.3938286 1.7229999
0.065638095 0.3938286 1.723
-0.31178096 0.4036743 1.723
-0.30521715 0.40367427 1.7229998
0.065638095 0.40367427 1.723
-0.30521715 0.41352001 1.7229998
0.066458568 0.4143405 1.723
-0.30456075 0.42435032 1.7229998
-0.29865333 0.42828858 1.723
0.059074286 0.42992955 1.723
0.065936454 0.42545423 1.7229997
0.072201908 0.42992955 1.723
-0.3035762 0.43649337 1.7229999
-0.29602784 0.4371497 1.7229999
-0.28388476 0.43977526 1.723
-0.27896193 0.43977526 1.723
0.059074286 0.43649337 1.723
0.065638095 0.43649334 1.7229998
0.072201908 0.43485239 1.723
-0.30324802 0.44568267 1.7229999
-0.29537141 0.44592878 1.7229998
-0.28388476 0.4463391 1.7229999
-0.27896193 0.44633904 1.723
0.059074286 0.4446981 1.723
0.065638095 0.44633907 1.7229998
-0.30193526 0.45454383 1.723
-0.29619193 0.45864621 1.723
-0.28421298 0.45552841 1.7229999
0.059074286 0.45618477 1.723
0.063997142 0.45618477 1.7229999
-0.29373047 0.46603048 1.7229999
