# .PCD v0.7 - Point Cloud Data file format
VERSION 0.7
FIELDS x y z
SIZE 4 4 4
TYPE F F F
COUNT 1 1 1
WIDTH 1496
HEIGHT 1
VIEWPOINT 0 0 0 1 0 0 0
POINTS 1496
DATA ascii
-0.21184573 0.048514288 1.6980001
-0.20376 0.048514288 1.6980001
-0.1956743 0.048514288 1.6980001
-0.032342859 0.048514288 1.6980001
-0.025874287 0.048514288 1.6980001
-0.016171429 0.046897147 1.6980001
-0.0064634923 0.048438098 1.6953334
0 0.048285715 1.6900001
0.028030477 0.047436193 1.6980001
0.035577144 0.046897147 1.6980001
0.044364765 0.047591433 1.694
0.054901589 0.048438098 1.6953335
0.064685717 0.048514288 1.6980001
0.074149847 0.048361909 1.6926666
0.082085714 0.048285715 1.6900001
0.096571431 0.046676192 1.6900001
0.10461906 0.048285715 1.6900001
0.1148127 0.046139687 1.6900001
-0.33395618 0.058080003 1.694
-0.32989717 0.058217146 1.6980001
-0.27707049 0.05713905 1.6980001
-0.26197717 0.058217146 1.6980001
-0.25550857 0.056600004 1.6980001
-0.24424525 0.055126186 1.6900003
-0.23526476 0.055192862 1.6920002
-0.2296343 0.05498286 1.6980001
-0.21216914 0.053689145 1.6980002
-0.20376 0.05498286 1.6980001
-0.19365287 0.055387143 1.6980001
-0.18543239 0.055521909 1.6980001
-0.10349715 0.051748574 1.6980001
-0.084091432 0.05498286 1.6980001
-0.072448 0.054336 1.6980002
-0.065494284 0.057408571 1.6980001
-0.046897143 0.058217146 1.6980001
-0.03307524 0.055658095 1.694
-0.025803177 0.054835558 1.6935556
-0.01609524 0.054723814 1.6900003
-0.006443175 0.054750901 1.6908891
0.0048387307 0.054806352 1.6926669
0.016133334 0.056462858 1.6940001
0.026168095 0.055158578 1.6910002
0.035472382 0.054412857 1.6930001
0.04506667 0.053114288 1.6900001
0.05472381 0.05472381 1.6900003
0.064446986 0.054777995 1.6917779
0.074038096 0.054723814 1.6900003
0.080476195 0.05472381 1.6900001
0.10515556 0.052577779 1.6900001
0.11594836 0.054750904 1.6908891
0.12584507 0.056465402 1.6940001
0.13494019 0.056813724 1.6948
0.14230858 0.058217146 1.6980001
-0.34351841 0.064380951 1.6900003
-0.33530414 0.06448254 1.6926668
-0.28623432 0.067919999 1.6980001
-0.27491432 0.064685717 1.6980001
-0.26521146 0.064685717 1.6980001
-0.25550854 0.064685717 1.6980001
-0.24580574 0.064685717 1.6980001
-0.23702693 0.065147758 1.6980001
-0.22640002 0.067919999 1.6980001
-0.21508001 0.066302858 1.6980001
-0.20052572 0.066302858 1.6980001
-0.19405714 0.064685717 1.6980001
-0.18475859 0.065090001 1.6980001
-0.17788573 0.067919999 1.6980001
-0.14554286 0.066302858 1.6980001
-0.13584 0.064685717 1.6980001
-0.12613715 0.064685717 1.6980001
-0.11643428 0.066302858 1.6980001
-0.10511428 0.065332569 1.6980002
-0.093332246 0.06560979 1.6980001
-0.084091432 0.06468571 1.6980001
-0.074388571 0.064685717 1.6980001
-0.064685717 0.064685717 1.6980001
-0.05498286 0.064685717 1.6980001
-0.045279998 0.064685717 1.6980001
-0.03552635 0.064584129 1.6953335
-0.023820953 0.063737139 1.6900002
-0.01609524 0.062449522 1.6900002
-0.0060357149 0.063978568 1.6900003
0.0048285718 0.064380944 1.6900004
0.015635375 0.063461222 1.6900003
0.024142858 0.062771425 1.6900001
0.048285715 0.067600004 1.6900001
0.055183675 0.064380959 1.6900003
0.064380951 0.064380951 1.6900003
0.073118366 0.064840816 1.6900003
0.12795714 0.064380951 1.6900001
0.1352728 0.064413123 1.6908891
0.1416381 0.065990478 1.6900001
-0.34336951 0.074157462 1.6926666
-0.33583578 0.074275136 1.6953335
-0.32989717 0.074388571 1.6980001
-0.30078858 0.074388571 1.6980001
-0.29432002 0.074388571 1.6980001
-0.28461716 0.074388579 1.6980001
-0.27361906 0.074038096 1.6900003
-0.26493037 0.074309006 1.6962223
-0.25537649 0.074351326 1.6971111
-0.24580574 0.074388579 1.6980001
-0.23610288 0.074388586 1.6980001
-0.22693907 0.07331048 1.6980001
-0.21463896 0.074094556 1.6980001
-0.20376001 0.074388586 1.6980001
-0.19405715 0.074388579 1.6980001
-0.18435429 0.074388571 1.6980001
-0.17788573 0.071154289 1.6980001
-0.14508082 0.07346449 1.6980001
-0.13630205 0.073464498 1.6980001
-0.12613715 0.07277143 1.6980001
-0.11514058 0.07309486 1.6980002
-0.10511429 0.074388571 1.6980001
-0.093794286 0.074388579 1.6980001
-0.084091425 0.074388579 1.6980001
-0.074388571 0.072771423 1.6980001
-0.064685717 0.072771423 1.6980001
-0.054982856 0.07277143 1.6980001
-0.045279998 0.072771437 1.6980001
-0.03552635 0.074271746 1.6953332
-0.025349999 0.074440479 1.6900003
-0.01609524 0.074038096 1.6900003
-0.0064380961 0.074038103 1.6900003
0.0048285718 0.074038096 1.6900004
0.015692856 0.074440479 1.6900003
0.025767617 0.074078731 1.6908891
0.035448469 0.074119367 1.6917779
0.045137778 0.07416001 1.6926668
0.054810159 0.074160002 1.6926668
0.06448254 0.074159995 1.6926668
0.074151538 0.074158303 1.692667
0.083292849 0.074440479 1.6900003
0.094961904 0.075647622 1.6900003
0.10687239 0.075969532 1.6900002
0.11588571 0.075647622 1.6900002
0.12600271 0.074957825 1.6900003
0.13520001 0.075647622 1.6900002
0.1416381 0.075647622 1.6900001
-0.34363618 0.083893336 1.6939999
-0.3363657 0.082797714 1.6980002
-0.28461716 0.080857143 1.6980001
-0.27426475 0.083494768 1.694
-0.26560533 0.082074665 1.6964
-0.25470001 0.081665717 1.6980001
-0.24580574 0.081665717 1.6980001
-0.23610286 0.080857143 1.6980001
-0.21467572 0.082878575 1.6980001
-0.20376001 0.082474291 1.6980001
-0.19405715 0.082150862 1.6980002
-0.18597144 0.080857143 1.6980001
-0.10457524 0.081935242 1.6980001
-0.032342859 0.080857143 1.6980001
-0.025874287 0.082474291 1.6980001
-0.015700679 0.083112933 1.6968572
-0.0064584133 0.083964437 1.6953335
0.0044048489 0.083657481 1.6950911
0.016620409 0.083112933 1.6968572
0.025227431 0.082150854 1.6980002
0.035577144 0.081665717 1.6980001
0.046088573 0.081665717 1.6980001
0.05498286 0.084091425 1.6980001
0.064685717 0.084091432 1.6980001
0.074388571 0.084091425 1.6980001
0.083629385 0.083167352 1.6980001
0.095548958 0.081351623 1.6948
0.10588343 0.083937526 1.6948
0.11619218 0.083920419 1.6944444
0.12574096 0.083832383 1.692667
0.13474014 0.08369524 1.6900003
0.1416381 0.080476195 1.6900001
-0.34283429 0.090560004 1.6980001
-0.27491429 0.090560004 1.6980001
-0.007546667 0.091638096 1.6980001
0.0032342859 0.092177145 1.6980001
0.019405715 0.090560004 1.6980001
0.058217149 0.093794286 1.6980001
0.064922951 0.094884492 1.6965455
0.073936626 0.095640518 1.6943638
0.083289146 0.09813334 1.6948
0.093794286 0.097028576 1.6980001
0.10673144 0.094333343 1.6980001
0.1142781 0.092716195 1.6980001
0.1277543 0.090560004 1.6980001
0.13602342 0.093609259 1.6945715
-0.032342859 0.10834858 1.6980001
-0.026521143 0.108672 1.6980002
-0.016171429 0.10834857 1.6980001
-0.0064660325 0.10826223 1.6966667
0.0052800002 0.10669991 1.6929094
0.016408658 0.10518823 1.6921821
0.025752382 0.10622857 1.6900003
0.035506032 0.10650456 1.6944444
0.044850953 0.10707095 1.697
0.05493715 0.10503175 1.6966667
0.064116955 0.10568383 1.6916002
0.074038103 0.10622858 1.6900003
0.084099427 0.10568076 1.6916002
0.094086729 0.1052507 1.6943078
0.10540419 0.10475632 1.6974667
0.11643428 0.10511429 1.6980001
0.12613715 0.10543772 1.6980002
0.13454629 0.1028503 1.6980002
-0.34379965 0.11674591 1.6932001
-0.33798289 0.11966857 1.6980001
-0.27168 0.11643429 1.6980001
-0.26493376 0.1163107 1.6962223
-0.17465144 0.11966857 1.6980001
-0.16414 0.11886 1.6980001
-0.1574019 0.11859047 1.6980001
-0.14618972 0.11837486 1.6980002
-0.13648686 0.11772801 1.6980002
-0.03388381 0.11616 1.6939999
-0.02584381 0.11631408 1.6962223
-0.016118942 0.11607027 1.6926668
-0.0064516412 0.11607027 1.692667
0.0048285718 0.11588573 1.6900004
0.01609524 0.11588573 1.6900003
0.02575238 0.11588573 1.6900003
0.035409525 0.11588573 1.6900003
0.045142855 0.11606857 1.6926668
0.054811854 0.11606688 1.6926668
0.064445294 0.11600593 1.6917779
0.074038096 0.11588572 1.6900003
0.08369524 0.1158857 1.6900003
0.094961911 0.11588571 1.6900004
0.10622858 0.11588572 1.6900003
0.11630899 0.1163107 1.6962223
0.12593906 0.11624636 1.6953332
0.13501443 0.11703838 1.6934286
0.14293462 0.11821461 1.6926666
-0.34412804 0.126784 1.6980002
-0.33798289 0.12613715 1.6980001
-0.29431999 0.12775429 1.6980001
-0.28785145 0.12613715 1.6980001
-0.27653146 0.1277543 1.6980001
-0.26521143 0.12721525 1.6980001
-0.20052572 0.12290286 1.6980001
-0.19405715 0.1277543 1.6980001
-0.17465143 0.12398096 1.6980001
-0.14392573 0.12613714 1.6980001
-0.13745715 0.12613714 1.6980001
-0.087325715 0.1277543 1.6980001
-0.032190476 0.12554286 1.6900001
-0.025874287 0.12613715 1.6980001
-0.016164657 0.12606943 1.6971111
-0.006455027 0.1258036 1.6935556
0.0048285718 0.12554286 1.6900004
0.016112171 0.1256766 1.6917779
0.025752384 0.12554285 1.6900003
0.03544677 0.12567832 1.6917779
0.04511746 0.12567662 1.6917779
0.054783069 0.12567832 1.6917779
0.064413123 0.12560719 1.6908891
0.074038103 0.12554286 1.6900003
0.08369524 0.12554285 1.6900003
0.094961904 0.12554285 1.6900004
0.10622858 0.12554285 1.6900003
0.11594668 0.12560719 1.6908891
0.1256749 0.12567323 1.6917779
0.13519999 0.12554285 1.6900003
0.14324763 0.1287619 1.6900001
-0.34606859 0.13260572 1.6980001
-0.33636573 0.13260572 1.6980001
-0.30078858 0.13584 1.6980001
-0.29432002 0.13584 1.6980001
-0.28785145 0.13584 1.6980001
-0.27620801 0.13519314 1.6980002
-0.26197717 0.13584 1.6980001
-0.2544305 0.13637905 1.6980001
-0.24580573 0.13676409 1.6980001
-0.23610285 0.13584001 1.6980001
-0.19405715 0.13584 1.6980001
-0.14311714 0.13503143 1.6980001
-0.13778058 0.13519315 1.6980002
-0.032190476 0.13520001 1.6900001
-0.025793016 0.13540825 1.6926668
-0.01609524 0.13520001 1.6900003
-0.0064380961 0.13519999 1.6900003
0.0048285718 0.13520001 1.6900004
0.016130796 0.13548274 1.6935558
0.025794709 0.13541164 1.6926668
0.035541587 0.13569778 1.6962223
0.04520889 0.13563174 1.6953334
0.054723814 0.13519999 1.6900003
0.064380951 0.13519999 1.6900003
0.074038096 0.13519999 1.6900003
0.08369524 0.13519999 1.6900003
0.094961904 0.13520001 1.6900004
0.10622858 0.13520001 1.6900003
0.11588572 0.13519999 1.6900003
0.12554285 0.13519999 1.6900003
0.13569608 0.13570118 1.6962223
0.14271112 0.13305397 1.6900001
-0.32342857 0.14877714 1.6980001
-0.31210858 0.14877714 1.6980001
-0.30725715 0.14554286 1.6980001
-0.29432002 0.14715999 1.6980001
-0.27734002 0.14554286 1.6980001
-0.25458449 0.1460049 1.6980001
-0.24580571 0.14554286 1.6980001
-0.23585905 0.14538878 1.6962223
-0.22640096 0.14744668 1.692
-0.21993144 0.14877714 1.6980001
-0.19244 0.14877714 1.6980001
-0.042045716 0.14554286 1.6980001
-0.035049796 0.14524899 1.6945714
-0.025752382 0.14485714 1.6900003
-0.01609524 0.14485714 1.6900003
-0.0064380961 0.14485714 1.6900003
0.0048285718 0.14485715 1.6900004
0.016103705 0.14493164 1.6908891
0.025833651 0.14531429 1.6953332
0.035577141 0.14554286 1.6980001
0.045230903 0.1453871 1.6962223
0.054783069 0.14500953 1.6917779
0.064380959 0.14485714 1.6900003
0.074038096 0.14485715 1.6900003
0.08369524 0.14485715 1.6900003
0.093352377 0.14485715 1.6900003
0.10494541 0.14531811 1.6953334
0.11619218 0.14524318 1.6944444
0.1258053 0.14516699 1.6935556
0.13584 0.14461878 1.6980001
0.14230858 0.14554286 1.6980001
-0.3212724 0.15632381 1.6980001
-0.31243202 0.15459886 1.6980002
-0.30725715 0.15201144 1.6980001
-0.29593715 0.15201144 1.6980001
-0.27491429 0.15362857 1.6980001
-0.26628956 0.15308954 1.6980001
-0.25550854 0.15524574 1.6980001
-0.24621002 0.15484145 1.6980001
-0.23548409 0.15421931 1.6968572
-0.22627981 0.15516615 1.6971111
-0.21777524 0.15632381 1.6980001
-0.20537716 0.15848 1.6980001
-0.19244 0.15201144 1.6980001
-0.18597144 0.15201144 1.6980001
-0.042045716 0.15686285 1.6980001
-0.034609523 0.15550096 1.6957144
-0.02577778 0.15468022 1.6917779
-0.016120635 0.15476319 1.6926668
-0.0064448686 0.15468022 1.6917779
0.0048311115 0.15463747 1.6913337
0.01609524 0.15451428 1.6900003
0.025803177 0.15484107 1.6935556
0.035443384 0.15467514 1.6917779
0.045088675 0.15459387 1.6908891
0.05472381 0.15451428 1.6900003
0.064380959 0.1545143 1.6900003
0.074038103 0.15451428 1.6900003
0.08369524 0.15451428 1.6900003
0.094522953 0.1545143 1.6900004
0.10608457 0.15524574 1.6980002
0.1164343 0.15524574 1.6980001
0.12606943 0.15516275 1.6971111
0.13506515 0.15703696 1.6964
0.14230858 0.15848 1.6980001
-0.32148799 0.16430172 1.6980002
-0.3143726 0.16365486 1.6980002
-0.30725715 0.16494858 1.6980001
-0.29496688 0.16365488 1.6980002
-0.27707049 0.16710477 1.6980001
-0.26216859 0.16537239 1.6940001
-0.25583008 0.1630362 1.6916001
-0.24904001 0.16171429 1.6980001
-0.2160503 0.16430172 1.6980002
-0.2048381 0.16387048 1.6980001
-0.042045716 0.16171429 1.6980001
-0.033151429 0.16414 1.6980001
-0.025859049 0.16486391 1.6971111
-0.016171429 0.16494858 1.6980001
-0.0064685717 0.16494858 1.6980001
0.0048349211 0.16443427 1.692667
0.016120635 0.16443557 1.6926668
0.025874287 0.16494858 1.6980001
0.035478946 0.16451854 1.6935556
0.04506667 0.16417143 1.6900003
0.05472381 0.16417143 1.6900003
0.064521484 0.16451852 1.6935556
0.074229427 0.16460657 1.6944444
0.083873019 0.1645219 1.6935556
0.094128765 0.16408725 1.6924002
0.10555533 0.16524261 1.6980001
0.1164343 0.16494858 1.6980001
0.12586793 0.16460319 1.6944447
0.13555217 0.16460657 1.6944444
0.1418616 0.16443557 1.6926666
-0.33420953 0.17680763 1.6980001
-0.32423717 0.17707714 1.6980001
-0.31696001 0.17626858 1.6980001
-0.27491429 0.17465144 1.6980001
-0.26521146 0.17465144 1.6980001
-0.25537312 0.17456169 1.6971111
-0.24904001 0.17303428 1.6980001
-0.026413335 0.17465143 1.6980001
-0.016171429 0.17303427 1.6980001
-0.0058217146 0.17335773 1.6980002
0.0048514288 0.17465144 1.6980001
0.016171429 0.17465144 1.6980001
0.025874287 0.17271087 1.6980002
0.036013063 0.17361197 1.6968572
0.045234285 0.17447197 1.6962222
0.054955766 0.17456168 1.6971111
0.064685717 0.17424715 1.6980001
0.074388571 0.17372735 1.6980001
0.084091425 0.17465144 1.6980001
0.093794294 0.17465144 1.6980001
0.10421588 0.17429206 1.6980001
0.1164343 0.17465144 1.6980001
0.12613715 0.17465144 1.6980001
0.13584 0.17465143 1.6980001
0.14230858 0.17465143 1.6980001
-0.33474857 0.18597144 1.6980001
-0.3266629 0.18435429 1.6980001
-0.31372574 0.18758857 1.6980001
-0.27491432 0.18435429 1.6980001
-0.26413336 0.18327619 1.6980001
-0.25550857 0.18273716 1.6980001
-0.024796193 0.18219811 1.6980001
-0.017788572 0.18435429 1.6980001
0.0064685717 0.18273714 1.6980001
0.018112 0.18435431 1.6980002
0.028300002 0.18516287 1.6980001
0.035981432 0.18475857 1.6980001
0.044817958 0.18343021 1.6980001
0.051748574 0.18112001 1.6980001
0.067919999 0.18435429 1.6980001
0.074388571 0.18597144 1.6980001
0.084091432 0.18435431 1.6980001
0.093390003 0.18395001 1.6980001
0.10026286 0.18112001 1.6980001
0.11724286 0.18273714 1.6980001
0.12678401 0.18241373 1.6980002
0.13584001 0.18435431 1.6980001
-0.33313143 0.19244 1.6980001
-0.32558477 0.19369777 1.6980001
-0.31372571 0.19486573 1.6980001
-0.27814859 0.19082287 1.6980001
-0.24257143 0.19405715 1.6980001
-0.23772001 0.19729143 1.6980001
-0.21410973 0.19535086 1.6980002
-0.20537716 0.1956743 1.6980001
-0.025874287 0.19567429 1.6980001
-0.017249525 0.19621335 1.6980001
0 0.19729143 1.6980001
0.018112 0.19405714 1.6980002
0.026798368 0.1935951 1.6980001
0.035577144 0.19244002 1.6980001
0.05579143 0.19648287 1.6980001
0.065147758 0.19498123 1.6980001
0.074388579 0.19405715 1.6980001
0.083167352 0.1935951 1.6980001
0.090560004 0.19082287 1.6980001
0.13584 0.19405714 1.6980001
0.14577381 0.19665095 1.6960001
-0.32213488 0.20440686 1.6980002
-0.31588194 0.20483811 1.6980001
-0.24257144 0.20052572 1.6980001
-0.025874287 0.20376001 1.6980001
-0.016171429 0.20376001 1.6980001
-0.0064685717 0.20376001 1.6980001
0.0042045717 0.20376003 1.6980002
0.017465144 0.20311315 1.6980002
0.025874287 0.20160381 1.6980001
0.058217146 0.20376 1.6980001
0.064650163 0.20365165 1.6971111
0.07431408 0.20354499 1.6962223
0.081665717 0.20295143 1.6980001
0.1379962 0.20160381 1.6980001
0.14508064 0.20526606 1.6926668
-0.32181144 0.21022858 1.6980001
-0.31696001 0.21022858 1.6980001
-0.027491428 0.21265429 1.6980001
-0.014554287 0.21346287 1.6980001
-0.0064685717 0.21508001 1.6980001
0.0045269849 0.21526934 1.6969334
0.063877143 0.21103714 1.6980001
0.073580004 0.21103716 1.6980001
0.14607075 0.21565607 1.6934286
-0.27599239 0.22586095 1.6980001
-0.2668286 0.22316572 1.6980001
0.0032342859 0.22316571 1.6980001
-0.27653146 0.23286858 1.6980001
-0.2522743 0.23286858 1.6980001
-0.24742287 0.23286858 1.6980001
0.1390743 0.24580573 1.6980001
0.14230858 0.24580573 1.6980001
0.13745715 0.25874287 1.6980001
0.14392573 0.25874287 1.6980001
-0.2264 0.26844573 1.6980001
-0.21831429 0.26844573 1.6980001
0.14554286 0.26197717 1.6980001
-0.2544305 0.27599239 1.6980001
-0.24904001 0.27168 1.6980001
-0.23772001 0.27168 1.6980001
-0.2253219 0.2727581 1.6980001
-0.21993144 0.27329713 1.6980001
-0.25389144 0.28461716 1.6980001
-0.24904001 0.28299999 1.6980001
0.14700317 0.2843492 1.6900001
-0.25389144 0.29108572 1.6980001
-0.24904001 0.29108572 1.6980001
-0.27168 0.33636573 1.6980001
-0.21771811 0.048742861 1.7060001
-0.20472001 0.048742861 1.7060001
-0.11698286 0.048742861 1.7060001
0.12023239 0.048742861 1.7060001
-0.33145145 0.055241905 1.7060001
-0.32820192 0.056866668 1.7060001
-0.31357905 0.058491431 1.7060001
-0.30870476 0.058491431 1.7060001
-0.29570669 0.058491427 1.706
-0.28595814 0.056866672 1.7060002
-0.27404317 0.056325078 1.706
-0.26711088 0.056541719 1.7060001
-0.2307162 0.055241905 1.7060001
-0.22381097 0.055241909 1.7060002
-0.21609335 0.056866668 1.7060001
-0.20471999 0.055241905 1.7060001
-0.19822095 0.051992383 1.7060001
-0.18197334 0.058491431 1.7060001
-0.17872381 0.056866668 1.7060001
-0.14297906 0.058491431 1.7060001
-0.13431366 0.057408255 1.706
-0.12673144 0.058491427 1.706
-0.11373334 0.055241909 1.7060002
-0.10398477 0.0556481 1.7060002
-0.092936382 0.056541719 1.7060001
-0.085029207 0.055241909 1.7060002
-0.077176198 0.056054287 1.7060001
-0.066073649 0.053075556 1.706
-0.055241905 0.057191622 1.7060001
-0.046305716 0.055241905 1.7060001
-0.03682794 0.055241901 1.706
0.019497143 0.051992383 1.7060001
0.022746667 0.051992383 1.7060001
0.12510668 0.051992383 1.7060001
0.13648 0.053075556 1.706
0.14622858 0.058491431 1.7060001
-0.33145145 0.064990476 1.706
-0.32541659 0.064990483 1.7060002
-0.31520382 0.066073649 1.7060002
-0.30499101 0.065918908 1.7060002
-0.29570666 0.064990476 1.7060002
-0.28549388 0.064062037 1.7060002
-0.23234096 0.063365713 1.7060001
-0.22421716 0.064584285 1.7060002
-0.21316877 0.063690677 1.7060001
-0.20564844 0.064526267 1.7060002
-0.18197334 0.061740953 1.7060001
-0.17709905 0.064990476 1.7060001
-0.15435238 0.066615239 1.7060001
-0.14622858 0.061740953 1.706
-0.12023239 0.061740953 1.7060001
-0.11373333 0.061740953 1.706
-0.10073524 0.061740953 1.7060001
-0.095860958 0.061740953 1.7060001
0.1451454 0.062824123 1.706
-0.32495242 0.074739046 1.7060002
-0.31520382 0.074739046 1.7060002
-0.30586144 0.074739046 1.7060002
-0.29570666 0.074739046 1.7060002
-0.22502953 0.077176191 1.7060001
-0.17612419 0.074089147 1.7060001
-0.16464256 0.072572701 1.706
-0.15557095 0.074332856 1.7060002
-0.14785334 0.077988572 1.7060001
-0.13485524 0.077988572 1.7060001
-0.12413181 0.077338673 1.7060001
-0.11698286 0.076363817 1.7060001
-0.074739046 0.077988572 1.706
-0.064990476 0.077988572 1.706
-0.055241901 0.077988572 1.706
-0.045493335 0.077988572 1.706
-0.34120002 0.08611238 1.7060001
-0.33307621 0.084487624 1.7060001
-0.32576478 0.08205048 1.7060001
-0.31520382 0.081238098 1.706
-0.30480534 0.082537904 1.7060001
-0.29524249 0.083559178 1.7060002
-0.28595808 0.08611238 1.7060002
-0.27620953 0.087737143 1.7060001
-0.26564857 0.086924762 1.7060001
-0.25531974 0.086344488 1.7060002
-0.24306437 0.08643733 1.7060001
-0.23350152 0.085416056 1.7060002
-0.22462335 0.084893808 1.7060002
-0.21284382 0.087737143 1.7060001
-0.20472001 0.087737143 1.706
-0.19497144 0.086924762 1.7060001
-0.18441048 0.083675243 1.7060001
-0.17872381 0.081238098 1.7060001
-0.15272762 0.081238098 1.7060001
-0.14622858 0.081238098 1.706
-0.13648 0.081238098 1.706
-0.12835619 0.081238098 1.7060001
-0.11319175 0.083404444 1.7060002
-0.10344318 0.08557079 1.7060002
-0.094236195 0.082862861 1.7060002
-0.084487624 0.081238098 1.7060001
-0.074739054 0.081238098 1.7060001
-0.051992383 0.081238098 1.7060001
-0.043868572 0.081238098 1.7060001
-0.034932382 0.083675243 1.7060001
-0.025996193 0.087737143 1.706
-0.017872382 0.087737143 1.7060001
0.0097485716 0.087737143 1.7060001
0.014622858 0.087737143 1.7060001
0.026808575 0.086924762 1.7060001
0.035744764 0.08643733 1.7060001
0.044843428 0.08643733 1.7060001
0.08611238 0.087737143 1.7060001
0.093586288 0.08643733 1.7060001
0.10073524 0.087737143 1.7060001
-0.34228322 0.093153022 1.706
-0.33632573 0.092611432 1.7060001
-0.28920764 0.090986669 1.7060001
-0.27620953 0.090986669 1.7060001
-0.26646096 0.090986669 1.706
-0.22096762 0.090986669 1.7060001
-0.21446858 0.090986669 1.706
-0.20390762 0.091799051 1.7060001
-0.19172192 0.090986669 1.7060001
-0.10398477 0.090986669 1.7060001
-0.014947809 0.092936382 1.7060001
-0.00595746 0.095319368 1.7060002
0.005849143 0.095536008 1.7060001
0.015841428 0.094642386 1.7060002
0.02437143 0.090986669 1.7060001
0.035744764 0.092936382 1.7060001
0.045493335 0.094236195 1.7060002
0.053617146 0.094236195 1.7060002
0.077988572 0.090986669 1.7060001
0.084487617 0.092611432 1.7060002
0.097485721 0.092611432 1.7060001
0.10398477 0.093694605 1.7060002
0.11589968 0.095319368 1.706
0.12445676 0.094886102 1.7060001
0.13485524 0.094236195 1.7060001
-0.34336638 0.10615113 1.706
-0.034120001 0.10560954 1.7060001
-0.025996191 0.10506795 1.706
-0.015435239 0.10317239 1.7060001
-0.0064990479 0.10236001 1.7060002
0.0038994285 0.10138514 1.7060001
0.012998096 0.10073524 1.7060001
0.025996191 0.10073524 1.706
0.034120001 0.10073524 1.7060001
0.046305716 0.10154763 1.7060001
0.12673143 0.10398477 1.7060001
0.13485524 0.10560954 1.7060001
-0.34249982 0.11308344 1.7060001
-0.33578417 0.11481652 1.7060002
-0.30870476 0.11698286 1.7060001
-0.29245716 0.11698286 1.7060001
-0.28270859 0.11373334 1.7060001
-0.27945906 0.11698286 1.7060001
-0.25590003 0.11617048 1.7060001
-0.21609335 0.11698286 1.7060001
-0.20390762 0.11617048 1.7060001
-0.19415906 0.11617048 1.7060001
-0.18587276 0.11568306 1.7060001
-0.17547429 0.11698285 1.706
-0.16572572 0.11589968 1.706
-0.15597714 0.1153581 1.7060001
-0.14622858 0.1153581 1.7060001
-0.13972953 0.11373334 1.7060001
-0.12413182 0.11633296 1.7060001
-0.11373334 0.1153581 1.7060001
-0.10333487 0.11568306 1.7060001
-0.094236195 0.11535811 1.7060002
-0.08665397 0.11481651 1.706
-0.071489528 0.1153581 1.7060001
-0.064584278 0.11413953 1.7060002
-0.055241909 0.11373334 1.7060002
-0.045899525 0.11413953 1.7060002
-0.037911113 0.11373333 1.706
0.13810477 0.11373334 1.7060001
0.14297906 0.11373334 1.7060001
-0.33307621 0.12510668 1.7060002
-0.32657716 0.12673144 1.7060002
-0.31398526 0.12632525 1.7060002
-0.30545527 0.12510665 1.706
-0.29570666 0.12185714 1.7060002
-0.28595814 0.12781459 1.7060002
-0.27539715 0.12348192 1.7060002
-0.26646096 0.12456509 1.706
-0.25578395 0.12557086 1.706
-0.24371429 0.12554978 1.7060001
-0.23461564 0.12445676 1.7060001
-0.22502954 0.12470049 1.7060002
-0.2136562 0.12348191 1.7060002
-0.20501541 0.12525438 1.7060001
-0.19497144 0.12445676 1.7060001
-0.18522286 0.12510666 1.706
-0.17547429 0.12781461 1.7060002
-0.16572572 0.12673144 1.7060002
-0.1556522 0.12608151 1.7060001
-0.14947811 0.12673143 1.706
-0.13323048 0.12510666 1.7060001
-0.12510666 0.12510665 1.7059999
-0.1104838 0.12348191 1.706
-0.10398477 0.12510668 1.706
-0.094236195 0.12510665 1.706
-0.08383771 0.12445676 1.7060001
-0.074414089 0.12608151 1.7060001
-0.064990468 0.12510666 1.706
-0.055241901 0.12510666 1.706
-0.045493335 0.12510668 1.706
-0.037601631 0.12580299 1.7060002
-0.34282479 0.13647999 1.7060002
-0.3342948 0.13688618 1.7060002
-0.32495239 0.13647999 1.7060002
-0.31466222 0.13702159 1.7060002
-0.30638367 0.13647999 1.7060002
-0.28502968 0.13647999 1.7060002
-0.27458477 0.13729239 1.7060001
-0.26686716 0.13647999 1.7060002
-0.25671238 0.13485524 1.7060001
-0.24371429 0.13323048 1.7060001
-0.23071618 0.13648 1.706
-0.22514559 0.1369442 1.7060002
-0.21121906 0.13648 1.706
-0.20472001 0.13647999 1.7060002
-0.19497144 0.13647999 1.7060002
-0.18522286 0.13555156 1.7060002
-0.17612419 0.13453028 1.7060001
-0.16507581 0.13453028 1.7060001
-0.15597714 0.13648 1.706
-0.14817829 0.1371299 1.7060001
-0.13404286 0.13729239 1.7060001
-0.12533878 0.13508734 1.7060002
-0.11048381 0.13485524 1.7060001
-0.10398477 0.1360738 1.7060002
-0.092286482 0.1371299 1.7060001
-0.084487624 0.13647999 1.7060002
-0.074739046 0.13688618 1.7060002
-0.064990476 0.13647999 1.7060002
-0.055241909 0.13647999 1.7060002
-0.045493335 0.13647999 1.7060002
-0.037369523 0.13647999 1.7060002
-0.34249982 0.14557867 1.7060001
-0.33470097 0.14622857 1.7060002
-0.32495239 0.14582238 1.7060002
-0.31628698 0.14568698 1.7060002
-0.30383047 0.14622857 1.7060002
-0.29570669 0.14576435 1.7060002
-0.28595814 0.14622857 1.7060002
-0.27425981 0.14622858 1.7060001
-0.26646096 0.14622857 1.7060002
-0.2599619 0.14460382 1.7060001
-0.2307162 0.14297906 1.7060001
-0.22421716 0.1446038 1.7060002
-0.21381867 0.14687848 1.7060001
-0.20431381 0.14582238 1.7060002
-0.19605462 0.1451454 1.7060002
-0.15597714 0.14297906 1.7060001
-0.14622858 0.14492877 1.7060001
-0.13972953 0.14297906 1.7060001
-0.11210857 0.14947811 1.7060001
-0.10398477 0.14622857 1.7060002
-0.094236195 0.14622857 1.7060002
-0.084487617 0.14622857 1.7060002
-0.074739046 0.14622857 1.7060002
-0.064990468 0.14622857 1.7060002
-0.055241909 0.14622857 1.7060002
-0.047118098 0.14622857 1.7060002
-0.037369527 0.14622858 1.7060001
0.13323048 0.14947811 1.7060001
-0.34120002 0.15272762 1.7060001
-0.33307621 0.15597714 1.7060002
-0.32603556 0.15543555 1.7060002
-0.31682858 0.15678953 1.7060001
-0.30504906 0.15638334 1.7060002
-0.29524249 0.15690558 1.7060002
-0.28636432 0.15557095 1.7060002
-0.27620953 0.15922667 1.706
-0.26591936 0.15706031 1.7060002
-0.24208954 0.15922667 1.7060001
-0.23721525 0.15922667 1.7060001
-0.21284382 0.15516476 1.7060001
-0.20363683 0.15489396 1.7060002
-0.19543566 0.15690558 1.7060002
-0.18522286 0.15597714 1.706
-0.17872381 0.15597714 1.7060001
-0.16410096 0.15760191 1.7060001
-0.15557095 0.15638334 1.7060002
-0.14866573 0.15678953 1.7060001
-0.12131556 0.1538108 1.706
-0.11178362 0.15662704 1.7060001
-0.10642191 0.15597714 1.7060001
-0.095860958 0.15597714 1.7060001
-0.082862861 0.15597714 1.7060001
-0.074739046 0.15597714 1.7060002
-0.064990476 0.15597714 1.7060002
-0.055241909 0.15597714 1.7060002
-0.04642177 0.15551293 1.7060002
-0.038994286 0.15435238 1.7060001
0.13485524 0.15272762 1.7060001
-0.33307621 0.16572572 1.7060002
-0.32738954 0.1665381 1.7060001
-0.31439143 0.16735049 1.7060001
-0.30504903 0.16572572 1.7060002
-0.29489431 0.16735049 1.7060001
-0.28636432 0.16613191 1.7060002
-0.27512634 0.16464254 1.7060002
-0.26841068 0.16507581 1.7060001
-0.25346288 0.16735049 1.7060002
-0.2450141 0.16442591 1.7060001
-0.23721525 0.1624762 1.7060001
-0.21381867 0.16507581 1.7060001
-0.20417841 0.16626731 1.7060002
-0.19497144 0.16572572 1.7060002
-0.18522286 0.16572572 1.7060002
-0.17547429 0.16897525 1.7060001
-0.16464256 0.16355938 1.706
-0.15597714 0.16410096 1.7060002
-0.14839493 0.16355938 1.706
-0.11210857 0.16572572 1.7060001
-0.10642192 0.16491334 1.7060001
-0.081238098 0.16572572 1.706
-0.074739046 0.16572572 1.7060002
-0.065640375 0.16377601 1.7060001
-0.055241901 0.1624762 1.706
-0.044680953 0.16491334 1.7060001
-0.037694477 0.16637562 1.7060001
-0.33415937 0.17439111 1.7060002
-0.32430249 0.17352459 1.7060001
-0.31427535 0.17501007 1.7060002
-0.30545524 0.17547429 1.7060002
-0.29570666 0.17547429 1.7060002
-0.28595811 0.17640272 1.7060002
-0.25021335 0.17872381 1.7060001
-0.24371429 0.17872381 1.7060001
-0.21251886 0.17482439 1.7060001
-0.20472001 0.1750681 1.7060002
-0.19497144 0.17547429 1.7060002
-0.18522286 0.17547429 1.7060002
-0.043543618 0.17612419 1.7060001
-0.035338569 0.17588048 1.7060002
-0.024913019 0.17547429 1.706
-0.016247619 0.17872381 1.706
-0.0073114289 0.17709905 1.7060001
0.025996191 0.17791143 1.7060001
0.034120001 0.17872381 1.7060001
0.064990476 0.17872381 1.7060001
0.074739054 0.17872381 1.7060001
0.10723429 0.17709905 1.7060001
0.11048381 0.17547429 1.7060001
-0.33632573 0.18197334 1.7060001
-0.32170287 0.18522286 1.706
-0.31520382 0.18481667 1.7060002
-0.30545524 0.18522286 1.7060002
-0.29570669 0.18522286 1.7060002
-0.28555194 0.18481667 1.7060002
-0.26700255 0.18576445 1.7060002
-0.25346288 0.18684763 1.7060002
-0.2437143 0.18652268 1.7060001
-0.22096762 0.18684763 1.7060001
-0.21400437 0.1861513 1.7060002
-0.20580317 0.18468128 1.7060002
-0.19334668 0.18197334 1.7060001
-0.18847239 0.18197334 1.7060001
-0.12023239 0.18684763 1.7060001
-0.043543618 0.18522286 1.7060001
-0.036673196 0.18475865 1.7060002
-0.026537778 0.18630604 1.7060002
-0.014947811 0.18522286 1.7060001
-0.0064990474 0.18522286 1.7060002
0.0045493329 0.18554781 1.7060001
0.013810476 0.18522286 1.7060001
0.024046477 0.18457296 1.7060001
0.032495238 0.18197334 1.7060001
0.047118098 0.18847239 1.7060001
0.0556481 0.18562905 1.7060002
0.064584285 0.18522286 1.7060002
0.074739054 0.18197334 1.706
0.097485721 0.18847239 1.7060001
0.10439096 0.18562905 1.7060002
0.11326913 0.1861513 1.7060002
0.12478173 0.18717258 1.7060001
0.13648 0.18522286 1.7060001
0.14568698 0.18468128 1.7060002
0.15272762 0.18847239 1.7060001
-0.33470097 0.19605462 1.706
-0.32170287 0.19497144 1.7060001
-0.31520382 0.19432154 1.7060001
-0.30545524 0.19497144 1.7060002
-0.29611287 0.19537763 1.7060002
-0.28270859 0.19334668 1.7060001
-0.27574533 0.19497144 1.7060002
-0.26776075 0.19367163 1.7060001
-0.25508764 0.19497144 1.706
-0.24436422 0.19432154 1.7060001
-0.23179936 0.19713779 1.706
-0.22421715 0.19497144 1.7060002
-0.2136562 0.19334668 1.7060001
-0.20342019 0.19367163 1.7060001
-0.19822095 0.19497144 1.7060001
-0.12348191 0.19497144 1.7060001
-0.04305619 0.19415906 1.7060001
-0.036150951 0.19537763 1.7060002
-0.02599619 0.19367163 1.7060001
-0.015706031 0.19388826 1.7060002
-0.0064990474 0.19497144 1.7060002
0.0053174021 0.19467603 1.7060001
0.013810477 0.19497144 1.7060001
0.022746667 0.19659621 1.7060001
0.03574476 0.19822095 1.706
0.045493335 0.19497144 1.7060002
0.054592002 0.19302173 1.7060001
0.063365713 0.19172192 1.7060001
0.087737143 0.19659621 1.7060001
0.094642386 0.19537763 1.7060002
0.10398477 0.19388826 1.7060002
0.11413953 0.19456525 1.7060002
0.12510666 0.19497144 1.706
0.14622858 0.19172192 1.706
0.15272762 0.19172192 1.7060001
-0.34120002 0.20796953 1.7060001
-0.33429477 0.2051262 1.7060002
-0.32657716 0.20390762 1.7060001
-0.31412062 0.20417841 1.7060002
-0.3065384 0.20363683 1.7060002
-0.29765639 0.20471999 1.7060001
-0.27296001 0.20309524 1.7060001
-0.26862732 0.20255364 1.706
-0.25508761 0.20472001 1.706
-0.24371432 0.2051262 1.7060002
-0.23461564 0.20277028 1.7060001
-0.22340477 0.20228286 1.7060001
-0.21400437 0.20379157 1.7060002
-0.2051262 0.20431381 1.7060002
-0.15532723 0.20666972 1.7060001
-0.081238098 0.20796953 1.7060001
-0.074739054 0.20715715 1.7060001
-0.042243812 0.20472001 1.706
-0.03574476 0.20472001 1.7060002
-0.025996191 0.20472001 1.706
0.0081238095 0.20472001 1.7060001
0.014622858 0.20553239 1.7060001
0.025996191 0.20580317 1.7060002
0.03574476 0.20472001 1.7060002
0.044193525 0.20342019 1.7060001
0.054313473 0.20472001 1.7060002
0.08643733 0.2053699 1.7060001
0.094236195 0.20431381 1.7060002
0.10398477 0.20472001 1.7060002
0.11413953 0.2051262 1.7060002
0.12466356 0.20442457 1.7060001
0.13539682 0.20580317 1.7060002
-0.34249982 0.21511848 1.7060001
-0.33470097 0.21446858 1.7060002
-0.32541659 0.21539702 1.7060002
-0.31479761 0.21487477 1.7060002
-0.30545524 0.21446858 1.7060002
-0.29570666 0.21446858 1.7060002
-0.28920764 0.21446858 1.706
-0.2762095 0.21446858 1.7060002
-0.26646098 0.21446858 1.7060002
-0.25671238 0.2136562 1.7060002
-0.24696381 0.21121906 1.7060001
-0.21446858 0.21121906 1.706
-0.20688635 0.21230222 1.706
-0.1624762 0.21771811 1.7060001
-0.15597714 0.21446858 1.7060002
-0.11373334 0.21771811 1.7060001
-0.074739054 0.21121906 1.7060001
-0.042243812 0.21284382 1.7060001
-0.03574476 0.21354015 1.7060002
-0.024696384 0.21511848 1.7060001
-0.019497143 0.21446858 1.706
0.0097485716 0.21121906 1.7060001
0.016247619 0.21446858 1.7060002
0.025996191 0.21446858 1.7060002
0.034816325 0.21400437 1.7060002
0.045087144 0.21406239 1.7060002
0.055241909 0.21446858 1.7060002
0.065640375 0.2164183 1.7060001
0.075388953 0.2164183 1.7060001
0.084487617 0.21446858 1.7060002
0.095319368 0.21555175 1.7060002
0.10398477 0.21446858 1.7060002
0.11373334 0.21487477 1.7060002
0.12023238 0.21446858 1.706
0.13688618 0.21406239 1.7060002
0.14297906 0.21446858 1.7060001
-0.34282479 0.22421716 1.7060002
-0.33470097 0.22421715 1.7060002
-0.32495239 0.22421715 1.7060002
-0.31520382 0.22421715 1.7060002
-0.30586144 0.22381097 1.7060002
-0.2755596 0.22356725 1.7060001
-0.26599672 0.22421716 1.7060002
-0.2599619 0.22096762 1.7060001
-0.21771811 0.22096762 1.7060001
-0.16897525 0.22746667 1.7060001
-0.11292095 0.22421715 1.7060001
-0.025996191 0.22096761 1.706
-0.015597714 0.22226743 1.7060001
-0.0064990479 0.22421713 1.706
0.0056866668 0.22665429 1.7060001
0.015597716 0.22226743 1.7060001
0.025996191 0.22096761 1.706
0.043868572 0.22259238 1.7060001
0.056866668 0.22259238 1.7060001
0.06452626 0.22328873 1.7060002
0.074739046 0.22421715 1.7060002
0.084487617 0.22381097 1.7060002
0.095319368 0.22367556 1.7060002
0.10398477 0.22421715 1.7060002
0.11503315 0.22291735 1.7060001
0.14622858 0.22313397 1.706
-0.34120002 0.2307162 1.7060001
-0.33686733 0.23288254 1.706
-0.32495239 0.23071618 1.706
-0.31520382 0.23071618 1.706
-0.30653843 0.23179936 1.706
-0.28595814 0.23234098 1.7060002
-0.27490973 0.23526554 1.7060001
-0.26646098 0.23396574 1.7060002
-0.2559 0.23477811 1.7060001
-0.24208954 0.23396572 1.7060001
-0.23721525 0.23396572 1.7060001
-0.0032495239 0.23234096 1.7060001
0.0037911113 0.23179938 1.7060002
0.073655881 0.23179936 1.706
0.13972953 0.23234096 1.7060001
0.14406224 0.23179936 1.706
-0.33470097 0.24371429 1.706
-0.27945906 0.24046478 1.7060001
-0.26808572 0.24046478 1.7060001
0.1371299 0.24371429 1.7060001
-0.26564857 0.25346288 1.7060001
-0.25752476 0.25102574 1.7060001
-0.23721525 0.2599619 1.7060001
0.00595746 0.25508761 1.7060002
0.016608676 0.25562921 1.7060002
0.025996191 0.25671238 1.7060002
0.03682794 0.25779554 1.706
0.13810477 0.2526505 1.7060001
0.14460382 0.25021335 1.7060001
-0.31439143 0.2688981 1.7060001
-0.3076216 0.26862732 1.706
-0.27458477 0.26971048 1.7060001
-0.26553252 0.26692519 1.7060002
-0.25508764 0.26646098 1.706
-0.2437143 0.26646098 1.7060002
-0.23437193 0.26605478 1.7060002
-0.22421716 0.26483619 1.7060002
-0.21501017 0.26646098 1.7060002
-0.20796953 0.26971048 1.7060001
-0.11292095 0.26646096 1.7060001
-0.029245716 0.26971048 1.7060001
0.0064990479 0.26321143 1.706
0.016247619 0.26516113 1.7060001
0.023559049 0.26564857 1.7060001
0.10073524 0.26808572 1.7060001
0.13810477 0.26646096 1.7060001
0.14297906 0.26483619 1.7060001
-0.31520382 0.2762095 1.7060002
-0.30586144 0.2762095 1.7060002
-0.27580333 0.27661571 1.7060002
-0.26646098 0.2762095 1.7060002
-0.25549382 0.27620953 1.7060002
-0.24412051 0.27661571 1.7060002
-0.23396574 0.27713799 1.7060002
-0.22551696 0.27750936 1.7060001
-0.21487477 0.27580333 1.7060002
-0.027945906 0.27685943 1.7060001
0.01706 0.27620953 1.7060001
0.023829842 0.27404317 1.706
0.12023239 0.27296001 1.7060001
0.13648 0.27864668 1.7060001
0.14297906 0.27945906 1.7060001
-0.32332763 0.28920764 1.7060001
-0.31520382 0.28595814 1.7060002
-0.30870476 0.28270859 1.7060001
-0.27377239 0.28677049 1.7060001
-0.26646096 0.28595811 1.7060002
-0.25752476 0.28677049 1.7060001
-0.24696381 0.28270859 1.7060001
-0.19172192 0.28920764 1.7060001
-0.18603525 0.28758287 1.7060001
-0.17709905 0.28920764 1.7060001
-0.051992383 0.28920764 1.7060001
-0.046793144 0.28725791 1.7060001
-0.038994286 0.28920764 1.7060001
-0.027945906 0.28595811 1.7060001
0.0064990479 0.28920764 1.7060001
0.016247619 0.28595814 1.7060002
0.022746667 0.28595811 1.7060001
0.13972953 0.28595811 1.7060001
0.14427885 0.28595811 1.7060001
-0.33405107 0.29635659 1.7060001
-0.32495239 0.29570669 1.7060002
-0.31560999 0.2961129 1.7060002
-0.29895622 0.29895622 1.7060001
-0.28704128 0.29787305 1.706
-0.27580333 0.29611287 1.7060002
-0.26646096 0.29570669 1.7060002
-0.25562918 0.29678982 1.7060002
-0.24615143 0.29489431 1.7060001
-0.19172192 0.29408193 1.7060001
-0.18587276 0.29440689 1.7060001
-0.17547429 0.29570669 1.7060001
-0.08665397 0.29354033 1.706
-0.077988572 0.29245716 1.7060001
-0.051992383 0.29245716 1.7060001
-0.045493335 0.29408193 1.7060001
-0.029245716 0.29408193 1.7060001
-0.012998096 0.29570669 1.7060001
-0.0075822226 0.29678985 1.706
0.0024371429 0.29651907 1.7060001
0.017872382 0.29408193 1.7060001
0.025996191 0.29245716 1.7060001
0.061740953 0.29245716 1.7060001
0.13842972 0.29635659 1.7060001
0.14379144 0.29489431 1.7060001
-0.33275124 0.30480534 1.7060001
-0.32448816 0.30452681 1.7060002
-0.31520379 0.30545524 1.7060002
-0.30545524 0.30545527 1.7060002
-0.29700652 0.30415541 1.7060001
-0.28758287 0.30220571 1.7060001
-0.2762095 0.30545524 1.7060002
-0.26646096 0.30220571 1.7060001
-0.2526505 0.30301809 1.7060001
-0.24436419 0.30610514 1.7060001
-0.23396571 0.30870476 1.706
-0.22746667 0.30870476 1.7060001
0.13756318 0.30328891 1.706
0.14297906 0.30220571 1.7060001
-0.31520382 0.31520382 1.7060001
-0.30545524 0.31520382 1.7060002
-0.29895622 0.31520382 1.7060001
-0.27620953 0.31195429 1.706
-0.24208954 0.31195429 1.7060001
-0.23350152 0.31520382 1.7060002
-0.22421713 0.31845334 1.706
-0.31195429 0.32170287 1.7060001
-0.30870476 0.32170287 1.7060001
-0.27425981 0.32560229 1.7060001
-0.26711088 0.32690209 1.7060001
-0.25833714 0.32820192 1.7060001
-0.2307162 0.32332763 1.7060001
-0.22421715 0.32495239 1.7060002
-0.022746667 0.32495239 1.7060001
-0.017872382 0.32495239 1.7060001
-0.0064990479 0.32820192 1.7060001
-0.27490973 0.33405107 1.7060001
-0.26686716 0.33470097 1.7060002
-0.25725397 0.33415937 1.7060002
-0.21446858 0.33632573 1.7060001
-0.0064990479 0.33632573 1.7060001
0 0.3379505 1.7060001
-0.27425981 0.34379965 1.7060001
-0.26646098 0.34444955 1.7060002
-0.25671238 0.34120002 1.7060001
-0.21446858 0.34120002 1.7060001
-0.0048742858 0.34120002 1.7060001
0 0.34120002 1.7060001
-0.31195429 0.35744762 1.7060001
-0.30545524 0.35744762 1.7060001
-0.29245716 0.35744762 1.7060001
-0.27296001 0.3541981 1.7060001
-0.26553252 0.35373387 1.7060002
-0.2599619 0.3541981 1.7060001
-0.30870476 0.36069715 1.7060001
-0.29245716 0.36069715 1.7060001
-0.26483619 0.36394668 1.7060002
-0.25671238 0.3658964 1.7060001
-0.26483619 0.37044573 1.7060001
-0.25346288 0.37044573 1.7060001
-0.20472001 0.37694478 1.7060001
-0.10453334 0.049000002 1.715
-0.026133334 0.049000002 1.715
0.12631112 0.047911119 1.715
0.13458666 0.047693335 1.7149999
0.14155556 0.046822224 1.715
-0.32258335 0.057983335 1.715
-0.31686667 0.055533335 1.715
-0.22866668 0.055533335 1.715
-0.17531113 0.056622222 1.715
-0.14536667 0.057166666 1.715
-0.13175556 0.05335556 1.715
-0.12366668 0.054599997 1.715
-0.096366674 0.053900003 1.715
-0.081666671 0.055533335 1.715
-0.062066671 0.055533335 1.715
-0.058800001 0.052266669 1.715
-0.0392 0.053900003 1.715
0.13066667 0.052266669 1.715
0.14438668 0.053573333 1.7149999
0.15026668 0.053900003 1.715
-0.32340002 0.065333337 1.715
-0.31359997 0.062066671 1.715
-0.30706668 0.062066671 1.715
-0.17395002 0.064516671 1.715
-0.16551112 0.066422224 1.715
-0.15353334 0.062066671 1.715
-0.17422223 0.077311113 1.715
-0.16613333 0.076533332 1.715
-0.33320001 0.088200003 1.715
-0.32433334 0.086800002 1.715
-0.3136 0.086566664 1.715
-0.30380002 0.088200003 1.715
-0.29726669 0.088200003 1.715
-0.18620001 0.088200003 1.715
-0.17640001 0.083300002 1.715
-0.16333334 0.081666671 1.715
-0.15353334 0.083300002 1.715
-0.14536667 0.084933333 1.715
-0.12195555 0.082755558 1.715
-0.11542223 0.087111115 1.715
-0.094733335 0.088200003 1.715
-0.084933333 0.08534167 1.715
-0.075133339 0.083626673 1.7149999
-0.064680003 0.082973339 1.7149999
-0.055533331 0.084388889 1.715
-0.0462 0.085866675 1.715
-0.037566669 0.086566672 1.715
-0.34463334 0.098000005 1.715
-0.33516002 0.096039996 1.7149999
-0.32601336 0.094733335 1.7149999
-0.29400003 0.09255556 1.715
-0.28420001 0.094080009 1.7149999
-0.2744 0.096366674 1.715
-0.26413333 0.095666662 1.715
-0.25573334 0.094266668 1.715
-0.245 0.091466673 1.715
-0.2352 0.091466673 1.715
-0.22485559 0.094733335 1.715
-0.21560001 0.096366666 1.715
-0.20645335 0.096693337 1.7149999
-0.19640833 0.095141664 1.715
-0.18685333 0.092773333 1.7149999
-0.11270001 0.094733335 1.715
-0.10453334 0.095141664 1.715
-0.097183339 0.093916669 1.715
-0.055533335 0.098000005 1.715
-0.044100001 0.091466673 1.715
-0.034299999 0.093916669 1.715
-0.026133334 0.094733343 1.715
-0.017966667 0.096366674 1.715
0.0098000001 0.098000005 1.715
0.0266 0.095666662 1.715
0.035933334 0.096366674 1.715
0.093100004 0.093100004 1.715
-0.34408891 0.10235556 1.715
-0.33646667 0.10453334 1.715
-0.32601336 0.10486001 1.7149999
-0.31033334 0.10780001 1.715
-0.27113333 0.10453334 1.715
-0.26623333 0.10780001 1.715
-0.22295001 0.10371667 1.715
-0.21560001 0.10453334 1.715
-0.20580001 0.10453334 1.715
-0.19600002 0.10780001 1.715
-0.18946667 0.10780001 1.715
-0.11106667 0.10616668 1.715
-0.10494167 0.10494167 1.715
-0.096366674 0.10780001 1.715
-0.064516671 0.10698334 1.715
-0.055124998 0.10494167 1.715
-0.045733333 0.10616667 1.715
-0.036750004 0.10453334 1.715
-0.025316667 0.10208333 1.715
-0.017966667 0.10126667 1.715
0.0392 0.10126667 1.715
0.14438668 0.10322668 1.7149999
-0.33428887 0.11215556 1.715
-0.32547882 0.11463031 1.715
-0.31359997 0.11487778 1.715
-0.30380002 0.11596667 1.715
-0.29400003 0.11564001 1.7149999
-0.28501669 0.11596667 1.715
-0.2744 0.11433333 1.715
-0.26378334 0.11188333 1.715
-0.25480002 0.11368001 1.7149999
-0.24581668 0.11678334 1.715
-0.23465556 0.11542222 1.715
-0.22540002 0.11474167 1.715
-0.21513334 0.1134 1.715
-0.20645335 0.11237334 1.7149999
-0.19665334 0.11237334 1.7149999
-0.18538333 0.11188333 1.715
-0.17640001 0.11270001 1.715
-0.16605556 0.11215556 1.715
-0.15353334 0.11188333 1.715
-0.14455001 0.11270001 1.715
-0.13311666 0.11351667 1.715
-0.12478667 0.11237333 1.7149999
-0.11433334 0.11386667 1.715
-0.10535 0.11188333 1.715
-0.096366674 0.11106667 1.715
-0.082755558 0.11651111 1.715
-0.076222219 0.11433333 1.715
-0.068599999 0.11106667 1.715
-0.042466667 0.11106667 1.715
-0.0392 0.11106667 1.715
0.1372 0.11106667 1.715
0.14210001 0.11106667 1.715
-0.32340002 0.12413333 1.715
-0.31686667 0.12086667 1.715
-0.29073334 0.12086667 1.715
-0.28583336 0.1225 1.715
-0.25153333 0.1225 1.715
-0.245 0.12086667 1.715
-0.23193334 0.12740001 1.715
-0.22431111 0.12522224 1.715
-0.21723334 0.12740001 1.715
-0.11596667 0.12413334 1.715
-0.07676667 0.12086667 1.715
-0.32013336 0.1372 1.715
-0.31686667 0.13556667 1.715
-0.23193334 0.13066667 1.715
-0.22213334 0.13393334 1.715
-0.21723334 0.13393334 1.715
-0.17313334 0.1372 1.715
-0.16333334 0.13611111 1.715
-0.15353334 0.13556667 1.715
-0.12413334 0.13393334 1.715
-0.11526667 0.13346668 1.715
-0.09691111 0.13502222 1.715
-0.075133339 0.13393334 1.715
-0.3136 0.14373334 1.715
-0.2169067 0.14308001 1.7149999
-0.19273335 0.147 1.715
-0.18620001 0.14414167 1.715
-0.17680834 0.143325 1.715
-0.16496667 0.14373334 1.715
-0.15353334 0.14504001 1.7149999
-0.14373334 0.147 1.715
-0.13346668 0.14466667 1.715
-0.12413333 0.14373332 1.715
-0.11433334 0.14373332 1.715
-0.10453334 0.14482222 1.715
-0.098000005 0.14046668 1.715
-0.34300002 0.1568 1.715
-0.33973333 0.15516667 1.715
-0.21560001 0.15353334 1.715
-0.20906667 0.15353334 1.715
-0.18538335 0.15108335 1.715
-0.17585556 0.15407778 1.715
-0.1655111 0.15244444 1.715
-0.15516667 0.15026668 1.715
-0.14373334 0.15353334 1.715
-0.13393334 0.15353334 1.715
-0.12522222 0.1529889 1.715
-0.11678334 0.15353334 1.715
-0.10235556 0.15462223 1.715
-0.093916669 0.15435001 1.715
-0.086022228 0.15462223 1.715
0.14210001 0.15353334 1.715
-0.34300002 0.16333334 1.715
-0.33973333 0.16496667 1.715
-0.28420001 0.16170001 1.715
-0.24336666 0.16823334 1.715
-0.23683333 0.1666 1.715
-0.21886668 0.16986667 1.715
-0.18620001 0.16006668 1.715
-0.17640001 0.16452122 1.715
-0.1666 0.16700834 1.715
-0.15353334 0.16986667 1.715
-0.14337038 0.16551112 1.715
-0.13393334 0.16333334 1.715
-0.12413334 0.16496667 1.715
-0.11596667 0.16551112 1.715
-0.10266667 0.16520001 1.715
-0.094733335 0.16496669 1.715
-0.086566672 0.16496667 1.715
-0.064516671 0.16904999 1.715
-0.055533331 0.16823334 1.715
-0.047366671 0.16823334 1.715
-0.29073334 0.17313334 1.715
-0.28420001 0.17313334 1.715
-0.245 0.17599168 1.715
-0.23846668 0.17803334 1.715
-0.22322224 0.17857778 1.715
-0.21805 0.17721666 1.715
-0.20580001 0.17966667 1.715
-0.17640001 0.17640001 1.715
-0.16566667 0.17500003 1.715
-0.15260002 0.17593335 1.715
-0.14373334 0.17640001 1.715
-0.1323 0.17966667 1.715
-0.12304445 0.17694445 1.715
-0.11433334 0.17640001 1.715
-0.10453334 0.17640001 1.715
-0.094733328 0.17640001 1.715
-0.084933333 0.17640002 1.715
-0.075133339 0.17640001 1.715
-0.065333337 0.17640001 1.715
-0.055533335 0.17640001 1.715
-0.048183337 0.17558335 1.715
-0.0392 0.17313334 1.715
-0.29073334 0.18946667 1.715
-0.245 0.18456668 1.715
-0.23566668 0.18713334 1.715
-0.22633335 0.18573335 1.715
-0.21723334 0.18293335 1.715
-0.20362222 0.1872889 1.715
-0.19646667 0.18713334 1.715
-0.18579169 0.18660834 1.715
-0.17966667 0.18456668 1.715
-0.14046668 0.18620001 1.715
-0.13393334 0.18620001 1.715
-0.12506668 0.18573335 1.715
-0.11433334 0.18620001 1.715
-0.10453334 0.18620001 1.715
-0.094733335 0.18620001 1.715
-0.0854 0.18526669 1.715
-0.074480005 0.18424001 1.7149999
-0.063700005 0.18538333 1.715
-0.055533335 0.18620001 1.715
-0.048183337 0.18620001 1.715
-0.032666668 0.18783334 1.715
0.147 0.18783334 1.715
0.15190001 0.18620001 1.715
-0.33973333 0.19600001 1.715
-0.29155001 0.19518334 1.715
-0.28665 0.19681668 1.715
-0.26623333 0.19763334 1.715
-0.23585334 0.19404 1.7149999
-0.19654445 0.19600002 1.715
-0.18783334 0.19273335 1.715
-0.17313334 0.19926667 1.715
-0.16496667 0.19817777 1.715
-0.15353334 0.19763333 1.715
-0.14046668 0.19600002 1.715
-0.13393334 0.19599999 1.715
-0.12413335 0.19600001 1.715
-0.11526667 0.19646667 1.715
-0.10322668 0.19730668 1.7149999
-0.094733335 0.19599999 1.715
-0.084933333 0.19599999 1.715
-0.07676667 0.19599999 1.715
-0.062066671 0.19273335 1.715
-0.055533335 0.19599999 1.715
-0.047693335 0.19665334 1.7149999
-0.032666668 0.19273335 1.715
0.10453334 0.19817777 1.715
0.11106667 0.19926667 1.715
-0.34300002 0.20580001 1.715
-0.30488887 0.20797779 1.715
-0.29306668 0.20580003 1.715
-0.28420001 0.20580001 1.715
-0.27570668 0.20710668 1.7149999
-0.26460001 0.20580001 1.715
-0.23438334 0.20825002 1.715
-0.22605336 0.20776001 1.7149999
-0.21723334 0.20906667 1.715
-0.20253333 0.20906667 1.715
-0.19926667 0.20580001 1.715
-0.17313334 0.20906667 1.715
-0.16541213 0.205503 1.715
-0.15222666 0.20449336 1.7149999
-0.14455001 0.20661667 1.715
-0.123725 0.20539168 1.715
-0.11433334 0.2058 1.715
-0.10453334 0.20743334 1.715
-0.094733335 0.2058 1.715
-0.08534167 0.20539168 1.715
-0.075133339 0.20383999 1.7149999
-0.064866669 0.20626667 1.715
-0.055533335 0.20539169 1.715
-0.047366668 0.2058 1.715
-0.035933334 0.20580001 1.715
0.047366671 0.20743334 1.715
0.094733335 0.20906667 1.715
0.11106667 0.20253333 1.715
0.13066667 0.20906667 1.715
-0.28583336 0.21560001 1.715
-0.25316668 0.21723334 1.715
-0.24459167 0.21600835 1.715
-0.23613335 0.21606669 1.715
-0.22446667 0.21606669 1.715
-0.21560001 0.21723336 1.715
-0.20471112 0.21668892 1.715
-0.19926667 0.21560001 1.715
-0.17531113 0.21777779 1.715
-0.16700833 0.21519168 1.715
-0.15026668 0.21560001 1.715
-0.14414166 0.21519168 1.715
-0.1372 0.21233334 1.715
-0.12372501 0.21600834 1.715
-0.11433333 0.21519168 1.715
-0.10453334 0.21560001 1.715
-0.095200002 0.21466668 1.715
-0.084933333 0.21560001 1.715
-0.075133339 0.21600835 1.715
-0.065333337 0.21560001 1.715
-0.055533335 0.21560001 1.715
