# .PCD v0.7 - Point Cloud Data file format
VERSION 0.7
FIELDS x y z
SIZE 4 4 4
TYPE F F F
COUNT 1 1 1
WIDTH 1507
HEIGHT 1
VIEWPOINT 0 0 0 1 0 0 0
POINTS 1507
DATA ascii
-0.016140953 0.1948254 1.6953332
-0.0084091434 0.19470401 1.6980002
-0.15201144 0.20052572 1.6980001
-0.14529142 0.20501144 1.6949999
-0.13680953 0.20601904 1.6900002
-0.051504765 0.20601904 1.6900001
-0.04506667 0.20601906 1.6900003
-0.035811909 0.20561668 1.6900003
-0.025767621 0.20573857 1.6910002
-0.015755715 0.2040443 1.697
-0.0084091434 0.20311315 1.6980002
-0.14540875 0.21487734 1.6964
-0.13621333 0.21628408 1.691143
-0.051504765 0.21245715 1.6900001
-0.044664286 0.21567619 1.6900003
-0.035118096 0.21523201 1.6916002
-0.025787432 0.21533713 1.6924002
-0.016171427 0.21508002 1.6980001
-0.0097028576 0.21454096 1.6980001
-0.15201144 0.22801715 1.6980001
-0.14539388 0.22616465 1.6962223
-0.13560238 0.22533335 1.6900003
-0.043779045 0.22662096 1.6900002
-0.035460319 0.2256889 1.6926668
-0.025787938 0.2256889 1.6926668
-0.016171429 0.2264 1.6980001
-0.15201144 0.23448572 1.6980001
-0.14546837 0.23597926 1.6971111
-0.13527113 0.23511577 1.6908891
-0.1287619 0.23820953 1.6900001
-0.051504765 0.23660001 1.6900001
-0.04506667 0.23499049 1.6900003
-0.03549926 0.23560847 1.6944447
-0.025776086 0.23523599 1.6917779
-0.017082451 0.23640381 1.6968572
-0.14497095 0.24511382 1.696
-0.13761428 0.2454524 1.6900001
-0.051504765 0.2430381 1.6900001
-0.04506667 0.24464764 1.6900003
-0.035556827 0.24567705 1.6971111
-0.025787938 0.24503364 1.6926668
-0.017788572 0.24580573 1.6980001
-0.14498504 0.25625849 1.6968572
-0.13680953 0.25430477 1.6900002
-0.044146944 0.25430477 1.6900003
-0.035497565 0.25497523 1.6944444
-0.025776088 0.25457397 1.6917779
-0.019405715 0.25550857 1.6980001
-0.14554286 0.26521146 1.6980001
-0.13568428 0.26452237 1.6910002
-0.1287619 0.26718095 1.6900001
-0.044146944 0.26442176 1.6900003
-0.035914764 0.26433668 1.6950002
-0.02585905 0.26507428 1.6971111
-0.019405715 0.2668286 1.6980001
-0.15201144 0.27491429 1.6980001
-0.14531767 0.27448428 1.6953335
-0.1352728 0.2737647 1.6908891
-0.045132697 0.27405083 1.6926668
-0.03665524 0.27437523 1.6980001
-0.026278572 0.27451 1.6980001
-0.019405715 0.27329713 1.6980001
-0.14461878 0.2841551 1.6980001
-0.13508606 0.28481248 1.6921821
-0.044442669 0.2850183 1.6908003
-0.035958573 0.28485194 1.697
-0.026894815 0.28580785 1.6944447
-0.019405715 0.28785145 1.6980001
-0.14461878 0.29432002 1.6980001
-0.13544574 0.29506287 1.6930001
-0.1287619 0.29937145 1.6900001
-0.052309524 0.29615238 1.6900001
-0.04506667 0.29615238 1.6900003
-0.035882287 0.29482517 1.6972001
-0.025357824 0.29464546 1.6945715
-0.019405715 0.29270285 1.6980001
-0.13552459 0.30491465 1.694
-0.1287619 0.30580953 1.6900001
-0.053804077 0.30580953 1.6900003
-0.045493815 0.30558813 1.6910002
-0.036116194 0.30402288 1.6980001
-0.025874287 0.30402288 1.6980001
-0.019405715 0.30402288 1.6980001
-0.13552573 0.31459811 1.6940002
-0.1287619 0.31546667 1.6900001
-0.052792381 0.31611049 1.6900002
-0.045110688 0.31472212 1.6917779
-0.037194289 0.31372571 1.6980001
-0.025832383 0.3148413 1.6953334
-0.019405715 0.31372571 1.6980001
-0.13607723 0.32534826 1.6972728
-0.12715238 0.32512382 1.6900002
-0.053691432 0.32591939 1.6913334
-0.044889525 0.32555735 1.6956002
-0.035577144 0.32504573 1.6980001
-0.025776086 0.32546753 1.6917779
-0.019405715 0.32181144 1.6980001
-0.14230858 0.33960003 1.6980001
-0.13584 0.33636576 1.6980001
-0.12725396 0.3350451 1.6913334
-0.054805085 0.33530918 1.6926668
-0.045279998 0.33636576 1.6980001
-0.03800286 0.33555716 1.6980001
-0.026682857 0.33394 1.6980001
-0.13389942 0.34606856 1.6980002
-0.1287619 0.34443811 1.6900001
-0.053804081 0.34397823 1.6900003
-0.045254603 0.34588572 1.6971111
-0.03881143 0.34930286 1.6980001
-0.13401461 0.35521522 1.6953335
-0.1287619 0.35409525 1.6900001
-0.052309524 0.3532905 1.6900001
-0.045180108 0.35502478 1.6944447
-0.03800286 0.35657999 1.6980001
-0.029108573 0.35900572 1.6980001
-0.13260572 0.36547431 1.6980001
-0.12747429 0.36439618 1.6900002
-0.052309524 0.36455715 1.6900001
-0.045183495 0.36471409 1.6944444
-0.036655243 0.36493528 1.6980001
-0.026336327 0.36547428 1.6980001
-0.01832762 0.36439621 1.6980001
-0.13260572 0.37194288 1.6980001
-0.12695238 0.37505069 1.6916001
-0.053379048 0.37458399 1.691143
-0.045280002 0.3751772 1.6980001
-0.03881143 0.37356001 1.6980001
-0.02695238 0.37302098 1.6980001
-0.019405715 0.37194288 1.6980001
-0.12566477 0.38729525 1.6916001
-0.052618414 0.38497588 1.6913334
-0.046897143 0.38488004 1.6980001
-0.12592 0.39549714 1.6949999
-0.11910477 0.39916191 1.6900001
-0.052309524 0.39594287 1.6900001
-0.047220577 0.39458287 1.6980002
-0.13260572 0.4026686 1.6980001
-0.12594414 0.40472382 1.6953335
-0.11910477 0.40559998 1.6900001
-0.052792381 0.40624386 1.6900002
-0.045280002 0.40428576 1.6980001
-0.03881143 0.40105143 1.6980001
-0.13260572 0.41075429 1.6980001
-0.12584457 0.41462135 1.6940002
-0.11910477 0.41364765 1.6900001
-0.061161906 0.41525713 1.6900001
-0.054723814 0.41364762 1.6900002
-0.045142859 0.41420639 1.6929092
-0.03881143 0.41560572 1.6980001
-0.12574604 0.42450666 1.6926668
-0.061161906 0.42491433 1.6900001
-0.05472381 0.42491427 1.6900003
-0.045110688 0.42535958 1.6917779
-0.03881143 0.42369142 1.6980001
-0.12773062 0.43482286 1.6945716
-0.063921086 0.43549114 1.6900003
-0.054779686 0.43503201 1.6917779
-0.045181803 0.4357177 1.6944447
-0.03881143 0.43501145 1.6980001
-0.1258781 0.44539854 1.6944447
-0.11910477 0.44583809 1.6900001
-0.064380959 0.44422856 1.6900003
-0.054952387 0.44609949 1.6971111
-0.046897147 0.44471431 1.6980001
-0.029108573 0.44794858 1.6980001
-0.12356667 0.45469239 1.696
-0.11910477 0.45388576 1.6900001
-0.063461222 0.45342585 1.6900003
-0.056600001 0.45603427 1.6980001
-0.029108573 0.45280001 1.6980001
-0.12275811 0.46679813 1.6960001
-0.11910477 0.46515238 1.6900001
-0.061966665 0.46434763 1.6900001
-0.056752656 0.46602777 1.6957144
-0.12290286 0.47705716 1.6980001
-0.11781716 0.47706285 1.6900002
-0.063307934 0.47695556 1.6900002
-0.05487467 0.47615355 1.6948
-0.046897143 0.47867429 1.6980001
-0.12290286 0.48352575 1.6980001
-0.11664228 0.48589259 1.6916001
-0.10944762 0.48929524 1.6900001
-0.063461222 0.48607621 1.6900003
-0.05481524 0.48532382 1.6930001
-0.045684285 0.48514286 1.6980001
-0.03881143 0.48190859 1.6980001
-0.12290286 0.49808002 1.6980001
-0.11621942 0.49552268 1.6948
-0.064380959 0.49573338 1.6900003
-0.054891434 0.49514163 1.6953335
-0.047436193 0.49268952 1.6980001
-0.11562429 0.5047757 1.6920002
-0.10944762 0.50699997 1.6900001
-0.062771425 0.50539047 1.6900002
-0.0545226 0.50508159 1.6929092
-0.047220577 0.50519544 1.6980002
-0.11607365 0.51478219 1.6926668
-0.10864286 0.51585239 1.6900001
-0.061966665 0.51504761 1.6900001
-0.05472381 0.51504761 1.6900003
-0.047062863 0.51447678 1.6957142
-0.11616508 0.52325654 1.6940002
-0.1071483 0.52516466 1.6900003
-0.061161906 0.52631426 1.6900001
-0.05512619 0.52510715 1.6900003
-0.044590481 0.52281374 1.6964
-0.11449371 0.53365719 1.6980002
-0.10637661 0.5341627 1.6922858
-0.063978568 0.53476429 1.6900003
-0.055290341 0.53452408 1.6934286
-0.047705717 0.53446573 1.6980001
-0.11384686 0.54465371 1.6980002
-0.1083641 0.54456651 1.6945716
-0.064380951 0.54401904 1.6900003
-0.054688837 0.5454182 1.6980001
-0.046088576 0.54659432 1.6980001
-0.1132 0.55629712 1.6980001
-0.10682525 0.55506146 1.6930001
-0.099790476 0.55689526 1.6900001
-0.074038103 0.55407858 1.6900003
-0.064380959 0.55367625 1.6900003
-0.05498286 0.55629718 1.6980001
-0.046897143 0.55629718 1.6980001
-0.1132 0.56600004 1.6980001
-0.10611238 0.56504536 1.6932001
-0.098717459 0.5660159 1.6900002
-0.074038096 0.56369102 1.6900003
-0.064380951 0.56397718 1.6900003
-0.05492191 0.56540906 1.6962223
-0.046358097 0.56707811 1.6980001
-0.1065689 0.57587171 1.6953335
-0.099790476 0.57620955 1.6900001
-0.074243814 0.57622749 1.6948
-0.064685717 0.57610714 1.6980001
-0.054982856 0.57570291 1.6980001
-0.045279998 0.57570291 1.6980001
-0.03881143 0.57893717 1.6980001
-0.1065689 0.58555937 1.6953335
-0.099790476 0.58586669 1.6900001
-0.074149847 0.58571297 1.6926668
-0.064685717 0.58540571 1.6980001
-0.05498286 0.58540577 1.6980001
-0.045280002 0.58540571 1.6980001
-0.03881143 0.58217144 1.6980001
-0.10457524 0.5961867 1.6980001
-0.095191836 0.59598368 1.6900003
-0.086914286 0.5987429 1.6900001
-0.072246537 0.59500247 1.691143
-0.064913146 0.59490979 1.6956002
-0.054982856 0.59510857 1.6980001
-0.046897143 0.5918743 1.6980001
-0.10349714 0.60481143 1.6980001
-0.093352385 0.60518098 1.6900003
-0.086109534 0.60518098 1.6900001
-0.07081905 0.60518098 1.6900001
-0.06449829 0.60470968 1.6932001
-0.057408571 0.60400289 1.6980001
-0.10441101 0.6146189 1.6953332
-0.09818095 0.61483812 1.6900002
-0.081549205 0.61698419 1.6900001
-0.074038096 0.61537462 1.6900002
-0.064134426 0.61461115 1.6957144
-0.05498286 0.61128002 1.6980001
-0.10711662 0.62511784 1.6926668
-0.095400862 0.62478793 1.6900004
-0.083292857 0.62489772 1.6900003
-0.073926531 0.6251412 1.6980001
-0.064685717 0.62421715 1.6980002
-0.10601858 0.63487381 1.6930001
-0.094815589 0.63385975 1.6900004
-0.084320545 0.63451707 1.6934286
-0.074388571 0.63392001 1.6980001
-0.065763809 0.63445908 1.6980001
-0.026625715 0.63323528 1.694
-0.10349714 0.64524001 1.6980001
-0.093523808 0.64333713 1.6930001
-0.083849147 0.64341146 1.6932001
-0.074388579 0.64362293 1.6980001
-0.064281434 0.64321864 1.6980001
-0.055629712 0.64556342 1.6980002
-0.02749143 0.64038861 1.6980001
-0.10026286 0.65009147 1.6980001
-0.093794286 0.6517086 1.6980001
-0.083282858 0.6525172 1.6980001
-0.074388571 0.65009147 1.6980001
-0.064038858 0.65138519 1.6980002
-0.055629719 0.65138519 1.6980002
-0.02437143 0.045493335 1.7060001
0.0010831746 0.047659684 1.706
-0.055241901 0.054158729 1.706
-0.045493335 0.051992383 1.706
-0.038994286 0.051992383 1.7060001
0.004431169 0.055537317 1.7060001
0.012998096 0.058491431 1.7060001
-0.31439143 0.065802857 1.7060001
-0.30708 0.063365713 1.7060001
0.0081238095 0.064990468 1.7060002
0.012998096 0.061740953 1.7060001
-0.32386923 0.074739054 1.706
-0.31845334 0.071489528 1.7060001
0.0045493334 0.07603886 1.7060001
0.0041779592 0.084951833 1.7060002
-0.16702554 0.094236195 1.7060001
-0.0032495239 0.097485721 1.7060001
0.0012998095 0.093586288 1.7060001
-0.16665415 0.10352055 1.7060002
-0.0032495239 0.10398477 1.7060001
0.00081238098 0.10479715 1.7060001
-0.1665381 0.11373334 1.7060001
-0.0032495239 0.11048381 1.7060001
0.001624762 0.11373334 1.7060002
-0.16410096 0.12510668 1.7060001
0.0025996191 0.12543163 1.7060001
-0.1624762 0.13648 1.7060001
0.0048742858 0.13648 1.7060001
-0.16410096 0.14622858 1.7060001
0.0021663492 0.14839493 1.706
-0.16377601 0.15532723 1.7060001
-0.0045493334 0.15662704 1.7060001
0.00081238098 0.15516476 1.7060001
-0.16355938 0.16355938 1.706
-0.15922667 0.16735049 1.7060001
-0.0045493334 0.16572572 1.7060001
0.0010831746 0.16789208 1.706
-0.15792686 0.17612419 1.7060001
-0.0045493334 0.17482439 1.7060001
0.0012998095 0.17612419 1.7060001
-0.15678953 0.18441048 1.7060001
-0.0040619047 0.18603525 1.7060001
0.00081238098 0.18522286 1.7060001
-0.15597714 0.19497144 1.706
-0.0040619047 0.19415906 1.7060001
0 0.19497144 1.706
-0.15543555 0.20580317 1.7060002
-0.0040619047 0.20553239 1.7060001
0 0.20472001 1.706
-0.15597714 0.21446858 1.7060002
-0.00595746 0.21446858 1.7060002
0 0.21284382 1.7060001
-0.15597714 0.22421716 1.7060002
-0.14947811 0.22096762 1.7060001
-0.0064990479 0.22514559 1.7060002
-0.15760191 0.23396574 1.7060002
-0.012998096 0.23559049 1.7060001
-0.0064990474 0.23396574 1.7060002
-0.15504871 0.2437143 1.7060002
-0.012998096 0.24533905 1.7060001
-0.0064990474 0.2437143 1.7060002
-0.15337752 0.25606251 1.7060001
-0.14839493 0.25237969 1.706
-0.014390749 0.25578398 1.7060002
-0.0078917006 0.25392708 1.7060002
-0.1538108 0.26429459 1.706
-0.032495238 0.26971048 1.7060001
-0.015319183 0.26599675 1.7060002
-0.0097485716 0.26321143 1.7060001
-0.1538108 0.2772927 1.706
-0.033578414 0.2772927 1.706
-0.022746667 0.27945906 1.7060001
-0.015706033 0.27729273 1.7060002
-0.0097485716 0.27945906 1.7060001
-0.15272762 0.28595811 1.706
-0.14947811 0.28758287 1.7060001
-0.032495238 0.28270859 1.7060001
-0.022746667 0.28433335 1.7060001
-0.016247619 0.28549388 1.7060002
-0.15272762 0.29570669 1.706
-0.14947811 0.29570669 1.7060001
-0.01706 0.29651907 1.7060001
-0.14530014 0.30545524 1.7060002
-0.032495238 0.30708 1.7060001
-0.016247619 0.30545524 1.706
-0.14427885 0.31455392 1.7060001
-0.032495238 0.31520382 1.706
-0.014622859 0.31520382 1.7060002
-0.0097485716 0.31520382 1.706
-0.14297906 0.32495239 1.706
-0.015597714 0.32430249 1.7060001
-0.0097485716 0.32332763 1.7060001
-0.14379144 0.33551335 1.7060001
-0.033578414 0.33686733 1.706
-0.02437143 0.3379505 1.7060001
-0.019497143 0.33307621 1.7060001
-0.14406224 0.34444952 1.706
-0.13864635 0.34661588 1.706
-0.037044574 0.34509942 1.7060001
-0.027620954 0.34444952 1.7060002
-0.1446038 0.3541981 1.7060002
-0.13972953 0.3541981 1.706
-0.035744764 0.3541981 1.706
-0.026402382 0.35460427 1.7060002
-0.019497143 0.35744762 1.7060001
-0.14297906 0.36069715 1.7060001
-0.13810477 0.36394668 1.7060001
-0.033578414 0.36502984 1.706
-0.02437143 0.36394668 1.7060001
-0.015783403 0.36394665 1.7060002
-0.13539682 0.37369525 1.706
-0.034120001 0.37369525 1.7060001
-0.024913019 0.37586161 1.706
-0.015319184 0.37415949 1.7060002
-0.13485523 0.38669336 1.7060002
-0.12998095 0.38344383 1.706
-0.042243812 0.38669336 1.706
-0.038994286 0.3850686 1.7060001
-0.025996193 0.38506857 1.706
-0.018413968 0.38127747 1.706
-0.14297906 0.39969143 1.7060001
-0.13647999 0.39644188 1.7060002
-0.043056194 0.39644191 1.7060001
-0.037911113 0.39752507 1.706
-0.025996191 0.39644191 1.7060002
-0.14460382 0.40456572 1.7060001
-0.13740842 0.40665469 1.7060002
-0.03628635 0.40619048 1.7060002
-0.026924627 0.40572625 1.7060002
-0.13593841 0.41593906 1.7060002
-0.036557145 0.41512668 1.7060001
-0.029245714 0.41593906 1.706
-0.13404286 0.42487526 1.7060001
-0.035744764 0.42568764 1.706
-0.029245716 0.42243811 1.7060001
-0.13323048 0.43543622 1.706
-0.034444951 0.43543619 1.7060001
-0.029245714 0.43543622 1.706
-0.13323048 0.4451848 1.706
-0.042243812 0.44680953 1.7060001
-0.035338569 0.44559097 1.7060002
-0.027296001 0.44453487 1.7060001
-0.13323048 0.45330858 1.7060001
-0.12889777 0.45709968 1.706
-0.051992383 0.45655811 1.7060001
-0.045493335 0.45493332 1.7060002
-0.036150951 0.45452714 1.7060002
-0.025454603 0.45493332 1.7060002
-0.1283562 0.46468195 1.7060002
-0.051992383 0.46468195 1.706
-0.046305716 0.46549428 1.7060001
-0.036673196 0.46468192 1.7060002
-0.026402384 0.4650881 1.7060002
-0.12754382 0.47361815 1.7060001
-0.051992383 0.47118098 1.7060001
-0.04642177 0.4748947 1.7060002
-0.12673144 0.48255432 1.7060001
-0.042243812 0.48417908 1.7060001
-0.12348191 0.49230286 1.7060001
-0.043326985 0.49609399 1.706
-0.12348191 0.505301 1.7060001
-0.045493335 0.50286382 1.7060001
-0.122832 0.51407462 1.7060001
-0.042243812 0.51504952 1.7060001
-0.038994286 0.51992381 1.7060001
-0.1240235 0.52642286 1.7060002
-0.045493335 0.52967238 1.7060001
-0.038994286 0.52642286 1.7060001
-0.12104477 0.53535903 1.7060001
-0.11698286 0.53617144 1.7060001
-0.044410158 0.53617144 1.706
-0.11698286 0.54592001 1.7060001
-0.044951748 0.54483682 1.7060002
-0.11698285 0.55566859 1.706
-0.044951748 0.55512697 1.7060002
-0.11698285 0.56541717 1.706
-0.044410158 0.56433398 1.7060002
-0.038994286 0.5686667 1.7060001
-0.1153581 0.57516575 1.7060001
-0.037694477 0.57581568 1.7060001
-0.11373333 0.58491433 1.706
-0.036557145 0.58572674 1.7060001
-0.11156698 0.5946629 1.706
-0.044680953 0.59710002 1.7060001
-0.037911113 0.59249657 1.706
-0.1104838 0.60441142 1.706
-0.053075556 0.60657781 1.706
-0.047443051 0.60376155 1.7060001
-0.1104838 0.61416 1.706
-0.054592002 0.61480987 1.7060001
-0.047659684 0.61307687 1.706
-0.11048381 0.62065905 1.7060001
-0.063907303 0.62607497 1.706
-0.056170344 0.62344438 1.7060002
-0.045493335 0.62065905 1.706
-0.029245716 0.62553334 1.7060001
-0.11481651 0.63582349 1.706
-0.064990476 0.63257402 1.706
-0.055241909 0.63365722 1.7060002
-0.026646096 0.63235736 1.7060001
-0.017872382 0.63365716 1.7060001
-0.11373333 0.6412394 1.706
-0.064990476 0.6450305 1.7060001
-0.055241909 0.64286411 1.7060002
-0.10398477 0.65477908 1.7060001
-0.095048577 0.65884101 1.7060001
-0.084487617 0.65965337 1.706
-0.074739046 0.65640384 1.706
-0.064990476 0.65857023 1.706
-0.058491431 0.65965337 1.7060001
-0.092611432 0.66290289 1.7060001
-0.087737143 0.66290289 1.7060001
-0.034299999 0.0294 1.715
-0.033755556 0.034844447 1.715
-0.035116665 0.046549998 1.715
-0.026133334 0.043555558 1.715
0.0065333336 0.047366668 1.715
0.013066667 0.049000002 1.715
-0.31196666 0.058800001 1.715
0.0098000001 0.052266669 1.715
0.016741667 0.055124998 1.715
0.025725 0.055941671 1.715
-0.32176667 0.066966668 1.715
-0.3136 0.063700005 1.715
0.016741667 0.065741673 1.715
0.026133334 0.065333337 1.715
0.032666668 0.066966668 1.715
-0.33320001 0.078400001 1.715
-0.3291167 0.074316666 1.715
0.0098000001 0.075133339 1.715
0.016333334 0.075133339 1.715
0.026133334 0.071866669 1.715
0.0098000001 0.084933341 1.715
0.0147 0.084933341 1.715
-0.17395002 0.093916669 1.715
0.0074666664 0.095200002 1.715
0.0147 0.094733335 1.715
-0.17313333 0.10453334 1.715
0.0069416668 0.104125 1.715
0.0147 0.10453334 1.715
-0.17313333 0.11433333 1.715
-0.16986667 0.11433333 1.715
0.0081666671 0.11433333 1.715
0.014373335 0.11433333 1.7149999
-0.17313334 0.1225 1.715
-0.16904999 0.12495001 1.715
0.0084933341 0.12413333 1.7149999
0.0147 0.12413334 1.715
-0.16823334 0.13393332 1.715
0.0089833336 0.13475001 1.715
0.013066667 0.1323 1.715
-0.16768889 0.14373334 1.715
0.0081666671 0.14373334 1.715
0.013066667 0.14046668 1.715
-0.17313334 0.15353334 1.715
-0.16986667 0.15353334 1.715
0.0074666664 0.15400001 1.715
-0.16782501 0.16578333 1.715
0.0050814813 0.16478518 1.715
-0.16415 0.17558333 1.715
0.0074666669 0.17593335 1.715
-0.16202667 0.18685335 1.7149999
0.0069416668 0.18620002 1.715
0.013066667 0.18946667 1.715
-0.16170001 0.19599999 1.715
0.0065333331 0.19600001 1.715
-0.16170001 0.20580001 1.715
0.0061249994 0.20539169 1.715
-0.16333334 0.21560001 1.715
-0.0032666668 0.21886668 1.715
0.0049000001 0.21600835 1.715
-0.16251667 0.22458334 1.715
-0.0032666668 0.22213334 1.715
0.0032666668 0.22540003 1.715
-0.16464001 0.23454669 1.7149999
0.003266667 0.2352 1.715
-0.16202667 0.245 1.7149999
0.0032666668 0.24500002 1.715
-0.16006668 0.25480002 1.715
-0.1568 0.25479999 1.715
-0.0043555559 0.25588891 1.715
0.0021777779 0.2537111 1.715
-0.16006668 0.26460001 1.715
-0.1568 0.26786667 1.715
-0.0056000003 0.26506668 1.715
0 0.26460001 1.715
-0.16006668 0.2744 1.715
-0.15598333 0.27358335 1.715
-0.013066667 0.2744 1.715
-0.0065333336 0.27439997 1.715
0 0.2744 1.715
-0.16088335 0.28338337 1.715
-0.1568 0.28583336 1.715
-0.013066667 0.28746668 1.715
-0.0061250003 0.28460833 1.715
0 0.28420004 1.715
-0.16006668 0.29726669 1.715
-0.1568 0.29400003 1.715
-0.013066667 0.29563335 1.715
-0.0081666671 0.29400003 1.715
-0.16006668 0.30053335 1.715
-0.15418668 0.30380002 1.7149999
-0.013066667 0.30380002 1.715
-0.0081666671 0.30379999 1.715
-0.15026668 0.31360003 1.715
-0.013066667 0.31033334 1.715
-0.0059888889 0.31360003 1.715
-0.15026668 0.32503337 1.715
-0.147 0.32503337 1.715
-0.014700001 0.32993335 1.715
-0.0057166666 0.32503337 1.715
-0.15157335 0.33712 1.7149999
-0.147 0.33483332 1.715
-0.016333334 0.33646667 1.7149999
-0.0098000001 0.33646667 1.715
-0.15026668 0.34626666 1.715
-0.147 0.34790003 1.715
-0.032666668 0.34626672 1.715
-0.022866668 0.34626666 1.715
-0.016741667 0.34667501 1.715
-0.0098000001 0.34626669 1.715
-0.15026668 0.35606667 1.715
-0.032666668 0.35606667 1.715
-0.022866668 0.35280001 1.715
-0.015924999 0.35565835 1.715
-0.0081666671 0.35933334 1.715
-0.15026668 0.3626 1.715
-0.14482222 0.36695555 1.715
-0.0069416668 0.36586666 1.715
0 0.36913335 1.715
-0.14332502 0.37525836 1.715
-0.1372 0.37893334 1.715
-0.032666668 0.37893334 1.715
-0.0065333336 0.37566665 1.715
0.0008166667 0.37485003 1.715
-0.14210001 0.38546669 1.715
-0.1372 0.38546669 1.715
-0.034299999 0.38546669 1.715
-0.015244446 0.38655558 1.715
-0.007622222 0.38437781 1.715
0 0.3822 1.715
-0.14455 0.39445001 1.715
-0.035 0.39573333 1.715
-0.016333334 0.39526665 1.715
-0.0098000001 0.39526668 1.715
-0.15026668 0.40670002 1.715
-0.147 0.40180001 1.715
-0.032666668 0.40506667 1.715
-0.022866668 0.40833336 1.715
-0.016741667 0.40465835 1.715
-0.0087111117 0.40288889 1.715
-0.15026668 0.41323334 1.715
-0.14427778 0.41486669 1.715
-0.032666668 0.41486669 1.715
-0.024173334 0.41552001 1.7149999
-0.017966667 0.41486666 1.715
-0.14128335 0.42385003 1.715
-0.1372 0.42793334 1.715
-0.032666668 0.42466664 1.715
-0.0252 0.42513332 1.715
-0.018293332 0.42532 1.7149999
-0.14046668 0.43283337 1.715
-0.1372 0.43446669 1.715
-0.032666668 0.43446669 1.715
-0.0252 0.43400002 1.715
-0.017266667 0.43493336 1.715
-0.14046668 0.44426668 1.715
-0.1372 0.44426668 1.715
-0.023683334 0.44345 1.715
-0.016741667 0.44426668 1.715
-0.0098000001 0.44100001 1.715
-0.14046668 0.45243335 1.715
-0.1372 0.45406672 1.715
-0.022866668 0.45080003 1.715
-0.016741667 0.45365834 1.715
-0.13524 0.46321335 1.7149999
-0.045733333 0.46550003 1.715
-0.032666668 0.46223336 1.715
-0.022866668 0.46223336 1.715
-0.017966667 0.46386668 1.715
-0.13393334 0.47366667 1.7149999
-0.042466667 0.47366667 1.715
-0.036586665 0.47432002 1.7149999
-0.026133334 0.47529998 1.715
-0.018293334 0.47301334 1.7149999
-0.1323 0.48346671 1.715
-0.037240002 0.48281336 1.7149999
-0.026600003 0.48253337 1.715
-0.016986668 0.48216 1.7149999
-0.13197334 0.49261338 1.7149999
-0.12658334 0.49490005 1.715
-0.0392 0.49489999 1.715
-0.0294 0.49489999 1.715
-0.013066667 0.49653336 1.715
-0.0098000001 0.49653336 1.715
-0.13066667 0.50633335 1.715
-0.12740001 0.50633335 1.715
-0.042466667 0.50470001 1.715
-0.0392 0.50633335 1.715
-0.013066667 0.50960004 1.715
-0.0081666671 0.50960004 1.715
-0.13066667 0.51286668 1.715
-0.12740001 0.51613337 1.715
-0.0392 0.51613337 1.715
-0.026133334 0.51776665 1.715
-0.016333334 0.51654166 1.715
-0.0081666671 0.51613337 1.715
-0.13175556 0.52811116 1.715
-0.12740001 0.52266669 1.715
-0.035933334 0.52675003 1.715
-0.026133334 0.52593338 1.715
-0.016333334 0.52593338 1.715
-0.0074666664 0.52546668 1.715
-0.13148335 0.53655005 1.715
-0.12658334 0.53655005 1.715
-0.042466667 0.5357334 1.715
-0.0392 0.5357334 1.715
-0.026133334 0.53573334 1.715
-0.016333334 0.53573334 1.715
-0.0081666671 0.53573334 1.715
-0.13197334 0.54488003 1.7149999
-0.12454167 0.54594171 1.715
-0.037893333 0.54488003 1.7149999
-0.02667778 0.54444444 1.715
-0.01715 0.54308331 1.715
-0.0081666671 0.54226667 1.715
-0.1225 0.55533338 1.715
-0.037566669 0.55533332 1.715
-0.0294 0.55533338 1.715
-0.1225 0.56513339 1.715
-0.037893336 0.56448001 1.7149999
-0.028583333 0.56595004 1.715
-0.1225 0.57493335 1.715
-0.033973332 0.57428002 1.7149999
-0.026133336 0.57493335 1.715
-0.12195555 0.58255559 1.715
-0.1176 0.58473337 1.715
-0.032666668 0.58473337 1.715
-0.02744 0.58342665 1.7149999
-0.11678334 0.59535003 1.715
-0.033483334 0.59535003 1.715
-0.028583333 0.59453338 1.715
-0.11433334 0.60433334 1.715
-0.042466667 0.60596669 1.715
-0.037566669 0.60433334 1.715
-0.0294 0.60760003 1.715
-0.11433334 0.61086667 1.715
-0.043773334 0.61347997 1.7149999
-0.037893336 0.61478674 1.7149999
-0.026541667 0.61454171 1.715
-0.018511111 0.61522228 1.715
-0.11433334 0.62720001 1.715
-0.052266669 0.62720001 1.715
-0.045733336 0.62393337 1.715
-0.035933334 0.62393337 1.715
-0.025725001 0.62352502 1.715
-0.018783335 0.62475002 1.715
-0.12086667 0.63700002 1.715
-0.11596667 0.63373333 1.715
-0.052266669 0.6304667 1.715
-0.045733333 0.63373333 1.715
-0.035933334 0.63373339 1.715
-0.023955556 0.63155556 1.715
-0.016333334 0.6331889 1.715
-0.0098000001 0.63700002 1.715
0 0.63700002 1.715
-0.12086668 0.64353341 1.715
-0.11596667 0.64680004 1.715
-0.052266669 0.64353335 1.715
-0.045733333 0.64108336 1.715
-0.034299999 0.64026672 1.715
-0.11106667 0.65006667 1.715
-0.098000005 0.66640002 1.715
-0.083300002 0.66640002 1.715
-0.075133339 0.66313338 1.715
-0.034460001 0.036100954 1.723
-0.027896192 0.03938286 1.723
-0.042664763 0.049228575 1.723
-0.037741907 0.044305716 1.723
-0.027896192 0.045946669 1.723
0.009845715 0.045946669 1.723
0.017065905 0.047259431 1.7229999
0.025434762 0.048408099 1.723
-0.31588334 0.056612864 1.723
-0.057433337 0.052510478 1.723
0.029537143 0.052510478 1.723
0.035163265 0.05626123 1.7229998
-0.3314724 0.067279048 1.723
-0.32572904 0.065638095 1.723
-0.31834477 0.062356193 1.723
0.036100954 0.06432534 1.7229999
-0.34295905 0.072201908 1.723
-0.33639523 0.073842861 1.723
0.026255237 0.077124767 1.7229999
0.034460001 0.075483821 1.7229999
0.01969143 0.085329525 1.723
0.026255239 0.085329525 1.7229998
0.032819048 0.085329525 1.723
-0.18247393 0.096488006 1.7229999
-0.17722286 0.096816197 1.723
0.01969143 0.095175244 1.723
0.026255237 0.095175244 1.7229998
0.032819048 0.091893338 1.723
-0.18214573 0.10502096 1.7229999
-0.17722286 0.10502096 1.723
0.01969143 0.10502096 1.723
0.025844999 0.10461073 1.7229998
0.032819048 0.10338001 1.723
-0.182849 0.11486667 1.7229998
-0.17722286 0.11486667 1.723
0.018870953 0.11486667 1.723
0.024614288 0.11486667 1.7229999
0.032819048 0.11814857 1.723
-0.18050475 0.12471239 1.723
-0.17640238 0.12553285 1.723
0.01969143 0.12471239 1.723
0.024614288 0.12471239 1.7229999
0.032819048 0.12143048 1.723
-0.18050477 0.13291714 1.723
-0.17558192 0.1345581 1.7229999
0.017347211 0.13502695 1.7229998
0.026255237 0.1345581 1.7229998
-0.17435119 0.14399357 1.7229998
0.016819762 0.14481406 1.7229998
0.02531755 0.14393497 1.7229998
-0.18050475 0.15424953 1.723
-0.17591009 0.15424953 1.7229999
0.016409524 0.15424952 1.7229998
0.023793811 0.15424953 1.723
-0.17476143 0.16327477 1.723
0.009845715 0.16409524 1.723
0.016409524 0.16409524 1.7229998
0.022973334 0.16081335 1.723
-0.1723 0.17394096 1.723
-0.16737714 0.17722286 1.723
0.016409526 0.17394096 1.7229998
0.022973334 0.17722286 1.723
-0.17197183 0.18444306 1.7229999
-0.16737716 0.18378668 1.723
0.016409524 0.18378668 1.7229998
0.022973334 0.18378668 1.723
-0.17147952 0.19281191 1.723
-0.16737716 0.19363241 1.723
0.016819762 0.19404264 1.7229998
0.025161272 0.19308542 1.7229999
-0.17065905 0.20183715 1.723
-0.16655667 0.2034781 1.723
0.015999287 0.20388836 1.7229998
-0.17065905 0.21496478 1.723
-0.16737714 0.21496478 1.723
0.009845715 0.21441777 1.723
0.015753144 0.21430838 1.7229998
-0.17147952 0.22727191 1.723
-0.16737716 0.22645144 1.723
0.009845715 0.22645144 1.723
0.013948096 0.22563097 1.723
-0.1723 0.23629713 1.7229999
-0.16737714 0.23957905 1.723
0.009845715 0.23629715 1.723
0.01312762 0.23629715 1.723
-0.17065905 0.24614286 1.723
-0.16737716 0.24614286 1.723
0.009845715 0.24614286 1.723
0.01312762 0.24614286 1.723
-0.17065905 0.25598857 1.723
-0.1657362 0.25598857 1.7229999
0.007657778 0.25708255 1.7229999
0.014440382 0.25533217 1.7229999
-0.17065905 0.26747525 1.723
-0.16573618 0.2658343 1.7229999
0.0065638102 0.26583427 1.7229998
0.013948096 0.26501381 1.723
-0.17065905 0.27568004 1.723
-0.1657362 0.27568004 1.7229999
0.0059074289 0.27568001 1.7229998
0.013127619 0.27239811 1.723
-0.17065905 0.28552571 1.723
-0.16606438 0.28618211 1.7229999
0.0065638097 0.28552574 1.7229998
-0.17065905 0.29208952 1.723
-0.16450548 0.29496118 1.7229998
-0.0032819051 0.29537144 1.723
0.0016409525 0.29537141 1.7229999
-0.16354825 0.30521715 1.7229999
-0.15753144 0.30849907 1.723
-0.0032819051 0.30521718 1.723
0.0028130612 0.305686 1.7229998
-0.16081335 0.31506288 1.723
-0.15589049 0.31506288 1.7229999
-0.0032819049 0.31178096 1.723
0.0045946669 0.31506288 1.7229998
-0.16081335 0.32490858 1.723
-0.15589049 0.32490858 1.7229999
0.0013127619 0.32490855 1.7229999
-0.16368501 0.33516458 1.7229998
-0.15621868 0.33409792 1.7229999
-0.013127619 0.33803621 1.723
-0.0054698419 0.33584824 1.7229999
0 0.3314724 1.723
-0.16300128 0.34350607 1.7229999
-0.15621868 0.34525639 1.7229999
-0.013127619 0.34295905 1.723
-0.0056261229 0.34459999 1.7229998
0.0028716666 0.34501025 1.7229998
-0.16081335 0.35116383 1.723
-0.15556231 0.35378936 1.7229999
-0.0065638102 0.35444573 1.7229998
0.0023442176 0.35397691 1.7229998
-0.15315557 0.36429143 1.723
-0.0032819049 0.36429143 1.723
0.0016409525 0.36429143 1.7229999
-0.15178812 0.37413713 1.723
0.0065638097 0.37460598 1.7229998
-0.15096763 0.38070098 1.723
-0.14768572 0.38398287 1.723
-0.0032819049 0.38726479 1.723
0.0059074285 0.38431108 1.7229998
0.013127619 0.38398287 1.723
-0.15331183 0.3938286 1.7229998
-0.14768572 0.39382857 1.723
-0.004922857 0.3938286 1.7229999
0.0044753249 0.39353028 1.7229997
-0.15424953 0.4036743 1.7229998
-0.14768572 0.40039238 1.723
-0.0045946664 0.40367427 1.7229999
0.0023442176 0.4036743 1.7229998
-0.15556231 0.41286364 1.7229999
-0.01312762 0.41352001 1.723
-0.0065638102 0.41352001 1.7229998
0.0016409524 0.41023812 1.723
-0.15206158 0.42391273 1.7229999
-0.14659174 0.42610064 1.7229999
-0.013784001 0.4246785 1.7229999
-0.007657778 0.42445967 1.7229998
-0.1453415 0.43696219 1.7229998
-0.013127619 0.43485239 1.723
-0.007657778 0.43758735 1.7229999
0 0.43977526 1.723
-0.14604476 0.4463391 1.7229999
-0.013127619 0.44633907 1.723
-0.0061535714 0.4467493 1.7229998
0.00082047621 0.44551858 1.723
-0.14495079 0.45618474 1.7229999
-0.013127619 0.4594667 1.723
-0.0065638097 0.4561848 1.7229998
0 0.45454383 1.723
-0.14276287 0.46603048 1.7229999
-0.13784 0.4693124 1.723
-0.01312762 0.46603048 1.723
-0.0065638102 0.46603048 1.7229998
-0.14194238 0.47505572 1.723
-0.13784 0.47751716 1.723
-0.032819048 0.47751716 1.723
-0.013948096 0.47669667 1.723
-0.0082047619 0.47587618 1.7229999
-0.14112191 0.48572195 1.723
-0.13784 0.48572195 1.723
-0.032819048 0.48572192 1.723
-0.024614286 0.48900384 1.723
-0.015589048 0.48736286 1.723
-0.0075014969 0.48572192 1.7229998
-0.14112191 0.49556765 1.723
-0.13701953 0.49638811 1.723
-0.034460001 0.49556768 1.7229999
-0.024614288 0.49556765 1.7229999
-0.017347211 0.49509877 1.7229998
-0.0060168258 0.49556765 1.7229999
0 0.49884954 1.723
-0.13510507 0.50486636 1.7229999
-0.12799428 0.50213146 1.723
-0.034460001 0.50541335 1.7229999
-0.025845001 0.50582361 1.7229998
-0.016819762 0.50582355 1.7229998
-0.0061535719 0.50582355 1.7229998
0 0.50541335 1.723
-0.13455808 0.51525909 1.7229999
-0.034460001 0.51525903 1.7229999
-0.026255237 0.51361811 1.7229999
-0.017503493 0.51307112 1.723
-0.0032819051 0.51525909 1.723
0 0.51525903 1.723
-0.1340111 0.52510476 1.7229999
-0.034460001 0.52346385 1.723
-0.0032819049 0.52510476 1.723
0 0.52346385 1.723
-0.13652724 0.53560686 1.7229999
-0.03413181 0.53560686 1.7229999
-0.0032819051 0.53495049 1.723
0 0.53659141 1.723
-0.13784 0.54479617 1.723
-0.033639524 0.54397571 1.723
-0.026255239 0.54807812 1.723
-0.014768572 0.54807812 1.723
-0.0052510477 0.54610896 1.7229999
0 0.54479623 1.723
-0.1345581 0.5546419 1.7229998
-0.12799428 0.55628288 1.723
-0.033639524 0.55382144 1.723
-0.024614284 0.5546419 1.7229999
-0.016409524 0.55464196 1.7229998
-0.0065638102 0.55464196 1.7229998
0 0.55136001 1.723
-0.13291714 0.5644877 1.7229999
-0.12799428 0.56448764 1.723
-0.032819048 0.56448764 1.723
-0.024614284 0.56448764 1.7229999
-0.016819762 0.56489789 1.7229998
-0.0065638102 0.56448764 1.7229998
-0.14112191 0.57433337 1.723
-0.13414785 0.57392317 1.7229998
-0.12799428 0.57433337 1.723
-0.034460001 0.57105148 1.723
-0.022973334 0.57105148 1.723
-0.016409524 0.57433337 1.7229998
-0.0075014969 0.57480222 1.7229998
-0.13291714 0.58417904 1.7229999
-0.12717381 0.58499956 1.723
-0.024614286 0.58746099 1.723
-0.016409524 0.5841791 1.7229998
-0.0090252385 0.58335853 1.723
-0.13127619 0.59402478 1.723
-0.12471239 0.59402484 1.7229998
-0.024286097 0.59336841 1.7229999
-0.016409524 0.59402484 1.7229998
-0.009845715 0.59074289 1.723
-0.12471238 0.60387051 1.7229998
-0.11814857 0.60551143 1.723
-0.032819048 0.60551143 1.723
-0.025844999 0.60428077 1.7229998
-0.016409526 0.60387051 1.7229998
-0.12430216 0.61330599 1.7229998
-0.11732809 0.6145367 1.723
-0.033639524 0.61371619 1.723
-0.024067303 0.61152822 1.723
-0.015940681 0.61277854 1.7229998
-0.009845715 0.61699814 1.723
-0.12307143 0.62356192 1.7229999
-0.11650762 0.62356192 1.7229999
-0.032819048 0.62028003 1.723
-0.014768571 0.62356192 1.7229999
-0.009845715 0.62356192 1.723
-0.15424953 0.63012576 1.723
-0.1237747 0.63528305 1.7229998
-0.11814857 0.63176668 1.723
-0.013127619 0.63176668 1.723
-0.0069284658 0.6352309 1.7229998
0.0045946664 0.63734591 1.7229999
-0.12580635 0.64434737 1.723
-0.045946669 0.64850438 1.7229999
-0.0365698 0.64747298 1.7229998
-0.11486667 0.65473998 1.723
-0.047587622 0.65309906 1.723
-0.032819048 0.65309906 1.723
-0.029537143 0.65309906 1.723
-0.10436459 0.66688305 1.7229999
-0.068920001 0.66622669 1.723
-0.037939049 0.039588574 1.7320001
0.02969143 0.039588574 1.7320001
0.032990478 0.039588574 1.7320001
-0.042887621 0.044537142 1.7320001
0.018144764 0.042887621 1.7320001
0.026392382 0.044537142 1.7320001
0.036289524 0.048660953 1.7320001
-0.33320382 0.05938286 1.7320001
-0.32660574 0.057733338 1.7320002
0.039588574 0.054434288 1.7320001
0.042887621 0.057733335 1.7320001
-0.35299811 0.069280006 1.7320001
-0.34574023 0.067960382 1.7320001
-0.3370527 0.065980963 1.7320002
-0.32660574 0.062681906 1.7320001
0.039588574 0.067630485 1.7320001
0.043712385 0.06680572 1.7320001
-0.35299811 0.072579049 1.7320001
-0.34475049 0.075878099 1.7320001
0.039588574 0.075878106 1.732
0.042887621 0.07422857 1.7320001
0.037939049 0.085775234 1.7320002
0.042887621 0.089074291 1.7320001
-0.19244444 0.097871751 1.732
-0.18584634 0.094572701 1.732
0.035739686 0.095672376 1.7320002
-0.19332419 0.10556953 1.7320001
-0.18804573 0.10556952 1.732
0.02969143 0.10886858 1.7320001
0.036289524 0.10622934 1.7320001
-0.19134477 0.1171162 1.7320001
-0.18804573 0.11546667 1.7320001
0.02969143 0.11546668 1.732
0.034969904 0.11480687 1.7320001
-0.1863962 0.12536381 1.7320002
0.02969143 0.12536381 1.732
0.034969904 0.12602362 1.7320001
-0.18392192 0.13608572 1.7320001
0.034310095 0.13460115 1.7320001
-0.19134477 0.14845715 1.7320001
-0.18380408 0.14562939 1.7320002
0.02969143 0.14680763 1.7320001
0.033815242 0.14433335 1.7320001
-0.19134478 0.15505524 1.732
-0.1863962 0.15505524 1.7320002
0.028371811 0.15505525 1.7320001
0.032990478 0.1517562 1.7320001
-0.18342707 0.16363278 1.7320001
-0.17814858 0.16660191 1.7320001
0.025072763 0.16561219 1.7320001
-0.17732382 0.17567429 1.7320001
0.025842538 0.17484953 1.7320002
-0.17732382 0.18392192 1.7320001
0.027712002 0.18540648 1.7320001
0.032990478 0.18474668 1.732
-0.18144763 0.19134477 1.7320001
-0.17682895 0.19530363 1.7320001
0.028591746 0.1957435 1.732
0.033815242 0.19464381 1.7320001
-0.17484953 0.20454097 1.7320001
0.019794287 0.20124191 1.7320001
0.026392382 0.20454094 1.7320002
0.032990478 0.20124191 1.7320001
-0.17616914 0.2150979 1.7320001
0.019794287 0.21773715 1.7320001
0.025921088 0.21349552 1.7320002
-0.18144763 0.22433525 1.7320001
-0.17649905 0.22433525 1.7320002
0.018969525 0.22516002 1.7320001
0.024193017 0.22213589 1.732
-0.18144763 0.2342324 1.7320001
-0.17814858 0.23423238 1.732
0.016495239 0.23423238 1.732
-0.17649905 0.24248001 1.7320001
0.016495239 0.24412954 1.732
-0.17649905 0.25402665 1.7320002
0.018969525 0.2532019 1.7320001
0.023093333 0.25402665 1.7320001
-0.17402476 0.26392382 1.7320001
0.018474666 0.26392382 1.7320001
-0.17484953 0.27382097 1.732
0.017437823 0.27429226 1.7320002
-0.17649905 0.28371811 1.7320002
0.015395557 0.28316823 1.7320002
-0.17579211 0.29408655 1.7320002
0.0082476195 0.29526478 1.7320001
0.014845715 0.29361525 1.7320001
-0.17287011 0.30285257 1.7320001
-0.16825144 0.30681145 1.7320001
0.0082476195 0.30351239 1.7320002
0.015395557 0.30406222 1.7320002
-0.16693182 0.31406933 1.7320001
0.0065980954 0.31176001 1.7320001
0.015395557 0.31230983 1.7320002
-0.17155048 0.32825524 1.7320001
-0.16660191 0.32495621 1.7320002
0.0070693875 0.32519189 1.7320002
0.013196191 0.32165715 1.7320001
-0.17155047 0.33650288 1.732
-0.16825144 0.33320382 1.7320001
0.003711429 0.33691522 1.7320002
-0.17155048 0.34475049 1.7320001
-0.16715175 0.34859934 1.732
0.0082476195 0.34640002 1.7320001
0.013196191 0.34969905 1.7320001
-0.16363278 0.35695699 1.7320001
-0.1583543 0.35959619 1.7320001
0.0082476195 0.35629717 1.7320001
0.013196191 0.35299811 1.7320001
-0.16297296 0.36553448 1.7320001
-0.15752953 0.36701906 1.7320001
0.0082476195 0.36619434 1.7320002
0.013196191 0.36619431 1.7320001
-0.16165334 0.37774098 1.7320001
-0.15703467 0.37609142 1.7320001
0.0098971436 0.37279239 1.7320001
0.014295873 0.3782908 1.732
-0.15546761 0.38640094 1.7320002
0.01517562 0.38598856 1.7320001
-0.16165334 0.39588574 1.732
-0.1583543 0.39588571 1.7320001
0.0098971436 0.39918476 1.7320001
0.01319619 0.39588571 1.732
-0.16165334 0.40578285 1.732
-0.1583543 0.40248382 1.7320001
0.0085775238 0.40578288 1.7320001
0.013196191 0.40578288 1.7320001
-0.16165334 0.41568002 1.732
-0.1583543 0.41897905 1.7320001
0.0056083808 0.41633987 1.7320001
-0.16165334 0.42227811 1.7320001
-0.15752953 0.42640191 1.7320001
-0.0032990477 0.42722666 1.7320001
0.0032990477 0.42475238 1.7320001
-0.15546763 0.43588665 1.7320002
-0.0041238097 0.43547431 1.7320001
0.0051842178 0.43594557 1.7320002
-0.15505524 0.44537142 1.7320002
0.0070104762 0.44537145 1.7320002
0.013196191 0.44537145 1.7320001
-0.15464287 0.45485625 1.7320002
0.0049485718 0.45526859 1.7320002
-0.15340571 0.46516573 1.7320002
-0.14845715 0.46516573 1.732
0.00082476193 0.46434098 1.7320001
-0.14735746 0.47506288 1.732
-0.0032990477 0.47671241 1.7320001
0 0.47506288 1.732
-0.1649524 0.48825908 1.7320001
-0.15285589 0.4860597 1.732
-0.14680763 0.48496005 1.7320002
-0.0032990477 0.48331049 1.7320001
0.00082476193 0.48496002 1.7320001
-0.1649524 0.4915581 1.7320001
-0.15340573 0.49815622 1.7320001
-0.14680763 0.49485716 1.7320002
-0.0032990477 0.49320763 1.7320001
0.00082476193 0.49568194 1.7320001
-0.15340573 0.50310481 1.7320001
-0.14557047 0.50516671 1.7320002
-0.13856001 0.50805336 1.7320001
0.0032990475 0.5047543 1.732
-0.15340573 0.51465142 1.7320001
-0.1451581 0.51465148 1.7320002
-0.13856001 0.51795048 1.7320001
0.0032990475 0.51465142 1.732
-0.14421551 0.5240773 1.7320002
-0.13856001 0.52454859 1.732
0.0032990475 0.52454859 1.732
-0.14474572 0.53403336 1.7320002
0.0019794286 0.53378594 1.7320001
-0.14268382 0.54516768 1.7320001
0.0032990475 0.54434282 1.732
-0.14317867 0.55489981 1.7320001
0.0024742857 0.5550648 1.7320001
-0.14515811 0.56413716 1.7320002
-0.13856001 0.56413716 1.732
-0.013196191 0.56413716 1.7320001
0.00082476193 0.56496191 1.7320001
-0.14557047 0.57362193 1.7320002
-0.13856001 0.57073528 1.7320001
-0.0032990477 0.57568383 1.7320001
0 0.57073528 1.7320001
-0.14317867 0.58327162 1.7320001
-0.13856001 0.58393145 1.732
-0.0043987301 0.5861308 1.732
0 0.58063239 1.7320001
-0.14185905 0.59382862 1.732
-0.13636063 0.59492826 1.7320002
-0.0065980954 0.59382856 1.7320001
-0.13567334 0.60413814 1.7320002
-0.0065980949 0.60372567 1.7320002
-0.13431837 0.61315161 1.7320002
-0.0065980954 0.6136229 1.7320002
0.0013196191 0.61296308 1.7320001
-0.13196191 0.62352008 1.732
-0.12866285 0.62352008 1.732
-0.0049485713 0.62352008 1.7320002
0 0.62352002 1.732
-0.16165334 0.63341719 1.7320001
-0.1583543 0.63341719 1.7320001
-0.13361144 0.63341719 1.7320002
-0.12783809 0.63424188 1.7320001
-0.0041238097 0.63259238 1.7320001
0 0.63341719 1.732
-0.14185905 0.6433143 1.7320001
-0.13526095 0.6433143 1.7320002
-0.12866285 0.64496386 1.7320001
-0.11876572 0.65980953 1.7320001
-0.042887621 0.65651047 1.7320001
-0.038488891 0.65761012 1.732
-0.11546666 0.66475809 1.7320002
0.037307143 0.044768572 1.7410001
0.043110479 0.049742859 1.7410001
-0.35151622 0.059691429 1.7410001
-0.34488383 0.059691429 1.7410001
-0.33825144 0.059691429 1.7410001
-0.32332858 0.053059049 1.7410001
-0.31835431 0.053059049 1.7410001
0.047089908 0.057038475 1.7409999
0.054717146 0.058033332 1.7410001
-0.36312285 0.067981906 1.7410001
-0.35483241 0.065771118 1.7410001
-0.34488383 0.063007623 1.7410001
-0.33161905 0.063007623 1.7410001
0.048416384 0.065660581 1.7409999
0.053059049 0.06466572 1.7410001
-0.36229381 0.075443335 1.7410001
-0.35530615 0.076272383 1.7410001
0.046979368 0.076825082 1.7410001
-0.36146477 0.082904764 1.7410001
-0.35649049 0.082904764 1.7410001
0.046426672 0.086220957 1.7410001
-0.20228763 0.099485718 1.7410001
-0.19897144 0.099485718 1.7410001
0.039794289 0.097827621 1.7410001
0.045479186 0.095695786 1.7410001
-0.20228763 0.1061181 1.7410001
-0.19731334 0.10611811 1.7410001
0.039794289 0.1061181 1.7410001
0.044768576 0.10611809 1.7410001
-0.19565524 0.11474019 1.7409999
0.039794289 0.11606666 1.7410001
0.044768572 0.11606667 1.7410001
-0.19233905 0.12601525 1.7410001
0.039794289 0.12601525 1.7410001
0.044768572 0.12601525 1.7410001
-0.19233905 0.13596381 1.7410001
-0.18902285 0.13596381 1.7410001
0.03896524 0.13679287 1.7410001
0.044768572 0.13264762 1.7410001
-0.19344445 0.14591238 1.7410001
-0.18902287 0.1442543 1.7410001
0.038467813 0.14657561 1.7409999
0.043939527 0.14508334 1.7410001
-0.19648428 0.15586096 1.7410001
0.036892623 0.15627548 1.7410001
-0.18570668 0.16746762 1.7410001
0.029845715 0.16580953 1.7410001
0.036478098 0.16580954 1.7410001
0.043110479 0.16580953 1.7410001
-0.1823905 0.17575811 1.7410001
0.029845715 0.17410001 1.7410001
0.035530616 0.17623185 1.7410001
0.046426669 0.17907429 1.7410001
-0.18321952 0.18653572 1.7410001
0.029845715 0.18239048 1.7410001
0.038136195 0.18570668 1.7410001
0.044768572 0.18570668 1.7410001
-0.18570669 0.19612898 1.7410001
0.038467813 0.19565524 1.7409999
0.043110479 0.19565524 1.7410001
-0.18404858 0.20560382 1.7410001
-0.17907429 0.20726192 1.7410001
0.0359254 0.20560384 1.7410001
-0.18475917 0.21602614 1.7410001
-0.17907429 0.2122362 1.7410001
0.02818762 0.21886858 1.7410001
0.034819998 0.21389428 1.7410001
-0.1843802 0.22550097 1.7409999
0.027192762 0.22616419 1.7409999
0.033161905 0.22218478 1.7410001
-0.18404856 0.23462048 1.7410001
0.019897144 0.23544954 1.7410001
0.024871429 0.23544955 1.7410001
-0.18371695 0.24606133 1.7409999
-0.1779689 0.2476089 1.7410001
0.019897144 0.2453981 1.7410001
0.024871429 0.24539812 1.7410001
-0.18529215 0.25576121 1.7410001
0.027358573 0.25368857 1.7410001
0.034820002 0.25368857 1.7410001
-0.18404858 0.26529524 1.7410001
-0.17907429 0.26529524 1.7410001
0.02431873 0.26418984 1.7410001
-0.18404858 0.27524379 1.7410001
-0.17907429 0.27524382 1.7410001
0.02453981 0.27590704 1.7409999
-0.18371695 0.2851924 1.7409999
0.018791746 0.2862978 1.7410001
0.024871429 0.2851924 1.7410001
-0.18371697 0.29447773 1.7409999
0.017409999 0.29514095 1.7410001
0.025582042 0.29514095 1.7410001
-0.18239048 0.30343145 1.7410001
-0.17824525 0.30591857 1.7410001
0.018791746 0.30398414 1.7410001
0.023213334 0.3050895 1.7410001
-0.1741 0.31503811 1.7410001
0.018791748 0.31724891 1.7410001
0.023213334 0.31172192 1.7410001
-0.17443162 0.32432345 1.7409999
0.017528435 0.32546043 1.7410001
-0.17741621 0.33493528 1.7410001
0.0099485721 0.33493528 1.7410001
0.013264763 0.33493528 1.7410001
-0.17741621 0.34488383 1.7410001
0.0099485721 0.34488383 1.7410001
0.014591238 0.34554705 1.7409999
-0.17410001 0.3531743 1.7410001
-0.16912572 0.35649049 1.7410001
0.015475556 0.35483241 1.7410001
-0.17244191 0.36478093 1.7410001
-0.16912572 0.36478099 1.7410001
0.0099485721 0.36146477 1.7410001
0.016028255 0.36478099 1.7410001
-0.17465271 0.37694034 1.7410001
-0.16580953 0.37539276 1.7409999
0.015254477 0.37406629 1.7409999
-0.17575811 0.38136193 1.7410001
-0.16359873 0.38467813 1.7410001
0.019897144 0.38467813 1.7410001
0.018570667 0.39528993 1.7409999
-0.16580953 0.40789145 1.7410001
0.016580954 0.40391201 1.7409999
-0.16580953 0.41120765 1.7410001
0.013264763 0.41452384 1.7410001
0.0072956188 0.42646211 1.7409999
0.014093809 0.42530143 1.7410001
-0.16249333 0.43607908 1.7410001
0.0041452381 0.43483549 1.7410001
0.016580952 0.43442097 1.7410001
-0.16249333 0.44436955 1.7410001
0.016995477 0.44395503 1.7410001
-0.16332239 0.45348907 1.7410001
0.0099485721 0.45597619 1.7410001
0.014093809 0.45348907 1.7410001
-0.15917715 0.46260858 1.7410001
0.0072956188 0.46492997 1.7409999
-0.15519771 0.47487849 1.7409999
0.0049742856 0.47421527 1.7410001
-0.16912572 0.48748001 1.7410001
-0.15586095 0.48361111 1.7410001
-0.14922857 0.48084763 1.7410001
0.0070469053 0.48374927 1.7410001
-0.15503192 0.49328336 1.7410001
0.0056848978 0.49411243 1.7410001
0.013264762 0.4941124 1.7410001
-0.16912572 0.50074476 1.7410001
0.0066323816 0.50406098 1.7410001
-0.15365016 0.51290417 1.7410001
0.0066323816 0.51400954 1.7410001
-0.15420286 0.5223 1.7410001
-0.14922857 0.52727431 1.7410001
0.0066323816 0.52395815 1.7410001
-0.15254477 0.53556478 1.7410001
-0.14922857 0.53059047 1.7410001
0.0066323816 0.5339067 1.7410001
-0.1479021 0.54451853 1.7409999
0.0066323816 0.54385525 1.7410001
-0.14839953 0.5538038 1.7410001
0.0074614286 0.5546329 1.7410001
-0.15420286 0.56706858 1.7410001
-0.14922857 0.56043619 1.7410001
0.0070469053 0.5641669 1.7410001
-0.15475556 0.57425362 1.7410001
0.0058033336 0.57411551 1.7410001
0.013264762 0.57370096 1.7410001
-0.15254477 0.58033335 1.7410001
-0.14922857 0.5853076 1.7410001
0.0037307143 0.58364952 1.7410001
-0.14591238 0.59359813 1.7410001
-0.0033161906 0.59691429 1.7410001
0.0033161906 0.59359813 1.7410001
-0.14458592 0.6042099 1.7409999
-0.0033161906 0.60023052 1.7410001
0.0045220777 0.60384822 1.7409999
0.013264762 0.6068629 1.7410001
-0.14392266 0.61283201 1.7409999
-0.13928001 0.61681145 1.7410001
0.0066323811 0.61266625 1.7410001
0.013264763 0.61349529 1.7410001
-0.1425962 0.62012762 1.7410001
-0.13795353 0.62410706 1.7409999
0.0041452381 0.6226148 1.7410001
-0.15586096 0.63339239 1.7410001
-0.1437016 0.63560319 1.7410001
-0.13845095 0.63256335 1.7410001
-0.14425428 0.64168286 1.7410001
-0.13928001 0.64002478 1.7410001
0.083551913 0.030914763 1.7545002
0.094650954 0.030991906 1.7590001
0.10218953 0.030154286 1.7590001
0.031666666 0.043333337 1.7500001
0.045000002 0.045000002 1.7500001
0.053968716 0.044410612 1.7551429
0.063403815 0.04337905 1.7520001
0.071975239 0.043521907 1.7575001
-0.34391621 0.056763813 1.7530001
-0.065171428 0.056812383 1.7545002
0.046666667 0.05166667 1.7500001
0.053333338 0.051666666 1.7500001
0.063333333 0.053333335 1.7500001
0.073201664 0.053955719 1.75675
0.080411434 0.055282861 1.7590001
-0.37190288 0.067009524 1.7590001
-0.36213383 0.061748095 1.7522501
-0.35666668 0.060000002 1.7500001
-0.26133716 0.06365905 1.7590001
-0.25478172 0.062195431 1.7554001
-0.24820064 0.061219681 1.7530001
0.056666669 0.064999998 1.7500001
0.063333333 0.063333333 1.7500001
0.073630482 0.063586667 1.757
0.081751622 0.06365905 1.7590001
-0.37274051 0.074548095 1.7590001
-0.36666667 0.076666668 1.7500001
0.054285716 0.073809519 1.7500001
0.063447617 0.073459052 1.753
0.073291674 0.073291667 1.7589999
0.080411434 0.070360005 1.7590001
-0.37190288 0.082086667 1.7590001
-0.36855239 0.082086667 1.7590001
0.054285716 0.083333328 1.7500001
0.063483812 0.083523817 1.7540001
0.073710471 0.083761901 1.7589999
-0.21108001 0.097163811 1.7590001
-0.20500001 0.096666671 1.7500001
0.054285716 0.09380953 1.7500001
0.063447617 0.093493335 1.753
0.073710479 0.09381333 1.7589999
-0.21242018 0.10453486 1.7590001
-0.20583335 0.10333334 1.7500001
0.053333338 0.10333334 1.7500001
0.063519999 0.10362858 1.755
0.073710471 0.10386477 1.7589999
0.080411434 0.10218953 1.7590001
-0.2124202 0.11324611 1.7590001
-0.20382184 0.11525186 1.751
0.053333338 0.115 1.7500001
0.063624769 0.11385334 1.7579999
0.072593652 0.11279938 1.7589999
-0.21108001 0.12229238 1.7590001
-0.20456383 0.12474123 1.7564286
-0.19666667 0.125 1.7500001
0.053333331 0.125 1.7500001
0.06355428 0.12375239 1.756
0.070360005 0.1273181 1.7590001
-0.2041505 0.13386858 1.757
-0.19583334 0.13416667 1.7500001
0.045000002 0.13666667 1.7500001
0.053333338 0.13333334 1.7500001
0.063447624 0.13356191 1.753
0.070360005 0.13401906 1.7590002
