# .PCD v0.7 - Point Cloud Data file format
VERSION 0.7
FIELDS x y z
SIZE 4 4 4
TYPE F F F
COUNT 1 1 1
WIDTH 1523
HEIGHT 1
VIEWPOINT 0 0 0 1 0 0 0
POINTS 1523
DATA ascii
0.095860958 0.26646096 1.7060001
0.10073524 0.26321143 1.7060001
-0.12510668 0.2762095 1.7060002
0.094236195 0.27620953 1.7060001
-0.12673143 0.28688654 1.7060002
0.093423814 0.28514573 1.7060001
-0.12564826 0.29570669 1.7060002
0.095536008 0.29635659 1.7060001
-0.12023238 0.30545524 1.706
-0.11454572 0.30789238 1.7060001
0.096402548 0.30653843 1.706
0.10073524 0.30383047 1.7060001
-0.12023239 0.31357905 1.7060001
-0.11373334 0.31520379 1.7060002
-0.10444899 0.31613225 1.7060002
0.095860958 0.31357905 1.7060001
0.10073524 0.31520382 1.7060001
-0.12023239 0.32332763 1.7060001
-0.11319175 0.3244108 1.7060002
-0.10398477 0.32495242 1.7060002
-0.097485721 0.32495239 1.706
0.094236195 0.32495239 1.7060001
-0.11373334 0.33632573 1.7060002
-0.10560954 0.33145145 1.7060001
-0.12185716 0.34444952 1.7060002
-0.11373334 0.34444958 1.7060002
-0.10398477 0.34769905 1.7060001
0.097485721 0.34282479 1.7060001
0.10073524 0.34769905 1.7060001
-0.12185715 0.35094857 1.7060001
-0.11413953 0.35419807 1.7060002
-0.10398477 0.3554979 1.7060001
-0.095860958 0.35744762 1.7060001
0.10073524 0.35094857 1.7060001
-0.11048381 0.36069715 1.7060001
-0.094236195 0.36394668 1.7060001
-0.11048381 0.37532002 1.7060001
-0.10463468 0.37564498 1.7060001
-0.094236195 0.37315369 1.7060002
0.097485721 0.37532002 1.7060001
-0.11210857 0.38019431 1.7060001
-0.10452636 0.38236067 1.7060002
-0.093423814 0.3850686 1.7060002
0.095860958 0.3850686 1.7060001
-0.10398477 0.39806667 1.7060001
-0.095319368 0.39644191 1.706
0.094236195 0.39806667 1.7060001
-0.092611432 0.40619048 1.7060001
-0.087737143 0.40781525 1.7060001
0.095860958 0.40781525 1.7060001
-0.10398477 0.41268954 1.706
-0.092611432 0.41593906 1.7060001
-0.087737143 0.41756383 1.7060001
0.097485721 0.41593906 1.706
-0.092286482 0.42633754 1.7060001
-0.087737143 0.42568764 1.706
0.095536008 0.42568764 1.7060001
-0.10073524 0.43218669 1.7060001
-0.094236195 0.43478632 1.7060001
-0.08557079 0.43760255 1.706
0.094236195 0.43706098 1.7060001
-0.092611432 0.44193524 1.7060001
-0.083675243 0.44599718 1.7060001
-0.076363817 0.44843429 1.7060001
0.094236195 0.4451848 1.706
-0.081238098 0.45493332 1.706
-0.076688766 0.45428342 1.7060001
0.094236195 0.45330858 1.7060001
-0.081238098 0.46468195 1.706
-0.074739046 0.46468195 1.7060002
-0.065454699 0.46561036 1.7060002
0.093153022 0.46468195 1.706
-0.081238098 0.47280574 1.7060001
-0.074739046 0.4744305 1.7060002
-0.064990483 0.4744305 1.7060002
-0.058491431 0.47118098 1.7060001
0.094236195 0.47443047 1.706
-0.072301909 0.48336673 1.7060001
-0.065918908 0.48417905 1.7060002
0.094236195 0.48580384 1.7060001
-0.071489528 0.49392763 1.706
-0.066615231 0.49392763 1.7060002
0.097485721 0.49717715 1.7060001
-0.072301909 0.50448865 1.7060001
-0.065454699 0.50274783 1.7060002
0.097485721 0.50205147 1.7060001
-0.094236195 0.51829904 1.7060001
-0.081238098 0.51667428 1.706
-0.075100102 0.51559114 1.7060002
-0.067156829 0.51667428 1.706
0.094886102 0.51407462 1.7060001
-0.081238098 0.5247981 1.7060001
-0.074739046 0.5264228 1.7060002
-0.066615231 0.52642286 1.7060002
0.095048577 0.52723527 1.7060001
0.10073524 0.52804762 1.7060001
-0.072789334 0.53552151 1.7060001
-0.065396667 0.53657764 1.7060002
-0.058491431 0.53942096 1.7060001
0.096185908 0.53617144 1.7060001
0.10073524 0.53454667 1.7060001
-0.072789334 0.54527009 1.7060001
-0.065918908 0.54638422 1.7060002
-0.056054287 0.54835713 1.7060001
-0.042243812 0.54916954 1.7060001
0.094236195 0.54267049 1.7060001
-0.071489528 0.55404383 1.7060001
-0.064990476 0.55566859 1.7060002
-0.054835718 0.55526245 1.7060002
-0.045029115 0.55659705 1.7060002
-0.038994286 0.55729336 1.7060001
0.094236195 0.55241907 1.7060001
-0.064990468 0.56379241 1.7060002
-0.046034921 0.56541717 1.7060002
-0.038181908 0.56622958 1.7060001
0.095860958 0.56541717 1.7060001
-0.051992383 0.57679051 1.7060001
-0.045493335 0.57516575 1.7060002
-0.037369527 0.57354099 1.7060001
0.094236195 0.57516575 1.706
-0.055241909 0.58491433 1.7060002
-0.047118098 0.58491433 1.7060002
-0.032495238 0.58816385 1.7060001
-0.029245716 0.58816385 1.7060001
0.092611432 0.58491433 1.7060001
-0.06369067 0.5959627 1.7060001
-0.055241909 0.5946629 1.7060002
-0.045493335 0.59559137 1.7060002
-0.03574476 0.59559137 1.7060002
-0.029245714 0.5946629 1.706
0.090986669 0.59628767 1.7060001
-0.065454699 0.60348302 1.7060002
-0.055241901 0.6011619 1.706
-0.048742861 0.60278666 1.7060001
-0.033795048 0.60506135 1.7060001
-0.029245714 0.60441142 1.706
0.087737143 0.60441142 1.706
0.090986669 0.60441142 1.706
-0.071489528 0.61416 1.706
-0.068240002 0.61253524 1.7060001
-0.043868572 0.61578476 1.7060001
-0.036557145 0.61334765 1.7060001
-0.029245716 0.61091048 1.7060001
0.087737143 0.61416 1.706
-0.043868572 0.62390858 1.7060002
-0.037911113 0.62607497 1.706
0.087737143 0.62065905 1.7060001
0.090986669 0.62390858 1.706
-0.090986669 0.63690668 1.7060001
-0.087737143 0.63690668 1.7060001
-0.043326985 0.63149077 1.706
-0.034816325 0.63319296 1.7060002
0.087737143 0.63365716 1.7060001
0.092611432 0.63365716 1.7060001
-0.090986669 0.64015621 1.7060001
-0.083837718 0.64275587 1.7060001
-0.077988572 0.64665526 1.7060001
-0.032495238 0.64178097 1.7060001
-0.029245716 0.64828002 1.7060001
-0.029245716 0.65315431 1.7060001
-0.0032495239 0.66615242 1.7060001
0.21886668 0.0392 1.715
0.22213334 0.035933334 1.715
0.23193334 0.035933334 1.715
0.21560001 0.045733336 1.715
0.22540002 0.045188889 1.715
0.23302223 0.047911111 1.715
-0.19273335 0.052266669 1.715
-0.18620001 0.052266669 1.715
-0.15190001 0.055533335 1.715
-0.14210001 0.052266669 1.715
0.23846668 0.052266669 1.715
0.24282223 0.054444447 1.715
-0.16551112 0.067511111 1.715
-0.1638 0.076066665 1.715
-0.16006668 0.081666671 1.715
-0.1568 0.086566672 1.715
0.10453334 0.088200003 1.715
0.11106667 0.088200003 1.715
-0.16006668 0.098000005 1.715
-0.1568 0.094733335 1.715
0.10649334 0.094080009 1.7149999
0.11106667 0.094733335 1.715
-0.16170001 0.10535 1.715
-0.1568 0.10453334 1.715
0.10616668 0.10453334 1.715
-0.16464001 0.11498667 1.7149999
-0.15549333 0.11498667 1.7149999
0.10616667 0.11433333 1.715
-0.16431335 0.12348001 1.7149999
-0.15462223 0.12522224 1.715
0.10780001 0.12413334 1.715
0.11106667 0.12576668 1.715
-0.16170001 0.13393334 1.715
-0.15516667 0.13393332 1.715
0.10780001 0.13393334 1.715
0.11188333 0.13393334 1.715
-0.16137335 0.14308001 1.7149999
-0.15598333 0.14373334 1.715
0.10780001 0.14373334 1.715
0.11188333 0.14373334 1.715
-0.16268 0.15418668 1.7149999
-0.1568 0.15353334 1.715
0.10780001 0.15353334 1.715
0.11106667 0.15190001 1.715
-0.16072002 0.16398667 1.7149999
-0.15598333 0.16741666 1.715
0.10780001 0.16333334 1.715
0.11106667 0.16496667 1.715
-0.16006668 0.17476667 1.715
-0.15446666 0.17686667 1.715
0.10780001 0.17640001 1.715
0.11106667 0.17640001 1.715
-0.15157335 0.18554667 1.7149999
-0.147 0.18620001 1.715
0.10780001 0.18620001 1.715
0.11106667 0.18620001 1.715
-0.15157335 0.19665334 1.7149999
-0.14618334 0.19681667 1.715
0.10780001 0.19600002 1.715
-0.15157335 0.20645335 1.7149999
-0.14536667 0.20580001 1.715
-0.1372 0.20743334 1.715
0.10616668 0.20580001 1.715
-0.15026668 0.21233334 1.715
-0.14373334 0.21396667 1.715
-0.13393334 0.21625336 1.7149999
-0.12740001 0.21886668 1.715
0.10535 0.21641669 1.715
-0.1323 0.22376668 1.715
-0.12740001 0.22213334 1.715
0.10698334 0.22458334 1.715
-0.15244445 0.23737778 1.715
-0.14210001 0.23846668 1.715
0.10616668 0.2352 1.715
-0.15026668 0.245 1.715
-0.14326668 0.24593334 1.715
-0.1372 0.24173334 1.715
0.10208334 0.24418333 1.715
-0.15026668 0.25480002 1.715
-0.14264445 0.2537111 1.715
0.098000005 0.25806668 1.715
0.10235556 0.25480002 1.715
0.10371667 0.26541668 1.715
-0.13262667 0.27505332 1.7149999
0.097183332 0.27521667 1.715
0.10126667 0.27276665 1.715
-0.14046668 0.28746668 1.715
-0.13393334 0.28420001 1.715
0.098000012 0.28419998 1.715
0.10126667 0.28093335 1.715
-0.14046668 0.294 1.715
-0.13556667 0.294 1.715
0.098000005 0.29236668 1.715
0.10126667 0.29563335 1.715
-0.14046668 0.30380002 1.715
-0.13346668 0.3028667 1.715
-0.12576668 0.30543333 1.715
0.10371667 0.30298334 1.715
-0.1323 0.31033334 1.715
-0.12576668 0.31359997 1.715
0.098000005 0.3136 1.715
0.10322668 0.31294671 1.7149999
-0.13175556 0.32448891 1.715
-0.1244963 0.32448894 1.715
-0.11542223 0.32775557 1.715
0.098000012 0.32557777 1.715
-0.12250001 0.33646667 1.715
-0.11433333 0.33320001 1.715
0.098000005 0.33810002 1.715
-0.12740001 0.34626672 1.715
0.1029 0.34626672 1.715
-0.12460002 0.35700002 1.715
0.10344445 0.3560667 1.715
-0.1225 0.3626 1.715
-0.11474168 0.36627501 1.715
-0.10453334 0.36586669 1.715
-0.098000005 0.36750001 1.715
0.10126666 0.36586666 1.715
-0.12086667 0.37893334 1.715
-0.11526667 0.37520003 1.715
-0.10371667 0.37321669 1.715
-0.098000005 0.37240002 1.715
0.10126666 0.37566671 1.715
-0.12250001 0.38546669 1.715
-0.1148 0.38640001 1.715
-0.10344445 0.3876445 1.715
-0.098000005 0.38873336 1.715
0.098000005 0.38873336 1.715
0.10126666 0.38546669 1.715
-0.1225 0.39200002 1.715
-0.11433334 0.39526668 1.715
-0.105 0.39433333 1.715
-0.098000005 0.39363337 1.715
0.098000012 0.39526668 1.715
0.10126667 0.39853334 1.715
-0.11237334 0.40441331 1.7149999
-0.10406667 0.40599999 1.715
-0.098000012 0.4050667 1.715
0.098000012 0.4050667 1.715
0.10126666 0.40506664 1.715
-0.11106667 0.41486669 1.715
-0.10453334 0.41486669 1.715
-0.097183332 0.41405001 1.715
0.10126666 0.41486669 1.715
-0.11106667 0.42303336 1.715
-0.10453334 0.42507499 1.715
-0.096366674 0.42466667 1.715
0.098000005 0.42793334 1.715
0.10126666 0.42466664 1.715
-0.11106667 0.43773335 1.715
-0.10494167 0.43446669 1.715
-0.098000005 0.43446669 1.715
0.098000005 0.43610001 1.715
0.10126666 0.43446669 1.715
-0.11106667 0.44263333 1.715
-0.10453334 0.44426668 1.715
-0.095277779 0.44481111 1.715
-0.088200003 0.44753334 1.715
0.098000012 0.44426668 1.715
-0.11433334 0.45733336 1.715
-0.093100004 0.45080003 1.715
-0.088200003 0.45080003 1.715
0.098000012 0.45406666 1.715
-0.084933333 0.46386668 1.715
0.098000012 0.46386668 1.715
-0.091466673 0.47040001 1.715
-0.084933333 0.47203335 1.715
0.097183332 0.47284999 1.715
0.10126667 0.4736667 1.715
-0.081666671 0.48346666 1.715
-0.077311113 0.48564446 1.715
0.094733335 0.48346668 1.715
-0.094733335 0.49980003 1.715
-0.083300002 0.4965333 1.715
-0.07676667 0.49490002 1.715
0.098000012 0.49326667 1.715
-0.094188891 0.50742227 1.715
-0.084933326 0.50633335 1.715
-0.07709334 0.50567997 1.7149999
0.098000005 0.50960004 1.715
0.10126667 0.50633335 1.715
-0.094266668 0.51566666 1.715
-0.085866667 0.51566666 1.715
-0.078400001 0.51286668 1.715
0.098000005 0.51776671 1.715
0.10126666 0.51613331 1.715
-0.1029 0.52593333 1.715
-0.094733335 0.52634168 1.715
-0.086566664 0.52593333 1.715
0.098000012 0.52593333 1.715
0.10235556 0.52593333 1.715
-0.10126667 0.53246671 1.715
-0.095550001 0.53328335 1.715
-0.084525004 0.53532499 1.715
-0.078400001 0.53736669 1.715
0.10453334 0.53246671 1.715
-0.081666671 0.54553336 1.715
-0.077583335 0.54471666 1.715
0.09691111 0.54771113 1.715
0.10126667 0.54226667 1.715
-0.081666671 0.55696666 1.715
-0.07676667 0.55533332 1.715
0.097183332 0.55451667 1.715
-0.081666671 0.56513333 1.715
-0.074044444 0.56404448 1.715
-0.056000002 0.56606668 1.715
-0.042466667 0.56676668 1.715
0.098000005 0.56513333 1.715
-0.071866669 0.57166666 1.715
-0.064400002 0.57446665 1.715
-0.055941667 0.574525 1.715
-0.049000002 0.5733 1.715
0.098000012 0.57493335 1.715
-0.064400002 0.58473337 1.715
-0.057166666 0.58146667 1.715
0.094733335 0.588 1.715
-0.071866669 0.59780002 1.715
-0.06587778 0.59453338 1.715
0.094733335 0.59453338 1.715
-0.071866669 0.60433334 1.715
-0.055533335 0.60760003 1.715
-0.044100001 0.60596669 1.715
-0.038111109 0.60542226 1.715
0.096039996 0.60433334 1.7149999
-0.073500007 0.61413336 1.715
-0.063700005 0.61413336 1.715
-0.055533331 0.6141333 1.715
-0.046200003 0.61320001 1.715
-0.0392 0.61250001 1.715
0.093426667 0.61478674 1.7149999
-0.075133339 0.62066668 1.715
-0.065333337 0.62066668 1.715
-0.0546 0.62346667 1.715
-0.049000006 0.62393337 1.715
0.094733335 0.62393343 1.7149999
-0.091466673 0.63700002 1.715
-0.084933341 0.63700002 1.715
-0.074316666 0.63618338 1.715
-0.0539 0.63373333 1.715
-0.048183337 0.63455003 1.715
-0.0392 0.63700002 1.715
0.095277779 0.63373333 1.715
0.10126667 0.63209999 1.715
-0.094733335 0.64190006 1.715
-0.082755558 0.64135557 1.715
-0.075541675 0.64353335 1.715
-0.053900003 0.64026672 1.715
-0.045079999 0.64157331 1.7149999
-0.037566669 0.64353335 1.715
0.098000005 0.64026672 1.715
0.10126667 0.64026672 1.715
-0.073500007 0.65006667 1.715
-0.032666668 0.65170002 1.715
0.2280924 0.02789619 1.723
0.23629713 0.029537143 1.723
0.21988763 0.036100954 1.723
0.22809239 0.036100954 1.7229999
0.23793811 0.036100954 1.7229999
-0.22316954 0.049228575 1.723
-0.21824667 0.049228575 1.723
-0.19035049 0.049228575 1.723
-0.18542764 0.049228575 1.723
0.21332383 0.044305716 1.723
0.22973335 0.042664763 1.723
0.23695354 0.044633906 1.7229999
-0.21238613 0.055323537 1.7229998
-0.2034781 0.057433337 1.7229999
-0.19316354 0.056730069 1.7229998
-0.18337643 0.05620262 1.7229998
-0.17435119 0.05579238 1.7229998
-0.16737714 0.059074286 1.723
-0.15534352 0.05579238 1.723
0.24614286 0.052510478 1.723
-0.21168286 0.065638103 1.7229999
-0.20347808 0.065638095 1.7229998
-0.19363239 0.065638095 1.7229998
-0.18378668 0.065638095 1.7229998
-0.17394097 0.065638095 1.7229998
-0.1657362 0.062356193 1.723
-0.21168287 0.075483814 1.7229999
-0.20347811 0.075483814 1.7229998
-0.19363239 0.075483814 1.7229998
-0.18378668 0.075483814 1.7229998
-0.17394096 0.075483814 1.7229998
-0.21168286 0.085329525 1.7229999
-0.2034781 0.085329525 1.7229998
-0.19363239 0.085329525 1.7229998
-0.18378668 0.085329533 1.7229998
-0.17394096 0.085329533 1.7229998
-0.16450548 0.085739769 1.7229998
0.11486667 0.088611431 1.723
-0.21201105 0.095831625 1.7229999
-0.20347811 0.095175236 1.7229998
-0.19363241 0.095175244 1.7229998
-0.18378668 0.095175244 1.7229998
-0.17394096 0.095175236 1.7229998
-0.16450548 0.094765015 1.7229998
0.11486667 0.095175244 1.723
-0.21113586 0.10283303 1.723
-0.20347808 0.10502095 1.7229998
-0.19363241 0.10502095 1.7229998
-0.18378668 0.10502095 1.7229998
-0.17394096 0.10502096 1.7229998
-0.165408 0.10436459 1.7229999
0.11322572 0.10502096 1.7229999
-0.20347808 0.11486667 1.7229998
-0.19363241 0.11486667 1.7229998
-0.18378668 0.11486667 1.7229998
-0.17487863 0.11439783 1.7229998
-0.16409524 0.11158477 1.723
0.11322572 0.11486667 1.7229999
-0.20183715 0.12143048 1.723
-0.19231963 0.12339963 1.7229999
-0.18378668 0.12471239 1.7229998
-0.17487863 0.12518123 1.7229998
-0.16737714 0.12799428 1.723
0.11486667 0.12471237 1.7229999
-0.18181755 0.13390172 1.7229999
-0.17394096 0.1345581 1.7229998
-0.16737716 0.1345581 1.723
0.11683581 0.1345581 1.7229999
-0.20183715 0.14768572 1.723
-0.1969143 0.14768572 1.723
-0.18269271 0.14440382 1.723
-0.17394096 0.14440383 1.7229998
-0.16655667 0.14522429 1.723
0.11683581 0.14440382 1.7229999
-0.19281192 0.15671097 1.723
-0.18575582 0.15359315 1.7229999
-0.17394096 0.15424953 1.7229998
-0.16491571 0.15342906 1.723
0.11486667 0.15424953 1.7229999
-0.18269271 0.16190732 1.723
-0.17394096 0.16409524 1.7229998
-0.16606438 0.16475162 1.7229999
0.11486667 0.16409524 1.723
-0.18050477 0.17394096 1.723
-0.17394096 0.17394096 1.7229998
-0.16573618 0.17394096 1.7229999
0.11486667 0.17394096 1.723
-0.18159874 0.18159874 1.723
-0.17300327 0.18331781 1.7229998
-0.16409524 0.18378669 1.7229998
-0.15753144 0.18542764 1.723
0.11486667 0.18378668 1.723
-0.20676 0.19363239 1.723
-0.17284699 0.19472636 1.723
-0.16409524 0.19363239 1.7229998
-0.15621868 0.19297601 1.7229999
0.11267873 0.19363241 1.723
-0.17175303 0.20129018 1.723
-0.16409524 0.20347808 1.7229998
-0.15671097 0.2034781 1.723
0.11158476 0.2034781 1.723
-0.16409524 0.21496476 1.7229997
-0.15497884 0.21624106 1.7229998
-0.14522429 0.21906714 1.723
-0.13784 0.21988763 1.723
0.10830286 0.21332382 1.723
0.11224115 0.21594934 1.7229999
-0.16081335 0.22645144 1.723
-0.15424953 0.22645146 1.7229998
-0.14440382 0.22645146 1.7229998
-0.13784 0.22645144 1.723
0.11158476 0.22645144 1.723
-0.17328458 0.23826627 1.7229999
-0.16409525 0.23723483 1.7229998
-0.15479651 0.23520316 1.7229999
-0.14374743 0.234328 1.7229999
-0.13784 0.23465618 1.723
0.10830286 0.23957905 1.723
0.11158476 0.23629713 1.723
-0.18214571 0.24942477 1.723
-0.17394096 0.24614286 1.7229998
-0.16409524 0.24614286 1.7229998
-0.15589049 0.24614286 1.7229999
-0.14440382 0.24286096 1.723
0.10666192 0.24614286 1.723
0.11158477 0.24286096 1.723
-0.17353071 0.25557834 1.7229998
-0.16409522 0.2559886 1.7229998
-0.15518723 0.25598857 1.7229998
-0.14659174 0.25817651 1.723
0.10666192 0.25598857 1.723
-0.17065905 0.26747525 1.723
-0.16409524 0.2658343 1.7229998
-0.15424953 0.2658343 1.7229998
-0.14440382 0.2658343 1.7229998
-0.13784 0.2658343 1.723
0.10830286 0.2658343 1.723
-0.16456409 0.27474231 1.7229998
-0.15424953 0.27568001 1.7229998
-0.14440382 0.27403906 1.7229999
-0.13784 0.27568004 1.723
0.10556794 0.27568004 1.7229999
-0.16245429 0.28552574 1.723
-0.15315557 0.28661972 1.7229999
-0.1453415 0.28552574 1.7229998
-0.13784 0.28224382 1.723
0.10447397 0.28552574 1.7229999
-0.16212609 0.29602781 1.7229999
-0.15424953 0.29537141 1.7229998
-0.14481406 0.29537141 1.7229998
0.10502096 0.29537144 1.7229999
-0.1636264 0.30427948 1.7229998
-0.15424953 0.30521715 1.7229998
-0.14481404 0.30521715 1.7229998
-0.13619906 0.30849907 1.723
0.10830286 0.3035762 1.723
0.11158477 0.30685812 1.723
-0.16081335 0.31178096 1.723
-0.15424953 0.31506288 1.7229998
-0.14440382 0.31506288 1.7229998
-0.13502693 0.31600055 1.7229998
0.10830286 0.31178096 1.723
-0.15378068 0.32397088 1.7229998
-0.14440382 0.32490858 1.7229998
-0.13565207 0.32436159 1.7229999
0.09845715 0.32490858 1.723
0.10173905 0.32490858 1.723
-0.17065905 0.33803621 1.723
-0.16409524 0.33639526 1.7229999
-0.15424953 0.33639526 1.723
-0.14243467 0.33409792 1.7229999
-0.13455811 0.33475429 1.7229998
-0.12799428 0.33475432 1.723
0.09845715 0.33475429 1.723
0.10305182 0.33541065 1.7229999
-0.17065905 0.34295905 1.723
-0.16409525 0.34366232 1.7229998
-0.15424953 0.34263086 1.7229999
-0.14440382 0.34328729 1.7229999
-0.13455808 0.34459999 1.7229998
-0.12799428 0.3413181 1.723
0.10502096 0.34377953 1.723
-0.14309105 0.35444573 1.7229999
-0.1345581 0.35444573 1.7229998
0.10830286 0.35116383 1.723
-0.14440382 0.36429143 1.723
-0.1345581 0.36429146 1.7229998
-0.12553287 0.36675289 1.723
0.10502096 0.36429143 1.723
-0.14440382 0.37413713 1.7229998
-0.1345581 0.37413716 1.7229998
-0.12471239 0.37413719 1.7229998
0.10502096 0.37413716 1.723
-0.15315557 0.38452986 1.7229999
-0.14440382 0.3839829 1.7229998
-0.1345581 0.3839829 1.7229998
-0.12717381 0.38316238 1.723
0.10502096 0.3839829 1.723
-0.15293677 0.39251584 1.7229999
-0.14440382 0.39136717 1.723
-0.13390172 0.39185947 1.7229999
-0.12553287 0.39464906 1.723
0.10283303 0.39601651 1.723
-0.12307143 0.40367427 1.7229999
-0.11814857 0.40531525 1.723
0.10502096 0.40531525 1.723
-0.14112191 0.41680193 1.723
-0.13619906 0.41680193 1.723
-0.12307143 0.41352001 1.7229999
-0.11650762 0.41352001 1.7229999
0.10502096 0.41352001 1.723
-0.12348167 0.42541695 1.7229998
-0.11596064 0.42555368 1.7229998
-0.10502096 0.42336574 1.723
-0.09845715 0.42336574 1.723
0.10567734 0.42402211 1.7229999
-0.12430215 0.4369036 1.7229998
-0.1152769 0.43608308 1.7229998
0.10502096 0.43649337 1.723
-0.12471239 0.44633901 1.7229998
-0.11580436 0.44680792 1.7229998
0.10173905 0.44633904 1.723
-0.12430215 0.45577455 1.7229998
-0.11486667 0.45577452 1.7229998
-0.10502096 0.4561848 1.7229998
-0.095644094 0.4571225 1.7229998
-0.086970478 0.45782572 1.723
0.10173905 0.45618477 1.723
-0.12307144 0.46603051 1.7229999
-0.11486668 0.46603048 1.7229998
-0.10502096 0.46603048 1.7229998
-0.095175244 0.46603048 1.7229998
-0.088611431 0.46603048 1.723
0.10255953 0.466851 1.723
-0.12143048 0.47259429 1.723
-0.11486668 0.47587621 1.7229998
-0.10502095 0.47587621 1.7229998
-0.09558548 0.47628647 1.7229998
-0.087790951 0.4766967 1.723
0.10370819 0.47587624 1.7229999
-0.11486667 0.48572192 1.7229998
-0.10502096 0.48375279 1.7229999
-0.094765007 0.48531166 1.7229998
-0.086970478 0.48572195 1.7229999
0.09845715 0.48572192 1.723
0.10173905 0.48572195 1.723
-0.11552306 0.49425489 1.7229999
-0.10502095 0.49720857 1.7229999
-0.095175244 0.49556765 1.7229998
-0.086970478 0.49556759 1.7229999
0.10173905 0.49556765 1.723
-0.11158476 0.50541335 1.723
-0.10502096 0.50541329 1.7229998
-0.095831625 0.50475693 1.7229999
0.10173905 0.50377238 1.723
-0.11158477 0.51361811 1.723
-0.10502096 0.51525903 1.7229998
-0.09845715 0.51854098 1.723
0.10502096 0.51607955 1.723
-0.11322572 0.52510476 1.7229999
-0.10633372 0.52379197 1.7229999
0.10584144 0.5242843 1.723
-0.11322572 0.53495049 1.7229999
-0.10611492 0.53604448 1.7229999
-0.093534291 0.53823239 1.723
0.10666192 0.53495049 1.723
-0.11267873 0.54370224 1.723
-0.10502096 0.54315525 1.7229999
-0.095175244 0.54479623 1.7229998
-0.087298669 0.54545259 1.7229999
0.10338001 0.54479623 1.723
-0.11158477 0.55628288 1.723
-0.10830286 0.5546419 1.723
-0.095175244 0.55464196 1.7229998
-0.086267211 0.5546419 1.7229998
0.10255953 0.55546242 1.723
-0.10392699 0.5666756 1.723
-0.095175244 0.56448764 1.7229998
-0.086970478 0.56448764 1.7229999
-0.07876572 0.56776953 1.723
0.10173905 0.56448764 1.723
-0.10173905 0.57105148 1.723
-0.095175236 0.57433343 1.7229998
-0.085739762 0.57474363 1.7229998
-0.076421499 0.57480222 1.7229998
-0.068920001 0.57761526 1.723
0.10173905 0.57433337 1.723
-0.094765007 0.58376884 1.7229998
-0.085329525 0.58417904 1.7229998
-0.075483814 0.58417904 1.7229998
-0.068920001 0.58253813 1.723
0.09845715 0.58582002 1.723
0.10173905 0.58253813 1.723
-0.11158477 0.59566569 1.723
-0.10584144 0.59648621 1.723
-0.094765007 0.59443498 1.7229998
-0.085329525 0.59402484 1.7229998
-0.075483821 0.59402478 1.7229998
-0.068920001 0.59238386 1.723
0.09845715 0.59402484 1.723
0.10173905 0.59566569 1.723
-0.11158477 0.60058862 1.723
-0.10502096 0.60190135 1.7229999
-0.095175236 0.60222954 1.7229999
-0.085329525 0.60387051 1.7229998
-0.077124767 0.60387045 1.7229999
0.09845715 0.60387051 1.723
0.10338 0.60387045 1.7229999
-0.084919289 0.61330593 1.7229998
-0.077124767 0.61371619 1.7229999
0.09845715 0.61535716 1.723
0.10338 0.61371619 1.7229999
-0.082868092 0.62274146 1.723
-0.076796576 0.62487471 1.7229999
-0.065638095 0.62684381 1.723
-0.059074286 0.62684381 1.723
0.09845715 0.62356192 1.723
0.10408326 0.62403071 1.7229998
-0.16245429 0.63340765 1.723
-0.15753144 0.63340765 1.723
-0.094081275 0.63778347 1.723
-0.084235556 0.63450164 1.7229999
-0.07589405 0.63299739 1.7229998
-0.065638103 0.63504857 1.7229997
-0.059074286 0.63504857 1.723
0.09845715 0.63997144 1.723
0.10567734 0.63504863 1.7229998
0.1137727 0.6339547 1.7229999
-0.09845715 0.64489436 1.723
-0.072201908 0.64653528 1.723
-0.065638095 0.64653528 1.7229998
-0.056261223 0.64747298 1.7229998
-0.046767145 0.64899671 1.723
-0.03938286 0.64981717 1.723
-0.065638095 0.65309906 1.723
-0.05579238 0.65309906 1.723
-0.045946669 0.65309906 1.723
-0.037194923 0.65419298 1.723
-0.18144763 0.049485717 1.7320001
-0.17814858 0.049485717 1.7320001
0.24248001 0.047836192 1.7320001
-0.2210362 0.052784763 1.7320001
-0.21773715 0.057733335 1.7320001
-0.17155048 0.056083813 1.7320001
-0.16660191 0.057733335 1.7320001
-0.1583543 0.056083813 1.7320001
-0.22433525 0.069280006 1.7320001
-0.21773715 0.065980949 1.732
-0.2210362 0.075878099 1.732
-0.21773715 0.075878099 1.732
-0.22268574 0.085775249 1.7320002
-0.21773715 0.085775234 1.732
-0.22268574 0.095672391 1.7320002
-0.21608762 0.09484762 1.7320001
0.11876572 0.097321913 1.7320001
-0.22186096 0.10474476 1.7320001
-0.21553779 0.10666922 1.7320002
0.11876572 0.10556952 1.732
-0.21443811 0.11546668 1.7320002
0.11876572 0.11546668 1.732
-0.2144381 0.12371429 1.7320002
-0.20501223 0.1263064 1.7320002
-0.19629334 0.12701333 1.7320001
0.11876572 0.12371429 1.7320001
0.12206477 0.12536381 1.7320001
-0.21113905 0.13856001 1.7320001
-0.20454094 0.13526097 1.7320002
-0.19464381 0.13526097 1.7320002
-0.18722096 0.13608572 1.7320001
0.12206477 0.13691048 1.7320001
-0.20501223 0.14421551 1.7320002
-0.19423142 0.14474572 1.7320002
-0.18529652 0.1451581 1.7320002
0.12206477 0.14515811 1.732
-0.20454097 0.15505522 1.7320002
-0.19530362 0.15307581 1.7320001
-0.18227239 0.15588 1.7320001
0.11876572 0.15670477 1.7320001
0.12206477 0.15505524 1.732
-0.21113905 0.16165334 1.7320001
-0.20454097 0.16495238 1.7320002
-0.19464381 0.16495238 1.7320002
-0.18529652 0.16605207 1.7320002
0.11876572 0.1649524 1.732
0.12206477 0.1649524 1.732
-0.21773715 0.17649905 1.7320001
-0.20289142 0.17484953 1.7320002
-0.19464381 0.17484954 1.7320002
-0.18515906 0.17484954 1.7320002
0.11876572 0.17484953 1.732
-0.2210362 0.18804573 1.7320001
-0.21773715 0.18804573 1.7320001
-0.20289142 0.18474668 1.7320002
-0.19423144 0.18433429 1.7320002
-0.18584637 0.18584637 1.7320002
-0.17814858 0.1863962 1.7320001
0.11876572 0.18474668 1.732
-0.2210362 0.19464381 1.732
-0.21485049 0.19505619 1.7320002
-0.20412858 0.19464381 1.7320002
-0.19332418 0.19596343 1.7320001
-0.18474668 0.1946438 1.7320002
-0.17539936 0.19409396 1.7320002
0.11656636 0.19464381 1.732
-0.2210362 0.20454097 1.732
-0.21443811 0.20454097 1.7320002
-0.20520076 0.20388114 1.7320001
-0.19370122 0.20501225 1.7320002
-0.18474667 0.20454094 1.7320002
-0.17594922 0.20564063 1.7320002
0.11546668 0.20454097 1.732
-0.2210362 0.2144381 1.732
-0.21443811 0.21443813 1.7320002
-0.20784001 0.2144381 1.7320001
-0.19464381 0.21443811 1.7320002
-0.18474668 0.21443813 1.7320002
-0.17484954 0.21443811 1.7320002
0.11546668 0.2144381 1.732
-0.21278858 0.2210362 1.7320001
-0.20784001 0.2210362 1.7320001
-0.19332418 0.22565489 1.7320001
-0.18474668 0.22433525 1.7320002
-0.17484954 0.22433525 1.7320002
-0.16660191 0.22598478 1.7320001
0.1171162 0.22433525 1.7320001
-0.21223873 0.23643176 1.732
-0.20509081 0.23478223 1.7320002
-0.19423142 0.23382001 1.7320002
-0.18474668 0.23423237 1.7320002
-0.17532083 0.23328979 1.7320002
-0.16577715 0.23258287 1.7320001
-0.14845715 0.23753144 1.7320001
0.11546667 0.23258287 1.7320001
-0.21377829 0.24412954 1.7320001
-0.20454097 0.24412952 1.7320002
-0.19464381 0.24412952 1.7320002
-0.18474668 0.24412952 1.7320002
-0.14845715 0.24248001 1.7320001
-0.20454097 0.25270706 1.7320001
-0.19423144 0.25361428 1.7320002
-0.18521798 0.25496921 1.7320002
0.10886858 0.25237715 1.7320001
-0.20454097 0.26458365 1.7320001
-0.19299428 0.26392379 1.7320002
-0.18474668 0.26392382 1.7320002
-0.17594922 0.26447365 1.7320002
0.11216763 0.26392382 1.732
-0.21113905 0.2754705 1.7320001
-0.20412859 0.27423334 1.7320002
-0.19464381 0.27382097 1.7320002
-0.18474667 0.273821 1.7320002
-0.17526191 0.27423334 1.7320002
-0.15505524 0.27382097 1.7320001
0.11216763 0.27382097 1.732
-0.21223873 0.28151873 1.732
-0.20359837 0.28324682 1.7320002
-0.19464381 0.28371811 1.7320002
-0.18474668 0.28371811 1.7320002
-0.17484954 0.28371811 1.7320002
-0.1649524 0.28305832 1.7320001
-0.15670477 0.28371811 1.7320001
-0.14433335 0.2812438 1.7320001
0.10886858 0.28371811 1.7320001
0.11216763 0.28041905 1.7320001
-0.20289142 0.29361525 1.7320002
-0.19464381 0.29361522 1.7320002
-0.18474668 0.29361525 1.7320002
-0.17484954 0.29361528 1.7320002
-0.16693182 0.29295546 1.7320001
0.10886858 0.29361525 1.732
0.11216763 0.29691431 1.7320001
-0.20256153 0.30285257 1.7320001
-0.19558641 0.30304113 1.7320002
-0.18380408 0.30304107 1.7320002
-0.17484954 0.30351236 1.7320002
-0.16825144 0.30021334 1.7320001
0.11216763 0.30186287 1.7320001
-0.2023416 0.31121016 1.732
-0.19629334 0.31340954 1.7320002
-0.17155047 0.31340954 1.732
-0.16589499 0.31388086 1.7320002
0.10886858 0.31340954 1.7320001
0.1132673 0.31340954 1.732
-0.19464381 0.32165715 1.7320001
-0.18144763 0.32990476 1.7320001
-0.17343566 0.32660574 1.7320002
-0.16495238 0.32495621 1.7320002
-0.15670477 0.32990476 1.7320001
0.10688914 0.32462627 1.7320001
0.11216763 0.32000762 1.7320001
-0.18144763 0.33650288 1.732
-0.17526191 0.33609048 1.7320002
-0.16495238 0.33320382 1.732
-0.15505524 0.33518323 1.7320001
-0.14763239 0.33732763 1.7320001
0.10776889 0.33650288 1.732
-0.18144763 0.34475049 1.7320001
-0.17579211 0.34687132 1.7320002
-0.1649524 0.34969905 1.7320001
-0.15505524 0.3488743 1.7320001
-0.1451581 0.34804952 1.7320001
0.10886858 0.34475049 1.7320001
0.11216763 0.34969905 1.7320001
-0.17402476 0.35382286 1.7320001
-0.16454001 0.35588479 1.7320002
-0.15505524 0.35629714 1.7320002
-0.14680763 0.35629714 1.7320001
0.10886858 0.35629717 1.7320001
-0.16330287 0.36289525 1.7320001
-0.15464287 0.3657819 1.7320002
-0.14515811 0.36619428 1.7320002
-0.16275303 0.3782908 1.732
-0.15505524 0.37609148 1.7320002
0.10556953 0.37609145 1.7320001
-0.17484954 0.38598856 1.7320001
-0.16400981 0.38598856 1.7320002
-0.15725462 0.38488889 1.732
-0.16297296 0.39522591 1.7320001
-0.15670477 0.39753526 1.7320001
-0.14515811 0.39786515 1.7320001
-0.13608572 0.39836001 1.7320001
-0.12866285 0.39918476 1.7320001
0.10666921 0.39478603 1.732
-0.1863962 0.40743238 1.7320001
-0.16165334 0.40413335 1.7320001
-0.15505524 0.40578285 1.7320002
-0.14515811 0.40578291 1.7320002
-0.13526095 0.40578288 1.7320002
-0.12866285 0.40578285 1.732
0.10721906 0.40578288 1.7320001
-0.15505524 0.41567999 1.7320002
-0.14557049 0.41526759 1.7320002
-0.13478966 0.4147374 1.7320002
-0.12866285 0.41568002 1.732
0.10886858 0.41568002 1.732
-0.15505524 0.42557716 1.7320002
-0.1451581 0.42557716 1.7320002
-0.13526097 0.42557716 1.7320002
-0.12756318 0.42447749 1.732
0.10886858 0.42722666 1.7320001
-0.15546763 0.43547434 1.7320002
-0.14421551 0.43500301 1.7320002
-0.13526097 0.43547431 1.7320002
-0.12866285 0.43382478 1.7320001
0.10886858 0.43547431 1.732
-0.15505524 0.44372189 1.7320002
-0.14515811 0.44537142 1.7320002
-0.13526097 0.44537148 1.7320002
0.10721905 0.44537145 1.7320001
-0.15670477 0.45691812 1.7320001
-0.14421551 0.45526859 1.7320002
-0.13526097 0.45526859 1.7320002
0.10688914 0.45592842 1.7320001
-0.15505524 0.46186671 1.732
-0.14421551 0.46469447 1.7320002
-0.13526095 0.46516573 1.7320002
-0.12866285 0.46516573 1.732
0.10688915 0.4651657 1.7320001
-0.14350858 0.47176382 1.7320001
-0.13416128 0.47396317 1.7320002
-0.12646349 0.47616255 1.7320002
0.10886858 0.47506288 1.732
-0.13196191 0.48166096 1.7320001
-0.12536383 0.48496002 1.7320002
-0.10556953 0.48825908 1.7320001
0.10754895 0.48561984 1.7320001
-0.13361144 0.49485716 1.7320002
-0.12536381 0.49485716 1.7320002
-0.11216763 0.49485716 1.7320001
-0.10556952 0.4932076 1.7320002
-0.098971434 0.4915581 1.7320001
0.10721906 0.49485716 1.7320002
-0.14449829 0.50673378 1.7320001
-0.13526095 0.5047543 1.7320002
-0.1253638 0.5047543 1.7320002
-0.11640925 0.50428301 1.7320002
0.10688915 0.50409448 1.7320001
-0.14515811 0.51465142 1.7320002
-0.13526095 0.51465148 1.7320002
-0.1253638 0.51465148 1.7320002
-0.11711619 0.51465148 1.7320002
0.10721906 0.51465142 1.7320001
0.11216763 0.51795048 1.7320001
-0.14515811 0.52256912 1.7320001
-0.13526095 0.52454865 1.7320002
-0.1253638 0.52454865 1.7320002
-0.11678629 0.52322894 1.7320001
0.10886858 0.52784765 1.7320001
0.11216763 0.52289903 1.7320001
-0.13278668 0.53362095 1.7320001
-0.12536383 0.53444576 1.7320002
-0.11876572 0.53444576 1.732
0.10886858 0.53444576 1.7320001
-0.13196191 0.54269338 1.7320001
-0.1253638 0.54434288 1.7320002
-0.11794095 0.54434288 1.7320001
0.10556953 0.54764193 1.7320001
-0.12536381 0.55423999 1.7320002
-0.11587904 0.55382764 1.7320002
-0.10515715 0.55382764 1.7320002
0.10639428 0.55506474 1.7320001
-0.12536381 0.5608381 1.732
-0.11491683 0.56413716 1.7320002
-0.10598192 0.56372482 1.7320002
0.10754895 0.56479698 1.7320001
-0.1132673 0.57293463 1.732
-0.10611936 0.57513398 1.7320002
0.10556953 0.57403433 1.7320001
-0.11436699 0.58503115 1.7320002
-0.10556953 0.58393145 1.7320002
-0.13361144 0.59052956 1.7320001
-0.12489252 0.59382862 1.7320002
-0.11587905 0.59341621 1.7320002
-0.10515715 0.59341621 1.7320002
-0.098971434 0.59217906 1.7320001
0.10337016 0.59382862 1.732
-0.12371429 0.60042667 1.7320001
-0.11601651 0.60372573 1.7320002
-0.10556953 0.60702479 1.7320001
0.10804381 0.60290098 1.7320001
-0.11381715 0.6136229 1.7320002
-0.10556953 0.6136229 1.7320002
-0.095672376 0.6136229 1.7320002
0.10886858 0.6136229 1.732
-0.11348724 0.62286013 1.7320001
-0.10556952 0.62187046 1.7320002
-0.095672376 0.62352008 1.7320002
-0.088249527 0.62434477 1.7320001
0.10886858 0.62352008 1.732
-0.17155048 0.63671619 1.7320001
-0.16660191 0.63506669 1.7320001
-0.12866285 0.63671619 1.7320001
-0.11546667 0.63671619 1.7320001
-0.094729796 0.63388842 1.7320002
-0.087754674 0.63275737 1.7320001
0.1171162 0.63341719 1.7320001
0.12206477 0.63341719 1.7320001
-0.12602362 0.64199466 1.7320001
-0.11546667 0.64166474 1.7320001
-0.10227048 0.64991242 1.7320001
-0.098971434 0.64166474 1.7320001
-0.044537142 0.65980953 1.7320001
-0.039588574 0.65980953 1.7320001
-0.036289524 0.66310859 1.732
0.2453981 0.039794289 1.7410001
0.2470562 0.048084766 1.7410001
-0.22550096 0.05684898 1.7410001
-0.16415143 0.058033332 1.7410001
0.25203049 0.054717146 1.7410001
-0.23213334 0.069640003 1.7410001
-0.22550096 0.065376334 1.7410001
-0.24473485 0.074282669 1.7409999
-0.23544952 0.076272391 1.7410001
-0.22715904 0.076272376 1.7410001
-0.23462048 0.083733812 1.7410001
-0.22881715 0.08622095 1.7410001
0.11938286 0.089537144 1.7410001
-0.23379143 0.095340483 1.7410001
-0.22881715 0.096169531 1.7410001
0.11938286 0.092853338 1.7410001
-0.23213334 0.10280191 1.7410001
-0.22798811 0.1061181 1.7410001
0.12269905 0.10446 1.7410001
-0.22218478 0.11606666 1.7410001
0.12269905 0.11606666 1.7410001
-0.22351125 0.12535201 1.7409999
-0.21555239 0.12933144 1.7410001
0.12269905 0.12601525 1.7410001
-0.22351125 0.13662705 1.7409999
-0.21596691 0.13554929 1.7410001
0.12269905 0.13264762 1.7410001
-0.22218478 0.14591239 1.7410001
-0.21555239 0.14591238 1.7410001
0.12601525 0.14591239 1.7410001
-0.22218478 0.15420286 1.7410001
-0.21555237 0.15586096 1.7410001
0.12601525 0.15586096 1.7410001
-0.22715905 0.16249333 1.7410001
-0.21422592 0.16647276 1.7409999
0.12601525 0.16415143 1.7410001
-0.21389429 0.17575811 1.7410001
-0.20892 0.17575811 1.7410001
0.12269905 0.17575811 1.7410001
-0.22384286 0.18736477 1.7410001
-0.21513784 0.18529215 1.7410001
-0.20892 0.18570668 1.7410001
-0.19897144 0.18902287 1.7410001
0.12269905 0.18404858 1.7410001
-0.22550096 0.19565524 1.7410001
-0.2122362 0.19233905 1.7410001
-0.19731334 0.19399714 1.7410001
0.11938286 0.19731334 1.7410001
-0.22550096 0.20726192 1.7410001
-0.20477478 0.20643286 1.7410001
-0.19897144 0.20394573 1.7410001
0.11938286 0.20560382 1.7410001
-0.2051893 0.21555239 1.7410001
0.11938286 0.21555239 1.7410001
-0.22218478 0.22218478 1.7410001
-0.21444698 0.22550096 1.7410001
-0.2051893 0.22591546 1.7410001
-0.19731334 0.22384286 1.7410001
0.11938286 0.22881715 1.7410001
0.12269905 0.22384286 1.7410001
-0.21389429 0.23213334 1.7410001
-0.20449841 0.23434412 1.7410001
-0.19897144 0.23876572 1.7410001
0.11827746 0.23544954 1.7410001
-0.22218478 0.2453981 1.7410001
-0.21638143 0.2453981 1.7410001
0.11496127 0.2453981 1.7410001
-0.22218478 0.25368857 1.7410001
-0.21555239 0.25534669 1.7410001
-0.20560382 0.2570048 1.7410001
-0.19897144 0.25866288 1.7410001
0.11275048 0.25534669 1.7410001
-0.22384286 0.26861143 1.7410001
-0.21513787 0.26529524 1.7410001
-0.20560382 0.2644662 1.7410001
-0.19897144 0.26529524 1.7410001
0.11606667 0.26363713 1.7410001
-0.21555237 0.27524382 1.7409999
-0.20892 0.27192762 1.7410001
0.11606667 0.27524382 1.7410001
-0.22218478 0.28353429 1.7410001
-0.2166578 0.2862978 1.7410001
-0.20892 0.28685051 1.7410001
0.11385588 0.2851924 1.7410001
-0.20892 0.29679906 1.7410001
0.11385588 0.29514095 1.7410001
-0.20560382 0.30840573 1.7410001
-0.19233905 0.30674762 1.7410001
-0.18902287 0.30674762 1.7410001
0.11689571 0.30591857 1.7410001
-0.20449843 0.31724891 1.7410001
-0.19233905 0.31503811 1.7410001
-0.18570668 0.31503808 1.7410001
-0.17741621 0.31503811 1.7410001
0.11606667 0.31669623 1.7410001
-0.20394574 0.3249867 1.7410001
-0.19565524 0.32546043 1.7410001
-0.18570668 0.32498667 1.7410001
-0.17774782 0.32432345 1.7409999
0.10943429 0.32830286 1.7410001
0.11275048 0.32498667 1.7410001
-0.20394574 0.33493522 1.7410001
-0.19565524 0.33493525 1.7410001
-0.18736477 0.33493522 1.7410001
0.10943429 0.33327717 1.7410001
0.11275048 0.33659333 1.7410001
-0.21555237 0.3448838 1.7410001
-0.20560382 0.34488383 1.7410001
-0.19524071 0.34446931 1.7410001
-0.18736477 0.34488383 1.7410001
0.11275048 0.34488383 1.7410001
-0.21886858 0.35151622 1.7410001
-0.20394573 0.35151622 1.7410001
-0.18570668 0.35483241 1.7410001
-0.17741621 0.35814857 1.7410001
0.11385588 0.35704318 1.7410001
-0.18371697 0.36411771 1.7409999
-0.17575811 0.36478093 1.7410001
-0.16713601 0.36610743 1.7409999
0.10943428 0.36478099 1.7410001
-0.1843802 0.37605602 1.7409999
-0.17575811 0.37472951 1.7410001
-0.16622405 0.37431502 1.7410001
-0.15917715 0.37141335 1.7410001
-0.19565524 0.38799429 1.7410001
-0.1843802 0.3860046 1.7409999
-0.17642134 0.3826884 1.7409999
-0.16912572 0.38302001 1.7410001
0.10943428 0.38467813 1.7410001
-0.19660272 0.39415291 1.7410001
-0.18570666 0.39415291 1.7410001
-0.17534359 0.3950412 1.7410001
-0.16912572 0.39462671 1.7410001
0.10943429 0.39131048 1.7410001
-0.19233905 0.40457526 1.7410001
-0.18570666 0.40457526 1.7409999
-0.17575809 0.405049 1.7410001
-0.16746764 0.40457526 1.7410001
0.10943428 0.40457526 1.7410001
-0.18902287 0.41452381 1.7410001
-0.16514629 0.41253409 1.7409999
0.11275048 0.41618192 1.7410001
-0.16249333 0.42613047 1.7410001
0.11275048 0.42447236 1.7410001
-0.16332239 0.434421 1.7410001
-0.15254477 0.43773717 1.7410001
-0.14922857 0.43773717 1.7410001
0.11357953 0.43525001 1.7410001
-0.16381982 0.44370633 1.7409999
-0.14922857 0.44105336 1.7410001
0.11275048 0.44436955 1.7410001
-0.16249333 0.45100191 1.7410001
-0.15538721 0.4533706 1.7410001
-0.14922857 0.45431811 1.7410001
0.10943429 0.45266002 1.7410001
0.11275048 0.45597619 1.7410001
-0.15503192 0.4659248 1.7410001
-0.14922857 0.46426669 1.7410001
0.10943429 0.46758288 1.7410001
0.11275048 0.46260858 1.7410001
-0.15453449 0.47355205 1.7409999
-0.14723887 0.47554174 1.7409999
-0.13928001 0.47753143 1.7410001
0.11275048 0.47587335 1.7410001
-0.14392269 0.48350057 1.7409999
-0.1369113 0.48463756 1.7410001
0.11275048 0.48416385 1.7410001
-0.13729028 0.49278593 1.7409999
0.11275048 0.4941124 1.7410001
-0.15475556 0.50516635 1.7410001
-0.14591238 0.50406098 1.7409999
-0.13928001 0.50074476 1.7410001
0.11275048 0.50406098 1.7410001
-0.15254477 0.51400954 1.7410001
0.10943429 0.51235145 1.7410001
0.11275048 0.51566768 1.7410001
-0.15254477 0.52395809 1.7410001
-0.14591238 0.52727431 1.7410001
0.11606667 0.52395809 1.7410001
-0.14591239 0.53059047 1.7410001
-0.13817461 0.53611749 1.7410001
0.11275048 0.5339067 1.7410001
-0.1425962 0.54717147 1.7410001
-0.13762191 0.54385525 1.7410001
0.10943429 0.54385525 1.7410001
-0.13463734 0.5551303 1.7409999
0.10943428 0.55380386 1.7410001
0.11275048 0.55712003 1.7410001
-0.14591238 0.56043619 1.7410001
-0.13596381 0.56043619 1.7410001
-0.12601525 0.56706858 1.7410001
-0.11938286 0.56706858 1.7410001
0.11275048 0.56375241 1.7410001
-0.16249333 0.57535911 1.7410001
-0.15586096 0.57701719 1.7410001
-0.14591238 0.57701719 1.7410001
-0.11739315 0.57502747 1.7409999
0.1083289 0.57591182 1.7410001
0.11275048 0.5703848 1.7410001
-0.15641366 0.58254415 1.7410001
-0.14549786 0.58364952 1.7410001
-0.13596381 0.58696574 1.7410001
-0.1251862 0.5861367 1.7410001
-0.11805638 0.58298624 1.7409999
0.10810782 0.5843128 1.7409999
-0.1442543 0.59194005 1.7410001
-0.13596381 0.59304541 1.7410001
-0.12667848 0.59293485 1.7409999
0.10611811 0.59359813 1.7410001
-0.13347667 0.60271764 1.7410001
-0.12684429 0.60603386 1.7410001
0.10943429 0.60023052 1.7410001
0.11275048 0.6068629 1.7410001
-0.12269905 0.61349529 1.7410001
-0.11938286 0.61349529 1.7410001
0.11357953 0.61266625 1.7410001
-0.12269905 0.62344384 1.7410001
-0.11938286 0.62344384 1.7410001
0.11407696 0.62410706 1.7409999
-0.17410001 0.63670862 1.7410001
-0.12601525 0.63670862 1.7410001
-0.11551398 0.63449782 1.7410001
-0.1061181 0.63291872 1.7410001
-0.099485718 0.63505054 1.7410001
0.11540344 0.63206589 1.7409999
0.12269905 0.63339239 1.7410001
-0.13264762 0.643341 1.7410001
-0.12380445 0.64113021 1.7410001
-0.11606666 0.643341 1.7410001
-0.10412838 0.64400423 1.7409999
-0.053059049 0.66323811 1.7410001
-0.046426669 0.66489625 1.7410001
0.22000001 0.036666669 1.7500001
0.24666667 0.036666669 1.7500001
0.22000001 0.040000003 1.7500001
0.24666667 0.043333337 1.7500001
0.25115904 0.044226669 1.7522501
-0.27397096 0.053124528 1.75675
-0.26552522 0.056120478 1.7590001
-0.25575301 0.055841271 1.7590002
-0.24458475 0.055282861 1.7589999
-0.23448686 0.055446476 1.7536001
-0.16374905 0.05430381 1.7545
0.25682333 0.052705716 1.7567501
0.26133716 0.050257146 1.7590001
-0.28144002 0.06365905 1.7590002
-0.27473903 0.063659042 1.7589999
-0.26468766 0.063659042 1.7589999
-0.25505501 0.063240238 1.7589999
-0.24412343 0.063697524 1.7509
-0.23500001 0.063333333 1.7500001
-0.28144002 0.073710479 1.7590002
-0.27529749 0.072593652 1.7589999
-0.26468766 0.073710479 1.7589999
-0.255 0.07333333 1.7500001
-0.24600001 0.071333334 1.7500002
-0.23666668 0.07 1.7500001
-0.28144002 0.083761908 1.7590002
-0.27521771 0.084719189 1.7589999
-0.2646876 0.083761901 1.7589999
-0.25587428 0.083624773 1.756
-0.24600001 0.083666667 1.7500002
-0.23666668 0.086666673 1.7500001
-0.28144002 0.093813337 1.7590001
-0.27426043 0.09477061 1.7589999
-0.26468763 0.09381333 1.7589999
-0.25489214 0.094174288 1.757875
-0.24458541 0.093018211 1.751
-0.23583335 0.092500001 1.7500001
0.12532571 0.093573332 1.7545
0.13066858 0.093813337 1.7590002
-0.26420897 0.10290749 1.7589999
-0.2546362 0.10386477 1.7589999
-0.24417336 0.10368763 1.756
-0.23583335 0.10416666 1.7500001
0.1263219 0.10289857 1.7567501
0.13066858 0.10386477 1.7590002
-0.26133716 0.1139162 1.7590002
-0.2546362 0.1139162 1.7589999
-0.24444763 0.11385334 1.7579999
-0.23345506 0.11505999 1.7509
-0.22666667 0.115 1.7500001
0.126 0.114 1.7500002
0.13066858 0.1139162 1.7590002
-0.26133716 0.12396763 1.7590002
-0.2546362 0.12396762 1.7589999
-0.24431048 0.12382477 1.757
-0.23398341 0.12437388 1.7512858
0.12666667 0.125 1.7500001
0.13200876 0.12329753 1.7590001
-0.25463617 0.13401905 1.7589999
-0.24403429 0.13371238 1.755
-0.23333335 0.13333334 1.7500001
-0.22666667 0.13166668 1.7500001
0.12666667 0.13333334 1.7500001
0.1315062 0.13485667 1.7590001
-0.2546362 0.14407048 1.7589999
-0.24417144 0.14382857 1.756
-0.23333335 0.14333333 1.7500001
-0.22666667 0.14500001 1.7500001
0.12666667 0.14 1.7500001
-0.26301241 0.15412192 1.7589999
-0.2546362 0.15412191 1.7589999
-0.24375241 0.15359429 1.753
-0.23333335 0.15333332 1.7500001
-0.22666667 0.15333334 1.7500001
0.13066858 0.15579715 1.7590001
-0.26217479 0.16333573 1.7590001
-0.25463617 0.16417333 1.7589999
-0.24444573 0.1640781 1.7579999
-0.2342 0.16365477 1.7533751
-0.22349988 0.16393198 1.7512858
0.13066858 0.16417335 1.7590002
-0.27306384 0.17757525 1.7590001
-0.26385003 0.1759 1.7590001
-0.25421739 0.17422476 1.7589999
-0.24458477 0.17422478 1.7589999
-0.23453334 0.17422476 1.7589999
-0.22404145 0.17313737 1.7522501
0.12666667 0.17333335 1.7500001
0.1315062 0.17422476 1.7590001
-0.27306384 0.18092573 1.7590001
-0.26468766 0.18427619 1.7589999
-0.2546362 0.18427619 1.7589999
-0.24458477 0.18427619 1.7589999
-0.2340019 0.18385333 1.755
-0.22533333 0.18266667 1.7500002
0.1268838 0.18365334 1.7530001
0.13066858 0.18427621 1.7590002
-0.26373035 0.19384898 1.7589999
-0.2546362 0.19432762 1.7589999
-0.24458477 0.19432762 1.7589999
-0.23387048 0.19377524 1.7540001
0.12521714 0.19366477 1.7530001
0.13066858 0.19265239 1.7590001
-0.26267737 0.20370896 1.7590001
-0.25463617 0.20437907 1.7589999
-0.24458477 0.20437907 1.7589999
-0.23413904 0.2040305 1.756
-0.22666667 0.20333335 1.7500001
0.12532571 0.20385621 1.7545
0.13066858 0.2060543 1.7590001
-0.26301241 0.21526811 1.7590001
-0.2546362 0.2144305 1.7589999
-0.24402636 0.21331365 1.7589999
-0.23440191 0.21431047 1.7579999
-0.22783239 0.21610573 1.7590001
0.12532571 0.21388191 1.7545
-0.27138859 0.2244819 1.7590002
-0.26468763 0.2244819 1.7589999
-0.2546362 0.2244819 1.7589999
-0.24458477 0.22448193 1.7589999
-0.23453334 0.2244819 1.7589999
-0.22489981 0.22489297 1.7518002
-0.21666667 0.22666667 1.7500001
0.1263219 0.22336143 1.7567501
-0.27138859 0.23118286 1.7590001
-0.26426882 0.23411451 1.7589999
-0.25540736 0.2338808 1.7577143
-0.24611177 0.23386094 1.7540001
-0.23453334 0.23453334 1.7589999
-0.22410096 0.23413713 1.756
-0.21666667 0.23333335 1.7500001
0.12532571 0.23393333 1.7545
0.1315062 0.23537096 1.7590001
-0.26267737 0.24391468 1.7590001
-0.25587714 0.24417049 1.756
-0.24510287 0.2434362 1.7507501
-0.23426668 0.24430476 1.757
-0.22582212 0.24324457 1.7590001
0.12 0.24333334 1.7500001
0.12521714 0.24374764 1.7530001
0.13234381 0.24458478 1.7589999
-0.25559345 0.25511485 1.7589999
-0.24466079 0.25315028 1.7508183
-0.23400572 0.25405905 1.755
-0.22666667 0.25333333 1.7500001
0.11833333 0.25333333 1.7500001
0.12553714 0.25442192 1.7575001
0.13234381 0.2546362 1.7589999
-0.25128573 0.26468763 1.7590002
-0.24444573 0.26453903 1.7579999
-0.23413904 0.26423618 1.756
-0.22428572 0.26380953 1.7500001
0.11833333 0.26166669 1.7500001
0.12396763 0.264209 1.7589999
0.13066858 0.26468763 1.7590002
-0.24416596 0.27432024 1.7589999
-0.23400572 0.27411619 1.755
-0.22333334 0.27500001 1.7500001
0.11666667 0.27000001 1.7500001
0.12195734 0.27406892 1.7590001
-0.25128573 0.28479049 1.7590001
-0.24458477 0.28479049 1.7589999
-0.23373906 0.28381905 1.753
-0.22583334 0.2825 1.7500001
0.11916666 0.28416669 1.7500001
0.12508446 0.2859073 1.7590002
-0.24346794 0.29540035 1.7589999
-0.23440191 0.29467621 1.7579999
-0.22432859 0.29450858 1.7545
-0.21400002 0.29466668 1.7500002
0.11833333 0.29333332 1.7500001
0.12543143 0.2943362 1.756
-0.24458478 0.30447453 1.7589999
-0.23453334 0.30489331 1.7589999
-0.2242305 0.30454859 1.757
-0.21375002 0.30374998 1.7500001
0.12 0.30333334 1.7500001
0.12553714 0.30463621 1.7575001
-0.25396609 0.31695503 1.7590001
-0.24458477 0.31494474 1.7589999
-0.23426478 0.31458285 1.757
-0.22448193 0.31494477 1.7589999
-0.21333335 0.31333333 1.7500001
0.12 0.315 1.7500001
0.12375619 0.31441334 1.7560002
-0.25128573 0.3249962 1.7590002
-0.24458477 0.32499623 1.7589999
-0.23412763 0.32444194 1.756
-0.22448193 0.3249962 1.7589999
-0.21333335 0.32333335 1.7500001
0.11833333 0.32333335 1.7500001
0.12313001 0.32583383 1.7590001
-0.24346794 0.33393085 1.7589999
-0.23453334 0.3350476 1.7589999
-0.2243562 0.33485529 1.7579999
-0.21333335 0.33333331 1.7500001
0.11533333 0.3326667 1.7500002
0.12229239 0.33504763 1.7589999
-0.24123429 0.34342384 1.7590001
-0.23453334 0.34509909 1.7589999
-0.22478533 0.34361389 1.7538573
-0.21333332 0.34 1.7500001
0.11666667 0.34333336 1.7500001
0.12229239 0.34509906 1.7589999
-0.24123429 0.35515049 1.7590002
-0.23501197 0.35419321 1.7589999
-0.22477797 0.35459566 1.7538573
-0.21388191 0.35591713 1.7545
-0.2022126 0.35503355 1.7518002
-0.19500001 0.35500002 1.7500001
0.11666667 0.35333335 1.7500001
0.12145476 0.35431284 1.7590001
-0.22448193 0.36185145 1.7590002
-0.21376041 0.36319166 1.7590001
-0.20426288 0.36499622 1.7579999
-0.19387645 0.36398572 1.7511251
0.1153 0.36593857 1.7545002
0.12061713 0.36520192 1.7590002
-0.20437905 0.37525335 1.7589999
-0.1936705 0.3739734 1.753
-0.18666667 0.37333333 1.7500001
0.11404786 0.37471217 1.7545
0.12061713 0.37525335 1.7590002
-0.2124202 0.38597482 1.7590001
-0.20368765 0.3839905 1.753
-0.19375002 0.38375005 1.7500001
-0.18666667 0.38500002 1.7500001
0.11437143 0.38313633 1.7512858
0.12061713 0.38530478 1.7590002
-0.21387666 0.39552 1.757875
-0.20517717 0.39366761 1.7515001
-0.19333334 0.39666668 1.7500001
-0.18666667 0.39666668 1.7500001
