# .PCD v0.7 - Point Cloud Data file format
VERSION 0.7
FIELDS x y z
SIZE 4 4 4
TYPE F F F
COUNT 1 1 1
WIDTH 1513
HEIGHT 1
VIEWPOINT 0 0 0 1 0 0 0
POINTS 1513
DATA ascii
0.0058799996 0.22572668 1.7149999
0.013066667 0.22213334 1.715
-0.19795999 0.23520002 1.7149999
-0.045266666 0.23520002 1.715
-0.035933334 0.2352 1.715
0.0053454544 0.23519999 1.715
0.013066667 0.23683333 1.715
-0.19926667 0.24173334 1.715
-0.053900003 0.245 1.715
-0.044644445 0.24554445 1.715
-0.035933334 0.24696001 1.7149999
-0.014700001 0.24663335 1.715
-0.0065333336 0.24826668 1.715
0.0049000001 0.24500002 1.715
0.013066667 0.245 1.715
-0.19926667 0.25806668 1.715
-0.035116669 0.25316668 1.715
-0.025666667 0.25573334 1.715
-0.015026668 0.25349337 1.7149999
-0.0065333336 0.25480002 1.715
0.0042466666 0.2541467 1.7149999
0.013066667 0.25153333 1.715
-0.19600002 0.26460001 1.715
-0.034844447 0.26514444 1.715
-0.0252 0.26460001 1.715
-0.016877778 0.26514447 1.715
-0.0065333336 0.26460001 1.715
0.0016333334 0.26460001 1.715
-0.19600001 0.27603334 1.715
-0.049000002 0.27766669 1.715
-0.035933331 0.27440003 1.715
-0.024499999 0.2744 1.715
-0.016333334 0.27439997 1.715
-0.0065333336 0.2744 1.715
0.0036296297 0.27476299 1.715
-0.19518334 0.28501666 1.715
-0.035933334 0.28420001 1.715
-0.024500003 0.28420004 1.715
-0.016333334 0.28420001 1.715
-0.0069416668 0.28420001 1.715
0.0016333334 0.28420001 1.715
-0.19273335 0.29400003 1.715
-0.055533335 0.29726669 1.715
-0.043555558 0.29508889 1.715
-0.035933334 0.294 1.715
-0.026133332 0.29400003 1.715
-0.016741667 0.29359168 1.715
-0.0087111117 0.29182222 1.715
-0.19273335 0.30380002 1.715
-0.062066671 0.30706668 1.715
-0.055533335 0.30625001 1.715
-0.044800002 0.30426669 1.715
-0.036866669 0.30380002 1.715
-0.026133334 0.30380005 1.715
-0.017966667 0.30379999 1.715
-0.19273335 0.31360003 1.715
-0.062066671 0.31033334 1.715
-0.055066671 0.31266668 1.715
-0.045733336 0.31359997 1.715
-0.037566669 0.31523335 1.715
-0.026133336 0.3136 1.715
-0.016333334 0.3136 1.715
-0.0098000001 0.31033334 1.715
-0.19273335 0.32176667 1.715
-0.18946667 0.32993335 1.715
-0.062066671 0.32666668 1.715
-0.05635 0.32503334 1.715
-0.044100001 0.32339999 1.715
-0.036230307 0.32547882 1.715
-0.015866667 0.32526669 1.715
-0.0087111117 0.32448891 1.715
-0.062066671 0.33483332 1.715
-0.057983335 0.33728334 1.715
-0.032666668 0.33320001 1.715
-0.026133334 0.33973333 1.715
-0.018783335 0.33565 1.715
-0.18946667 0.34790003 1.715
-0.062066671 0.34626666 1.715
-0.057493336 0.34561336 1.7149999
-0.026677778 0.3451778 1.715
-0.18946667 0.35606667 1.715
-0.056077778 0.35606667 1.715
-0.027222224 0.35661113 1.715
-0.18946667 0.36586666 1.715
-0.0546 0.36586669 1.715
-0.045733333 0.36750001 1.715
-0.036399998 0.36680001 1.715
-0.026541669 0.36545837 1.715
-0.018783335 0.36586666 1.715
-0.19273335 0.37240002 1.715
-0.18946667 0.37403333 1.715
-0.062066671 0.37893334 1.715
-0.055533331 0.3766 1.715
-0.045733333 0.37240002 1.715
-0.035933334 0.37566671 1.715
-0.026133334 0.37566668 1.715
-0.0196 0.37566671 1.715
-0.18783334 0.38546669 1.715
-0.071866669 0.38873336 1.715
-0.064925 0.38587505 1.715
-0.058800001 0.38873336 1.715
-0.026133334 0.38546669 1.715
-0.017966667 0.3822 1.715
-0.18620001 0.39526668 1.715
-0.071866669 0.39526668 1.715
-0.065333337 0.39526665 1.715
-0.057166666 0.39608333 1.715
-0.026786666 0.39330667 1.7149999
-0.18620001 0.40180001 1.715
-0.071866669 0.40180001 1.715
-0.065333337 0.40343332 1.715
-0.055533335 0.40506664 1.715
-0.047911119 0.40397778 1.715
-0.0294 0.40833336 1.715
-0.1872889 0.41486669 1.715
-0.091466673 0.41813335 1.715
-0.084933341 0.4165 1.715
-0.075133331 0.4165 1.715
-0.064925 0.41445836 1.715
-0.058800001 0.41160002 1.715
-0.026133334 0.41813335 1.715
-0.18701667 0.42385 1.715
-0.091466673 0.42466667 1.715
-0.084933341 0.4246667 1.715
-0.074725002 0.42425832 1.715
-0.065333337 0.4246667 1.715
-0.058800001 0.42793334 1.715
-0.027766667 0.42303333 1.715
-0.016333334 0.42466667 1.715
-0.18620001 0.43283337 1.715
-0.091466673 0.43120003 1.715
-0.084388889 0.43446669 1.715
-0.064680003 0.43512002 1.7149999
-0.056000002 0.43540001 1.715
-0.047366668 0.43446669 1.715
-0.18293335 0.44426668 1.715
-0.082973339 0.44426665 1.7149999
-0.073173329 0.44492 1.7149999
-0.065333337 0.44426668 1.715
-0.055533331 0.44426668 1.715
-0.047366668 0.44426668 1.715
-0.17966668 0.45406666 1.715
-0.081666671 0.45406666 1.715
-0.075541675 0.45365834 1.715
-0.065333337 0.45365837 1.715
-0.055124998 0.45365834 1.715
-0.049000002 0.45080003 1.715
-0.18293335 0.4655 1.715
-0.17966667 0.46060002 1.715
-0.082755558 0.46277782 1.715
-0.062066671 0.46386668 1.715
-0.056840003 0.46452004 1.7149999
-0.18293335 0.47366667 1.715
-0.094733335 0.47693336 1.715
-0.086566672 0.47530004 1.715
-0.063373342 0.47432002 1.7149999
-0.058800001 0.47203335 1.715
-0.18293335 0.48183334 1.715
-0.10126667 0.48020002 1.715
-0.095141664 0.48346671 1.715
-0.083626673 0.48216003 1.7149999
-0.075950004 0.48591667 1.715
-0.064925 0.48387504 1.715
-0.05635 0.4851 1.715
-0.093644455 0.49435556 1.715
-0.084933333 0.49544445 1.715
-0.075133339 0.49490002 1.715
-0.065036371 0.49445459 1.715
-0.057711113 0.4910889 1.715
-0.17966667 0.5079667 1.715
-0.092773333 0.50633335 1.7149999
-0.08534167 0.50592506 1.715
-0.07676667 0.50306666 1.715
-0.17640001 0.51776671 1.715
-0.10371667 0.51858336 1.715
-0.094188891 0.5166778 1.715
-0.085866675 0.51660001 1.715
-0.07676667 0.5194 1.715
-0.17640001 0.52593333 1.715
-0.10406667 0.52593338 1.715
-0.094733335 0.52593333 1.715
-0.084116668 0.52511668 1.715
-0.07676667 0.52593333 1.715
-0.17640001 0.53736669 1.715
-0.11433333 0.53900003 1.715
-0.10453334 0.53573334 1.715
-0.098000005 0.53246671 1.715
-0.071866669 0.53736669 1.715
-0.068599999 0.53410006 1.715
-0.17640001 0.5455333 1.715
-0.11302666 0.54488003 1.7149999
-0.10453334 0.54506671 1.715
-0.094733335 0.54553336 1.715
-0.075133339 0.54553336 1.715
-0.17422223 0.55533338 1.715
-0.12086667 0.55696666 1.715
-0.11433334 0.55533338 1.715
-0.075133339 0.55860001 1.715
-0.17313333 0.56513339 1.715
-0.12168333 0.56431675 1.715
-0.1176 0.56840003 1.715
-0.083300002 0.56840003 1.715
-0.07676667 0.56350005 1.715
-0.17313334 0.5733 1.715
-0.12086667 0.5733 1.715
-0.11324444 0.57602221 1.715
-0.10453334 0.5753417 1.715
-0.093916669 0.5773834 1.715
-0.082973339 0.57427996 1.7149999
-0.078400001 0.57493335 1.715
-0.10453334 0.58310002 1.715
-0.094733335 0.58473331 1.715
-0.085586667 0.58408004 1.7149999
-0.17313334 0.59290004 1.715
-0.16986667 0.59616673 1.715
-0.094733335 0.59453332 1.715
-0.088200003 0.59290004 1.715
-0.16986667 0.60433334 1.715
-0.11106667 0.60596669 1.715
-0.10412501 0.60474169 1.715
-0.097183332 0.6035167 1.715
-0.17313334 0.61740005 1.715
-0.16986667 0.61250001 1.715
-0.13066667 0.61740005 1.715
-0.12304445 0.61522228 1.715
-0.11498667 0.61217338 1.7149999
-0.10616668 0.61086667 1.715
-0.098000005 0.61086667 1.715
-0.17476669 0.62393337 1.715
-0.12478667 0.62328005 1.7149999
-0.11433333 0.62638336 1.715
-0.10780001 0.62720001 1.715
-0.014700001 0.62720001 1.715
-0.17395002 0.63455003 1.715
-0.12086667 0.6304667 1.715
-0.11433334 0.63373333 1.715
-0.10546667 0.63420004 1.715
-0.095141672 0.63332498 1.715
-0.085586675 0.63569337 1.7149999
-0.071866669 0.63700002 1.715
-0.024500001 0.63373333 1.715
-0.01715 0.63128334 1.715
-0.0098000001 0.6304667 1.715
-0.17422223 0.64244449 1.715
-0.14373334 0.64680004 1.715
-0.11302666 0.64288008 1.7149999
-0.10453334 0.64353335 1.715
-0.095666662 0.6430667 1.715
-0.084933326 0.64353335 1.715
-0.076222219 0.64135557 1.715
-0.17313334 0.65986669 1.715
-0.16496667 0.65823334 1.715
-0.15516667 0.65986669 1.715
-0.14373334 0.65496665 1.715
-0.13066667 0.65986669 1.715
-0.12413333 0.65170002 1.715
-0.1176 0.65170002 1.715
-0.10126667 0.65006667 1.715
-0.093100004 0.65006667 1.715
-0.086566672 0.65006667 1.715
-0.15353334 0.66593343 1.715
-0.1442778 0.66531116 1.715
-0.13393334 0.66422224 1.715
-0.03938286 0.049228575 1.723
-0.024614286 0.047587622 1.723
-0.01969143 0.042664763 1.723
0.0082047619 0.049228575 1.723
0.03938286 0.045946669 1.723
0.045536429 0.046356905 1.7229998
0.05620262 0.046356905 1.7229998
0.065638095 0.045946669 1.7229998
0.074546121 0.046415512 1.7229998
0.013127619 0.052510478 1.723
0.024614286 0.052510478 1.723
0.05579238 0.052510481 1.723
0.066950865 0.054479618 1.7229999
0.076030798 0.055245396 1.7229999
0.085329525 0.055792376 1.7229998
0.092713818 0.056612857 1.723
-0.33475429 0.068920001 1.723
0.068920001 0.068920001 1.723
0.076796576 0.066950858 1.7229999
0.085329525 0.065638095 1.7229998
0.095175244 0.065638103 1.7229999
-0.33475429 0.072201908 1.723
0.067607239 0.076140195 1.7229999
0.075483806 0.075483814 1.7229998
0.085329525 0.075483814 1.7229998
0.095175244 0.075483814 1.7229998
0.10173905 0.07876572 1.723
0.057433337 0.086970478 1.723
0.065638095 0.085329525 1.7229998
0.075483814 0.085329525 1.7229998
0.085329525 0.085329525 1.7229998
0.094765007 0.085329533 1.7229998
-0.21332382 0.095175244 1.723
0.047587622 0.096816197 1.723
0.055792376 0.095175244 1.7229998
0.065638095 0.095175236 1.7229998
0.075483814 0.095175244 1.7229998
0.08439184 0.094706394 1.7229998
0.093534291 0.091893338 1.723
-0.21004191 0.10338001 1.723
-0.20676 0.10830286 1.723
0.049228575 0.10502096 1.723
0.057761528 0.10567734 1.7229999
0.065638095 0.10502095 1.7229998
0.075483814 0.10502095 1.7229998
0.083688572 0.10502096 1.723
-0.20676 0.11814857 1.723
0.03938286 0.11322571 1.723
0.047587622 0.11486667 1.7229999
0.055792384 0.11486668 1.7229998
0.065638095 0.11486667 1.7229998
0.07507357 0.11445643 1.7229998
0.082047619 0.11158477 1.723
-0.20676 0.12471239 1.723
0.045946669 0.12471239 1.7229998
0.055792376 0.12471239 1.7229998
0.065638095 0.12471239 1.7229998
0.073842861 0.12471239 1.7229999
-0.20676 0.1345581 1.723
0.03938286 0.1345581 1.723
0.045946673 0.1345581 1.7229998
0.055792384 0.1345581 1.7229998
0.065638095 0.13455808 1.7229998
0.07302238 0.13373762 1.723
-0.20676 0.14112191 1.723
0.029537143 0.14440382 1.723
0.038288891 0.14549778 1.723
0.045946669 0.14440383 1.7229998
0.055792384 0.14440382 1.7229998
0.065227866 0.14399359 1.7229998
-0.20676 0.15753144 1.723
0.03938286 0.15096763 1.723
0.045946669 0.15424953 1.7229998
0.053823244 0.15490592 1.7229999
-0.20676 0.16409524 1.723
0.046884358 0.16409525 1.7229998
0.055382144 0.16450547 1.7229998
0.062356193 0.1657362 1.723
-0.20676 0.17394096 1.723
0.029537143 0.17722286 1.723
0.032819048 0.1755819 1.723
0.046884358 0.17394094 1.7229998
0.055792384 0.17394096 1.7229998
-0.20676 0.18378668 1.723
0.018050477 0.18542764 1.723
0.026665475 0.18419692 1.7229998
0.036100954 0.18419692 1.7229998
0.045946669 0.18378669 1.7229998
0.054151431 0.18378668 1.7229999
-0.20479086 0.19428878 1.7229999
0.018050477 0.19363238 1.7229999
0.026255239 0.19363239 1.7229998
0.036100954 0.19363239 1.7229998
0.045946669 0.19363239 1.7229998
0.054151431 0.19363238 1.7229999
-0.20457207 0.2034781 1.723
0.018050477 0.20019619 1.723
0.026255237 0.20347808 1.7229998
0.036100958 0.20347811 1.7229998
0.0448527 0.20238411 1.7229999
0.052510478 0.20019619 1.723
-0.2034781 0.21496478 1.723
0.01969143 0.21824667 1.723
0.02698455 0.21624105 1.7229998
0.035280477 0.21332382 1.7229998
-0.20238413 0.22645144 1.723
0.016819762 0.22686167 1.7229998
0.02531755 0.22598258 1.7229998
0.032819048 0.22316954 1.723
-0.2034781 0.23629715 1.723
0.017347211 0.2358283 1.7229998
0.024286095 0.23695353 1.7229999
-0.20019619 0.24778381 1.723
0.018050477 0.24614285 1.7229999
0.026255237 0.24614286 1.7229998
0.036100954 0.24942477 1.723
0.044305716 0.24942477 1.723
-0.20019619 0.25434762 1.723
-0.018050477 0.25762954 1.723
0.0082047619 0.25927049 1.723
0.016409526 0.25598857 1.7229998
0.025844999 0.25557834 1.7229998
0.036100958 0.2559886 1.7229998
0.043485239 0.25680906 1.723
-0.20019619 0.2658343 1.723
-0.015315555 0.26474035 1.723
0.0082047619 0.2658343 1.7229999
0.016409526 0.2658343 1.7229998
0.025161272 0.26802221 1.723
0.037741907 0.2658343 1.7229999
0.042664763 0.2658343 1.723
-0.20019619 0.27568004 1.723
0.0087517463 0.27458605 1.723
0.016409524 0.27568001 1.7229998
0.02531755 0.27614886 1.7229998
0.037038643 0.27614886 1.7229998
0.042664763 0.27896193 1.723
-0.20019619 0.28552574 1.723
-0.0032819049 0.28552574 1.723
0.0065638097 0.28552571 1.7229998
0.016409524 0.28552571 1.7229998
0.025844999 0.28511548 1.7229998
0.034460001 0.28224382 1.723
-0.20019619 0.2937305 1.723
-0.1969143 0.29537144 1.723
-0.013127619 0.29865333 1.723
-0.0054698414 0.29646543 1.7229999
0.0049228575 0.29537144 1.7229997
0.016409524 0.29537141 1.7229998
0.022973334 0.29537144 1.723
-0.20019619 0.30685812 1.723
-0.1969143 0.30521715 1.723
-0.032819048 0.30521715 1.723
-0.01312762 0.30521715 1.723
-0.006974048 0.30480692 1.7229998
0 0.30521718 1.723
0.018378668 0.30456078 1.7229999
-0.20019619 0.31506288 1.723
-0.1969143 0.31506288 1.723
-0.034788191 0.31375009 1.7229999
-0.0065638092 0.31506285 1.7229998
0.009845715 0.31178096 1.723
-0.19609383 0.32572904 1.723
-0.052510481 0.32490858 1.723
-0.047587622 0.32654953 1.723
-0.032819048 0.32162669 1.723
-0.013127619 0.32490858 1.723
-0.0054698414 0.32436159 1.7229999
0 0.32819048 1.723
-0.19445285 0.33393383 1.723
-0.054151431 0.33639523 1.723
-0.046356909 0.33516455 1.7229998
-0.036757335 0.33672342 1.7229999
-0.013948096 0.33557475 1.723
-0.0065638102 0.33475432 1.7229998
-0.19363241 0.34459999 1.723
-0.052510481 0.34459999 1.723
-0.045946673 0.34459999 1.7229998
-0.03651119 0.34418976 1.7229998
-0.022973334 0.34788191 1.723
-0.015999286 0.34501025 1.7229998
-0.0065638097 0.34418976 1.7229998
-0.19363239 0.35280478 1.723
-0.05333095 0.35362527 1.723
-0.045946669 0.35444573 1.7229998
-0.0365698 0.35538343 1.7229998
-0.024942478 0.35444576 1.7229999
-0.016409524 0.3544457 1.7229998
-0.0078765722 0.35313296 1.7229999
0 0.35116383 1.723
-0.19363239 0.36429143 1.723
-0.046356905 0.36388123 1.7229998
-0.035444573 0.36232233 1.7229999
-0.015315556 0.36319748 1.7229999
-0.006974048 0.3638812 1.7229998
-0.19527334 0.37577811 1.723
-0.045399684 0.3746841 1.7229999
-0.014768571 0.37413713 1.7229999
-0.0065638097 0.37085524 1.723
-0.19281191 0.38480335 1.723
-0.05579238 0.38562384 1.7229999
-0.045946669 0.3839829 1.7229998
-0.036100954 0.38562384 1.7229999
-0.015315555 0.38452986 1.7229999
-0.009845715 0.38562381 1.723
-0.19035049 0.39218765 1.723
-0.054151431 0.3938286 1.7229999
-0.045946669 0.3938286 1.7229998
-0.036100958 0.3938286 1.7229998
-0.022973334 0.39711049 1.723
-0.016409524 0.3938286 1.7229998
-0.009845715 0.39218765 1.723
-0.055792384 0.40039238 1.723
-0.0448527 0.40258035 1.7229999
-0.035163265 0.40320542 1.7229998
-0.026255237 0.4036743 1.7229998
-0.017347211 0.40320542 1.7229998
-0.009845715 0.40039238 1.723
-0.19035049 0.41680193 1.723
-0.18706858 0.41023812 1.723
-0.055136003 0.41548914 1.7229999
-0.047587622 0.41351998 1.7229999
-0.034460001 0.41352007 1.7229999
-0.025844999 0.41393027 1.7229998
-0.016819762 0.41352004 1.7229998
-0.009845715 0.41680193 1.723
-0.19253843 0.42610064 1.7229999
-0.07876572 0.42992955 1.723
-0.068920001 0.42008382 1.723
-0.055494025 0.42455912 1.7229997
-0.045946669 0.42500672 1.7229997
-0.035802599 0.42545417 1.7229997
-0.025317552 0.42570993 1.7229998
-0.016409526 0.42485753 1.7229997
-0.0085329525 0.42270932 1.7229999
0.0042195921 0.42570996 1.7229998
-0.19166325 0.43583697 1.7229999
-0.18706858 0.43977526 1.723
-0.082047619 0.43321145 1.723
-0.075483821 0.43649334 1.7229998
-0.066458568 0.43567288 1.723
-0.054151431 0.43321145 1.723
-0.042664763 0.43649337 1.723
-0.037194923 0.43539938 1.7229999
-0.02691162 0.43452421 1.7229999
-0.018050477 0.43485239 1.723
-0.0032819049 0.43813431 1.723
-0.18706858 0.44633904 1.723
-0.077945247 0.44551858 1.723
-0.042664763 0.44633904 1.723
-0.03938286 0.4446981 1.723
-0.0032819049 0.44962096 1.723
-0.18460716 0.45536432 1.723
-0.046493653 0.45618477 1.7229999
-0.029537143 0.45618477 1.723
-0.18378668 0.46274859 1.723
-0.052510481 0.46603048 1.723
-0.049228575 0.46603048 1.723
-0.026255237 0.46603048 1.7229998
-0.018378668 0.46668687 1.7229999
-0.009845715 0.46767145 1.723
-0.054854695 0.47634506 1.7229998
-0.049228575 0.47259429 1.723
-0.03938286 0.4791581 1.723
-0.026255239 0.47587621 1.7229998
-0.017347211 0.47540736 1.7229998
-0.007657778 0.47642317 1.7229999
-0.18378668 0.48900384 1.723
-0.091893338 0.48572192 1.723
-0.086970478 0.48736289 1.723
-0.055136003 0.48440915 1.7229999
-0.046415512 0.48665962 1.7229998
-0.038288891 0.4868159 1.723
-0.026255241 0.48408094 1.7229999
-0.0065638097 0.48572192 1.7229998
0.0036465609 0.48499262 1.7229998
-0.18378668 0.49556765 1.723
-0.085329525 0.49556765 1.723
-0.054698411 0.49666163 1.7229999
-0.045946669 0.49556759 1.7229998
-0.03938286 0.49556765 1.723
-0.0032819049 0.49228573 1.723
-0.18378668 0.50377238 1.723
-0.074663341 0.50787479 1.723
-0.066106945 0.50635099 1.7229998
-0.057105143 0.50410062 1.7229999
-0.18050477 0.51690006 1.723
-0.082047619 0.51525903 1.723
-0.075483814 0.51525909 1.7229998
-0.066575781 0.51479018 1.7229998
-0.072201908 0.52510476 1.723
-0.065638095 0.52510476 1.7229998
-0.059074286 0.52510476 1.723
-0.022973334 0.52838671 1.723
-0.016409524 0.52756619 1.723
-0.0065638097 0.52674574 1.723
-0.18050477 0.53823239 1.723
-0.17722286 0.53495049 1.723
-0.072201908 0.5316686 1.723
-0.06470041 0.53448164 1.7229998
-0.05825381 0.53413004 1.723
-0.024614288 0.53413004 1.723
-0.016409524 0.5316686 1.723
-0.0082047619 0.5316686 1.723
-0.18050475 0.54479623 1.723
-0.072201908 0.54643714 1.723
-0.068099529 0.54397571 1.723
-0.17722286 0.5546419 1.723
-0.072201908 0.55464196 1.723
-0.068920001 0.5546419 1.723
-0.17722286 0.56448764 1.723
-0.072201908 0.56448764 1.723
-0.055792384 0.56776953 1.723
-0.17722286 0.57597435 1.723
-0.07507357 0.57392317 1.7229998
-0.066294476 0.57367694 1.7229999
-0.056730069 0.57433337 1.7229998
-0.17722286 0.58417904 1.723
-0.082047619 0.58746099 1.723
-0.075483814 0.58417904 1.7229998
-0.068920001 0.58089715 1.723
-0.055792384 0.58089715 1.723
-0.026255237 0.58582002 1.7229999
-0.015589048 0.58664048 1.723
-0.17722286 0.59238386 1.723
-0.083688579 0.59402484 1.7229999
-0.077945247 0.59320426 1.723
-0.026255237 0.59402478 1.7229999
-0.01969143 0.59730667 1.723
-0.17394096 0.60387057 1.723
-0.092987306 0.60605842 1.723
-0.085329525 0.60387051 1.7229998
-0.07876572 0.6022296 1.723
-0.026255241 0.60058862 1.723
-0.01969143 0.60058862 1.723
-0.17394096 0.61371619 1.723
-0.11158477 0.61699814 1.723
-0.10420048 0.61617762 1.723
-0.094237551 0.61418504 1.7229998
-0.085329525 0.61371619 1.7229998
-0.07876572 0.61371619 1.723
-0.027896192 0.61699814 1.723
-0.18050477 0.62684381 1.723
-0.12143048 0.62520289 1.723
-0.11486667 0.62315166 1.7229998
-0.10502096 0.62356192 1.7229998
-0.095175236 0.62356192 1.7229998
-0.085329525 0.62356198 1.7229998
-0.077124767 0.62438238 1.723
-0.02789619 0.62438238 1.723
-0.016409524 0.62684381 1.723
-0.1819113 0.63528305 1.7229998
-0.17722286 0.63504863 1.723
-0.10255953 0.63258719 1.723
-0.095175244 0.63012576 1.723
-0.084860682 0.63247001 1.7229998
-0.076890349 0.63622075 1.7229998
-0.027661769 0.63340765 1.7229998
-0.01969143 0.63012576 1.723
-0.0065638102 0.63231367 1.723
0.0016409524 0.63668954 1.723
-0.18050477 0.64325339 1.723
-0.17612891 0.64762926 1.723
-0.11158477 0.64981717 1.723
-0.075483814 0.64325339 1.723
-0.055792384 0.64325339 1.723
-0.12471239 0.6596629 1.723
-0.11486667 0.65556049 1.723
-0.10502096 0.65473998 1.723
-0.097363181 0.65528697 1.723
-0.17065905 0.66622669 1.723
-0.16300127 0.66567969 1.7229999
-0.12536876 0.66425753 1.7229999
-0.092373334 0.049485717 1.7320001
-0.089074291 0.049485717 1.7320001
-0.042887621 0.049485717 1.7320001
-0.036289524 0.049485717 1.7320001
-0.026392382 0.045361906 1.7320001
0.013196191 0.049485717 1.7320001
0.0252927 0.048386034 1.732
0.079177149 0.044537142 1.7320001
0.085775249 0.047129251 1.7320002
0.096614964 0.046657957 1.7320002
0.10556953 0.046186671 1.7320002
-0.33320382 0.05938286 1.7320001
-0.32495621 0.056083813 1.7320001
0.018144764 0.052784763 1.7320001
0.097651817 0.055424005 1.7320001
0.10556953 0.05608381 1.7320002
-0.3354032 0.065980956 1.732
-0.32726553 0.067960389 1.7320001
0.095672391 0.065980956 1.732
0.10598192 0.065980956 1.7320002
0.11629143 0.065156192 1.7320001
-0.33650288 0.072579049 1.7320001
-0.32825524 0.072579049 1.7320001
0.10501969 0.075878099 1.7320002
0.098971434 0.085775241 1.7320001
0.10359009 0.085775241 1.7320001
-0.21509793 0.094352767 1.7320001
0.089074291 0.097321913 1.7320001
0.096143678 0.096614964 1.7320002
0.10227048 0.095672376 1.732
-0.21278858 0.10556953 1.7320001
0.087094858 0.10556953 1.7320001
0.093692958 0.10556953 1.7320001
-0.21113904 0.11546668 1.732
0.079177149 0.11876572 1.7320001
0.086187623 0.11587904 1.7320002
0.092373334 0.11546667 1.7320001
-0.21113904 0.12536381 1.732
0.079177149 0.12536381 1.732
0.084832661 0.12489253 1.7320002
0.092373334 0.12206477 1.7320001
-0.21113905 0.13526097 1.7320001
0.077857532 0.13592076 1.7320001
0.083795808 0.13526097 1.7320001
-0.21113904 0.14515811 1.732
0.069280006 0.14845715 1.7320001
0.075878099 0.14515811 1.7320002
0.082476191 0.1451581 1.732
-0.21113904 0.15505524 1.732
0.058558095 0.15423048 1.7320001
0.065038368 0.15458395 1.7320002
0.079177149 0.15505525 1.7320001
0.084832661 0.15505524 1.7320002
-0.21113905 0.16165334 1.7320001
0.05938286 0.16165334 1.7320001
0.066923536 0.16448109 1.7320002
0.075878099 0.16495238 1.7320002
0.084832661 0.1649524 1.7320002
-0.21113904 0.17484953 1.732
0.065980956 0.17484954 1.7320002
0.074778415 0.17265016 1.732
0.082476191 0.17155048 1.7320001
-0.21113904 0.18474667 1.732
0.05938286 0.18474667 1.732
0.064331435 0.18474668 1.7320002
-0.21113905 0.1929943 1.7320001
-0.20784001 0.19134477 1.7320001
0.05938286 0.19464381 1.732
0.065509655 0.1955864 1.7320002
-0.20784001 0.20454097 1.7320001
0.048386034 0.20674032 1.732
0.056496195 0.20495334 1.7320002
0.065980956 0.20454097 1.7320002
-0.20784001 0.2144381 1.732
0.037939049 0.21773715 1.7320001
0.045774288 0.21402574 1.7320002
0.056083813 0.21113905 1.7320001
0.06680572 0.2119638 1.7320001
0.07422857 0.21113905 1.7320001
-0.20784001 0.2210362 1.7320001
0.02969143 0.2276343 1.7320001
0.037232108 0.22480655 1.7320002
0.042887617 0.22433525 1.732
0.057733335 0.2276343 1.7320001
0.069280006 0.22433525 1.7320001
-0.20454095 0.23093334 1.7320001
0.028866667 0.2342324 1.7320001
0.036289528 0.2342324 1.7320002
0.045636829 0.23533207 1.7320002
0.056083817 0.2342324 1.7320002
-0.20564063 0.24412954 1.732
0.02969143 0.24083048 1.7320001
0.036289528 0.24412952 1.7320002
0.045244087 0.24365821 1.7320002
0.057733335 0.24083048 1.7320001
-0.20454095 0.25402668 1.732
0.048166096 0.25468647 1.7320001
0.053609528 0.2532019 1.7320001
-0.20454095 0.26392382 1.732
0.019794287 0.26062477 1.7320001
0.026942223 0.26447368 1.7320002
0.032990478 0.26557335 1.7320001
0.048166096 0.26458365 1.7320001
0.053884447 0.26282415 1.732
-0.20454095 0.27382097 1.732
0.02969143 0.27382097 1.732
0.032990478 0.27382097 1.732
0.046599049 0.27423334 1.7320002
0.052784763 0.27052191 1.7320001
-0.20124191 0.28371811 1.7320001
0.037114285 0.28619242 1.7320001
0.047011431 0.28206858 1.7320001
-0.20124191 0.29031619 1.7320001
0.028371811 0.29427508 1.7320001
0.033815239 0.2927905 1.7320001
-0.2023416 0.30351239 1.732
0.0065980949 0.30516192 1.7320002
0.013196191 0.30516192 1.7320001
0.026804764 0.3039248 1.7320002
0.032990478 0.30351239 1.732
-0.2037162 0.31423432 1.7320001
-0.0032990477 0.31011048 1.7320001
0.0042416328 0.31246695 1.7320002
0.016023947 0.31340954 1.7320002
0.02639238 0.31299716 1.7320002
0.032990478 0.31176001 1.7320001
-0.20256153 0.32462627 1.7320001
-0.0032990477 0.32000762 1.7320001
0.0049485718 0.32627583 1.7320001
0.015670476 0.32578096 1.7320001
0.02639238 0.32495621 1.7320002
0.032990478 0.32660574 1.7320001
-0.19794287 0.33815241 1.7320001
0.0049485718 0.33650282 1.7320002
0.01319619 0.33650288 1.732
0.026392382 0.33402857 1.7320001
-0.19794287 0.34475049 1.7320001
-0.032990478 0.34969905 1.7320001
-0.0065980954 0.34969905 1.7320001
0.0039588576 0.34607011 1.7320001
0.01517562 0.34771961 1.7320001
-0.1971181 0.35712191 1.7320001
-0.034639999 0.35299811 1.7320001
-0.0049485718 0.35794669 1.7320001
0.0043987301 0.35629717 1.7320002
0.015670476 0.35464764 1.7320001
-0.19629334 0.36536956 1.7320001
-0.0032990477 0.36949334 1.7320001
0.0044987015 0.36649418 1.7320002
0.01451581 0.36685413 1.7320001
-0.19684319 0.37499174 1.732
-0.0070693879 0.37656274 1.7320002
0.0065980959 0.3771911 1.732
0.013196191 0.37609142 1.7320001
-0.19794287 0.38598859 1.732
-0.0056555099 0.38551727 1.7320002
0.0043987306 0.38763809 1.7320002
0.014295873 0.38818792 1.732
-0.1929943 0.39588571 1.7320001
-0.0056555099 0.396357 1.7320002
0.0046186666 0.39555579 1.7320001
0.01319619 0.39588574 1.732
-0.19134478 0.40578285 1.732
-0.039588574 0.40743238 1.7320001
-0.013196191 0.40743238 1.7320001
-0.0061857142 0.40619528 1.7320002
0.0040321695 0.40614945 1.7320002
0.013196191 0.40578288 1.7320001
-0.1929943 0.41485524 1.7320001
-0.042887617 0.41568002 1.732
-0.039588574 0.41568002 1.732
-0.013196191 0.41568002 1.7320001
-0.0061857142 0.41526759 1.7320002
0.0049485713 0.41568002 1.7320002
0.014845715 0.41897905 1.7320001
-0.19794287 0.42722666 1.7320001
-0.039588574 0.42227811 1.7320001
-0.0041238097 0.42640191 1.7320001
0.0056555099 0.42510587 1.7320002
0.015552654 0.42604846 1.7320002
-0.19794287 0.43712384 1.7320001
-0.032990478 0.43877336 1.7320001
-0.023093333 0.43877336 1.7320001
-0.013196191 0.43712384 1.7320001
-0.0065980959 0.43453175 1.7320002
0.0049485713 0.43613416 1.7320001
0.015552655 0.43547434 1.7320002
-0.19299428 0.44537145 1.7320001
-0.034969904 0.44537145 1.7320001
-0.027492063 0.4448216 1.7320002
-0.018144764 0.44537148 1.7320002
-0.0057733338 0.4445467 1.7320001
0.0032990479 0.44317207 1.732
0.013196191 0.44207239 1.7320001
-0.19134478 0.45526859 1.732
-0.18804573 0.45856765 1.7320001
-0.042887621 0.45856765 1.7320001
-0.037939049 0.45526862 1.7320002
-0.025979999 0.45485625 1.7320002
-0.016495239 0.45526859 1.7320002
-0.0070104767 0.455681 1.7320002
0 0.45361906 1.7320001
-0.18804573 0.46516573 1.732
-0.044207238 0.46582556 1.7320001
-0.037389208 0.46626535 1.7320002
-0.026392384 0.46186671 1.732
-0.015395557 0.46406603 1.7320002
-0.0061857142 0.46475339 1.7320002
-0.18804573 0.47506288 1.732
-0.045244079 0.47553417 1.7320002
-0.036289524 0.47506285 1.7320002
-0.013196191 0.47506288 1.7320001
-0.0046186671 0.47506285 1.7320001
0.0049485713 0.47506282 1.7320002
-0.18804573 0.48495999 1.732
-0.045526858 0.48298058 1.7320001
-0.035739686 0.48496005 1.7320002
-0.016023945 0.48590261 1.7320002
0.005938286 0.48298058 1.7320001
0.016495241 0.48495999 1.732
-0.18804573 0.49485716 1.732
-0.034639999 0.49485716 1.7320001
-0.026804762 0.49444479 1.7320002
-0.015670478 0.49238288 1.7320001
-0.0072579049 0.4968366 1.7320001
0.0032990475 0.49540699 1.7320002
-0.054434288 0.50805336 1.7320001
-0.046186667 0.50640386 1.7320002
-0.035877146 0.50516665 1.7320002
-0.028041907 0.5047543 1.7320002
-0.0032990477 0.50145525 1.7320001
0 0.50145525 1.7320001
-0.18474667 0.51465142 1.732
-0.062681906 0.51795048 1.7320001
-0.055671435 0.51506382 1.7320002
-0.048660953 0.51382667 1.7320001
-0.026804762 0.51506382 1.7320002
-0.016495239 0.51630098 1.7320002
-0.0098971436 0.51630092 1.7320001
-0.18254732 0.52454859 1.732
-0.062681906 0.52124953 1.7320001
-0.055141229 0.5240773 1.7320002
-0.046186671 0.52454859 1.7320002
-0.02639238 0.52454859 1.7320002
-0.016495239 0.52413619 1.7320002
-0.0085775238 0.52388877 1.7320001
0.0016495239 0.52784765 1.7320001
-0.18144763 0.53444576 1.732
-0.05410438 0.53444576 1.7320001
-0.046186667 0.53279626 1.7320002
-0.037389208 0.53554541 1.732
-0.027712002 0.53444576 1.7320001
-0.01732 0.53609526 1.7320001
-0.0057733334 0.53527051 1.7320001
0 0.53444576 1.732
-0.18474667 0.54434288 1.7320001
-0.063781589 0.54654223 1.732
-0.056083806 0.54481417 1.7320002
-0.049485717 0.54104382 1.7320001
-0.036289524 0.54104382 1.7320001
-0.026804762 0.54475528 1.7320002
-0.01759492 0.54324317 1.732
-0.0082476195 0.54104382 1.7320001
0 0.54104382 1.7320001
-0.18254732 0.55423999 1.732
-0.064331435 0.55423999 1.7320002
-0.056083813 0.55423999 1.7320002
-0.047836192 0.55753905 1.7320001
-0.027492063 0.55204064 1.732
-0.016495239 0.55094099 1.7320001
-0.18144763 0.56413716 1.732
-0.065568574 0.56454957 1.7320002
-0.056083813 0.56413722 1.7320002
-0.046186671 0.56413722 1.7320002
-0.18144763 0.57073528 1.7320001
-0.17814858 0.57403433 1.7320001
-0.065980949 0.57403439 1.7320002
-0.054984134 0.57183498 1.732
-0.046186671 0.57403433 1.7320002
-0.039588574 0.57733333 1.7320001
-0.024742858 0.57485908 1.7320001
-0.016082857 0.57444668 1.7320002
-0.0065980954 0.57403433 1.7320002
-0.18144763 0.58393145 1.732
-0.064881273 0.58503115 1.7320002
-0.055533972 0.58503109 1.7320002
-0.046186671 0.58393145 1.7320002
-0.037232108 0.58440274 1.7320002
-0.026392384 0.58228189 1.7320002
-0.016907619 0.58351904 1.7320002
-0.0070104767 0.58351904 1.7320002
0.0043987301 0.5828318 1.732
-0.073678732 0.59602791 1.732
-0.066393338 0.59341621 1.7320002
-0.055671431 0.59341621 1.7320002
-0.046186667 0.59382862 1.7320002
-0.036289524 0.59382862 1.7320002
-0.026392384 0.59712762 1.732
-0.016495237 0.59547812 1.7320002
-0.0082476195 0.59382862 1.7320002
-0.17814858 0.60372573 1.732
-0.074228577 0.60372573 1.7320002
-0.068180323 0.60262603 1.732
-0.054434288 0.60207617 1.7320001
-0.046657957 0.60278314 1.7320002
-0.036289524 0.60207623 1.7320002
-0.02639238 0.60702479 1.732
-0.015552653 0.60419703 1.7320002
-0.0082476195 0.60372573 1.7320002
-0.17814858 0.6136229 1.732
-0.075465709 0.61321056 1.7320002
-0.069280006 0.6152724 1.7320001
-0.02639238 0.6136229 1.7320002
-0.017437825 0.61315161 1.7320002
-0.0098971436 0.6136229 1.7320001
-0.18144763 0.62516952 1.7320001
-0.17814858 0.62352002 1.732
-0.074935511 0.62304872 1.7320002
-0.067630477 0.62351996 1.7320002
-0.035464764 0.62599432 1.7320001
-0.024412954 0.62417978 1.7320001
-0.016495237 0.62352002 1.7320002
-0.0098971436 0.62352008 1.732
-0.1863962 0.63011813 1.7320001
-0.074558482 0.63407695 1.7320001
-0.069280006 0.63341713 1.732
-0.054434292 0.63506669 1.7320001
-0.045361906 0.63589144 1.7320001
-0.036289524 0.63382959 1.7320002
-0.026392382 0.63011813 1.7320001
-0.0057733338 0.63176763 1.7320001
0.0026392383 0.63407695 1.7320001
-0.065431111 0.6433143 1.7320002
-0.055259049 0.64413905 1.7320002
-0.045886759 0.64451402 1.7320002
-0.036619432 0.64397413 1.7320001
0.0032990475 0.64001524 1.732
-0.11216763 0.65980953 1.7320001
-0.10886858 0.65980953 1.7320001
-0.11656636 0.66530794 1.732
-0.034819998 0.039794289 1.7410001
-0.026529526 0.039794289 1.7410001
-0.037141334 0.044436954 1.7409999
-0.029845715 0.044768572 1.7410001
0.018791748 0.048637465 1.7410001
0.02431873 0.044215877 1.7410001
0.08622095 0.043110479 1.7410001
0.092853338 0.044768572 1.7410001
0.11440857 0.049742859 1.7410001
-0.34156764 0.059691429 1.7410001
-0.33659333 0.058033332 1.7410001
0.1061181 0.056375239 1.7410001
0.11565215 0.056789763 1.7410001
0.125352 0.05836495 1.7409999
0.13762191 0.059691429 1.7410001
-0.34156764 0.06466572 1.7410001
-0.33493528 0.064113021 1.7410001
-0.32432345 0.064334102 1.7409999
0.10280191 0.066323809 1.7410001
0.11540343 0.066987053 1.7409999
0.12601525 0.066323817 1.7410001
0.13397411 0.065660581 1.7409999
0.10943429 0.074614286 1.7410001
0.11606666 0.076272391 1.7410001
0.12402554 0.075609148 1.7409999
0.10860525 0.08622095 1.7410001
0.11606666 0.08622095 1.7410001
0.12269905 0.08456286 1.7410001
-0.22218478 0.092853338 1.7410001
-0.21886858 0.099485718 1.7410001
0.10777619 0.096169524 1.7410001
0.11606666 0.096169524 1.7410001
-0.21555239 0.10777619 1.7410001
0.098656669 0.1061181 1.7410001
0.10611811 0.10611811 1.7410001
-0.21555239 0.11440857 1.7410001
0.097117007 0.11606668 1.7410001
0.10280191 0.11606666 1.7410001
-0.21555239 0.12601525 1.7410001
0.089537144 0.12767334 1.7410001
0.096584052 0.12642977 1.7410001
0.10363096 0.12684429 1.7410001
-0.2122362 0.13596381 1.7410001
0.088708095 0.13596381 1.7410001
0.096169524 0.13596381 1.7410001
0.10412838 0.13530058 1.7409999
0.087879039 0.14591239 1.7410001
0.096169524 0.14591238 1.7410001
0.10363096 0.14508334 1.7410001
0.069640003 0.15751906 1.7410001
0.0753249 0.15586098 1.7410001
0.089537144 0.15586096 1.7410001
0.096169524 0.15586096 1.7410001
0.10280191 0.15420286 1.7410001
-0.2122362 0.16746762 1.7410001
0.089537144 0.16580953 1.7410001
0.096169524 0.16580953 1.7410001
-0.21555239 0.17907429 1.7410001
0.076825082 0.17686349 1.7410001
0.086220965 0.17575811 1.7410001
0.095506296 0.1737684 1.7409999
0.10280191 0.17244191 1.7410001
-0.21555239 0.18570668 1.7410001
0.069640003 0.18570668 1.7410001
0.074945904 0.1843802 1.7409999
0.082904764 0.18239048 1.7410001
-0.2122362 0.19897144 1.7410001
0.067981906 0.19233905 1.7410001
0.074061587 0.19786604 1.7410001
-0.21223621 0.20560382 1.7410001
0.076272391 0.20560384 1.7410001
0.082904764 0.20892 1.7410001
-0.21223621 0.21555239 1.7410001
0.049742859 0.21886858 1.7410001
0.056375235 0.21649988 1.7410001
0.065660581 0.2175421 1.7409999
0.076746121 0.21649988 1.7410001
0.084231243 0.21488914 1.7409999
-0.20892 0.22715905 1.7410001
0.048084766 0.22550096 1.7410001
0.055901498 0.22455348 1.7410001
0.065909289 0.22550096 1.7410001
0.076272383 0.22550096 1.7410001
-0.20892 0.23544954 1.7410001
0.047532067 0.23323874 1.7410001
0.056375239 0.23544954 1.7410001
0.066323809 0.23544952 1.7410001
0.074282669 0.2347863 1.7409999
-0.20892 0.2470562 1.7410001
0.049742859 0.2470562 1.7410001
0.056375235 0.24788526 1.7410001
0.066323809 0.2453981 1.7410001
0.074061587 0.24429269 1.7410001
0.05836495 0.25600991 1.7409999
0.068534605 0.25313589 1.7410001
-0.20892 0.26529524 1.7410001
0.057480633 0.26584792 1.7410001
0.069640003 0.26529524 1.7410001
0.07295619 0.26695335 1.7410001
-0.20892 0.2769019 1.7410001
0.05678976 0.27565834 1.7410001
-0.20560382 0.2851924 1.7410001
0.046426669 0.28767955 1.7410001
0.055427756 0.28471866 1.7410001
-0.20560382 0.29514095 1.7410001
0.038467813 0.2958042 1.7409999
0.044215873 0.29293016 1.7410001
0.063007623 0.29679906 1.7410001
-0.20560382 0.30343145 1.7410001
0.037307143 0.30591857 1.7410001
0.0066323816 0.31835431 1.7410001
0.016580952 0.31835431 1.7410001
0.026529524 0.31835431 1.7410001
0.037030797 0.31503811 1.7410001
0.048084766 0.31503811 1.7410001
0.054164451 0.31393272 1.7410001
-0.20726192 0.3249867 1.7410001
0.005969143 0.32299697 1.7409999
0.016580954 0.32443401 1.7410001
0.0359254 0.3249867 1.7410001
0.046426669 0.32664478 1.7410001
-0.20339303 0.33493528 1.7410001
0.018239049 0.33493528 1.7410001
0.026529524 0.33825144 1.7410001
0.036478098 0.33493525 1.7410001
0.044768572 0.33493522 1.7410001
-0.20228763 0.34156764 1.7410001
0.0099485721 0.34820002 1.7410001
0.018239049 0.34488383 1.7410001
0.026529524 0.3448838 1.7410001
0.036478098 0.34488383 1.7410001
0.045321275 0.34543654 1.7410001
-0.20228763 0.35814857 1.7410001
-0.19897144 0.35151622 1.7410001
0.0099485721 0.35483241 1.7410001
0.016580954 0.35814857 1.7410001
0.026055783 0.35388491 1.7410001
0.036478095 0.35350594 1.7409999
0.043110479 0.35483241 1.7410001
-0.20228763 0.36146477 1.7410001
0.0099485721 0.36312288 1.7410001
0.018570667 0.36411771 1.7409999
0.025976827 0.36588636 1.7410001
0.037307143 0.36395192 1.7410001
0.045597624 0.36395192 1.7410001
-0.19897144 0.37141335 1.7410001
-0.0033161906 0.37804574 1.7410001
0.0042636734 0.37662452 1.7410001
0.016580952 0.37555861 1.7410001
0.026529524 0.37141335 1.7410001
-0.20228763 0.3846781 1.7410001
0.0052111568 0.38420436 1.7410001
0.017528435 0.38467813 1.7410001
0.027855998 0.3860046 1.7409999
0.033161905 0.38799429 1.7410001
-0.19731334 0.39628476 1.7410001
0.0066323811 0.39462668 1.7410001
0.018570667 0.39528993 1.7409999
0.026944049 0.39421213 1.7410001
0.036478098 0.39462668 1.7410001
0.044436954 0.39528993 1.7409999
0.0077377781 0.40346983 1.7410001
0.016580952 0.40391201 1.7409999
0.037307143 0.40208811 1.7410001
0.045763429 0.40324879 1.7409999
-0.19565524 0.41784 1.7410001
0.0066323811 0.41120765 1.7410001
0.015633469 0.41499758 1.7410001
-0.19897144 0.42447239 1.7410001
0.019897144 0.42447242 1.7410001
0.023213334 0.42447242 1.7410001
-0.19897144 0.43442097 1.7410001
0.019897144 0.43442097 1.7410001
0.024871429 0.43442097 1.7410001
-0.033161905 0.44768572 1.7410001
-0.024871429 0.44768572 1.7410001
-0.013264762 0.44602764 1.7410001
-0.0088431751 0.44547495 1.7410001
0.005969143 0.44635925 1.7409999
0.01724419 0.44503278 1.7409999
0.024871429 0.44105336 1.7410001
-0.19565524 0.45431808 1.7410001
-0.033161905 0.45597619 1.7410001
-0.023213334 0.45100191 1.7410001
-0.013264762 0.45100191 1.7410001
-0.0082904771 0.45100191 1.7410001
0.005969143 0.4539865 1.7409999
0.013264763 0.45431814 1.7410001
-0.19399714 0.46426669 1.7410001
-0.033990953 0.46426669 1.7410001
0.0049742856 0.46426669 1.7409998
0.014370158 0.46647748 1.7410001
-0.19233905 0.47421527 1.7410001
0.0049742861 0.47089908 1.7410001
0.016580954 0.47421524 1.7410001
0.023213334 0.47587335 1.7410001
0.016580954 0.48250571 1.7410001
0.024871429 0.48416379 1.7410001
-0.033161905 0.49079621 1.7410001
-0.018239047 0.4974286 1.7410001
0.0099485721 0.49577051 1.7410001
0.015917715 0.49212265 1.7409999
-0.18902287 0.50571907 1.7410001
-0.033161905 0.50074476 1.7410001
-0.023213334 0.50406098 1.7410001
-0.016580954 0.50406098 1.7410001
-0.0072956197 0.50605071 1.7409999
0.0044215876 0.50516635 1.7410001
-0.18902285 0.51400954 1.7410001
-0.044215873 0.51622033 1.7410001
-0.036478098 0.51566768 1.7410001
-0.023213334 0.51235145 1.7410001
-0.016580952 0.51235145 1.7410001
-0.0062178569 0.51359504 1.7410001
0.0016580954 0.51400954 1.7410001
-0.18819383 0.52478713 1.7410001
-0.044768572 0.52064192 1.7410001
-0.036478098 0.52395809 1.7410001
-0.0041452385 0.52312905 1.7410001
0.0033161906 0.52478713 1.7410001
-0.18736477 0.5339067 1.7410001
-0.036004357 0.53295922 1.7410001
0.0074614286 0.53307766 1.7410001
-0.18769638 0.54385531 1.7409999
-0.053059049 0.54717147 1.7410001
-0.046012148 0.54385531 1.7410001
-0.036478098 0.54432905 1.7410001
-0.015254477 0.54518175 1.7409999
-0.0053059049 0.54518175 1.7409999
0.0049742861 0.54468435 1.7410001
-0.18791747 0.55380386 1.7410001
-0.046426669 0.55380386 1.7410001
-0.037425581 0.55333006 1.7410001
-0.025424128 0.5560146 1.7410001
-0.016580952 0.5542776 1.7410001
-0.0066323807 0.5538038 1.7410001
0.0026529524 0.55446702 1.7409999
-0.18570668 0.56375241 1.7410001
-0.043110479 0.56043619 1.7410001
-0.037425581 0.56375241 1.7410001
-0.026529524 0.56333786 1.7410001
-0.015633469 0.56327868 1.7410001
-0.0077377781 0.56430513 1.7410001
0 0.56375241 1.7410001
-0.18460126 0.57370096 1.7410001
-0.037425581 0.57370096 1.7410001
-0.027634919 0.57370096 1.7410001
-0.016580952 0.57149023 1.7410001
-0.0066323816 0.5703848 1.7410001
0.0039794287 0.57370102 1.7409999
-0.18487762 0.58282053 1.7410001
-0.033990953 0.58282048 1.7410001
-0.026529524 0.58033335 1.7410001
0.0047900532 0.58401799 1.7410001
-0.18349588 0.59359813 1.7410001
-0.0033161908 0.59359813 1.7410001
0.0036846565 0.59359813 1.7410001
-0.18239048 0.6018886 1.7410001
-0.063836671 0.60354674 1.7410001
-0.059691429 0.60354668 1.7410001
-0.0033161908 0.60354668 1.7410001
0.0016580954 0.60354668 1.7410001
-0.18239048 0.61681145 1.7410001
-0.066323809 0.61254781 1.7410001
-0.056375239 0.61349523 1.7410001
-0.046012145 0.61390978 1.7410001
-0.036478098 0.61349523 1.7410001
-0.013264762 0.61681145 1.7410001
-0.0055269841 0.61460066 1.7410001
0.0013264762 0.61415851 1.7409999
-0.18239048 0.62178576 1.7410001
-0.063836671 0.6226148 1.7410001
-0.056375239 0.62344384 1.7410001
-0.046426669 0.62344384 1.7410001
-0.036892623 0.62302929 1.7410001
-0.013264762 0.62012762 1.7410001
-0.0049742856 0.62344384 1.7410001
0.0033161906 0.6226148 1.7410001
-0.064334102 0.63405567 1.7409999
-0.056848977 0.63244492 1.7410001
-0.046841193 0.6329779 1.7410001
-0.036478095 0.63339239 1.7410001
-0.0055269846 0.63118166 1.7410001
0.0022107938 0.63118166 1.7410001
-0.065494761 0.6425119 1.7410001
-0.059691429 0.64168286 1.7410001
-0.0049742861 0.643341 1.7410001
-0.049742859 0.65328956 1.7410001
-0.033333335 0.046666667 1.7500001
0.020000001 0.043333337 1.7500001
0.11733333 0.045333333 1.7500002
0.12516285 0.045055714 1.7522501
0.13430177 0.044444896 1.7564286
0.1432564 0.045518477 1.7572
0.15300508 0.045789842 1.7590002
-0.096666671 0.050000001 1.7500001
0.12 0.05166667 1.7500001
0.125 0.05166667 1.7500001
0.13333334 0.053333338 1.7500001
0.14341713 0.053361908 1.751
0.15403621 0.053575236 1.7579999
0.16350324 0.055617906 1.7590001
0.17506239 0.056120478 1.7590001
0.18427621 0.055282861 1.7589999
-0.34666669 0.06666667 1.7500001
-0.33166668 0.060000002 1.7500001
-0.32500002 0.060000002 1.7500001
0.13333334 0.060000002 1.7500001
0.14375 0.063749999 1.7500001
0.15394858 0.063590474 1.757
0.16375454 0.063240238 1.7589999
0.17422476 0.060308572 1.7590001
-0.34666669 0.07 1.7500001
0.13380952 0.074285708 1.7500001
0.14366478 0.073504761 1.7540001
0.15412191 0.073710479 1.7589999
0.16216305 0.073040381 1.7590001
0.12666667 0.083333336 1.7500001
0.13333334 0.083333343 1.7500001
0.14383048 0.083619043 1.756
0.15412191 0.083761908 1.7589999
0.16082287 0.083761908 1.7590002
-0.22333334 0.096666671 1.7500001
0.125 0.093333334 1.7500001
0.13333334 0.093333334 1.7500001
0.14350095 0.093438111 1.7520001
0.15394858 0.093702868 1.757
0.16283314 0.095153525 1.7590001
-0.22056574 0.10527429 1.7545002
0.11666667 0.10500001 1.7500001
0.125 0.10333335 1.7500001
0.13333334 0.10333334 1.7500001
0.14366478 0.10357334 1.7540001
0.15386476 0.10368762 1.756
0.16321607 0.10338612 1.7589999
-0.22113144 0.1139162 1.7590002
-0.21666667 0.12 1.7500001
0.10666666 0.11666667 1.7500001
0.11533333 0.11533333 1.7500001
0.125 0.115 1.7500001
0.13333334 0.115 1.7500001
0.14358048 0.11519286 1.7530001
0.15373275 0.11428972 1.7545
0.16321607 0.11439484 1.7589999
-0.22113144 0.12396763 1.7590002
0.10666667 0.125 1.7500001
0.115 0.125 1.7500001
0.125 0.125 1.7500001
0.13333334 0.125 1.7500001
0.14395048 0.12553714 1.7575001
0.15412192 0.12438644 1.7589999
0.16417333 0.12396763 1.7589999
-0.22113144 0.13066858 1.7590001
-0.21666667 0.13500001 1.7500001
0.115 0.13333334 1.7500001
0.125 0.13333334 1.7500001
0.13333334 0.13333334 1.7500001
0.14366478 0.1336381 1.7540001
0.15412191 0.13401905 1.7589999
0.16216305 0.13334896 1.7590001
-0.21703809 0.14358477 1.7530001
0.10666667 0.14333335 1.7500001
0.115 0.14333333 1.7500001
0.125 0.14333333 1.7500001
0.13348763 0.14350095 1.7520001
0.14399049 0.14399049 1.7579999
0.15364327 0.14311321 1.7589999
0.16082287 0.14239524 1.7590001
-0.21778096 0.15412192 1.7590002
0.10666666 0.15333334 1.7500001
0.115 0.15333332 1.7500001
0.125 0.15333332 1.7500001
0.13401905 0.15412191 1.7589999
0.14407048 0.15370309 1.7589999
-0.21703811 0.16361333 1.7530001
0.10500001 0.16333334 1.7500001
0.115 0.16333333 1.7500001
0.12553714 0.1640362 1.7575001
0.13401905 0.16417333 1.7589999
-0.21666665 0.17333335 1.7500001
0.10444445 0.17388891 1.7500001
0.11333333 0.17333335 1.7500001
0.12396762 0.17422475 1.7589999
0.13401905 0.17422476 1.7589999
0.14323287 0.17254953 1.7590001
0.15747239 0.1708743 1.7590001
0.16417335 0.1708743 1.7590002
0.076666668 0.18666667 1.7500001
0.084166676 0.18583333 1.7500001
0.093333334 0.18333334 1.7500001
0.10333335 0.18333334 1.7500001
0.11346667 0.18354288 1.7520001
0.12389716 0.18417144 1.7579999
0.13401905 0.18427619 1.7589999
0.14072001 0.18595144 1.7590001
-0.21666667 0.19500001 1.7500001
0.075833336 0.19333334 1.7500001
0.083333328 0.19333336 1.7500001
0.093333334 0.19333336 1.7500001
0.10351619 0.19366479 1.753
0.1139162 0.19432762 1.7589999
0.12396763 0.19432762 1.7589999
0.13401906 0.19432762 1.7589999
0.14072001 0.19097716 1.7590001
-0.21740954 0.20403619 1.756
0.084285721 0.20285715 1.7500001
0.093333334 0.20333336 1.7500001
0.1033943 0.20344764 1.751
0.1139162 0.20437908 1.7589999
0.12396762 0.20437908 1.7589999
0.13360023 0.20396027 1.7589999
0.14072001 0.20102859 1.7590001
-0.21778096 0.2144305 1.7590002
0.086666673 0.21000001 1.7500001
0.093333334 0.21333335 1.7500001
0.10345525 0.21357907 1.7520001
0.1139162 0.21443047 1.7589999
0.12301035 0.21395184 1.7589999
0.13401906 0.21108001 1.7590002
-0.21481587 0.22371049 1.7530001
0.085333332 0.22400001 1.7500002
0.093333334 0.22333333 1.7500001
0.10357524 0.22384572 1.7540001
0.11335778 0.22336508 1.7589999
-0.21444523 0.23363334 1.7522501
0.083750002 0.23375002 1.7500001
0.093333334 0.23333335 1.7500001
0.10380763 0.23440188 1.7579999
0.11056572 0.23453334 1.7590001
-0.21333332 0.24333334 1.7500001
0.053333335 0.245 1.7500001
0.060000002 0.24666667 1.7500001
0.075555556 0.24444444 1.7500001
0.083333336 0.24333334 1.7500001
0.093333334 0.24333334 1.7500001
0.10386477 0.24458477 1.7589999
0.1139162 0.24626003 1.7589999
0.12564287 0.24793525 1.7590001
0.13234381 0.24793525 1.7590001
-0.21000001 0.255 1.7500001
0.064444445 0.25555554 1.7500001
0.075333335 0.25400001 1.7500002
0.083380952 0.25348002 1.751
0.093441911 0.25362667 1.7520001
0.10380763 0.25449336 1.7579999
0.11224096 0.2546362 1.7590001
0.12396763 0.25128573 1.7590001
0.13200876 0.25396609 1.7590001
-0.21265829 0.26347923 1.7554001
0.064999998 0.26333335 1.7500001
0.074510157 0.26244509 1.7515001
0.083333343 0.26333335 1.7500001
0.09349905 0.26378477 1.753
0.10386476 0.26468766 1.7589999
0.11056572 0.26636285 1.7590001
0.13066858 0.26468763 1.7590002
-0.21265829 0.2735101 1.7554001
0.064999998 0.27333334 1.7500001
0.073863402 0.27448899 1.7512858
0.083430469 0.27364954 1.7520001
0.093657151 0.27427426 1.756
0.10163111 0.27250543 1.7590002
-0.21147685 0.28381333 1.7530001
0.06428571 0.28380951 1.7500001
0.07337524 0.28349712 1.751
0.083624758 0.28430477 1.756
0.093813337 0.28479052 1.7589999
0.10163111 0.2859073 1.7590002
-0.21054001 0.2940962 1.7545002
0.046666667 0.29666668 1.7500001
0.053333331 0.29499999 1.7500001
0.063333333 0.29291666 1.7500001
0.073459052 0.29383621 1.753
0.083761908 0.29484192 1.7589999
0.092138104 0.29484192 1.7589999
0.10051429 0.29149145 1.7590001
-0.21108001 0.30489334 1.7590002
0.043750003 0.30374998 1.7500001
0.053333335 0.30333331 1.7500001
0.063333333 0.30374998 1.7500001
0.07333333 0.30333331 1.7500001
0.083670475 0.30454478 1.757
0.093394533 0.30489331 1.7589999
0.10051429 0.30489334 1.7590002
-0.21137762 0.31497669 1.7545002
0.044166669 0.3125 1.7500001
0.054166667 0.31083333 1.7500001
0.063333333 0.3133333 1.7500001
0.07333333 0.3133333 1.7500001
0.083619051 0.31440762 1.756
0.093761906 0.3147676 1.7579999
0.10218953 0.31494477 1.7589999
-0.21147685 0.32388762 1.7530001
0.042380955 0.32333335 1.7500001
0.054285716 0.32333335 1.7500001
0.063333333 0.32333335 1.7500001
0.073626667 0.3246305 1.757
0.083761908 0.3249962 1.7589999
0.093334697 0.32403895 1.7589999
0.10386477 0.32332098 1.7589999
0.11335779 0.32443783 1.7589999
-0.21108001 0.33169717 1.7590001
-0.20666668 0.33666667 1.7500001
0.053333338 0.33333331 1.7500001
0.063333333 0.33333331 1.7500001
0.073710479 0.33504766 1.7589999
0.083343104 0.33462882 1.7589999
0.090462863 0.33169717 1.7590001
-0.20500001 0.34333336 1.7500001
0.046666667 0.34333333 1.7500001
0.053750005 0.34291667 1.7500001
0.063447617 0.34392193 1.753
0.073710471 0.34509906 1.7589999
0.082804628 0.34557772 1.7589999
0.095153525 0.34643927 1.7590001
0.10051429 0.34844953 1.7590001
-0.20333333 0.35333335 1.7500001
0.036666669 0.35666668 1.7500001
0.044166669 0.35583335 1.7500001
0.053460959 0.35414287 1.7540001
0.063590482 0.35474861 1.757
0.073622853 0.35474861 1.757
0.083670475 0.35474479 1.757
0.09381333 0.35515046 1.7589999
0.10252458 0.35582057 1.7590001
-0.20333335 0.36666667 1.7500001
0.026666665 0.36333334 1.7500001
0.033333331 0.36166668 1.7500001
0.046666667 0.36166668 1.7500001
0.053891432 0.36384666 1.7545
0.063659042 0.36520192 1.7589999
0.07362286 0.36478859 1.757
0.083430476 0.3637448 1.7520001
0.093761913 0.36499432 1.7579999
0.10319468 0.36386174 1.7590001
0.02416667 0.37583336 1.7500001
0.034285717 0.37380955 1.7500001
