# .PCD v0.7 - Point Cloud Data file format
VERSION 0.7
FIELDS x y z
SIZE 4 4 4
TYPE F F F
COUNT 1 1 1
WIDTH 1524
HEIGHT 1
VIEWPOINT 0 0 0 1 0 0 0
POINTS 1524
DATA ascii
-0.16417143 0.3154667 1.6900003
-0.15451428 0.31546667 1.6900003
-0.14485715 0.3154667 1.6900003
-0.13519999 0.31546667 1.6900003
-0.12554285 0.31546673 1.6900003
-0.11781715 0.31482285 1.6900002
-0.27168 0.3201943 1.6980001
-0.26521146 0.3201943 1.6980001
-0.25389144 0.32342857 1.6980001
-0.24580574 0.3250457 1.6980001
-0.23610286 0.32504573 1.6980001
-0.22669402 0.32548675 1.6980001
-0.21461798 0.32573876 1.6980001
-0.20485288 0.3260681 1.697
-0.19595952 0.32472146 1.6900003
-0.18509525 0.32512382 1.6900004
-0.1739217 0.32529652 1.6908891
-0.16417143 0.32512385 1.6900003
-0.1545143 0.32512382 1.6900003
-0.14525953 0.32472143 1.6900003
-0.13520001 0.32297778 1.6900001
0.093352385 0.32834285 1.6900001
-0.27168 0.33798289 1.6980001
-0.26440287 0.33636576 1.6980001
-0.25510427 0.33677003 1.6980001
-0.24580574 0.33636576 1.6980001
-0.23610288 0.3363657 1.6980001
-0.2264 0.33636576 1.6980001
-0.21508002 0.33636573 1.6980001
-0.20376001 0.33636573 1.6980001
-0.19446144 0.33677003 1.6980001
-0.18439163 0.33493602 1.6924002
-0.1741994 0.33548701 1.6935556
-0.16417143 0.33478099 1.6900003
-0.15497415 0.33386126 1.6900003
-0.14646667 0.33156192 1.6900001
0.093352385 0.33478096 1.6900001
-0.26413333 0.34714666 1.6980001
-0.25550854 0.34606856 1.6980001
-0.24621001 0.34647286 1.6980001
-0.23691143 0.34606859 1.6980001
-0.22720858 0.34364283 1.6980001
-0.21346286 0.34514448 1.6980001
-0.20376001 0.34606856 1.6980001
-0.19405714 0.34606853 1.6980001
-0.18397164 0.34534052 1.6944444
-0.17419767 0.34516108 1.6935556
-0.16417143 0.34443814 1.6900003
-0.1545143 0.34443808 1.6900002
-0.14393742 0.34489796 1.6900003
-0.13680953 0.34604764 1.6900001
0.093352385 0.34443808 1.6900001
-0.26197717 0.35253716 1.6980001
-0.25550857 0.3544777 1.6980002
-0.24621002 0.35536718 1.6980001
-0.21253876 0.3553094 1.6980001
-0.20376003 0.35577142 1.6980001
-0.19405715 0.35577145 1.6980001
-0.18425947 0.35558352 1.6971111
-0.17438224 0.35521275 1.6953335
-0.16417143 0.35409531 1.6900003
-0.15451428 0.35409531 1.6900003
-0.14485714 0.35409525 1.6900003
-0.13560238 0.35449761 1.6900003
-0.1287619 0.35731429 1.6900001
-0.093352385 0.35731429 1.6900001
-0.24742287 0.36385715 1.6980001
-0.20335573 0.36507002 1.6980001
-0.19405715 0.36547431 1.6980001
-0.18358392 0.36394203 1.6908891
-0.17437883 0.36490372 1.6953335
-0.16486055 0.36528471 1.6971111
-0.15508658 0.36509168 1.6962223
-0.14516193 0.36451432 1.6935556
-0.13534562 0.36413336 1.6917779
-0.12594524 0.36415479 1.6900003
-0.11910477 0.36697143 1.6900001
-0.10622858 0.36375239 1.6900001
-0.093352385 0.3628327 1.6900003
0.096723817 0.36432132 1.6926666
-0.20181945 0.37453029 1.6980002
-0.19405714 0.3751772 1.6980001
-0.18368213 0.37380233 1.6917779
-0.17424254 0.3759003 1.6940001
-0.16525382 0.37455195 1.697
-0.15524572 0.37517715 1.6980001
-0.14474401 0.37458515 1.6924002
-0.13520001 0.37501907 1.6900004
-0.12554286 0.37501907 1.6900004
-0.11846097 0.37534097 1.6900002
-0.094961911 0.37340951 1.6900001
-0.05472381 0.37754831 1.6900003
-0.048285715 0.37823811 1.6900001
0.096571431 0.37501907 1.6900001
0.10430571 0.37356001 1.6980001
0.11535618 0.37302098 1.6980001
-0.24257144 0.38488001 1.6980001
-0.23610286 0.38649717 1.6980001
-0.2273241 0.38441795 1.6980001
-0.21669716 0.3881143 1.6980001
-0.20181945 0.38552684 1.6980002
-0.19405715 0.38488001 1.6980001
-0.18435431 0.38487998 1.6980001
-0.17382857 0.38628572 1.6900003
-0.16503429 0.38497829 1.6956002
-0.1546343 0.38479546 1.6948
-0.14527585 0.38544208 1.6914548
-0.13560238 0.38588339 1.6900003
-0.12554285 0.38628572 1.6900003
-0.11588572 0.38628572 1.6900003
-0.10622857 0.38628572 1.6900003
-0.09818095 0.38628575 1.6900002
-0.063461222 0.3867456 1.6900003
-0.054723814 0.38628575 1.6900003
-0.046139684 0.38682222 1.6900002
0.097028576 0.38488001 1.6980001
0.10430571 0.38245428 1.6980001
0.1132 0.38164574 1.6980001
-0.23367716 0.3937743 1.6980001
-0.22801715 0.39458287 1.6980001
-0.21669716 0.39458287 1.6980001
-0.20214288 0.3945829 1.6980001
-0.19405715 0.39458287 1.6980001
-0.18435429 0.39458287 1.6980001
-0.17410289 0.39495811 1.6926666
-0.16425286 0.39429 1.6950001
-0.15495621 0.39545029 1.6948001
-0.14501123 0.39635935 1.6917779
-0.13519999 0.39594287 1.6900003
-0.12554286 0.39433333 1.6900002
-0.11558477 0.39555866 1.6922858
-0.10622858 0.39594287 1.6900003
-0.098180957 0.39594284 1.6900002
-0.064380951 0.39502311 1.6900003
-0.055126194 0.39554048 1.6900003
-0.04506667 0.39433336 1.6900002
0.097028576 0.39781716 1.6980001
-0.22640002 0.40428573 1.6980002
-0.21993144 0.4042857 1.6980001
-0.20052572 0.4026686 1.6980001
-0.19405714 0.4042857 1.6980001
-0.18435431 0.4026686 1.6980001
-0.17465143 0.4026686 1.6980001
-0.16454428 0.40388146 1.6980001
-0.15570775 0.40520981 1.6980001
-0.14531682 0.40526795 1.6953335
-0.1354108 0.40463051 1.6926666
-0.1260034 0.40386245 1.6962223
-0.11616457 0.4049429 1.694
-0.10563201 0.40546855 1.6908003
-0.096571438 0.40560001 1.6900003
-0.064380951 0.40688762 1.6900002
-0.0571381 0.40640479 1.6900001
0.096571431 0.40881905 1.6900001
-0.26197717 0.41398859 1.6980001
-0.25550857 0.41398859 1.6980002
-0.21993144 0.41075429 1.6980001
-0.1645443 0.41439289 1.6980001
-0.15524572 0.41398859 1.6980001
-0.14554286 0.41398856 1.6980001
-0.13584001 0.41398859 1.6980001
-0.12607771 0.41443738 1.6972001
-0.11637676 0.4151985 1.6924002
-0.10622858 0.41525716 1.6900003
-0.094961911 0.41493526 1.6900003
-0.086914286 0.41364765 1.6900001
-0.065453969 0.41311112 1.6900001
-0.056333333 0.41525719 1.6900002
0.095650792 0.41591239 1.6926666
-0.20052572 0.42207432 1.6980001
-0.18327619 0.42584762 1.6980001
-0.17141715 0.42692572 1.6980001
-0.16494858 0.42369145 1.6980001
-0.15517259 0.4241356 1.6972001
-0.14554286 0.42369145 1.6980001
-0.13584 0.42369145 1.6980001
-0.12569639 0.42490324 1.6964
-0.11594667 0.42513609 1.6908891
-0.10563199 0.42446861 1.6908003
-0.094961904 0.42491433 1.6900004
-0.086914286 0.42813334 1.6900001
-0.056333337 0.42330477 1.6900001
0.094577782 0.42451176 1.6926666
-0.21346286 0.43177718 1.6980001
-0.18435431 0.43501148 1.6980001
-0.17465143 0.43501139 1.6980001
-0.16494858 0.43501148 1.6980001
-0.15517923 0.43526685 1.6972728
-0.14554286 0.43501142 1.6980001
-0.13584001 0.43501148 1.6980001
-0.12634476 0.43557185 1.6964
-0.11600932 0.43503198 1.6917779
-0.10622858 0.43457144 1.6900003
-0.094961904 0.4345715 1.6900004
-0.08369524 0.43497381 1.6900003
-0.074440479 0.43416908 1.6900003
-0.061161906 0.43457142 1.6900001
-0.056333337 0.43296194 1.6900001
-0.02897143 0.43457144 1.6900001
0.096876197 0.43593779 1.6953334
-0.19244 0.44956574 1.6980001
-0.18435431 0.44633144 1.6980001
-0.17465141 0.44633144 1.6980001
-0.16494858 0.44633144 1.6980001
-0.15524571 0.44633138 1.6980001
-0.14554286 0.44633144 1.6980001
-0.13778058 0.44697833 1.6980002
-0.1256751 0.44633144 1.6980001
-0.11619556 0.44539514 1.6944444
-0.10622857 0.44422859 1.6900003
-0.094997466 0.44440508 1.690667
-0.083827302 0.44493464 1.6926668
-0.074038096 0.44422856 1.6900003
-0.065300681 0.44376874 1.6900003
-0.056333333 0.44100955 1.6900001
-0.02897143 0.44100955 1.6900001
0.099790476 0.44422859 1.6900001
-0.19405714 0.45668116 1.6980002
-0.18435429 0.4560343 1.6980001
-0.17465144 0.4560343 1.6980001
-0.16494858 0.45603433 1.6980001
-0.15524572 0.4560343 1.6980001
-0.14554286 0.45441714 1.6980001
-0.13676409 0.45603424 1.6980001
-0.12613715 0.4560343 1.6980001
-0.11619556 0.45507765 1.6944444
-0.10622858 0.4538857 1.6900003
-0.095105402 0.4546032 1.6926669
-0.083552383 0.4549562 1.6980001
-0.074119359 0.4543615 1.6917779
-0.064380951 0.4506667 1.6900001
-0.056333333 0.4506667 1.6900001
-0.048285715 0.4506667 1.6900001
-0.02897143 0.45710477 1.6900001
0.099790476 0.45227623 1.6900001
0.10026286 0.4592686 1.6980001
-0.18306057 0.46444345 1.6980002
-0.17465143 0.46573719 1.6980001
-0.16602667 0.46465907 1.6980001
-0.15848 0.46250287 1.6980001
-0.13368382 0.46681523 1.6980001
-0.12564 0.46572119 1.6956002
-0.1159327 0.46533403 1.690667
-0.10622857 0.46515241 1.6900004
-0.095398612 0.46541464 1.6921335
-0.083605081 0.46607876 1.6953332
-0.074681908 0.46515241 1.6900003
0.09818095 0.46193337 1.6900001
0.10026286 0.46573716 1.6980001
-0.18111999 0.47544003 1.6980001
-0.17465143 0.47544003 1.6980001
-0.16737428 0.47544003 1.6980001
-0.13260572 0.47544003 1.6980001
-0.12639666 0.4752824 1.6960001
-0.11548334 0.4760167 1.6900003
-0.10622858 0.47641909 1.6900003
-0.094639301 0.47585937 1.6921821
-0.084172122 0.47626531 1.6936364
-0.074038096 0.47641909 1.6900003
-0.065453969 0.47695556 1.6900002
-0.056333333 0.4796381 1.6900001
0.097028576 0.47220573 1.6980001
-0.17424715 0.48473859 1.6980001
-0.16494858 0.48554718 1.6980001
-0.15848 0.48676002 1.6980001
-0.13260572 0.48514286 1.6980001
-0.12607281 0.48488891 1.6971111
-0.11658505 0.48475865 1.6934286
-0.10473714 0.48423144 1.6920002
-0.093975723 0.48520717 1.694
-0.08369524 0.48607621 1.6900003
-0.074213333 0.48561716 1.6939999
-0.064528257 0.48561463 1.6940002
-0.054303132 0.48548514 1.691143
-0.045871429 0.48849049 1.6900001
-0.035409525 0.48929524 1.6900001
-0.02897143 0.48929524 1.6900001
-0.16387047 0.49376765 1.6980001
-0.15767142 0.49565431 1.6980001
-0.13260572 0.49161145 1.6980001
-0.12532857 0.49242002 1.6980001
-0.11643428 0.49484572 1.6980001
-0.10580503 0.49492505 1.6972728
-0.094756834 0.49506438 1.6921335
-0.08369524 0.49573332 1.6900003
-0.074300952 0.49587241 1.6960001
-0.064655237 0.49525636 1.6972001
-0.054901589 0.49514157 1.6953332
-0.044692859 0.4956243 1.6910002
-0.035007145 0.49613577 1.6900003
-0.028971428 0.49573335 1.6900001
-0.16171429 0.50131428 1.6980001
-0.15686285 0.50293142 1.6980001
-0.12398096 0.50670481 1.6980001
-0.11594355 0.504852 1.6950909
-0.10665836 0.50486684 1.6921821
-0.095648386 0.50498593 1.6908003
-0.083344288 0.50528717 1.6910002
-0.074038096 0.50447077 1.6900003
-0.064436369 0.5046494 1.6914548
-0.055112038 0.50508302 1.6929092
-0.045434289 0.50522214 1.6916002
-0.035409525 0.50539047 1.6900003
-0.028971428 0.50539047 1.6900001
0.097028576 0.50454861 1.6980001
-0.15362859 0.51748574 1.6980001
-0.14877714 0.51748574 1.6980001
-0.12290286 0.51263428 1.6980001
-0.11689634 0.51517552 1.6980001
-0.1051143 0.5158686 1.6980001
-0.093390003 0.51465571 1.6980001
-0.083948568 0.51495433 1.6949999
-0.074038096 0.51504761 1.6900003
-0.064380951 0.51504767 1.6900003
-0.054835562 0.51612782 1.6935556
-0.044799525 0.51616526 1.6949999
-0.035429839 0.51531851 1.6908891
-0.028971428 0.51504761 1.6900001
-0.15362859 0.52395433 1.6980001
-0.14877714 0.5271886 1.6980001
-0.13584 0.5271886 1.6980001
-0.12290286 0.52395433 1.6980001
-0.11643428 0.52395433 1.6980001
-0.10511429 0.52395433 1.6980001
-0.093794286 0.52487838 1.6980001
-0.084448092 0.52405006 1.697
-0.074213333 0.52433711 1.6940001
-0.064010337 0.52449471 1.6922858
-0.05472381 0.52470469 1.6900003
-0.045452572 0.5248031 1.6924002
-0.035409525 0.52470475 1.6900003
-0.028971428 0.52470475 1.6900001
-0.16171429 0.53365713 1.6980001
-0.15484145 0.53406143 1.6980001
-0.14796858 0.53365713 1.6980001
-0.13584 0.53042287 1.6980001
-0.12290286 0.53042287 1.6980001
-0.11643428 0.53042287 1.6980001
-0.092870213 0.53319508 1.6980001
-0.084091425 0.53365713 1.6980001
-0.074388579 0.53365713 1.6980001
-0.065090001 0.53406143 1.6980001
-0.05478476 0.53492236 1.6917779
-0.04506667 0.5343619 1.6900003
-0.035409525 0.5343619 1.6900003
-0.028971428 0.5343619 1.6900001
-0.093147434 0.54433024 1.6980002
-0.084091425 0.54497719 1.6980001
-0.074388564 0.54497713 1.6980001
-0.06468571 0.54497707 1.6980001
-0.054783069 0.54459476 1.6917779
-0.04506667 0.54401904 1.6900003
-0.035409525 0.54401904 1.6900003
-0.028971428 0.54401904 1.6900001
0.099790476 0.54401904 1.6900001
0.10349715 0.54335999 1.6980001
-0.1132 0.55953145 1.6980001
-0.10349715 0.55791432 1.6980001
-0.093794286 0.55629718 1.6980001
-0.084091425 0.55629718 1.6980001
-0.074388571 0.55629718 1.6980001
-0.064281434 0.55629718 1.6980001
-0.054928679 0.55571645 1.6962223
-0.045188569 0.55513573 1.6944444
-0.035409525 0.55367625 1.6900003
-0.028971428 0.55367619 1.6900001
-0.1132 0.56600004 1.6980001
-0.10511428 0.56600004 1.6980001
-0.093794286 0.56599998 1.6980001
-0.084091432 0.56599998 1.6980001
-0.074388579 0.56600004 1.6980001
-0.064685717 0.56599998 1.6980001
-0.054982856 0.56599998 1.6980001
-0.045280002 0.56600004 1.6980001
-0.035539892 0.56540573 1.6962223
-0.029062858 0.56511116 1.6953334
0.099790476 0.56494284 1.6900001
0.10026286 0.56276572 1.6980001
-0.1132 0.57570291 1.6980001
-0.10511429 0.57570285 1.6980001
-0.093794294 0.57570291 1.6980001
-0.084091425 0.57570285 1.6980001
-0.074388579 0.57570291 1.6980001
-0.064685717 0.57570291 1.6980001
-0.054643117 0.57638031 1.6965455
-0.045191113 0.57617968 1.6946669
-0.035519999 0.57640696 1.6953334
-0.028269526 0.57663429 1.6960001
-0.016095238 0.57942861 1.6900001
-0.0096571436 0.57942861 1.6900001
-0.1132 0.58217144 1.6980001
-0.10511429 0.58540583 1.6980001
-0.094718359 0.58494371 1.6980001
-0.071962863 0.58459711 1.6980001
-0.064685717 0.58540577 1.6980001
-0.0554449 0.58632976 1.6980001
-0.045066666 0.58546436 1.6900003
-0.035409525 0.58586669 1.6900003
-0.026115429 0.58605033 1.6924002
-0.016095238 0.58586669 1.6900003
-0.0073578237 0.58632654 1.6900003
0.099790476 0.58908576 1.6900001
-0.1132 0.5918743 1.6980001
-0.10996572 0.59349144 1.6980001
-0.097028576 0.5918743 1.6980001
-0.071154289 0.5918743 1.6980001
-0.064038858 0.59316802 1.6980002
-0.054578576 0.59470427 1.6980001
-0.045280002 0.59603268 1.6980001
-0.035007145 0.59512144 1.6900003
-0.026396194 0.59552383 1.6900002
-0.01609524 0.59552383 1.6900003
-0.0064380961 0.59552377 1.6900003
0.099790476 0.5971334 1.6900001
0.10188 0.59510857 1.6980001
-0.064146668 0.60535049 1.6980001
-0.052826669 0.60265523 1.6980001
-0.045280002 0.60440719 1.6980001
-0.035489097 0.60537612 1.6935556
-0.027361905 0.6043762 1.6900001
-0.015022222 0.60464448 1.6900002
-0.0080476198 0.60196191 1.6900001
0.099790476 0.60518098 1.6900001
-0.071154289 0.61451429 1.6980001
-0.064685717 0.61451435 1.6980001
-0.05498286 0.61451435 1.6980001
-0.045280002 0.61451435 1.6980001
-0.035971701 0.61419541 1.6945716
-0.025292519 0.61483812 1.6900003
-0.01609524 0.61483812 1.6900003
-0.0085841278 0.61376506 1.6900001
0.099790476 0.61483812 1.6900001
-0.071154289 0.62421721 1.6980001
-0.064685717 0.62421721 1.6980001
-0.05498286 0.62421715 1.6980001
-0.045279998 0.62421727 1.6980001
-0.035577144 0.62421715 1.6980001
-0.025798097 0.62440246 1.6926668
-0.019314287 0.62449527 1.6900001
0.099790476 0.62449527 1.6900001
0.10521001 0.62438905 1.6930001
-0.17465144 0.63715428 1.6980001
-0.061451431 0.63068575 1.6980001
-0.05498286 0.63068575 1.6980001
-0.043662861 0.63068575 1.6980001
-0.035172857 0.63351578 1.6980001
-0.027430477 0.63403624 1.6939999
-0.0064380956 0.63415241 1.6900001
-0.16171429 0.64038861 1.6980001
-0.15559696 0.64111626 1.6948
-0.14769904 0.64254481 1.6980001
-0.13584 0.64362288 1.6980001
-0.063068576 0.64362288 1.6980001
-0.058217146 0.64362288 1.6980001
-0.032342859 0.64685714 1.6980001
-0.027766097 0.64369756 1.6948001
-0.025798097 0.6501956 1.6926666
0.0096571436 0.65990478 1.6900001
0.016095238 0.65910006 1.6900001
0.025752384 0.65668577 1.6900003
0.036482539 0.65561271 1.6900003
0.04506667 0.65668571 1.6900003
0.053650793 0.65453976 1.6900002
0.063576192 0.65749049 1.6900001
0.072428569 0.65668571 1.6900001
0.0096571436 0.66312385 1.6900001
0.016919049 0.66471338 1.692
0.025790477 0.66578484 1.6926666
0.035811909 0.66594046 1.6900003
0.044692859 0.66633475 1.6910002
0.053689145 0.66496915 1.6980002
-0.38019431 0.058491431 1.7060001
-0.37694478 0.058491431 1.7060001
-0.35257334 0.058491431 1.7060001
-0.34444952 0.058491427 1.706
-0.3379505 0.058491431 1.7060001
-0.32603559 0.057408255 1.706
-0.29245716 0.058491431 1.7060001
-0.28595811 0.058491431 1.7060001
-0.27945906 0.056866668 1.7060001
-0.26537779 0.056325078 1.706
-0.22259238 0.056866668 1.7060001
-0.21446858 0.056325078 1.706
-0.20796953 0.055241905 1.7060001
-0.14622858 0.055241901 1.706
-0.39319238 0.066615239 1.7060001
-0.38488805 0.065351531 1.7060002
-0.37369525 0.066615231 1.7060002
-0.36394668 0.064990476 1.7060002
-0.35257334 0.061740953 1.7060001
-0.34607428 0.061740953 1.7060001
-0.33226383 0.064178094 1.7060001
-0.32495239 0.06369067 1.7060001
-0.31357905 0.068240002 1.7060001
-0.30480534 0.065640382 1.7060001
-0.29895622 0.061740953 1.7060001
-0.28270859 0.064990476 1.7060001
-0.27945906 0.064990476 1.7060001
-0.39449221 0.074089147 1.7060001
-0.3849209 0.075034454 1.7060001
-0.37532005 0.074739046 1.7060002
-0.36557144 0.071489528 1.7060001
-0.33307621 0.074739046 1.7060002
-0.32495239 0.074739046 1.7060002
-0.31520382 0.074739046 1.7060002
-0.30638367 0.075203262 1.7060002
-0.29895622 0.077988572 1.7060001
-0.39319238 0.081238098 1.7060001
-0.38506863 0.082862861 1.7060002
-0.37369525 0.083946027 1.7060002
-0.36502984 0.08557079 1.7060002
-0.3541981 0.087737143 1.706
-0.34363717 0.085299999 1.7060001
-0.33535087 0.082537904 1.7060001
-0.32495239 0.082862861 1.7060002
-0.31585371 0.082537904 1.7060001
-0.30350551 0.08383771 1.7060001
-0.29570666 0.082862861 1.7060002
-0.28704131 0.08557079 1.7060002
-0.27945906 0.087737143 1.7060001
0.094236195 0.087737143 1.7060001
-0.36394668 0.092611432 1.7060002
-0.3541981 0.092286482 1.7060001
-0.34607431 0.092611432 1.7060001
-0.28270859 0.090986669 1.7060001
-0.27539715 0.094236195 1.7060001
-0.26808572 0.097485721 1.7060001
0.095319368 0.094236195 1.706
-0.34444955 0.10723429 1.7060001
-0.32495239 0.10723429 1.7060001
-0.31520382 0.10642192 1.7060001
-0.30545524 0.10723429 1.7060001
-0.26581106 0.10398476 1.7060001
-0.25887874 0.10615113 1.706
0.097485721 0.10236001 1.7060001
-0.37207049 0.11698286 1.7060001
-0.36264688 0.11503315 1.7060001
-0.3541981 0.11503315 1.7060001
-0.34336635 0.11373333 1.706
-0.33470097 0.11568306 1.7060001
-0.32495239 0.11373334 1.7060002
-0.31390399 0.11243353 1.7060001
-0.30383047 0.11373334 1.7060002
-0.29611287 0.11413953 1.7060002
-0.28660804 0.11568306 1.7060001
-0.27539715 0.11454572 1.7060001
-0.26646098 0.11210858 1.7060002
-0.2599619 0.11048381 1.7060001
-0.37369528 0.12543163 1.7060001
-0.3658964 0.12348191 1.7060001
-0.35311493 0.1240235 1.7060002
-0.34444952 0.12510666 1.706
-0.33470097 0.12510665 1.706
-0.32560229 0.12575658 1.7060001
-0.31439143 0.12673143 1.7060002
-0.30575067 0.12495895 1.7060001
-0.29895622 0.12023239 1.7060001
-0.28530821 0.12153219 1.7060001
-0.27945906 0.12023239 1.7060001
-0.37328905 0.1360738 1.7060002
-0.36448827 0.13702159 1.7060002
-0.35094857 0.13810477 1.7060001
-0.34444955 0.13647999 1.7060002
-0.33470097 0.1360738 1.7060002
-0.32495242 0.13647999 1.7060002
-0.31479764 0.13647999 1.7060002
-0.30586141 0.1360738 1.7060002
-0.29895622 0.13810477 1.7060001
-0.28270859 0.13972953 1.7060001
-0.38994288 0.14622858 1.706
-0.37239546 0.14492877 1.7060001
-0.36394668 0.1446038 1.7060002
-0.3541981 0.14622858 1.7060001
-0.34444952 0.14297906 1.706
-0.33470097 0.14663476 1.7060002
-0.32603556 0.1451454 1.7060002
-0.3160162 0.14460382 1.7060001
-0.30504906 0.14582238 1.7060002
-0.29895622 0.14297906 1.7060001
-0.28352097 0.14704096 1.7060001
-0.27945906 0.14622858 1.706
-0.38994288 0.15435238 1.7060001
-0.36394668 0.15922667 1.7060001
-0.35326967 0.15597714 1.7060002
-0.34390795 0.15651873 1.7060002
-0.33470097 0.15597714 1.7060002
-0.32495239 0.15597714 1.7060002
-0.31520379 0.15597714 1.7060002
-0.30452681 0.15597714 1.7060002
-0.29245716 0.15760191 1.7060001
-0.28595811 0.15597714 1.7060002
-0.27945906 0.15597714 1.706
-0.38019431 0.16735049 1.7060001
-0.37207049 0.16897525 1.7060001
-0.36394668 0.16735049 1.7060001
-0.35203174 0.16789208 1.706
-0.34444955 0.16613191 1.7060002
-0.33470097 0.16572572 1.7060002
-0.32495239 0.16572572 1.7060002
-0.31520382 0.16572572 1.7060002
-0.30626762 0.16491334 1.7060001
-0.29245716 0.16572572 1.7060001
-0.28555194 0.16572572 1.7060002
-0.27945906 0.16572572 1.706
0.10073524 0.16572572 1.7060001
-0.38019431 0.17384952 1.7060001
-0.37261209 0.17439111 1.7060002
-0.36394671 0.17547429 1.7060002
-0.35512653 0.17501007 1.7060002
-0.34444955 0.17547429 1.7060002
-0.33470097 0.17547429 1.7060002
-0.32495239 0.1750681 1.7060002
-0.31560999 0.1750681 1.7060002
-0.3076216 0.17330794 1.706
-0.28530821 0.17352459 1.7060001
0.10398477 0.17872381 1.7060001
-0.37044573 0.1835981 1.7060001
-0.36394671 0.18522286 1.7060002
-0.35460427 0.18562905 1.7060002
-0.34444955 0.18522286 1.7060002
-0.33429477 0.18522286 1.7060002
-0.32495239 0.18562905 1.7060002
-0.31520382 0.18522286 1.7060002
-0.30545524 0.18684763 1.7060002
-0.29895622 0.18684763 1.7060001
-0.35094857 0.19172192 1.7060001
-0.34352112 0.19450723 1.7060002
-0.33470097 0.19497144 1.7060002
-0.32495239 0.19497144 1.7060002
-0.31520382 0.19497144 1.7060002
-0.30545527 0.19497144 1.7060002
-0.29624829 0.19551302 1.7060002
-0.28595811 0.19822095 1.706
-0.27945906 0.19822095 1.7060001
0.10723429 0.19822095 1.7060001
-0.37694478 0.20796953 1.7060001
-0.34120002 0.20472001 1.706
-0.33470097 0.20472001 1.7060002
-0.32588083 0.20425579 1.7060002
-0.31520382 0.20277028 1.7060001
-0.30545524 0.20309524 1.7060002
-0.29570669 0.20472001 1.7060002
-0.28595811 0.20472001 1.7060002
-0.27945906 0.20472001 1.706
0.10723429 0.20147048 1.7060001
-0.38019431 0.21609335 1.7060001
-0.3761324 0.2136562 1.7060001
-0.34120002 0.21446858 1.706
-0.33470097 0.21487477 1.7060002
-0.32495239 0.21539702 1.7060002
-0.31195429 0.21446858 1.7060001
-0.29570669 0.21446858 1.7060002
-0.28595814 0.21446858 1.7060002
-0.27661571 0.21487477 1.7060002
-0.26692519 0.21539702 1.7060002
-0.34120002 0.22259238 1.7060001
-0.3342948 0.22381097 1.7060002
-0.32690209 0.22486706 1.7060001
-0.29617092 0.22421716 1.7060002
-0.28677049 0.22259238 1.7060001
-0.27667373 0.22328873 1.7060002
-0.26971048 0.22259238 1.7060001
0.097485721 0.22746667 1.7060001
-0.32711875 0.23179936 1.706
-0.31195429 0.23559049 1.7060001
-0.30545524 0.23559049 1.7060001
-0.29611287 0.23396574 1.7060002
-0.28541651 0.23450732 1.7060002
-0.27945906 0.23396571 1.706
0.097485721 0.2307162 1.7060001
-0.29570669 0.24046476 1.706
-0.28920764 0.24046478 1.7060001
-0.27620953 0.24452667 1.7060001
-0.26321143 0.24371429 1.706
-0.25833714 0.24696381 1.7060001
-0.20472001 0.24696381 1.7060001
0.10398477 0.24371429 1.7060001
-0.27458477 0.25508764 1.7060002
-0.26616555 0.25464451 1.7060001
-0.25596249 0.25546259 1.706
-0.24371432 0.25508764 1.7060002
-0.2307162 0.25346288 1.7060001
-0.20407009 0.25541258 1.7060001
-0.28487495 0.26862732 1.706
-0.2755596 0.26581106 1.7060001
-0.26451126 0.26581106 1.7060001
-0.25671235 0.26646098 1.7060002
-0.36069715 0.27945906 1.7060001
-0.32495239 0.27620953 1.7060001
-0.29462352 0.2772927 1.706
-0.28555194 0.27661571 1.7060002
-0.27945906 0.27620953 1.706
-0.3379505 0.28920764 1.7060001
-0.32576478 0.28677049 1.7060001
-0.31520382 0.28758287 1.7060002
-0.30626762 0.28677049 1.7060001
-0.29678985 0.28704128 1.706
-0.28758287 0.28270859 1.7060001
-0.27620953 0.28677049 1.7060001
-0.26754412 0.28812447 1.706
-0.24371429 0.28920764 1.706
-0.23721525 0.28920764 1.7060001
0.097485721 0.28758287 1.7060001
-0.33470097 0.29245716 1.7060001
-0.32560229 0.29440689 1.7060001
-0.31628698 0.29462352 1.7060002
-0.28812447 0.29787305 1.706
-0.27620953 0.29462352 1.706
-0.26754412 0.29354033 1.706
-0.24371429 0.29245716 1.706
-0.23721525 0.29408193 1.7060001
-0.22746667 0.29895622 1.7060001
0.097485721 0.29408193 1.7060001
-0.32657716 0.30545524 1.7060001
-0.31845334 0.30545524 1.706
-0.29895622 0.30545524 1.7060001
-0.28636432 0.30586144 1.7060002
-0.27945906 0.30545524 1.706
-0.21771811 0.30870476 1.7060001
0.097485721 0.30708 1.7060001
-0.31845334 0.31357905 1.7060001
-0.28704128 0.31303748 1.706
-0.27945906 0.31357905 1.7060001
-0.22313397 0.31412065 1.706
-0.21771811 0.31357905 1.7060001
-0.27404317 0.32495239 1.706
-0.26646098 0.32657716 1.7060002
-0.25833714 0.32657716 1.7060001
-0.22259238 0.32170287 1.7060001
-0.21771811 0.32170287 1.7060001
0.094236195 0.32170287 1.7060001
-0.27490973 0.33405107 1.7060001
-0.26700255 0.33361781 1.7060002
-0.25887874 0.33253464 1.706
0.097485721 0.33632573 1.7060001
-0.27490973 0.34509945 1.7060001
-0.26646096 0.34491375 1.7060002
-0.24208954 0.34444955 1.7060001
-0.23559049 0.34607428 1.7060001
-0.22421713 0.34769905 1.706
-0.21609335 0.34769905 1.7060001
0.097485721 0.34444952 1.706
-0.27404317 0.35203174 1.706
-0.26711088 0.354848 1.7060001
-0.25671238 0.35744762 1.7060001
-0.24046478 0.35582286 1.7060001
-0.23442996 0.35326964 1.7060002
-0.22375295 0.35326964 1.7060002
-0.21771811 0.3541981 1.7060001
-0.26429459 0.36178032 1.706
-0.25671238 0.36435282 1.7060002
-0.24371429 0.36394668 1.706
-0.22096762 0.36069715 1.7060001
-0.21381867 0.36459658 1.7060001
0.10073524 0.3671962 1.7060001
-0.25346288 0.37328905 1.7060002
-0.24479747 0.37477842 1.7060002
-0.23477811 0.3761324 1.7060001
-0.22421713 0.37694478 1.706
-0.21446858 0.37369525 1.7060002
-0.20796953 0.37369525 1.706
0.10333487 0.37239546 1.7060001
0.11048381 0.37044573 1.7060001
-0.25671238 0.38019431 1.7060001
-0.24371432 0.38483649 1.7060002
-0.23461564 0.3814941 1.7060001
-0.22356725 0.38669336 1.7060001
-0.21446858 0.3854748 1.7060002
-0.20666972 0.38409373 1.7060001
-0.1624762 0.38019431 1.7060001
0.097485721 0.38994288 1.7060001
0.1029016 0.384527 1.706
-0.29245716 0.39969143 1.7060001
-0.27490973 0.39644191 1.7060001
-0.26321143 0.39969143 1.7060001
-0.25833714 0.39969143 1.7060001
-0.24325009 0.39644191 1.7060002
-0.23721525 0.39806667 1.7060001
-0.2225924 0.39644191 1.7060002
-0.21284382 0.39644191 1.7060002
-0.20796953 0.39644191 1.706
0.097485721 0.39481714 1.7060001
0.10073524 0.39481714 1.7060001
-0.29245716 0.40619048 1.7060001
-0.28812447 0.40510729 1.706
-0.27458477 0.40619048 1.7060002
-0.26537779 0.40727365 1.7060002
-0.25573754 0.40684038 1.7060001
-0.24371432 0.40619045 1.7060002
-0.23437193 0.40659663 1.7060002
-0.22421715 0.40456572 1.7060001
-0.21446858 0.40619048 1.7060002
-0.20564844 0.40665466 1.7060002
-0.18522286 0.40944001 1.706
-0.17547429 0.40944001 1.706
-0.16897525 0.40944001 1.7060001
-0.27377239 0.41512668 1.7060001
-0.26686713 0.41593903 1.7060002
-0.25392708 0.41593903 1.7060002
-0.24696381 0.4143143 1.7060001
-0.23234096 0.41268954 1.7060001
-0.22421716 0.41593906 1.7060002
-0.21446858 0.41593903 1.7060002
-0.20425579 0.41593903 1.7060002
-0.19497144 0.415939 1.7060002
-0.18522286 0.41593903 1.7060002
-0.17417447 0.41658896 1.7060001
-0.16897525 0.41268954 1.7060001
-0.26581106 0.42373791 1.7060001
-0.25468147 0.42446908 1.7060002
-0.24696381 0.42568764 1.7060001
-0.23234096 0.42568764 1.7060001
-0.2225924 0.42568764 1.7060002
-0.21446858 0.42568764 1.7060002
-0.20564844 0.42615184 1.7060002
-0.19497144 0.42568764 1.7060002
-0.18576445 0.42460445 1.7060002
-0.17547429 0.42568761 1.7060002
0.097485721 0.42243811 1.7060001
-0.23234096 0.43706098 1.7060001
-0.2225924 0.43543622 1.7060002
-0.21446858 0.43590042 1.7060002
-0.20228286 0.43462384 1.7060001
-0.19497144 0.43543619 1.7060002
0.097485721 0.43218669 1.7060001
-0.23342414 0.4441016 1.7060002
-0.22421713 0.44193521 1.706
-0.21511848 0.44323507 1.7060001
-0.20147048 0.4451848 1.706
-0.19497144 0.44518477 1.7060002
-0.13431366 0.44626793 1.706
-0.12835619 0.44843429 1.7060001
-0.23396572 0.45493335 1.7060001
-0.20228286 0.4557457 1.7060001
-0.19497144 0.45493335 1.7060001
-0.13323048 0.45330858 1.7060001
-0.084487624 0.45818287 1.7060001
-0.23559049 0.46468192 1.7060001
-0.20309524 0.4614324 1.7060001
-0.19497144 0.46522346 1.7060002
-0.18684763 0.46793145 1.7060001
-0.1624762 0.46793145 1.7060001
-0.15532723 0.46663165 1.7060001
-0.14622857 0.46468195 1.7060002
-0.13648 0.46468192 1.7060001
-0.08557079 0.46251559 1.706
-0.19172192 0.47443047 1.706
-0.18684763 0.47443047 1.7060002
-0.16377601 0.47378057 1.7060001
-0.15922667 0.47443047 1.706
-0.14297906 0.47118098 1.7060001
-0.13810475 0.47443053 1.7060002
-0.18468128 0.48417905 1.7060002
-0.16464256 0.48201275 1.706
-0.15814351 0.48417905 1.706
-0.14297906 0.48742858 1.7060001
-0.13810475 0.48417911 1.7060002
-0.18197334 0.4906781 1.7060001
-0.1759385 0.49485609 1.7060002
-0.16897525 0.49717715 1.7060001
-0.15435238 0.49392763 1.7060002
-0.14622857 0.49392763 1.7060002
-0.1371299 0.49327773 1.7060001
-0.12835619 0.49717715 1.7060001
0.097485721 0.4906781 1.7060001
-0.19497144 0.50692576 1.7060001
-0.1750681 0.50408238 1.7060002
-0.16665415 0.5041405 1.7060002
-0.15272762 0.50367624 1.706
-0.14622857 0.50408244 1.7060002
-0.13647999 0.50367624 1.7060002
-0.12713763 0.50327003 1.7060002
-0.20309524 0.51559108 1.7060002
-0.19589987 0.51481736 1.7060002
-0.17482439 0.51147503 1.7060001
-0.16572572 0.51504952 1.706
-0.15630209 0.51407468 1.7060001
-0.14593315 0.51460642 1.7060001
-0.13647999 0.51504946 1.706
-0.12765989 0.51574582 1.7060002
-0.1928051 0.52642286 1.706
-0.18457296 0.52837259 1.7060001
-0.17547429 0.52804762 1.7060002
-0.16572572 0.52642286 1.7060002
-0.15922667 0.52642286 1.706
-0.14582238 0.52601671 1.7060002
-0.13647999 0.52601671 1.7060002
-0.1283562 0.52642292 1.7060002
-0.094236195 0.52317333 1.7060001
-0.19172192 0.53292191 1.7060001
-0.18327315 0.53617144 1.7060001
-0.17547429 0.53617144 1.7060002
-0.16735049 0.53617144 1.7060002
-0.15922667 0.53292191 1.7060001
-0.14427885 0.53617144 1.7060001
-0.13601577 0.53617144 1.7060002
-0.12564826 0.53689361 1.7060002
-0.11373333 0.53725463 1.706
-0.10305633 0.53570718 1.7060002
-0.097485721 0.5377962 1.7060001
-0.1835981 0.54267049 1.7060001
-0.17547429 0.5434829 1.7060001
-0.16464254 0.54483682 1.7060002
-0.15597714 0.54592001 1.7060002
-0.14785333 0.54591995 1.7060002
-0.13485524 0.54429525 1.7060001
-0.12348191 0.54429525 1.7060001
-0.11698286 0.54429525 1.7060001
-0.10357858 0.54632616 1.7060002
-0.097485721 0.54916954 1.7060001
-0.15532723 0.55436879 1.7060001
-0.14785334 0.55404383 1.7060001
-0.11438324 0.55761826 1.7060001
-0.10333487 0.55436879 1.7060001
-0.097485721 0.55241907 1.7060001
-0.068240002 0.55891812 1.7060001
0.10073524 0.55729336 1.7060001
-0.15467733 0.56411731 1.7060001
-0.14622858 0.5686667 1.7060001
-0.12131556 0.56433398 1.706
-0.1153581 0.56460476 1.7060001
0.10236001 0.56541717 1.7060001
-0.15597714 0.57354099 1.7060001
-0.1451454 0.57408255 1.7060002
-0.13810477 0.57516575 1.7060001
-0.12239873 0.57624894 1.7060002
-0.11698285 0.57516575 1.706
-0.13518019 0.58361453 1.7060001
-0.12478171 0.58491433 1.7060001
-0.11589968 0.58599752 1.706
-0.090986669 0.58816385 1.7060001
-0.084487617 0.58653903 1.7060002
-0.0769054 0.58708066 1.706
-0.13323048 0.5946629 1.706
-0.12510668 0.5946629 1.706
-0.11568306 0.59466296 1.7060001
-0.10398477 0.5959627 1.7060001
-0.093423814 0.5946629 1.7060001
-0.083675236 0.59222579 1.7060001
-0.075280637 0.5946629 1.7060002
-0.068240002 0.59791243 1.7060001
-0.13323048 0.6011619 1.7060001
-0.12510668 0.60224503 1.7060002
-0.11326913 0.60348302 1.7060002
-0.071489528 0.60441142 1.706
-0.065532058 0.60386986 1.7060002
-0.05767905 0.60522383 1.7060001
0.10398477 0.60441142 1.7060001
-0.12564826 0.61307687 1.706
-0.11373334 0.61221027 1.7060001
-0.081238098 0.61578476 1.7060001
-0.075667486 0.61369574 1.7060002
-0.055241901 0.61091048 1.706
-0.045493335 0.61091048 1.7060001
0.10506795 0.61632633 1.706
-0.090986669 0.62553334 1.7060001
-0.084023401 0.62483704 1.7060002
-0.076363809 0.62390858 1.7060002
0.10615113 0.62174225 1.706
0.11156698 0.62282538 1.706
-0.17872381 0.63690668 1.7060001
-0.084487617 0.63365716 1.7060002
-0.075145237 0.63406336 1.7060002
-0.065640375 0.63560688 1.7060001
-0.055241901 0.63690668 1.706
-0.046305716 0.63609433 1.7060001
-0.17547429 0.64015621 1.7060001
-0.15272762 0.64340574 1.7060001
-0.14406224 0.64448887 1.706
-0.13972953 0.64340574 1.7060001
-0.084487617 0.64178103 1.7060002
-0.072301909 0.64340574 1.7060001
-0.065454699 0.64247733 1.7060002
-0.055241909 0.64178097 1.7060002
-0.043868572 0.64340574 1.7060002
-0.035203174 0.6450305 1.7060002
-0.21233334 0.049000002 1.715
-0.20743334 0.049000002 1.715
-0.38546669 0.058800001 1.715
-0.36423334 0.058800001 1.715
-0.33483332 0.058800001 1.715
-0.32231113 0.05771111 1.715
-0.31523335 0.058800001 1.715
-0.3021667 0.058800001 1.715
-0.29726669 0.058800001 1.715
-0.22213334 0.055533335 1.715
-0.21560001 0.055533335 1.715
-0.20743334 0.052266669 1.715
-0.15026668 0.052266669 1.715
-0.14536667 0.052266669 1.715
-0.39853334 0.066966668 1.715
-0.32209337 0.066640005 1.7149999
-0.31425333 0.064026669 1.7149999
-0.30706668 0.062066671 1.715
-0.38546669 0.088200003 1.715
-0.37730002 0.088200003 1.715
-0.34300002 0.088200003 1.715
-0.33565 0.087383337 1.715
-0.32503334 0.088200003 1.715
-0.31251112 0.086022228 1.715
-0.30380002 0.088200003 1.715
-0.29563335 0.088200003 1.715
-0.38383335 0.091466673 1.715
-0.37566671 0.093100004 1.715
-0.36586666 0.098000012 1.715
-0.35606667 0.09691111 1.715
-0.34496003 0.096040003 1.7149999
-0.33537778 0.094733335 1.715
-0.32557777 0.096366674 1.715
-0.31359997 0.094733328 1.715
-0.30380002 0.094733335 1.715
-0.29318336 0.092283338 1.715
-0.28637779 0.093644448 1.715
-0.27766669 0.098000005 1.715
0.1029 0.098000005 1.715
-0.36455998 0.10584001 1.7149999
-0.35606667 0.10616667 1.715
-0.34626669 0.10453334 1.7149999
-0.33605832 0.10494167 1.715
-0.32536003 0.10388 1.7149999
-0.31294665 0.10257334 1.7149999
-0.30380002 0.10507778 1.715
-0.27494445 0.10453334 1.715
-0.26786667 0.10453334 1.715
-0.3822 0.11433333 1.715
-0.37893334 0.11433333 1.715
-0.36750001 0.1127 1.715
-0.35606667 0.1127 1.715
-0.34681115 0.11433334 1.715
-0.33646667 0.11188333 1.715
-0.29236668 0.11106667 1.715
-0.28420001 0.1127 1.715
-0.27766669 0.1127 1.715
0.10126667 0.11596667 1.715
-0.3822 0.12413335 1.715
-0.37893334 0.12086667 1.715
-0.38301668 0.13475001 1.715
-0.32013336 0.1372 1.715
0.10235556 0.13284445 1.715
-0.38546669 0.14373334 1.715
-0.37784445 0.14482222 1.715
-0.34463334 0.147 1.715
-0.33646667 0.14210001 1.715
-0.32176667 0.147 1.715
-0.31523335 0.147 1.715
-0.38546667 0.15353334 1.715
-0.37607503 0.15394168 1.715
-0.36586669 0.15353334 1.715
-0.35715556 0.15135556 1.715
-0.34681115 0.1529889 1.715
-0.38416001 0.16464001 1.7149999
-0.37599334 0.16398667 1.7149999
-0.36586666 0.1638 1.715
-0.35746667 0.16473334 1.715
-0.34626669 0.16333334 1.715
-0.38383335 0.17640001 1.715
-0.37784445 0.17857778 1.715
-0.3822 0.18620001 1.715
-0.37660003 0.18666668 1.715
-0.37403333 0.19600001 1.715
-0.36641112 0.19491112 1.715
-0.35606667 0.19600001 1.715
-0.34953335 0.19763334 1.715
-0.37473336 0.20580001 1.715
-0.36586666 0.20710668 1.7149999
-0.35606667 0.2058 1.715
-0.34790003 0.20580001 1.715
-0.32340002 0.20580001 1.715
-0.31441668 0.20825002 1.715
-0.30543333 0.20906667 1.715
0.10453334 0.20580001 1.715
-0.3822 0.21233334 1.715
-0.3737067 0.21625333 1.7149999
-0.36633334 0.21466668 1.715
-0.35560003 0.21466668 1.715
-0.34790003 0.21560001 1.715
-0.31577778 0.21342222 1.715
-0.30380002 0.21233334 1.715
-0.3822 0.22213334 1.715
-0.37621114 0.22431111 1.715
-0.34681115 0.22540002 1.715
-0.33973333 0.22866668 1.715
-0.32176667 0.22540002 1.715
-0.31686667 0.22703335 1.715
0.095822223 0.22431111 1.715
-0.33515999 0.23389335 1.7149999
-0.32380834 0.23560837 1.715
-0.31414443 0.2352 1.715
-0.30380002 0.23683333 1.715
0.10126666 0.2352 1.715
-0.33320001 0.24173334 1.715
-0.32884446 0.24282223 1.715
-0.31251112 0.2439111 1.715
-0.30298334 0.24418335 1.715
-0.29318336 0.24581668 1.715
-0.28460836 0.24540834 1.715
0.10453334 0.24173334 1.715
-0.32666668 0.26786667 1.715
-0.29073334 0.26623333 1.715
-0.28326669 0.26460001 1.715
0.098000005 0.26786667 1.715
0.10126667 0.26786667 1.715
-0.36423334 0.2744 1.715
-0.35606664 0.27440003 1.715
-0.34300002 0.27766669 1.715
-0.33646667 0.27766669 1.715
-0.32488489 0.27410305 1.715
-0.3136 0.27766669 1.715
-0.30380002 0.27603334 1.715
-0.2933467 0.27309331 1.7149999
0.094733335 0.27766669 1.715
-0.36532223 0.28419998 1.715
-0.35715556 0.2852889 1.715
-0.34408891 0.28637779 1.715
-0.33646667 0.28583336 1.715
-0.32521486 0.28347409 1.715
-0.31313333 0.28326669 1.715
-0.3028667 0.28373334 1.715
-0.294 0.28550667 1.7149999
-0.28420001 0.28665 1.715
0.098000005 0.28420001 1.715
-0.3626 0.29073334 1.715
-0.35606667 0.29073334 1.715
-0.34533337 0.29353335 1.715
-0.33592224 0.29454449 1.715
-0.32340002 0.29236668 1.715
-0.31142223 0.29617777 1.715
-0.30380005 0.29493335 1.715
-0.29400003 0.29400003 1.715
-0.28466669 0.294 1.715
-0.33646667 0.30379999 1.715
-0.32612225 0.30271113 1.715
-0.31359997 0.30379999 1.715
-0.30420834 0.30339167 1.715
-0.29481667 0.30461669 1.715
-0.28420001 0.3021667 1.715
-0.33428892 0.31142223 1.715
-0.32625833 0.31400836 1.715
-0.3136 0.31359997 1.715
-0.30380002 0.3136 1.715
-0.29493335 0.31406665 1.715
-0.28420001 0.31523335 1.715
0.098000005 0.31686667 1.715
-0.32340002 0.32258338 1.715
-0.31294665 0.32144001 1.7149999
-0.30339167 0.32299167 1.715
-0.29353335 0.32246667 1.715
-0.28501669 0.32340002 1.715
-0.27766669 0.3283 1.715
0.098000012 0.32448891 1.715
-0.3283 0.33973333 1.715
-0.29073334 0.33320001 1.715
-0.28420001 0.33646667 1.715
0.098000005 0.33320001 1.715
-0.32666668 0.34300002 1.715
-0.29073334 0.34300002 1.715
-0.28373337 0.34533337 1.715
-0.28093335 0.35280001 1.715
-0.27521667 0.35851663 1.715
-0.23356667 0.35933334 1.715
-0.22703335 0.35933334 1.715
0.098000005 0.35443336 1.715
0.10126667 0.35606667 1.715
-0.27309331 0.36456001 1.7149999
-0.26677778 0.36804447 1.715
-0.24173336 0.36586666 1.715
-0.23574443 0.36477777 1.715
-0.22474667 0.36521333 1.7149999
-0.21886668 0.36750001 1.715
0.10371667 0.36668333 1.715
-0.27113333 0.37240002 1.715
-0.26366669 0.37520003 1.715
-0.25480002 0.37893334 1.715
-0.24282223 0.3734889 1.715
-0.23454666 0.37370667 1.7149999
-0.22474667 0.37436 1.7149999
0.10453334 0.37893334 1.715
-0.2744 0.38710001 1.715
-0.26296669 0.38546669 1.715
-0.25439167 0.38587502 1.715
-0.24826668 0.38383335 1.715
-0.22322224 0.38328889 1.715
-0.21451111 0.38437781 1.715
-0.20906667 0.38546669 1.715
0.10671112 0.38655558 1.715
0.1127 0.3822 1.715
-0.2933467 0.39722666 1.7149999
-0.28583336 0.3969 1.715
-0.27331111 0.39472222 1.715
-0.26460001 0.39526665 1.715
-0.25479999 0.39526665 1.715
-0.24663335 0.39853334 1.715
-0.30162224 0.40288889 1.715
-0.29530671 0.40441331 1.7149999
-0.28379166 0.40465832 1.715
-0.27113333 0.4050667 1.715
-0.26786667 0.40343332 1.715
-0.25316668 0.40343332 1.715
-0.245 0.40506667 1.715
-0.29236668 0.41160002 1.715
-0.28419998 0.41160002 1.715
-0.27766669 0.41813335 1.715
-0.24369332 0.41552001 1.7149999
-0.23601668 0.41731668 1.715
-0.21560001 0.41813335 1.715
-0.20743334 0.41813335 1.715
-0.17857778 0.41595557 1.715
-0.27548888 0.4257555 1.715
-0.25806668 0.42793334 1.715
-0.24459167 0.42425835 1.715
-0.23566668 0.42373332 1.715
-0.22866668 0.42466667 1.715
-0.17803334 0.42303336 1.715
0.098000005 0.42793334 1.715
-0.27113333 0.43283337 1.715
-0.26460001 0.43120003 1.715
-0.25371113 0.43228891 1.715
-0.23566668 0.43353334 1.715
-0.22866668 0.43446669 1.715
-0.20797779 0.43664446 1.715
0.10126667 0.43446669 1.715
-0.24173334 0.44263333 1.715
-0.23846668 0.44426668 1.715
-0.22621667 0.44590002 1.715
-0.21233334 0.44753334 1.715
-0.20743334 0.44426668 1.715
0.10126666 0.44426668 1.715
-0.24369335 0.45537335 1.7149999
-0.23520003 0.45406672 1.715
-0.22594446 0.45297781 1.715
-0.21560001 0.45406669 1.715
-0.20743334 0.45406672 1.715
0.10453334 0.45080003 1.715
-0.27766669 0.46713334 1.715
-0.24499999 0.46386665 1.715
-0.23473334 0.46293333 1.715
-0.22785001 0.46468335 1.715
-0.21396667 0.46386662 1.715
-0.20710668 0.46517333 1.7149999
-0.2744 0.47203338 1.715
-0.26656002 0.47301334 1.7149999
-0.24434666 0.47170669 1.7149999
-0.2352 0.47273335 1.715
-0.22866668 0.47203335 1.715
-0.20416668 0.47284999 1.715
-0.19796 0.47432002 1.7149999
-0.15353334 0.47530007 1.715
-0.14591111 0.47584447 1.715
-0.20253333 0.48020002 1.715
-0.19599999 0.48346668 1.715
-0.18946667 0.48673335 1.715
-0.15353334 0.48346668 1.715
-0.14536667 0.48346671 1.715
-0.20253333 0.49653336 1.715
-0.19570304 0.49534547 1.715
-0.18692595 0.49617037 1.715
-0.15190001 0.49000001 1.715
-0.14569333 0.49588004 1.7149999
-0.1372 0.49980003 1.715
0.098000005 0.49000001 1.715
-0.21342222 0.50851113 1.715
-0.20580001 0.5079667 1.715
-0.19600001 0.50592506 1.715
-0.18620002 0.50633335 1.715
-0.17966667 0.50306666 1.715
-0.147 0.50306666 1.715
-0.21396667 0.51613331 1.715
-0.20710668 0.51613331 1.7149999
-0.19518335 0.51695001 1.715
-0.18579167 0.51572502 1.715
-0.17721668 0.51858336 1.715
-0.21233334 0.52266669 1.715
-0.20580001 0.52484447 1.715
-0.19600001 0.52658665 1.7149999
-0.18666665 0.52499998 1.715
-0.17640001 0.52429998 1.715
-0.13066667 0.52266669 1.715
-0.19600001 0.5349167 1.715
-0.18837778 0.53791112 1.715
-0.12740001 0.53900003 1.715
-0.11433333 0.53900003 1.715
-0.10780001 0.53900003 1.715
-0.19273335 0.54553336 1.715
-0.18701667 0.54635 1.715
-0.17640001 0.54879999 1.715
-0.16986667 0.54879999 1.715
-0.14177334 0.54618669 1.7149999
-0.13066667 0.54716671 1.715
-0.12413333 0.54716671 1.715
-0.11237334 0.54618669 1.7149999
-0.10780001 0.54390001 1.715
-0.17640001 0.55206668 1.715
-0.16578335 0.55574167 1.715
-0.14210001 0.55533332 1.715
-0.13393335 0.55533338 1.715
-0.12413333 0.55533332 1.715
-0.11386668 0.55440009 1.715
-0.10780001 0.55533338 1.715
0.1029 0.55370003 1.715
-0.16442221 0.56513333 1.715
-0.1529889 0.5645889 1.715
-0.14373334 0.56513333 1.715
-0.13393334 0.56513333 1.715
-0.1246 0.56513339 1.715
0.10453334 0.56513333 1.715
-0.19600001 0.57820004 1.715
-0.18620001 0.57820004 1.715
-0.16537501 0.57534164 1.715
-0.15418668 0.57493335 1.7149999
-0.14210001 0.57166666 1.715
-0.13393334 0.57452506 1.715
-0.12609334 0.57428002 1.7149999
0.10453334 0.5765667 1.715
-0.19600001 0.58146667 1.715
-0.18620002 0.58473337 1.715
-0.17803334 0.58146667 1.715
-0.16333334 0.58310002 1.715
-0.15353334 0.58473337 1.715
-0.14482222 0.58582228 1.715
-0.13393334 0.58408004 1.7149999
-0.12413334 0.588 1.715
-0.1176 0.588 1.715
-0.18620001 0.59126669 1.715
-0.17640001 0.59453338 1.715
-0.1666 0.59453338 1.715
-0.15353334 0.59126669 1.715
-0.1428 0.59406668 1.715
-0.1372 0.59453338 1.715
-0.086566672 0.59780002 1.715
-0.15244445 0.60324448 1.715
-0.14326668 0.60339993 1.715
-0.13524 0.60563999 1.7149999
-0.12086667 0.60760003 1.715
-0.10453334 0.60487777 1.715
-0.094324999 0.60474169 1.715
-0.084525004 0.60392499 1.715
-0.07709334 0.60498667 1.7149999
0.10453334 0.60433334 1.715
-0.18946667 0.61740005 1.715
-0.14046668 0.61740005 1.715
-0.13393334 0.6141333 1.715
-0.12304445 0.61304444 1.715
-0.11542223 0.61304444 1.715
-0.10453334 0.61413336 1.715
-0.095141664 0.61454171 1.715
-0.084279999 0.61478674 1.7149999
-0.07676667 0.61086667 1.715
0.10453334 0.61250001 1.715
-0.18783334 0.62556672 1.715
-0.13066667 0.62066668 1.715
-0.12454168 0.62393337 1.715
-0.11433334 0.62393337 1.715
-0.1050778 0.62502223 1.715
-0.095141672 0.62352502 1.715
-0.086566672 0.62230003 1.715
-0.18620002 0.63373333 1.715
-0.17640001 0.63373339 1.715
-0.15026668 0.63700002 1.715
-0.14373334 0.63427776 1.715
-0.13447778 0.6331889 1.715
-0.123725 0.63332498 1.715
-0.11474167 0.63332498 1.715
-0.10453334 0.63373339 1.715
-0.095141664 0.63414168 1.715
-0.19436668 0.64026672 1.715
-0.18620001 0.64157331 1.7149999
-0.17476667 0.64026672 1.715
-0.16551112 0.64244443 1.715
-0.15353334 0.6419 1.715
-0.14373334 0.6419 1.715
-0.13440001 0.6444667 1.715
-0.12576668 0.64026672 1.715
-0.11596667 0.64026672 1.715
-0.10235556 0.64135557 1.715
-0.094733335 0.64353335 1.715
-0.077311113 0.64462227 1.715
-0.047366671 0.64680004 1.715
-0.0392 0.64680004 1.715
-0.14046668 0.65006667 1.715
-0.094733335 0.65006667 1.715
-0.084116675 0.65088332 1.715
-0.07676667 0.65006667 1.715
-0.052266669 0.65006667 1.715
-0.047366671 0.65006667 1.715
-0.0392 0.65170002 1.715
-0.21660572 0.049228575 1.723
-0.14604476 0.049228575 1.723
-0.32162669 0.055792384 1.723
-0.31670383 0.055792384 1.723
-0.30521715 0.056886356 1.723
-0.21824667 0.054151431 1.723
-0.31178096 0.062356193 1.723
0.09845715 0.088611431 1.723
-0.39054668 0.095175244 1.723
-0.38463926 0.09714438 1.7229999
-0.37577811 0.09845715 1.723
-0.35772765 0.09845715 1.723
-0.3413181 0.095175244 1.723
-0.33475429 0.093534291 1.723
-0.32490858 0.093862489 1.7229999
-0.29602784 0.097144388 1.7229999
-0.28470525 0.09763667 1.723
0.09845715 0.093534291 1.723
-0.3839829 0.10611492 1.723
-0.37331668 0.10584144 1.723
-0.36538541 0.10283303 1.723
-0.35444573 0.10173905 1.723
-0.34460005 0.10392699 1.723
-0.30521715 0.10173905 1.723
-0.29537141 0.10502095 1.7229998
-0.28607273 0.10556793 1.7229999
-0.27896193 0.10502096 1.723
0.10173905 0.10502096 1.723
-0.38398287 0.11486667 1.723
-0.37577808 0.11322571 1.723
-0.28224382 0.11158477 1.723
0.10173905 0.11158477 1.723
-0.38726479 0.12635334 1.723
-0.39054668 0.13291714 1.723
-0.38726479 0.13291714 1.723
-0.35280478 0.14768572 1.723
0.10173905 0.14440382 1.723
0.10173905 0.15096763 1.723
-0.39054668 0.16245429 1.723
-0.38726479 0.16081335 1.723
0.10173905 0.16245429 1.723
-0.38179493 0.19472636 1.723
-0.37577811 0.1969143 1.723
-0.36757335 0.1969143 1.723
-0.38234192 0.20183715 1.723
-0.37085524 0.20676 1.723
-0.36538541 0.20238411 1.7229999
-0.36429143 0.21988763 1.723
-0.35772765 0.21988763 1.723
-0.32272065 0.21387081 1.7229999
-0.31375009 0.21791849 1.7229999
-0.30718631 0.2172621 1.7229999
0.09845715 0.21004191 1.723
-0.38398287 0.2280924 1.723
-0.37359014 0.2275454 1.7229999
-0.36429143 0.22645146 1.7229998
-0.3553834 0.22692028 1.7229998
-0.32425219 0.22579508 1.7229999
-0.31506285 0.22579508 1.7229999
-0.30652994 0.22579506 1.7229999
0.10173905 0.22973335 1.723
-0.38234192 0.23301524 1.723
-0.37413716 0.23301524 1.723
-0.35116383 0.23301524 1.723
-0.34460002 0.23629715 1.7229998
-0.33803621 0.23793811 1.723
-0.32490858 0.23957905 1.723
-0.31178096 0.23301524 1.723
-0.30685812 0.23301524 1.723
0.10502096 0.23629713 1.723
-0.3413181 0.24286096 1.723
-0.33475429 0.24614286 1.723
-0.32381463 0.24559587 1.7229999
-0.31725082 0.24833079 1.723
-0.30685812 0.24778381 1.723
-0.29701239 0.24942477 1.723
0.10830286 0.24450192 1.723
0.11158477 0.24286096 1.723
-0.3314724 0.25598857 1.723
-0.32490858 0.25598857 1.7229998
-0.31547314 0.25557834 1.7229998
-0.30521718 0.25270668 1.723
-0.29537144 0.25270668 1.723
-0.28552574 0.25598857 1.7229998
-0.36347097 0.26829571 1.723
-0.35608667 0.26747525 1.723
-0.34460002 0.26911619 1.723
-0.33409792 0.26649067 1.7229999
-0.32443973 0.2648966 1.7229998
-0.31547311 0.2658343 1.7229998
-0.30521718 0.26747528 1.7229999
-0.29602781 0.26649067 1.7229999
-0.28880763 0.26255238 1.723
-0.3716757 0.27650046 1.723
-0.35116383 0.27568004 1.723
-0.34506887 0.27474231 1.7229998
-0.33639523 0.27403906 1.723
-0.31506285 0.27403906 1.7229999
-0.30521718 0.27239811 1.723
-0.29865333 0.27239811 1.723
0.09845715 0.27568001 1.723
-0.38070098 0.28716668 1.723
-0.37348077 0.28552574 1.7229999
-0.35335174 0.28443179 1.7229999
-0.34542051 0.28306431 1.723
-0.33639526 0.28224382 1.723
0.09845715 0.28224382 1.723
0.10173905 0.28880763 1.723
-0.37413716 0.29537144 1.7229999
-0.36476034 0.29630914 1.7229998
-0.35444573 0.29701239 1.7229999
-0.29537144 0.29537144 1.723
-0.28388476 0.29537144 1.723
0.10173905 0.29537144 1.723
-0.38070098 0.30193526 1.723
-0.37741905 0.30193526 1.723
-0.35280478 0.30521715 1.723
-0.34624097 0.30521718 1.7229999
0.10173905 0.30521715 1.723
-0.3413181 0.31342191 1.723
-0.33694223 0.31725082 1.723
0.09845715 0.31506288 1.723
0.10173905 0.31834477 1.723
-0.33475429 0.32537743 1.7229998
-0.32819048 0.32654953 1.723
-0.31588334 0.32737002 1.723
-0.30849907 0.32819048 1.723
-0.29701239 0.32819048 1.723
-0.28388476 0.32819048 1.723
0.09845715 0.32819048 1.723
-0.3413181 0.33475432 1.723
-0.33381659 0.33522314 1.7229998
-0.32490858 0.33475429 1.7229998
-0.31506288 0.33475429 1.7229998
-0.30521715 0.33475429 1.7229998
-0.29578167 0.33475432 1.7229998
-0.28388476 0.3314724 1.723
0.10283303 0.33694223 1.723
-0.37085524 0.34460005 1.723
