# .PCD v0.7 - Point Cloud Data file format
VERSION 0.7
FIELDS x y z
SIZE 4 4 4
TYPE F F F
COUNT 1 1 1
WIDTH 1468
HEIGHT 1
VIEWPOINT 0 0 0 1 0 0 0
POINTS 1468
DATA ascii
-0.084000006 0.11133333 1.7500002
-0.075000003 0.11000001 1.7500001
-0.19390881 0.12354881 1.7589999
-0.18427621 0.12396762 1.7589999
-0.17422475 0.12396762 1.7589999
-0.16417333 0.12396762 1.7589999
-0.15412191 0.12396763 1.7589999
-0.14407049 0.12396762 1.7589999
-0.134185 0.12414643 1.755625
-0.125 0.125 1.7500001
-0.11571429 0.1247619 1.7500001
-0.10333334 0.12333333 1.7500001
-0.19390881 0.13360023 1.7589999
-0.18427621 0.13401905 1.7589999
-0.17422478 0.13401905 1.7589999
-0.16417333 0.13401905 1.7589999
-0.15412191 0.13401905 1.7589999
-0.14407049 0.13401905 1.7589999
-0.13401905 0.13401905 1.7589999
-0.125 0.13333334 1.7500001
-0.115 0.13333334 1.7500001
-0.19265239 0.14407048 1.7589999
-0.1838574 0.14365168 1.7589999
-0.17422478 0.14407049 1.7589999
-0.16417335 0.14407049 1.7589999
-0.15412191 0.14407049 1.7589999
-0.14398858 0.14399047 1.7579999
-0.13401906 0.14407048 1.7589999
-0.12414429 0.14421713 1.755625
-0.114 0.14299999 1.7500002
-0.105 0.14500001 1.7500001
-0.094999999 0.14333335 1.7500001
0.11696666 0.14536858 1.7545002
-0.18092573 0.15412191 1.7590001
-0.17422476 0.15412191 1.7589999
-0.16417333 0.15412191 1.7589999
-0.15412191 0.15412191 1.7589999
-0.14407048 0.15412191 1.7589999
-0.13401905 0.15412191 1.7589999
-0.12438644 0.15370309 1.7589999
-0.11406001 0.15374379 1.7509
-0.10375001 0.15374999 1.7500001
-0.093333334 0.15666667 1.7500001
0.11888888 0.15333334 1.7500001
0.12061714 0.15077144 1.7590001
-0.18092573 0.16082287 1.7590001
-0.17422478 0.16082287 1.7590002
-0.16417333 0.16321608 1.7589999
-0.15300508 0.16305651 1.7589999
-0.14407048 0.16417333 1.7589999
-0.13401906 0.16417333 1.7589999
-0.12564287 0.16417335 1.7589999
-0.115 0.16333333 1.7500001
-0.10333334 0.16333334 1.7500001
-0.093333334 0.16333334 1.7500001
-0.085000008 0.16250001 1.7500001
0.12548429 0.16396333 1.7567501
-0.16640699 0.17199111 1.7590002
-0.15077144 0.17422478 1.7590002
-0.14407049 0.17422478 1.7589999
-0.13401906 0.17422475 1.7589999
-0.12542857 0.17392762 1.756
-0.115 0.17333333 1.7500001
-0.10333334 0.17333333 1.7500001
-0.093333334 0.17333333 1.7500001
-0.086666673 0.17333335 1.7500001
-0.076666668 0.17666668 1.7500001
0.12333333 0.17666668 1.7500001
-0.1624981 0.18595144 1.7590001
-0.15316464 0.18427621 1.7589999
-0.14407049 0.18427619 1.7589999
-0.13378668 0.18396193 1.756
-0.12542857 0.18395619 1.756
-0.11509573 0.18348764 1.7515001
-0.10333335 0.18333334 1.7500001
-0.093333334 0.18333334 1.7500001
-0.085833341 0.18416667 1.7500001
-0.07416667 0.1825 1.7500001
-0.06666667 0.18333334 1.7500001
0.12333333 0.18666667 1.7500001
-0.1624981 0.19600287 1.7590001
-0.15370309 0.19474643 1.7589999
-0.14365166 0.19390881 1.7589999
-0.13333334 0.19333336 1.7500001
-0.12510572 0.19349618 1.7515001
-0.11509714 0.19349764 1.7515001
-0.10333335 0.19333336 1.7500001
-0.093333334 0.19333336 1.7500001
-0.08375001 0.19375002 1.7500001
-0.072500005 0.19583334 1.7500001
-0.064166665 0.19583334 1.7500001
-0.053333335 0.19666667 1.7500001
0.12396763 0.19432764 1.7590002
-0.16459215 0.20396025 1.7589999
-0.15412191 0.20342179 1.7589999
-0.14365168 0.20396027 1.7589999
-0.13363999 0.20380384 1.7540001
-0.1244645 0.20411323 1.7525715
-0.11460001 0.20312695 1.7508183
-0.10333334 0.20333336 1.7500001
-0.093333334 0.20333335 1.7500001
-0.083333343 0.20333336 1.7500001
-0.072916664 0.20291668 1.7500001
-0.064444445 0.20111112 1.7500001
-0.053333335 0.20166668 1.7500001
0.12396763 0.20270382 1.7590001
-0.17199111 0.21554731 1.7590002
-0.16417333 0.2144305 1.7589999
-0.15635556 0.21331365 1.7590002
-0.14239524 0.21108001 1.7590001
-0.13394476 0.21431047 1.7579999
-0.12474123 0.21364082 1.7564286
-0.11481196 0.21413352 1.7540911
-0.10333335 0.21333335 1.7500001
-0.093333334 0.21333335 1.7500001
-0.083333343 0.21333335 1.7500001
-0.07 0.21000001 1.7500001
-0.060000002 0.21000001 1.7500001
0.12396763 0.21108001 1.7590001
-0.18092573 0.22783239 1.7590001
-0.17422476 0.22699477 1.7590001
-0.16618362 0.22381184 1.7590001
-0.13306178 0.22400329 1.7589999
-0.12396762 0.22448193 1.7589999
-0.11385334 0.2243562 1.7579999
-0.10333334 0.22333333 1.7500001
-0.093333334 0.22333333 1.7500001
-0.085000001 0.22333334 1.7500001
-0.18092573 0.23285809 1.7590001
-0.17422475 0.23285808 1.7589999
-0.16752382 0.23285809 1.7590001
-0.13306177 0.23501197 1.7589999
-0.12396762 0.23453334 1.7589999
-0.11359809 0.23386475 1.7540001
-0.10333334 0.23333335 1.7500001
-0.093333334 0.23333335 1.7500001
-0.083333336 0.23333335 1.7500001
-0.17254953 0.24290952 1.7590001
-0.14072001 0.24123429 1.7590001
-0.13401905 0.24458477 1.7589999
-0.12396762 0.24458477 1.7589999
-0.11359429 0.24388763 1.7540001
-0.10345145 0.24361335 1.7520001
-0.093333334 0.24333334 1.7500001
-0.083333328 0.24333334 1.7500001
-0.076666668 0.24333334 1.7500001
-0.14155763 0.25547382 1.7590001
-0.13387047 0.2543467 1.757
-0.12396762 0.25463617 1.7589999
-0.1139162 0.2546362 1.7589999
-0.10386477 0.2546362 1.7589999
-0.093333334 0.25333336 1.7500001
-0.083333336 0.25333333 1.7500001
-0.07333333 0.25333333 1.7500001
-0.06428571 0.25380951 1.7500001
0.12 0.25333333 1.7500001
0.12229238 0.2537986 1.7590001
-0.14072001 0.26301241 1.7590001
-0.13394476 0.26453906 1.7579999
-0.12389525 0.26453903 1.7579999
-0.1139162 0.2646876 1.7589999
-0.10386477 0.26468763 1.7589999
-0.09349525 0.26378858 1.753
-0.08337906 0.26348573 1.751
-0.07333333 0.26333335 1.7500001
-0.063333333 0.26333335 1.7500001
-0.055 0.26333335 1.7500001
-0.020000001 0.26333335 1.7500001
0.12 0.26666668 1.7500001
0.12061714 0.26301241 1.7590001
-0.14072001 0.27138859 1.7590001
-0.13290222 0.27362224 1.7589999
-0.12396763 0.27473906 1.7589999
-0.1139162 0.27473906 1.7589999
-0.10386477 0.27473906 1.7589999
-0.093706675 0.27442476 1.757
-0.083520003 0.27395618 1.7540001
-0.07337714 0.27348763 1.751
-0.06666667 0.27333334 1.7500001
-0.024166668 0.27166668 1.7500001
-0.13066858 0.28144002 1.7590001
-0.12354881 0.2843717 1.7589999
-0.11385335 0.28462669 1.7579999
-0.10380762 0.28462669 1.7579999
-0.093546666 0.28397715 1.7540001
-0.08338286 0.28349522 1.751
-0.074999996 0.28333333 1.7500001
-0.024285717 0.28333333 1.7500001
0.13401905 0.2864657 1.7590001
0.14072001 0.28479049 1.7590001
-0.12396762 0.29484195 1.7589999
-0.11366287 0.29416955 1.755
-0.10345525 0.29366669 1.7520001
-0.093333334 0.29333332 1.7500001
-0.083333336 0.29333332 1.7500001
-0.073749997 0.29374999 1.7500001
-0.06666667 0.29666668 1.7500001
-0.023333332 0.29333332 1.7500001
-0.016666668 0.29666668 1.7500001
0.13234381 0.2931667 1.7590001
-0.13178541 0.307127 1.7590002
-0.12396762 0.30489334 1.7589999
-0.11366287 0.30420193 1.755
-0.1033943 0.30350855 1.751
-0.093333334 0.30333331 1.7500001
-0.083333336 0.30333331 1.7500001
-0.07333333 0.30333331 1.7500001
-0.063333333 0.30374998 1.7500001
-0.054166671 0.30583334 1.7500001
-0.023750002 0.30291665 1.7500001
-0.016666668 0.30000001 1.7500001
-0.13066858 0.31159431 1.7590001
-0.12492491 0.31542343 1.7589999
-0.11481195 0.3137643 1.7540911
-0.10363238 0.31423235 1.755
-0.093546681 0.31405523 1.7540001
-0.083333336 0.31333333 1.7500001
-0.07333333 0.31333333 1.7500001
-0.063333333 0.31333333 1.7500001
-0.053333338 0.31333333 1.7500001
-0.046666667 0.31666669 1.7500001
-0.024166666 0.31166667 1.7500001
-0.12301034 0.32451758 1.7589999
-0.1139162 0.3249962 1.7589999
-0.10386477 0.32499623 1.7589999
-0.093659051 0.32444191 1.756
-0.083428569 0.32370666 1.7520001
-0.07337714 0.32352 1.751
-0.063333333 0.32333335 1.7500001
-0.053333338 0.32333335 1.7500001
-0.043333337 0.32666668 1.7500001
-0.0055555552 0.32444444 1.7500001
0.0016666667 0.32500002 1.7500001
0.10666667 0.32666668 1.7500001
0.11168256 0.32722986 1.7590002
-0.12229239 0.33504763 1.7589999
-0.1139162 0.33504763 1.7589999
-0.10386477 0.33504766 1.7589999
-0.093813337 0.33504763 1.7589999
-0.083761908 0.33504766 1.7589999
-0.07337714 0.3335219 1.751
-0.063333333 0.33333334 1.7500001
-0.053333335 0.33333334 1.7500001
-0.043333337 0.33333334 1.7500001
-0.032000002 0.33200002 1.7500002
-0.023854999 0.33483335 1.757875
-0.012666667 0.33533335 1.7500002
-0.0053333333 0.33333334 1.7500002
0.0016666667 0.33333334 1.7500001
0.10666667 0.33166668 1.7500001
0.11342453 0.33525002 1.757875
-0.13401905 0.34844953 1.7590001
-0.12301035 0.34557769 1.7589999
-0.1139162 0.34509903 1.7589999
-0.10386477 0.34509903 1.7589999
-0.093813337 0.34509906 1.7589999
-0.083761908 0.34509903 1.7589999
-0.07333333 0.34333336 1.7500001
-0.063439995 0.34392568 1.753
-0.053457145 0.34412 1.7540001
-0.043384764 0.34372953 1.7520001
-0.034444448 0.34444442 1.7500001
-0.023413336 0.34451428 1.756
-0.013360001 0.34392565 1.753
-0.0050000004 0.34333333 1.7500001
0 0.34 1.7500001
0.11666667 0.34333333 1.7500001
0.12173396 0.34509906 1.7590002
-0.13401905 0.35347527 1.7590001
-0.12354882 0.35473165 1.7589999
-0.1139162 0.35515049 1.7589999
-0.10386477 0.35515049 1.7589999
-0.093813337 0.35515049 1.7589999
-0.083382852 0.35353339 1.751
-0.07333333 0.35333332 1.7500001
-0.063510478 0.35434091 1.755
-0.053363815 0.35353339 1.751
-0.043333337 0.35333332 1.7500001
-0.033333335 0.35333332 1.7500001
-0.023453334 0.35515046 1.7589999
-0.013384762 0.35454476 1.756
-0.0050000004 0.35333335 1.7500001
0.0066666668 0.35666668 1.7500001
0.011666667 0.35666668 1.7500001
0.12333333 0.35000002 1.7500001
-0.12301034 0.36568061 1.7589999
-0.11433501 0.36478314 1.7589999
-0.10386477 0.36319166 1.7590001
-0.093813337 0.36520192 1.7589999
-0.083333343 0.36333337 1.7500001
-0.07333333 0.36333337 1.7500001
-0.063333333 0.36333334 1.7500001
-0.053333338 0.36333334 1.7500001
-0.043333337 0.36333337 1.7500001
-0.033333335 0.36333337 1.7500001
-0.023453334 0.36520192 1.7589999
-0.013384761 0.36457908 1.756
-0.0050000004 0.36333334 1.7500001
0.0033333334 0.36333337 1.7500001
0.013333333 0.36333337 1.7500001
0.020000001 0.36333334 1.7500001
-0.12061714 0.37525335 1.7590001
-0.11349739 0.37525338 1.7589999
-0.10386477 0.37190285 1.7590002
-0.09269651 0.37413654 1.7589999
-0.083525725 0.37419239 1.7540001
-0.07333333 0.37333336 1.7500001
-0.063407615 0.37376192 1.7520001
-0.053333338 0.37333333 1.7500001
-0.044000003 0.37333333 1.7500002
-0.032916669 0.37333333 1.7500001
-0.023388572 0.37418291 1.7540001
-0.013342858 0.37354863 1.751
-0.0050000004 0.37333336 1.7500001
0.0033333334 0.37333331 1.7500001
0.013333333 0.37333333 1.7500001
0.020000001 0.37333333 1.7500001
0.12333333 0.37333333 1.7500001
-0.13178541 0.38753843 1.7590002
-0.12348899 0.386262 1.7589999
-0.1139162 0.38530478 1.7589999
-0.10721524 0.38195431 1.7590001
-0.090462863 0.38195431 1.7590001
-0.083761908 0.38530478 1.7589999
-0.073666669 0.38508764 1.7579999
-0.063624762 0.38508761 1.7579999
-0.053487621 0.38443428 1.755
-0.046666667 0.38333336 1.7500001
-0.034444448 0.38222227 1.7500001
-0.023379048 0.3839905 1.753
-0.01335238 0.38377148 1.7520001
-0.0050000004 0.38333336 1.7500001
0.0029188097 0.38316101 1.7511251
0.013333333 0.38000003 1.7500001
0.020000001 0.38000003 1.7500001
-0.14072001 0.39870667 1.7590001
-0.13401903 0.39535621 1.7589999
-0.12396762 0.39535618 1.7589999
-0.11458629 0.39334592 1.7590001
-0.083624765 0.39468193 1.756
-0.073710479 0.39535618 1.7589999
-0.06365905 0.39535621 1.7589999
-0.053607624 0.39535618 1.7589999
-0.043413337 0.39400762 1.753
-0.033333335 0.39333338 1.7500001
-0.023379048 0.39400765 1.753
-0.013352381 0.39378101 1.7520001
-0.0053333333 0.39266667 1.7500002
0 0.39166668 1.7500001
0.12396763 0.39870667 1.7590001
-0.13178541 0.40317401 1.7590002
-0.1273181 0.40540764 1.7590002
-0.09285605 0.40588626 1.7589999
-0.0834819 0.40402481 1.753
-0.073622853 0.40494859 1.757
-0.06365905 0.40540764 1.7589999
-0.05360762 0.40540767 1.7589999
-0.043462858 0.40448767 1.755
-0.033333335 0.4033334 1.7500001
-0.023440002 0.40517908 1.7579999
-0.013333333 0.40333337 1.7500001
-0.0053333333 0.40400004 1.7500002
0 0.4066667 1.7500001
0.12396763 0.4087581 1.7590001
-0.092473142 0.41478896 1.7590001
-0.083761908 0.4154591 1.7589999
-0.074129291 0.41504025 1.7589999
-0.064137682 0.4154591 1.7589999
-0.05360762 0.4154591 1.7589999
-0.043510482 0.41498673 1.757
-0.033333335 0.41333339 1.7500001
-0.023438096 0.41522291 1.7579999
-0.01335619 0.41404766 1.753
-0.0053333333 0.41333336 1.7500002
0.0027777776 0.41444448 1.7500001
0.015555556 0.41444445 1.7500001
0.023333333 0.41333336 1.7500001
0.12 0.41666669 1.7500001
0.12396763 0.41378385 1.7590001
-0.093813337 0.42383528 1.7590001
-0.082086667 0.42383528 1.7590001
-0.073710479 0.42592928 1.7589999
-0.06365905 0.42551047 1.7589999
-0.053607624 0.42551053 1.7589999
-0.043529525 0.42526668 1.7579999
-0.033430476 0.42454478 1.755
-0.020102859 0.4255105 1.7590001
-0.013401904 0.42551047 1.7589999
-0.0050171427 0.42442191 1.7545
0.0033333334 0.42333338 1.7500001
0.015000001 0.42333338 1.7500001
0.023333335 0.42428574 1.7500001
0.032666665 0.42533335 1.7500002
0.12 0.42166668 1.7500001
0.12396763 0.42886096 1.7590001
-0.073710479 0.4355619 1.7589999
-0.063624769 0.43531239 1.7579999
-0.053396195 0.43382481 1.7520001
-0.04337905 0.43382859 1.7520001
-0.033466667 0.43506858 1.757
-0.020102859 0.43556193 1.7590002
-0.013401905 0.43556193 1.7589999
-0.0050228573 0.43519333 1.7575001
0.0033333334 0.43333337 1.7500001
0.015333334 0.43266669 1.7500002
0.023333335 0.43333337 1.7500001
0.032777775 0.43222225 1.7500001
-0.080411434 0.44728857 1.7590001
-0.073710479 0.44561338 1.7589999
-0.063624769 0.44535813 1.7579999
-0.053333338 0.44333336 1.7500001
-0.043356195 0.4435848 1.751
-0.033504765 0.44561338 1.7589999
-0.020102859 0.44561335 1.7590001
-0.013401905 0.44561338 1.7589999
-0.0050257142 0.44561338 1.7589999
0.0033333334 0.44333336 1.7500001
0.023333333 0.44333336 1.7500001
0.031666666 0.44333336 1.7500001
-0.080411434 0.45231432 1.7590001
-0.073710479 0.45566478 1.7589999
-0.063624769 0.45540762 1.7579999
-0.053424764 0.4541162 1.753
-0.043380957 0.45385525 1.7520001
-0.033504762 0.45566484 1.7589999
-0.022336507 0.45454797 1.7590002
-0.012444626 0.45566481 1.7589999
-0.0050257146 0.45566478 1.7589999
0.0033333334 0.45359051 1.751
0.013333334 0.45428571 1.7500001
0.023333335 0.45428571 1.7500001
0.033333331 0.45375001 1.7500001
0.043380957 0.45385525 1.7520001
0.050833337 0.45333335 1.7500001
-0.071197622 0.46571618 1.7590001
-0.063659042 0.466135 1.7589999
-0.053607624 0.46571621 1.7589999
-0.043432381 0.46439621 1.7540001
-0.033483811 0.46545139 1.7579999
-0.020102859 0.46571621 1.7590002
-0.013401906 0.46571621 1.7589999
-0.0050114286 0.46412477 1.7530001
0.0033352384 0.46360001 1.751
0.013340953 0.46360001 1.751
0.023426669 0.46519047 1.757
0.033504762 0.46571621 1.7589999
0.043529525 0.4654533 1.7579999
0.051333338 0.46400005 1.7500002
0.12666667 0.4666667 1.7500001
-0.070360005 0.47576761 1.7590001
-0.063240238 0.47576761 1.7589999
-0.05360762 0.47576761 1.7589999
-0.043556195 0.47576761 1.7589999
-0.033504762 0.47576767 1.7589999
-0.021778097 0.47576764 1.7589999
-0.01339619 0.47549522 1.7579999
-0.0050000004 0.47333336 1.7500001
0.0033371428 0.4738743 1.7520001
0.013333333 0.47333336 1.7500001
0.023373332 0.47413906 1.753
0.033432379 0.47468191 1.755
0.043426674 0.47441334 1.7540001
0.050000001 0.47333336 1.7500001
-0.061648764 0.48581904 1.7590001
-0.053607624 0.48581907 1.7589999
-0.043556195 0.48581907 1.7589999
-0.033504762 0.48581907 1.7589999
-0.023453334 0.48581907 1.7589999
-0.013377141 0.4847143 1.755
-0.005005714 0.48375049 1.7515001
0.0033390475 0.48444 1.7540001
0.013333333 0.48333338 1.7500001
0.023333335 0.48333338 1.7500001
0.033373337 0.48388189 1.7520001
0.043356195 0.48360762 1.751
0.050000001 0.48000002 1.7500001
0.12699237 0.48456764 1.7545002
0.13066858 0.48246858 1.7590001
-0.060308572 0.49252 1.7590001
-0.053607624 0.49628934 1.7589999
-0.043556195 0.49587053 1.7589999
-0.033504765 0.49587053 1.7589999
-0.022894921 0.49475369 1.7589999
-0.013384762 0.4950248 1.756
-0.0050199996 0.49544764 1.7575001
0.0033428571 0.49502861 1.756
0.013346666 0.49390092 1.7520001
0.023333335 0.49333334 1.7500001
0.033333335 0.49333334 1.7500001
0.04291667 0.49291667 1.7500001
-0.087112382 0.50257146 1.7590001
-0.05360762 0.50550312 1.7589999
-0.043556195 0.50592196 1.7589999
-0.033504765 0.50592196 1.7589999
-0.011726667 0.5059219 1.7589999
-0.0050257142 0.5059219 1.7589999
0.0036752385 0.50554973 1.7554001
0.013711239 0.50581372 1.7563
0.023656625 0.50501925 1.7516365
0.033333335 0.50454545 1.7500001
0.041666672 0.505 1.7500001
0.050000001 0.5 1.7500001
0.12666667 0.50333333 1.7500001
-0.042216003 0.51463318 1.7590001
-0.033504762 0.51597333 1.7589999
-0.011391619 0.51530325 1.7590001
-0.0050257142 0.51597333 1.7589999
0.0029316666 0.51639211 1.7589999
0.012972381 0.51606214 1.757875
0.022955103 0.51655346 1.7577143
0.033455782 0.51617634 1.7564286
0.042707812 0.51586479 1.7518002
0.050000001 0.51666671 1.7500001
0.12333333 0.51500005 1.7500001
-0.073710479 0.52736497 1.7590001
-0.030154286 0.52602476 1.7590002
-0.010051429 0.52434957 1.7590001
-0.0050257142 0.52602482 1.7589999
0.003350476 0.52602476 1.7589999
0.013401906 0.52602482 1.7589999
0.023453332 0.52602482 1.7589999
0.033504765 0.52602476 1.7589999
0.043356195 0.52363431 1.751
0.050000001 0.52333337 1.7500001
0.12505409 0.52427471 1.7554001
-0.073231831 0.53511894 1.7589999
-0.064999238 0.53741634 1.7590001
-0.056958098 0.53942668 1.7590001
-0.043556191 0.53942668 1.7590001
-0.033026122 0.5370335 1.7589999
-0.02680381 0.53942668 1.7590001
-0.0050257146 0.53272575 1.7590001
0.0037692855 0.53565741 1.7589999
0.013401905 0.53607619 1.7589999
0.023453334 0.53607619 1.7589999
0.033504765 0.53607625 1.7589999
0.043403815 0.53424573 1.753
0.051333331 0.53400004 1.7500002
0.11833333 0.53333336 1.7500001
0.12521429 0.53424197 1.7530001
0.13000001 0.53666669 1.7500001
-0.070360005 0.54277718 1.7590001
-0.062821433 0.5436148 1.7590001
-0.054277718 0.54411733 1.7590001
-0.041880954 0.54529005 1.7590001
-0.033026122 0.54708487 1.7589999
0.0037692857 0.54570884 1.7589999
0.013401904 0.54612762 1.7589999
0.023453334 0.54612756 1.7589999
0.033504762 0.54612762 1.7589999
0.043455243 0.54489142 1.755
0.052948814 0.54410142 1.7511251
0.1178 0.54390144 1.7545
0.12414429 0.54550284 1.755625
0.13022286 0.54427052 1.7530001
-0.030154286 0.55952954 1.7590001
0.0044673015 0.55506223 1.7589999
0.013401906 0.55617905 1.7589999
0.023453334 0.55617905 1.7589999
0.033504765 0.55617911 1.7589999
0.043453336 0.5549143 1.755
0.053451434 0.55459428 1.7540001
0.062857144 0.55428571 1.7500001
0.072666667 0.55466664 1.7500002
0.11799999 0.55400002 1.7500002
0.12452605 0.55617905 1.7589999
0.13066858 0.55785429 1.7590001
-0.030154286 0.56623054 1.7590001
-0.026803812 0.56623048 1.7590002
0.013820714 0.56581169 1.7589999
0.023453334 0.56623054 1.7589999
0.033504765 0.56623054 1.7589999
0.043556195 0.56623054 1.7589999
0.053443339 0.56620568 1.7537502
0.063333333 0.565 1.7500001
0.07 0.56333333 1.7500001
0.12 0.56166667 1.7500001
0.12569852 0.56682885 1.7564286
0.13066858 0.56623054 1.7590002
-0.02680381 0.5796324 1.7590001
0.015077141 0.57628196 1.7589999
0.023453334 0.57628191 1.7589999
0.033026125 0.57532465 1.7589999
0.044034835 0.57532465 1.7589999
0.053376194 0.57549435 1.7515001
0.12 0.57666671 1.7500001
0.12564287 0.57795715 1.7590001
0.13178541 0.57404828 1.7590002
-0.025128573 0.5829829 1.7590001
-0.0067009525 0.58968383 1.7590001
0.0050257146 0.58968383 1.7590001
0.014359184 0.58681196 1.7589999
0.023453334 0.58633339 1.7589999
0.033085953 0.58675218 1.7589999
0.043975003 0.58675218 1.7589999
0.053361911 0.58366477 1.751
0.060000002 0.58333337 1.7500001
0.12 0.58333337 1.7500001
0.12396763 0.58633339 1.7590001
-0.031829525 0.59973526 1.7590001
-0.026803812 0.59638476 1.7590002
0.0044673015 0.59526795 1.7589999
0.012923266 0.59542751 1.7589999
0.023453334 0.59638476 1.7589999
0.033504765 0.59638476 1.7589999
0.043556195 0.59638476 1.7589999
0.053449526 0.5946914 1.7540001
0.061333336 0.59400004 1.7500002
0.12 0.59333336 1.7500001
0.12492724 0.59455395 1.7536001
-0.02680381 0.60308576 1.7590001
0.0058633336 0.60727382 1.7590001
0.012923265 0.60739344 1.7589999
0.023453334 0.60643619 1.7589999
0.033504765 0.60643619 1.7589999
0.043556198 0.60643619 1.7589999
0.053607624 0.60643619 1.7589999
0.063401908 0.60402477 1.7520001
0.072000004 0.60466671 1.7500002
0.080000006 0.60666668 1.7500001
0.12555556 0.60222226 1.7500001
0.13066858 0.60643619 1.7590001
0.0058633331 0.61565006 1.7590001
0.013401904 0.61648768 1.7589999
0.023453334 0.61648762 1.7589999
0.033504762 0.61648762 1.7589999
0.043556195 0.61648762 1.7589999
0.053607624 0.61648762 1.7589999
0.06336762 0.61368191 1.751
0.07337714 0.61368573 1.751
0.082439736 0.61426264 1.7512858
0.0067009525 0.62318861 1.7590001
0.013880544 0.62558174 1.7589999
0.023453334 0.62653911 1.7589999
0.033504765 0.62653905 1.7589999
0.043556195 0.62653911 1.7589999
0.053607624 0.62653905 1.7589999
0.06358286 0.62582862 1.757
0.073584765 0.62547612 1.756
0.083712384 0.62618476 1.7579999
0.092380956 0.62666667 1.7500001
-0.080411434 0.63659048 1.7590001
-0.077060953 0.63659048 1.7590001
-0.051932383 0.63994098 1.7590001
0.016752381 0.63324004 1.7590001
0.025128573 0.63324004 1.7590001
0.034174856 0.63458019 1.7590001
0.043556191 0.63458019 1.7590001
0.05408626 0.63563317 1.7589999
0.06365905 0.6361717 1.7589999
0.073710471 0.63659054 1.7589999
0.083761908 0.63659054 1.7589999
0.093333334 0.63500005 1.7500001
0.1 0.63666672 1.7500001
-0.050257146 0.64329147 1.7590001
-0.045231432 0.64329147 1.7590001
0.067009524 0.64496672 1.7590001
0.074189119 0.64568466 1.7589999
0.083613344 0.64553905 1.756
0.091111116 0.64111114 1.7500001
0.082645081 0.65445971 1.7590002
0.090925716 0.095977142 1.7680001
0.12628572 0.097660959 1.7680001
-0.15491049 0.1077638 1.7680001
-0.14144 0.10776381 1.7680001
-0.13386287 0.10692191 1.7680001
-0.12594895 0.10574324 1.768
-0.11449905 0.1077638 1.7680001
-0.10487729 0.10343401 1.7679999
-0.097660959 0.10102858 1.7680001
-0.062300958 0.10439619 1.7680001
-0.020205716 0.10439619 1.7680001
-0.013470476 0.10439619 1.7680001
-0.0067352382 0.10439619 1.7680001
0.0033676191 0.10439619 1.7680001
0.070720002 0.10102858 1.7680001
0.090925716 0.10102858 1.7680001
0.13807239 0.10102858 1.7680001
-0.21552761 0.11618286 1.768
-0.20609829 0.11651962 1.768
-0.19532192 0.11562159 1.7680001
-0.18521905 0.11786667 1.7680001
-0.17511621 0.1158461 1.768
-0.16366629 0.113152 1.768
-0.15394829 0.11401796 1.7679999
-0.14528871 0.11353687 1.7679999
-0.13638857 0.11113143 1.7680001
-0.22226286 0.1229181 1.7680001
-0.21552762 0.12460191 1.7679999
-0.20542479 0.12460191 1.7679999
-0.19868954 0.12796953 1.7680001
-0.21328254 0.1324597 1.7680001
-0.20500381 0.13428383 1.7679999
-0.19868954 0.13807239 1.7680001
-0.21216001 0.14649144 1.7680001
-0.20500383 0.14522856 1.7679999
-0.19868954 0.14480762 1.7680001
-0.18858667 0.14817524 1.7680001
-0.22563048 0.15659429 1.7680001
-0.21300191 0.15575239 1.7680001
-0.20500383 0.15491048 1.7679999
-0.19532192 0.15491049 1.7679999
-0.18618122 0.15491048 1.7679999
0.12572445 0.15715556 1.7680001
-0.23236573 0.16164573 1.7680001
-0.22563048 0.16248763 1.7680001
-0.21440507 0.16389079 1.768
-0.2065473 0.16276826 1.7680001
-0.1946484 0.16299276 1.768
-0.18521905 0.16445208 1.768
-0.1751162 0.16669714 1.768
-0.16501334 0.16838096 1.7680001
-0.15715556 0.16725843 1.7680001
0.12796953 0.16164573 1.7680001
-0.21418056 0.17376915 1.768
-0.20879239 0.17174858 1.7680001
-0.18353525 0.17511618 1.7680001
-0.1751162 0.1751162 1.7679999
-0.16389079 0.17623873 1.768
-0.15659429 0.17511618 1.768
0.12796953 0.17511618 1.7680001
-0.18185143 0.18185143 1.7680001
-0.17399365 0.18409652 1.768
-0.16636039 0.18387201 1.768
-0.15827811 0.18521905 1.7680001
0.12796953 0.18521905 1.7680001
-0.21552762 0.19532192 1.7680001
-0.17174858 0.19532192 1.7680001
-0.16585524 0.19448002 1.7680001
-0.15827811 0.1919543 1.7680001
-0.14817524 0.19868954 1.7680001
-0.17174858 0.20542479 1.7680001
-0.16164573 0.20879239 1.7680001
-0.15491048 0.20879239 1.7680001
-0.14817524 0.20879239 1.7680001
0.12684698 0.20542477 1.7680001
-0.18297398 0.21665017 1.7680001
-0.17578971 0.21552762 1.768
-0.15378794 0.21608889 1.768
-0.14528871 0.21648981 1.7679999
0.12796953 0.21889524 1.7680001
-0.19532192 0.22899811 1.7680001
-0.18521905 0.22563048 1.7679999
-0.17511621 0.22360989 1.768
-0.16248763 0.22647239 1.7680001
-0.15558401 0.22360989 1.768
-0.14384545 0.22514939 1.7679999
-0.13807239 0.22731429 1.7680001
-0.19532192 0.23236573 1.7680001
-0.18634158 0.23573335 1.768
-0.1751162 0.23910098 1.7680001
-0.16405118 0.23621443 1.7679999
-0.15539157 0.23669551 1.7679999
-0.14438666 0.2361543 1.7679999
-0.13807239 0.23404953 1.7680001
0.12796953 0.23741716 1.7680001
-0.18425687 0.24535513 1.7679999
-0.17646325 0.24718323 1.768
-0.16501334 0.2458362 1.7679999
-0.15491048 0.24541524 1.7679999
-0.14522856 0.24625716 1.7679999
0.12796953 0.2458362 1.7680001
-0.18353526 0.25593904 1.768
-0.17469524 0.25551808 1.7679999
-0.16613589 0.2553778 1.768
-0.15491048 0.25593907 1.7679999
-0.1468282 0.25526553 1.768
0.12460191 0.25930667 1.7680001
-0.16501334 0.26940954 1.7680001
-0.15491049 0.26604193 1.7679999
-0.1457698 0.266523 1.7679999
-0.17174858 0.27614477 1.7680001
-0.16501334 0.27614477 1.7679999
-0.15491049 0.27614477 1.7679999
-0.14522858 0.27656573 1.7679999
-0.13694985 0.27838984 1.7680001
-0.17174858 0.28624761 1.7680001
-0.16597553 0.28576654 1.7679999
-0.15539157 0.28528547 1.7679999
-0.14480762 0.28288001 1.7680001
-0.13470477 0.28624764 1.7679999
-0.12796953 0.28961524 1.7680001
-0.17174858 0.29298288 1.7680001
-0.16838096 0.29298288 1.7680001
-0.14144 0.29635048 1.7680001
-0.13470477 0.29635048 1.7679999
-0.17343238 0.30813715 1.7680001
-0.14144 0.30645335 1.7680001
-0.1358273 0.30533078 1.768
-0.17511618 0.31655622 1.768
-0.16725843 0.31880128 1.7680001
-0.14144 0.31318858 1.7680001
-0.13470477 0.31655622 1.7679999
-0.17174858 0.32497525 1.7680001
-0.16501334 0.32497525 1.7680001
-0.15659429 0.32665905 1.7680001
-0.13245969 0.32441399 1.7680001
-0.12796953 0.32665905 1.7680001
0.11449905 0.32665905 1.7680001
-0.17174858 0.33507812 1.7680001
-0.16501336 0.33381525 1.7679999
-0.15491049 0.33339429 1.7679999
-0.14593016 0.33451685 1.768
-0.13422368 0.33435649 1.7679999
-0.12796953 0.33339429 1.7680001
0.11786667 0.33171049 1.7680001
-0.17376915 0.34417063 1.768
-0.16543429 0.34307617 1.7679999
-0.15491048 0.34147659 1.768
-0.14438668 0.3430762 1.7679999
-0.13470477 0.34349716 1.7679999
-0.12796953 0.34349713 1.7680001
0.12123429 0.34012952 1.7680001
-0.18185143 0.35023239 1.7680001
-0.1759581 0.35107428 1.7680001
-0.16669714 0.35023239 1.7680001
-0.14256254 0.35135493 1.7680001
-0.13470477 0.35360003 1.768
-0.13428383 0.36412382 1.7679999
-0.12796953 0.36370286 1.7680001
-0.10439619 0.3670705 1.7680001
-0.13358223 0.37268317 1.768
-0.12527543 0.3758263 1.768
-0.11449905 0.3738057 1.7680001
-0.10439619 0.37380573 1.768
-0.097660959 0.37717333 1.7680001
-0.14480762 0.3872762 1.7680001
-0.1341435 0.3839086 1.768
-0.12628572 0.3822248 1.7680001
-0.10397524 0.38390857 1.7679999
-0.094854601 0.3839086 1.768
-0.15154286 0.39737907 1.7680001
-0.14480764 0.3940115 1.7679999
-0.13807239 0.39064384 1.7680001
-0.11113143 0.39737907 1.7680001
-0.10439619 0.39359051 1.7679999
-0.094293334 0.39401147 1.7679999
0.12460191 0.39401144 1.7680001
-0.15154286 0.40243047 1.7680001
-0.14522858 0.40453523 1.7679999
-0.13694985 0.40635934 1.7680001
-0.1229181 0.40579808 1.7680001
-0.1156216 0.40299174 1.768
-0.10271238 0.40327239 1.7680001
-0.095640384 0.40276724 1.768
0.12460191 0.40579811 1.7680001
-0.14480762 0.41379625 1.7679999
-0.13422368 0.41325498 1.7679999
-0.12544382 0.41337526 1.7680001
-0.11618286 0.41084954 1.7680001
-0.10102858 0.41421714 1.7680001
-0.097660959 0.41590095 1.7680001
-0.062300958 0.41758478 1.7680001
-0.11281524 0.42768764 1.7680001
-0.10439619 0.42768764 1.7680001
-0.094293341 0.42347813 1.7680001
-0.087558098 0.42600381 1.7680001
-0.072403811 0.42263621 1.7680001
-0.024246857 0.42634058 1.768
0.12460191 0.42432001 1.7680001
-0.11281524 0.43105525 1.7680001
-0.1043962 0.43374935 1.768
-0.094293326 0.43442288 1.7679999
-0.08419048 0.43442291 1.7679999
-0.025257142 0.43442285 1.768
-0.11281524 0.44452572 1.7680001
-0.10439619 0.44452575 1.7679999
-0.09381225 0.44404462 1.7679999
-0.084611431 0.44410476 1.7679999
-0.024535511 0.44500682 1.7679999
-0.11393777 0.45406732 1.768
-0.10439619 0.45395508 1.768
-0.095415883 0.45575115 1.7680001
-0.085152663 0.45510966 1.7679999
-0.024920382 0.45395508 1.768
-0.016838096 0.45462859 1.7680001
-0.11197333 0.46388954 1.7680001
-0.10439619 0.46515241 1.7679999
-0.094774418 0.46569365 1.7679999
-0.08419048 0.46473143 1.7679999
-0.076332696 0.46585402 1.7680001
-0.063984767 0.46473145 1.7680001
-0.024535511 0.46425036 1.7679999
-0.016838096 0.46136382 1.7680001
-0.11113143 0.47820193 1.7680001
-0.10495746 0.47539559 1.768
-0.094293334 0.47483432 1.7679999
-0.083709396 0.47483429 1.7679999
-0.075049795 0.47531539 1.7679999
-0.067352384 0.47820193 1.7680001
-0.026099049 0.47399238 1.7680001
0.13302097 0.47146669 1.7680001
-0.11113143 0.48493719 1.7680001
-0.10439619 0.48493719 1.7679999
-0.094966859 0.48359013 1.768
-0.080822863 0.48493716 1.7680001
-0.073526353 0.48493719 1.768
-0.066229843 0.48718226 1.7680001
-0.026940953 0.48156953 1.7680001
0.12796953 0.48493716 1.7680001
-0.11197333 0.49588192 1.7680001
-0.10439619 0.49504006 1.7679999
-0.090925716 0.49504003 1.7680001
-0.08419048 0.49504003 1.768
-0.073666669 0.49461907 1.7679999
-0.065107301 0.49616253 1.768
-0.053881906 0.49504003 1.7680001
-0.023573333 0.49840763 1.7680001
-0.10506971 0.50312233 1.768
-0.093872383 0.50514287 1.7679999
-0.084751755 0.50514287 1.768
-0.073526353 0.50570416 1.768
-0.063984774 0.50514293 1.7679999
-0.023994287 0.50556386 1.7679999
-0.016838096 0.50682664 1.7680001
0.13470477 0.50682664 1.768
-0.092048258 0.51300067 1.7680001
-0.084611438 0.51566666 1.7679999
-0.07408762 0.51524574 1.7679999
-0.063311242 0.5132252 1.768
-0.053881906 0.51620787 1.7679999
-0.045462858 0.51861334 1.7680001
-0.023573335 0.51524568 1.7679999
-0.016838096 0.51524574 1.7680001
0.12796953 0.51692951 1.7680001
0.13470477 0.51187813 1.7680001
-0.090925716 0.521981 1.7680001
-0.08284343 0.52400154 1.768
-0.07408762 0.52486748 1.7679999
-0.063984767 0.5253486 1.7679999
-0.054362994 0.5253486 1.7679999
-0.044200003 0.52576953 1.7679999
-0.035360001 0.52703238 1.7680001
-0.023573335 0.5253486 1.7679999
-0.015154286 0.5253486 1.768
0.12796953 0.521981 1.7680001
-0.083228305 0.53497034 1.7679999
-0.063022591 0.53497034 1.7679999
-0.053881906 0.53545147 1.7679999
-0.043779053 0.53545141 1.7679999
-0.035360001 0.53376764 1.7680001
-0.023573335 0.53545147 1.7679999
-0.013470477 0.53545141 1.7679999
-0.0050514285 0.53881907 1.7680001
0.12796953 0.53208381 1.7680001
0.13133715 0.53881907 1.7680001
-0.080822863 0.54218668 1.7680001
-0.075049795 0.54603541 1.7679999
-0.065668575 0.54892194 1.7680001
-0.051636826 0.54443175 1.7680001
-0.044620954 0.5463962 1.7680001
-0.035360001 0.54555428 1.7680001
-0.023152383 0.54597527 1.7679999
-0.013470477 0.54555434 1.7679999
-0.0050514289 0.54555434 1.768
0 0.54218668 1.7680001
-0.071842544 0.55341202 1.7680001
-0.063984767 0.55565715 1.7679999
-0.055004448 0.55453461 1.768
-0.043779049 0.55565715 1.7679999
-0.033676192 0.55734098 1.768
-0.023573335 0.55565715 1.7679999
-0.013470477 0.55565715 1.7679999
-0.0050514285 0.55565715 1.768
0 0.55565715 1.7680001
0.12796953 0.55565715 1.7680001
0.13133715 0.55565715 1.7680001
-0.040411431 0.56407619 1.7680001
-0.034237463 0.56576008 1.768
-0.023573335 0.56323433 1.7680001
-0.013470476 0.56576002 1.7679999
-0.0050514289 0.56576008 1.768
0.0029466667 0.56618094 1.7679999
-0.040411431 0.57923049 1.7680001
-0.034097143 0.57628381 1.7679999
-0.026940953 0.57754672 1.7680001
-0.013049524 0.57586288 1.7679999
-0.0050514289 0.57586288 1.768
0.0033676189 0.57586288 1.7679999
0.010102858 0.57586288 1.7680001
0.13470477 0.57249528 1.7680001
-0.060617145 0.58933336 1.7680001
-0.057249527 0.58933336 1.7680001
-0.041533973 0.58821082 1.7680001
-0.033676192 0.58596581 1.7679999
-0.022450795 0.58652705 1.768
-0.013470477 0.58596575 1.7679999
-0.0050514289 0.58596569 1.768
0.0033676191 0.58596575 1.7679999
0.010102858 0.58596575 1.7680001
0.035921272 0.58372062 1.7680001
0.041533973 0.58372062 1.7680001
0.12684698 0.58821082 1.7680001
0.13133715 0.58428192 1.7680001
-0.060617145 0.59606862 1.7680001
-0.053881902 0.59606862 1.7679999
-0.043779053 0.59606862 1.7679999
-0.033676192 0.59606862 1.7679999
-0.022611158 0.59558755 1.7679999
-0.013470476 0.59606862 1.7679999
-0.0047146669 0.59674215 1.768
0 0.59606862 1.7680001
0.12796953 0.59606862 1.7680001
-0.060617145 0.60448766 1.7680001
-0.053400815 0.60520929 1.7679999
-0.043779053 0.60617137 1.7679999
-0.03415728 0.60713357 1.7679999
-0.02289981 0.60549796 1.768
-0.013470476 0.60617137 1.7679999
-0.0050514289 0.60617143 1.768
0.0016838094 0.60617143 1.768
0.015154285 0.60448766 1.7680001
0.13302097 0.60785526 1.7680001
-0.050514288 0.61290669 1.7680001
-0.043105524 0.61425376 1.768
-0.033255242 0.61585331 1.7679999
-0.026940951 0.6162743 1.7680001
-0.011786667 0.6162743 1.768
-0.0050514289 0.6162743 1.768
0.00084190478 0.61711621 1.7680001
-0.026940953 0.62469339 1.7680001
-0.011786667 0.62637717 1.768
-0.0050514289 0.62637717 1.768
0.0024054423 0.62685823 1.7679999
-0.085874289 0.63984764 1.7680001
-0.072403811 0.63984764 1.7680001
-0.067352384 0.63984764 1.7680001
-0.033255242 0.63690096 1.7679999
-0.024920383 0.63580656 1.768
-0.013470477 0.63648009 1.7679999
-0.0050514289 0.63648009 1.768
0.0033676191 0.63648003 1.7679999
0.0125083 0.6369611 1.7679999
0.022731429 0.63900578 1.7680001
0.030308573 0.63984764 1.7680001
0.043779049 0.63984764 1.7680001
-0.087558098 0.64321524 1.7680001
-0.033676192 0.64321524 1.7680001
-0.023573335 0.64321524 1.7680001
-0.013470476 0.64321524 1.7680001
-0.0050514289 0.64489907 1.7680001
0 0.64321524 1.7680001
0.016838096 0.64321524 1.7680001
0.023994287 0.64616197 1.7679999
0.033676192 0.6465829 1.7679999
0.043779053 0.6465829 1.7679999
0.053460952 0.64700383 1.7679999
0.062637724 0.64725643 1.768
0.026940953 0.65331811 1.7680001
0.033676192 0.65416002 1.7680001
0.055565715 0.65331811 1.7680001
0.064658292 0.65466517 1.768
0.073414102 0.65533864 1.768
0.065668575 0.6617372 1.7680001
0.073414102 0.66140044 1.768
0.080822863 0.66005337 1.7680001
0.091388576 0.088003814 1.7770001
0.071079999 0.098158099 1.7770001
0.08631143 0.094773345 1.7770001
0.091388576 0.091388576 1.7770001
0.13200572 0.098158099 1.7770001
-0.21493238 0.10831238 1.7770001
-0.20985524 0.10831238 1.7770001
-0.16585334 0.10831239 1.7770001
-0.15569906 0.10492762 1.7770001
-0.14639096 0.10662 1.7770001
-0.13708286 0.10492762 1.7770001
-0.11169714 0.10323524 1.7770001
-0.060925715 0.10154286 1.7770001
-0.055848572 0.10154286 1.7770001
-0.013539049 0.10267112 1.7770001
-0.003384762 0.10492762 1.7770001
0.003384762 0.10323524 1.7770001
0.010154286 0.10154286 1.7770001
0.08631143 0.10154286 1.7770001
0.14216 0.10154286 1.7770001
-0.23270239 0.11762048 1.7770001
-0.22407123 0.11575886 1.7770001
-0.21493238 0.11169714 1.7770001
-0.20647049 0.11282539 1.7770001
-0.1963162 0.11338952 1.7770001
-0.18616192 0.11508191 1.7770001
-0.17431524 0.11169714 1.7770001
-0.26288319 0.12297968 1.7770001
-0.25250328 0.12455925 1.7770001
-0.24370287 0.12354382 1.7770001
-0.23354857 0.12523621 1.7770002
-0.22593287 0.12608238 1.7770001
-0.2504724 0.13708286 1.7770001
-0.24483113 0.13764699 1.7770001
-0.2318562 0.13369811 1.7770001
-0.22291076 0.13442339 1.7770002
-0.2154965 0.13764699 1.7770001
-0.20985524 0.13877524 1.7770001
-0.2504724 0.14554477 1.7770001
-0.24370284 0.14554477 1.7770001
-0.23467684 0.14780128 1.7770001
-0.2233943 0.14554477 1.7770001
-0.21577859 0.14469858 1.7770001
-0.20985524 0.14216 1.7770001
0.12185143 0.14892954 1.7770001
-0.2504724 0.15569906 1.7770001
-0.24370286 0.15569904 1.7770002
-0.23354858 0.15569907 1.7770002
-0.22226603 0.15569906 1.7770001
-0.21662477 0.15400667 1.7770001
-0.20985524 0.15569906 1.7770001
0.12692857 0.15400667 1.7770001
0.13200572 0.15739143 1.7770001
-0.2504724 0.16923811 1.7770001
-0.24370286 0.16585334 1.7770002
-0.23403212 0.16682041 1.7770002
-0.22271733 0.1678842 1.7770001
-0.21662477 0.16923811 1.7770001
-0.20590635 0.16698159 1.7770001
-0.19716239 0.16839191 1.7770001
-0.18785429 0.16923811 1.7770001
0.13200572 0.16754572 1.7770001
-0.25182632 0.17600763 1.7770001
-0.24370286 0.17397676 1.7770001
-0.23306504 0.17504056 1.7770002
-0.22381739 0.17643072 1.7770002
-0.21662477 0.17770001 1.7770001
-0.20579353 0.17465372 1.7770001
-0.19589311 0.17558454 1.7770002
-0.18751581 0.17600763 1.7770001
0.13200572 0.17262286 1.7770001
-0.25216478 0.18277715 1.7770001
-0.23016381 0.18616191 1.7770001
-0.2229712 0.18616191 1.7770002
-0.21527085 0.18683887 1.7770001
-0.20421398 0.18841843 1.7770001
-0.19547001 0.18531573 1.7770001
-0.18664546 0.18664546 1.7770002
-0.17826414 0.18841843 1.7770001
-0.23185618 0.1963162 1.7770001
-0.22339429 0.1963162 1.7770002
-0.21459392 0.1963162 1.7770001
-0.20590635 0.19744445 1.7770001
-0.1967393 0.19673929 1.7770002
-0.18567838 0.19583265 1.7770002
-0.1777 0.1963162 1.7770001
-0.16923811 0.19293143 1.7770001
0.12862095 0.1963162 1.7770001
-0.23219466 0.20782439 1.7770001
-0.22339429 0.20647047 1.7770002
-0.2149324 0.20647049 1.7770001
-0.20647049 0.20647047 1.7770002
-0.1963162 0.20647047 1.7770002
-0.18573882 0.20647046 1.7770002
-0.1777 0.20647049 1.7770001
-0.23242033 0.21436827 1.7770001
-0.22271733 0.21459392 1.7770001
-0.21493238 0.2149324 1.7770001
-0.20647049 0.21493238 1.7770001
-0.1963162 0.21493238 1.7770001
-0.18700811 0.2140862 1.7770001
-0.17939238 0.21324001 1.7770001
0.12862095 0.21493238 1.7770001
-0.24201047 0.22000954 1.7770001
-0.23467684 0.22226603 1.7770001
-0.21436827 0.22113778 1.7770001
-0.20534222 0.22226603 1.7770001
-0.1963162 0.22339429 1.7770002
-0.18841843 0.22113781 1.7770001
-0.15231429 0.22677906 1.7770001
-0.14892954 0.22677906 1.7770001
0.12862095 0.22339429 1.7770001
-0.20308572 0.23354858 1.7770001
-0.1963162 0.23403212 1.7770002
-0.1550221 0.23151772 1.7770001
-0.14892954 0.2318562 1.7770001
-0.19534913 0.24321933 1.7770002
-0.18785429 0.24370286 1.7770001
0.13200572 0.24370286 1.7770001
-0.19428533 0.25318021 1.7770001
-0.18954666 0.25385717 1.7770001
-0.16416097 0.2572419 1.7770001
-0.15569906 0.2504724 1.7770001
0.12862095 0.25554955 1.7770001
0.13200572 0.25216478 1.7770001
-0.20647049 0.26739621 1.7770001
-0.19428533 0.2646884 1.7770001
-0.18664546 0.26497853 1.7770002
-0.17649116 0.2649785 1.7770002
-0.16536979 0.2649785 1.7770002
0.1252362 0.26401144 1.7770001
-0.21324001 0.27416572 1.7770001
-0.20743756 0.27368218 1.7770002
-0.19377762 0.27331951 1.7770001
-0.18519484 0.27464926 1.7770002
-0.1769747 0.27368218 1.7770002
-0.16585335 0.27078095 1.7770001
-0.21324001 0.28432 1.7770001
-0.20743755 0.28480354 1.7770002
-0.1963162 0.28432 1.7770002
-0.18616192 0.28432 1.7770002
-0.1777 0.28432003 1.7770001
-0.16246858 0.28770477 1.7770001
-0.14554477 0.28770477 1.7770001
-0.1963162 0.2944743 1.7770002
-0.18616191 0.29447427 1.7770002
-0.1769747 0.29495785 1.7770002
-0.16472508 0.29560256 1.7770001
-0.15527597 0.29489738 1.7770002
-0.14596787 0.29405123 1.7770002
-0.13877524 0.29108953 1.7770001
-0.19462381 0.30462858 1.7770001
-0.18616191 0.30462858 1.7770002
-0.17643073 0.30420551 1.7770002
-0.16585334 0.30462858 1.7770002
-0.15569906 0.30462858 1.7770002
-0.14651184 0.30414504 1.7770002
-0.1963162 0.31478289 1.7770002
-0.18616192 0.31478286 1.7770002
-0.17600763 0.31545982 1.7770001
-0.16543025 0.31435975 1.7770002
-0.15569906 0.31478283 1.7770002
-0.14651184 0.3152664 1.7770002
-0.20647049 0.3283219 1.7770001
-0.18548496 0.32290632 1.7770001
-0.17770001 0.32662952 1.7770001
-0.16472508 0.32493716 1.7770001
-0.15521552 0.32397008 1.7770002
-0.14554477 0.32493716 1.7770002
-0.13792905 0.32578334 1.7770001
0.11846667 0.3283219 1.7770001
-0.20308572 0.33170667 1.7770001
-0.18413106 0.3357684 1.7770001
-0.17697468 0.33460787 1.7770002
-0.16585334 0.33170667 1.7770001
-0.14328825 0.33283493 1.7770001
-0.13708286 0.33170667 1.7770001
0.12185143 0.33678383 1.7770001
-0.19293143 0.3469381 1.7770001
-0.18573882 0.34566879 1.7770002
-0.17770001 0.34439951 1.7770001
-0.16246858 0.34863049 1.7770001
-0.15569906 0.34778428 1.7770001
-0.14892954 0.34863049 1.7770001
0.1252362 0.34524572 1.7770001
-0.19293143 0.35201526 1.7770001
-0.18683887 0.35404611 1.7770001
-0.17600763 0.35652828 1.7770001
-0.16536979 0.35636711 1.7770002
-0.15569907 0.3554 1.7770002
-0.14667302 0.35652828 1.7770001
-0.17939238 0.36216953 1.7770001
-0.16585334 0.36386192 1.7770001
-0.1536682 0.36623126 1.7770001
-0.14554477 0.36597738 1.7770002
-0.13877524 0.36216953 1.7770001
-0.15400667 0.37232381 1.7770001
-0.1445777 0.37522504 1.7770002
-0.13764699 0.37796509 1.7770001
-0.15344255 0.38811937 1.7770001
-0.14554477 0.3841705 1.7770001
-0.13877524 0.38417047 1.7770001
-0.098158099 0.38924763 1.7770001
-0.17600763 0.39770955 1.7770001
-0.16416097 0.39940193 1.7770001
-0.15612216 0.39559409 1.7770002
-0.10492762 0.39940193 1.7770001
-0.16416095 0.40617144 1.7770001
-0.15666613 0.40665498 1.7770002
-0.11282539 0.40842795 1.7770001
-0.10628153 0.40684837 1.7770001
-0.16246858 0.41632572 1.7770001
-0.15569906 0.41632569 1.7770002
-0.14554477 0.41971049 1.7770001
-0.13708286 0.41971049 1.7770001
-0.12354381 0.4180181 1.7770001
-0.11459837 0.4172928 1.7770002
-0.10662001 0.41632572 1.7770001
-0.16246858 0.42648003 1.7770001
-0.15569906 0.42648003 1.7770002
-0.14554477 0.42648003 1.7770002
-0.13539048 0.42648005 1.7770001
-0.1252362 0.42648003 1.7770002
-0.11556544 0.42551294 1.7770002
-0.10492762 0.42478764 1.7770001
-0.16359682 0.43550602 1.7770001
-0.15502211 0.43460345 1.7770001
-0.14554477 0.43494189 1.7770001
-0.13708286 0.43494192 1.7770001
-0.1252362 0.43324956 1.7770001
-0.11508191 0.43550602 1.7770001
-0.10492762 0.4366343 1.7770001
-0.17600763 0.44678858 1.7770001
-0.16416097 0.44171146 1.7770001
-0.15434515 0.44272691 1.7770001
-0.14723715 0.44340381 1.7770001
-0.1359546 0.44396797 1.7770001
-0.12523618 0.44678858 1.7770001
-0.11440495 0.44408077 1.7770001
-0.10492762 0.44340384 1.7770001
-0.098158099 0.44678858 1.7770001
-0.15485287 0.45355812 1.7770001
-0.14554477 0.45313501 1.7770002
-0.13539046 0.45355812 1.7770002
-0.1252362 0.45355809 1.7770002
-0.11621016 0.45468637 1.7770001
-0.10492762 0.45694289 1.7770001
-0.094209217 0.45468637 1.7770001
-0.14892954 0.46709716 1.7770001
-0.13285191 0.46286619 1.7770001
-0.1252362 0.46371242 1.7770002
-0.11762048 0.4645586 1.7770001
-0.10492762 0.46202001 1.7770001
-0.093645088 0.46258414 1.7770001
-0.14892954 0.47386667 1.7770001
-0.13200572 0.47048193 1.7770001
-0.12608239 0.47132814 1.7770001
-0.11451778 0.47386667 1.7770001
-0.10379937 0.47612318 1.7770001
-0.094773337 0.47725144 1.7770001
-0.08631143 0.47725144 1.7770001
0.12862095 0.47725144 1.7770001
-0.12185143 0.48740572 1.7770001
-0.11643581 0.48402101 1.7770001
-0.091388576 0.48402098 1.7770001
-0.085295998 0.48605186 1.7770001
-0.07784953 0.48740572 1.7770001
0.12862095 0.48063621 1.7770001
0.13200572 0.48063621 1.7770001
-0.12320534 0.49349833 1.7770001
-0.11677429 0.49417523 1.7770001
-0.095196441 0.49375215 1.7770002
-0.08631143 0.49248287 1.7770001
-0.07784953 0.49079049 1.7770001
0.13539048 0.49079049 1.7770001
-0.12426912 0.50481308 1.7770002
-0.11556544 0.50529665 1.7770002
-0.10154286 0.50771433 1.7770001
-0.095619522 0.50263721 1.7770001
-0.08236254 0.50207305 1.7770001
-0.075593024 0.50320131 1.7770001
-0.12388228 0.51312989 1.7770001
-0.11508191 0.51448381 1.7770002
-0.10492762 0.51448381 1.7770002
-0.097029842 0.51674032 1.7770001
-0.081234291 0.5127914 1.7770001
-0.07784953 0.51109904 1.7770001
-0.067695238 0.51786858 1.7770001
0.13200572 0.51786858 1.7770001
-0.12185143 0.52294576 1.7770001
-0.11643581 0.52396119 1.7770001
-0.10492762 0.52463812 1.7770002
-0.095196433 0.52463812 1.7770002
-0.08631143 0.52802289 1.7770001
-0.064310484 0.52125335 1.7770001
-0.052463811 0.52802289 1.7770001
0.13200572 0.52463812 1.7770001
-0.12185143 0.53648484 1.7770001
-0.11508191 0.53310001 1.7770001
-0.10154286 0.53310001 1.7770001
-0.092234768 0.53394622 1.7770001
-0.086875558 0.53366417 1.7770001
0.13369811 0.53140765 1.7770001
-0.12185142 0.54494667 1.7770001
-0.11508191 0.54494667 1.7770001
-0.091388576 0.5415619 1.7770001
-0.085747302 0.54607493 1.7770001
-0.12185143 0.55340862 1.7770001
-0.11508191 0.55340862 1.7770001
-0.084619045 0.5546174 1.7770002
-0.076721281 0.55735749 1.7770001
-0.05077143 0.55848575 1.7770001
-0.10408143 0.56440908 1.7770001
-0.0839421 0.56457835 1.7770001
-0.073981225 0.56428814 1.7770002
-0.064310469 0.56694764 1.7770001
-0.053733096 0.56567836 1.7770002
-0.046032764 0.56593215 1.7770001
-0.020308573 0.56863999 1.7770001
-0.10408144 0.57540953 1.7770001
-0.094773337 0.5787943 1.7770001
-0.071079999 0.57202476 1.7770001
-0.060925715 0.57202476 1.7770001
-0.05077143 0.57540959 1.7770001
-0.044001907 0.57540953 1.7770002
-0.037232384 0.57202476 1.7770001
-0.022000954 0.57540959 1.7770001
-0.016923809 0.5787943 1.7770001
0.13539048 0.57202476 1.7770001
-0.10492762 0.58217907 1.7770001
-0.062053967 0.58782035 1.7770001
-0.053027939 0.58669209 1.7770001
-0.044968981 0.58556384 1.7770002
-0.022000954 0.58217907 1.7770001
0.13539048 0.58217907 1.7770001
-0.065156668 0.59656429 1.7770001
-0.052463811 0.59233338 1.7770001
-0.047386669 0.59233338 1.7770001
0.13200572 0.59571815 1.7770001
-0.071079999 0.60248762 1.7770001
-0.065156668 0.60502619 1.7770001
0.13313398 0.60587239 1.7770001
-0.061771903 0.61518049 1.7770001
-0.055123262 0.61651027 1.7770002
-0.047386669 0.61941147 1.7770001
-0.022000954 0.6160267 1.7770001
-0.016923809 0.61771905 1.7770001
-0.051899683 0.62392449 1.7770001
-0.044001907 0.62618089 1.7770002
-0.034331158 0.62714803 1.7770002
-0.022000954 0.62618095 1.7770001
-0.016923809 0.62618095 1.7770001
-0.084619045 0.63972002 1.7770001
-0.071079999 0.63972002 1.7770001
-0.067695238 0.63972002 1.7770001
-0.052463811 0.63972002 1.7770001
-0.043578811 0.63675833 1.7770002
-0.034693811 0.63379669 1.7770001
-0.023016382 0.63498133 1.7770001
-0.016923809 0.63295048 1.7770001
-0.093080953 0.64648956 1.7770001
-0.062618092 0.64310479 1.7770001
-0.05077143 0.64310479 1.7770001
-0.044001907 0.64445871 1.7770001
-0.022000954 0.64310479 1.7770001
0.0040617147 0.64852035 1.7770001
0.013539048 0.64818192 1.7770001
0.044001907 0.65664381 1.7770001
0.05077143 0.65664381 1.7770001
0.025949841 0.66228509 1.7770001
0.03300143 0.66172099 1.7770001
0.044001907 0.66002858 1.7770001
0.055002384 0.66087478 1.7770001
0.060925711 0.66341335 1.7770001
0.0068038097 0.098655239 1.7860001
0.010205715 0.098655239 1.7860001
0.08164572 0.095253326 1.7860001
0.096954286 0.096954286 1.7860001
0.1037581 0.095253333 1.7860001
0.12587048 0.094402865 1.7860001
0.1360762 0.096954286 1.7860001
0.14288001 0.098655239 1.7860001
-0.25854477 0.10886095 1.7860001
-0.22452573 0.10886095 1.7860001
-0.20751619 0.10886095 1.7860001
-0.17519811 0.10886095 1.7860001
-0.16499239 0.10545905 1.7860001
-0.14741588 0.10319111 1.7860001
-0.1394781 0.10205714 1.7860001
-0.12416953 0.1037581 1.7860001
-0.11736572 0.1037581 1.7860001
-0.005102857 0.10205714 1.7860001
0.0017009524 0.10205714 1.7860001
0.074841909 0.10205714 1.7860001
0.08164572 0.10205714 1.7860001
0.14798287 0.1037581 1.7860001
-0.3623029 0.11566477 1.7860001
-0.3254489 0.1179327 1.7860001
-0.31637716 0.11906667 1.7860001
-0.30447048 0.11906667 1.7860001
-0.29596573 0.11906668 1.7860001
-0.28576002 0.11736572 1.7860001
-0.2755543 0.11736572 1.7860001
-0.26534858 0.11736572 1.7860001
-0.25514287 0.11566476 1.7860001
-0.24493715 0.11566476 1.7860001
-0.23541181 0.11362362 1.786
-0.22622667 0.11226286 1.7860001
-0.20411429 0.11226286 1.7860001
-0.19560952 0.11226286 1.7860001
-0.18200192 0.11226286 1.7860001
-0.32658288 0.12246858 1.7860001
