# .PCD v0.7 - Point Cloud Data file format
VERSION 0.7
FIELDS x y z
SIZE 4 4 4
TYPE F F F
COUNT 1 1 1
WIDTH 1489
HEIGHT 1
VIEWPOINT 0 0 0 1 0 0 0
POINTS 1489
DATA ascii
0.14407049 0.27473906 1.7589999
0.15412191 0.27473903 1.7589999
0.16417335 0.27473906 1.7589999
0.17422476 0.27473903 1.7589999
0.18260096 0.27557665 1.7590001
0.19544445 0.27529746 1.7589999
0.20533635 0.27426043 1.7589999
0.21443048 0.27473903 1.7589999
0.22166668 0.27333334 1.7500001
-0.090000004 0.28500003 1.7500001
-0.083333343 0.285 1.7500001
-0.040000003 0.28166667 1.7500001
-0.035000004 0.28 1.7500001
-0.023398094 0.28413713 1.755
-0.013352381 0.28365526 1.7520001
-0.0050085713 0.28406191 1.7545
0.0033466667 0.28446668 1.757
0.01336 0.28382096 1.753
0.022957381 0.28387761 1.7533751
0.033504765 0.28479049 1.7589999
0.043556195 0.28479049 1.7589999
0.053607624 0.28479049 1.7589999
0.06365905 0.28479049 1.7589999
0.073710479 0.28479052 1.7589999
0.083761908 0.28479049 1.7589999
0.093813337 0.28479052 1.7589999
0.10338613 0.28479049 1.7589999
0.1139162 0.28311527 1.7589999
0.12396763 0.28437167 1.7589999
0.13401905 0.28437167 1.7589999
0.14338367 0.2834169 1.7564286
0.15300508 0.28255686 1.7590002
0.16380192 0.28414476 1.755
0.17422476 0.28479049 1.7589999
0.18204255 0.28367367 1.7590002
0.19432764 0.28255686 1.7590002
0.20479786 0.28479049 1.7589999
0.21430667 0.28463048 1.7579999
0.22139907 0.28323287 1.7545002
-0.090000004 0.29166669 1.7500001
-0.022916667 0.29291666 1.7500001
-0.013340953 0.29350096 1.751
-0.0050028572 0.29358193 1.7515001
0.0033409526 0.29400384 1.7540001
0.013340953 0.29349905 1.751
0.023344763 0.29349905 1.751
0.033470474 0.29450479 1.757
0.042439368 0.29428351 1.7589999
0.053607624 0.29436329 1.7589999
0.063659042 0.29484192 1.7589999
0.073710479 0.29484195 1.7589999
0.083761908 0.29484192 1.7589999
0.093813337 0.29484189 1.7589999
0.10218953 0.29484192 1.7589999
0.12620127 0.29260829 1.7590002
0.13401906 0.29316667 1.7589999
0.14239524 0.29400429 1.7590001
0.15523873 0.29428348 1.7589999
0.16417333 0.29484192 1.7589999
0.17326748 0.29436329 1.7589999
0.20605429 0.29484192 1.7590001
0.21554731 0.29372507 1.7589999
0.22247162 0.29551199 1.7590001
-0.15000001 0.30000001 1.7500001
-0.14500001 0.30000001 1.7500001
-0.033333335 0.30000001 1.7500001
-0.023348572 0.30350474 1.751
-0.013346667 0.30368379 1.7520001
-0.0050114281 0.30411902 1.7545
0.0033447621 0.30437905 1.756
0.01335619 0.30385903 1.753
0.023361905 0.30368379 1.7520001
0.033487622 0.30472192 1.7579999
0.042216003 0.30355316 1.7590001
0.05360762 0.30489331 1.7589999
0.063586667 0.30454856 1.757
0.073544763 0.30419427 1.755
0.083761908 0.30489334 1.7589999
0.093813337 0.30489334 1.7589999
0.10218953 0.30489334 1.7589999
0.13513587 0.30601016 1.7590002
0.14474057 0.30623353 1.7590001
0.15454072 0.30531216 1.7589999
0.16417333 0.30489334 1.7589999
0.17380597 0.30531216 1.7589999
0.18092573 0.30824381 1.7590001
0.20437905 0.30489334 1.7590001
0.21610573 0.30405572 1.7590001
0.22280669 0.30321813 1.7590001
-0.030000001 0.31333333 1.7500001
-0.023400001 0.31422666 1.755
-0.013382857 0.31458476 1.757
-0.0050257142 0.31494477 1.7589999
0.003350476 0.31494477 1.7589999
0.013396192 0.31476763 1.7579999
0.023400001 0.31422666 1.755
0.033504762 0.31494474 1.7589999
0.043556195 0.31494477 1.7589999
0.053512383 0.3144038 1.756
0.063436188 0.31387046 1.753
0.073506668 0.31404951 1.7540001
0.083761901 0.31494474 1.7589999
0.093813337 0.31494477 1.7589999
0.10218953 0.31494474 1.7589999
0.11726667 0.31494477 1.7590001
0.13485667 0.31410718 1.7590001
0.14574572 0.31326953 1.7590001
0.15454072 0.31452596 1.7589999
0.16417335 0.31494474 1.7589999
0.17422475 0.31494474 1.7589999
0.18176335 0.31578237 1.7590001
0.20437907 0.31494477 1.7589999
0.21443048 0.31536356 1.7589999
0.22280669 0.31494477 1.7589999
-0.105 0.32333335 1.7500001
-0.041666672 0.32666668 1.7500001
-0.032000002 0.32466668 1.7500002
-0.02342286 0.32462859 1.757
-0.01339238 0.32481337 1.7579999
-0.0050257142 0.3249962 1.7589999
0.003350476 0.3249962 1.7589999
0.013401905 0.32499623 1.7589999
0.023453334 0.32499623 1.7589999
0.033504765 0.32499623 1.7589999
0.043556195 0.3249962 1.7589999
0.05357524 0.32481337 1.7579999
0.063436188 0.32388762 1.753
0.073630482 0.32462859 1.757
0.083343096 0.32457739 1.7589999
0.09381333 0.32332098 1.7589999
0.10386477 0.32499623 1.7589999
0.11433501 0.32541502 1.7589999
0.12396762 0.3249962 1.7589999
0.13401905 0.32499617 1.7590001
0.14407049 0.32164574 1.7590002
0.15579715 0.32164574 1.7590001
0.16417335 0.32164574 1.7590002
0.17254953 0.32164574 1.7590001
0.19432764 0.32667145 1.7589999
0.20437907 0.32499623 1.7589999
0.21387237 0.32436955 1.757875
0.22280668 0.32164574 1.7590001
-0.11333334 0.33500001 1.7500001
-0.10333333 0.33500001 1.7500001
-0.096666671 0.33500001 1.7500001
-0.053333338 0.33333331 1.7500001
-0.043333337 0.33333334 1.7500001
-0.033333335 0.33333331 1.7500001
-0.023438098 0.3348572 1.7579999
-0.013401905 0.33504766 1.7589999
-0.0050257142 0.33504763 1.7589999
0.003350476 0.33504763 1.7589999
0.013401905 0.33504766 1.7589999
0.02342857 0.33467051 1.757
0.033504762 0.3350476 1.7589999
0.043556191 0.33504766 1.7589999
0.053607624 0.33504763 1.7589999
0.06365905 0.3350476 1.7589999
0.073710479 0.33504766 1.7589999
0.082086667 0.33504763 1.7589999
0.10386477 0.3350476 1.7589999
0.1139162 0.33504763 1.7589999
0.12061714 0.33504763 1.7590001
0.19432762 0.33169717 1.7590001
0.20661271 0.33281398 1.7590002
0.21443047 0.3344892 1.7589999
0.22280668 0.3383981 1.7590001
-0.27571142 0.34588715 1.7545002
-0.11333334 0.34 1.7500001
-0.10333333 0.34 1.7500001
-0.094999999 0.34 1.7500001
-0.060000002 0.34500003 1.7500001
-0.053333338 0.34333333 1.7500001
-0.043333337 0.34333336 1.7500001
-0.033333335 0.34333336 1.7500001
-0.023453334 0.34509903 1.7589999
-0.013401905 0.34509909 1.7589999
-0.0050257142 0.34509906 1.7589999
0.0033504763 0.34509906 1.7589999
0.012444626 0.34462044 1.7589999
0.023453334 0.34509909 1.7589999
0.033504765 0.34509906 1.7589999
0.043556191 0.34509903 1.7589999
0.053607624 0.34509903 1.7589999
0.063659042 0.34509903 1.7589999
0.073710479 0.34509909 1.7589999
0.083761908 0.34509909 1.7589999
0.093813337 0.34557769 1.7589999
0.10386476 0.34509903 1.7589999
0.11349739 0.34468025 1.7589999
0.12061714 0.3417486 1.7590001
0.15077144 0.34509906 1.7590001
0.16752382 0.34844953 1.7590001
0.21778096 0.34509906 1.7590001
0.22280668 0.34509906 1.7590001
-0.2752358 0.35339013 1.7536001
-0.093333334 0.35500002 1.7500001
-0.060000002 0.35333335 1.7500001
-0.053333338 0.35333332 1.7500001
-0.043333337 0.35333335 1.7500001
-0.033333335 0.35333332 1.7500001
-0.023453334 0.35515049 1.7589999
-0.013401905 0.35515049 1.7589999
-0.0050257142 0.35515046 1.7589999
0.003350476 0.35515049 1.7589999
0.011726667 0.35515046 1.7589999
0.023872145 0.35473168 1.7589999
0.033504762 0.35473165 1.7589999
0.043137383 0.35473165 1.7589999
0.050257146 0.35180002 1.7590001
0.06533429 0.35180002 1.7590001
0.074189119 0.35419321 1.7589999
0.083761908 0.35515049 1.7589999
0.09381333 0.35515046 1.7589999
0.10386477 0.35515049 1.7589999
0.11224096 0.35515046 1.7589999
0.16584858 0.35180002 1.7590001
-0.27333334 0.36000001 1.7500001
-0.10111111 0.36444446 1.7500001
-0.094444446 0.36444446 1.7500001
-0.060000002 0.36666667 1.7500001
-0.053333335 0.36333334 1.7500001
-0.04291667 0.36333334 1.7500001
-0.033333335 0.36333337 1.7500001
-0.023453334 0.36520192 1.7589999
-0.013382857 0.36457714 1.756
-0.0050257142 0.36520195 1.7589999
0.0033504763 0.36520192 1.7589999
0.01228508 0.36576033 1.7589999
0.035738412 0.36743557 1.7590002
0.074827306 0.36464354 1.7589999
0.083761908 0.36520192 1.7589999
0.093813345 0.36424464 1.7589999
0.10218953 0.3635267 1.7590001
0.11559144 0.36185145 1.7590001
-0.12333333 0.37666669 1.7500001
-0.115 0.37666669 1.7500001
-0.10291668 0.37375003 1.7500001
-0.093999997 0.37133333 1.7500002
-0.07 0.37666669 1.7500001
-0.062857144 0.37428573 1.7500001
-0.053333338 0.37333333 1.7500001
-0.042500004 0.37166667 1.7500001
-0.033333335 0.37333331 1.7500001
-0.023438096 0.37504002 1.7579999
-0.013369524 0.3741886 1.7540001
-0.0050057145 0.3739762 1.7530001
0.0033504763 0.37525335 1.7589999
0.013401904 0.37525335 1.7589999
0.022496056 0.37477472 1.7589999
0.080411434 0.37190288 1.7590001
-0.27000001 0.38333336 1.7500001
-0.13000001 0.38666669 1.7500001
-0.12416666 0.38416669 1.7500001
-0.11545455 0.38363644 1.7500001
-0.10375001 0.38375005 1.7500001
-0.096666671 0.38500002 1.7500001
-0.072380953 0.38380957 1.7500001
-0.063333333 0.38333338 1.7500001
-0.053365719 0.38355434 1.751
-0.044166669 0.38583335 1.7500001
-0.033809524 0.38333338 1.7500001
-0.023453334 0.38530472 1.7589999
-0.013401905 0.38530475 1.7589999
-0.0050257142 0.38530478 1.7589999
0.003350476 0.38530478 1.7589999
0.013401905 0.38530478 1.7589999
0.023034526 0.38572359 1.7589999
0.031829525 0.38698003 1.7590001
-0.13083334 0.39250001 1.7500001
-0.125 0.39333335 1.7500001
-0.115 0.39333335 1.7500001
-0.10333335 0.39333338 1.7500001
-0.096666671 0.39333335 1.7500001
-0.080000006 0.39000002 1.7500001
-0.073453337 0.39400762 1.753
-0.06365905 0.39535621 1.7589999
-0.053607624 0.39535618 1.7589999
-0.043360002 0.39355814 1.751
-0.033333335 0.39333338 1.7500001
-0.023453334 0.39535621 1.7589999
-0.013401905 0.39535618 1.7589999
-0.0050257146 0.39535621 1.7589999
0.0033504765 0.39535618 1.7589999
0.013401904 0.39535621 1.7589999
0.023453334 0.39535618 1.7589999
0.030991906 0.3961938 1.7590001
0.045231432 0.39870667 1.7590001
0.22280669 0.39368099 1.7590001
-0.13166668 0.40333334 1.7500001
-0.125 0.40333334 1.7500001
-0.115 0.4033334 1.7500001
-0.10339239 0.40356386 1.751
-0.093333334 0.4033334 1.7500001
-0.083333336 0.40333337 1.7500001
-0.073373333 0.40356195 1.751
-0.063407622 0.4037905 1.7520001
-0.05354286 0.40494481 1.757
-0.043460954 0.40448958 1.755
-0.033373334 0.40379816 1.7520001
-0.023453332 0.40540767 1.7589999
-0.013401903 0.40540767 1.7589999
-0.0050257142 0.40540764 1.7589999
0.003350476 0.40540764 1.7589999
0.013401904 0.40540767 1.7589999
0.022974696 0.40636492 1.7589999
0.033026122 0.40636492 1.7589999
0.043974999 0.40582645 1.7589999
0.053607624 0.40875807 1.7590002
-0.132 0.41266671 1.7500002
-0.125 0.41333339 1.7500001
-0.115 0.41333339 1.7500001
-0.10333335 0.41333339 1.7500001
-0.093333334 0.41333339 1.7500001
-0.083333343 0.41333339 1.7500001
-0.07333333 0.41333339 1.7500001
-0.063333333 0.41333339 1.7500001
-0.053361908 0.41356766 1.751
-0.043382864 0.41380197 1.7520001
-0.033464763 0.41498482 1.757
-0.022496056 0.4154591 1.7589999
-0.013401905 0.4154591 1.7589999
-0.0050257142 0.41545907 1.7589999
0.003350476 0.4154591 1.7589999
0.013401904 0.4154591 1.7589999
0.036017619 0.41462144 1.7590001
0.043556195 0.41545907 1.7589999
0.05193238 0.41545907 1.7589999
0.22113144 0.41713428 1.7590001
-0.18000001 0.42333335 1.7500001
-0.17266668 0.42133337 1.7500002
-0.13333334 0.42166668 1.7500001
-0.125 0.42333335 1.7500001
-0.115 0.42333332 1.7500001
-0.10333334 0.42333338 1.7500001
-0.093333334 0.42333338 1.7500001
-0.083333343 0.42333338 1.7500001
-0.07333333 0.42333338 1.7500001
-0.063333333 0.42333338 1.7500001
-0.053333338 0.42333338 1.7500001
-0.043333337 0.42333338 1.7500001
-0.03337143 0.42381528 1.7520001
-0.022496056 0.42598912 1.7589999
-0.013401905 0.42551053 1.7589999
-0.0046906667 0.4255105 1.7590001
0.0033504765 0.42551047 1.7589999
0.013401905 0.42551047 1.7589999
0.020102859 0.42383528 1.7590001
0.044513471 0.42503184 1.7589999
0.050257146 0.4255105 1.7590002
0.22336508 0.42327687 1.7590002
-0.17 0.43333337 1.7500001
-0.154 0.43533334 1.7500002
-0.14 0.4366667 1.7500001
-0.13466667 0.43333334 1.7500002
-0.125 0.43333337 1.7500001
-0.115 0.43333337 1.7500001
-0.10333334 0.43333337 1.7500001
-0.093333334 0.43333337 1.7500001
-0.083333336 0.43333337 1.7500001
-0.07333333 0.43333337 1.7500001
-0.063333333 0.43333337 1.7500001
-0.053333338 0.43333337 1.7500001
-0.043380957 0.43383241 1.7520001
-0.033354286 0.4335829 1.751
-0.023453334 0.43556193 1.7589999
-0.013401905 0.43556193 1.7589999
-0.0050257146 0.4355619 1.7589999
0.0029316668 0.4355619 1.7589999
0.012983095 0.4355619 1.7589999
0.043556191 0.43221146 1.7590001
-0.26166669 0.44666669 1.7500001
-0.21333334 0.44466668 1.7500002
-0.2 0.44666669 1.7500001
-0.15291665 0.44291669 1.7500001
-0.14133334 0.44400001 1.7500002
-0.13500001 0.44333336 1.7500001
-0.125 0.44333336 1.7500001
-0.115 0.44333336 1.7500001
-0.10333335 0.44333336 1.7500001
-0.093333349 0.44333336 1.7500001
-0.083426669 0.44384384 1.7520001
-0.07337714 0.44358861 1.751
-0.063333333 0.44333336 1.7500001
-0.053333338 0.44333336 1.7500001
-0.043451428 0.44459808 1.755
-0.033504762 0.44561332 1.7589999
-0.023453334 0.44226289 1.7590001
-0.012983096 0.44519457 1.7589999
-0.0046906667 0.44561338 1.7590001
0.0033504763 0.44561332 1.7589999
0.010051429 0.44561335 1.7590001
-0.26333335 0.45333332 1.7500001
-0.25666669 0.45333335 1.7500001
-0.22333334 0.45333335 1.7500001
-0.21333335 0.45333332 1.7500001
-0.20444447 0.45388889 1.7500001
-0.15166666 0.45333335 1.7500001
-0.14166668 0.45166668 1.7500001
-0.13333334 0.45333332 1.7500001
-0.125 0.45333335 1.7500001
-0.11566667 0.45333332 1.7500002
-0.10333335 0.45333332 1.7500001
-0.093489528 0.45411429 1.753
-0.083712384 0.45540768 1.7579999
-0.073548578 0.45463052 1.755
-0.063333333 0.45333332 1.7500001
-0.053333338 0.45333332 1.7500001
-0.043333337 0.45333332 1.7500001
-0.033443809 0.45488378 1.756
-0.02680381 0.45566478 1.7590001
-0.011726667 0.45231432 1.7590001
-0.0041880952 0.45482716 1.7590001
0.0020102859 0.45432463 1.7590001
-0.26111114 0.46555558 1.7500001
-0.21333335 0.46238098 1.7500001
-0.20333336 0.46333334 1.7500001
-0.19666667 0.4666667 1.7500001
-0.15166667 0.46166667 1.7500001
-0.14111112 0.46222222 1.7500001
-0.13291667 0.4629167 1.7500001
-0.125 0.46333337 1.7500001
-0.11571429 0.46476194 1.7500001
-0.10333335 0.46500003 1.7500001
-0.093436196 0.46386474 1.7520001
-0.083761908 0.46571621 1.7589999
-0.07337714 0.46359619 1.751
-0.063333333 0.46333334 1.7500001
-0.053333338 0.46333337 1.7500001
-0.043333333 0.46333334 1.7500001
-0.033333335 0.46333334 1.7500001
-0.023453334 0.46906668 1.7590001
-0.0067009525 0.46906668 1.7590001
0.10386477 0.46906668 1.7590001
-0.26222226 0.47111115 1.7500001
-0.21166667 0.47000003 1.7500001
-0.20333335 0.47000003 1.7500001
-0.19333334 0.47333336 1.7500001
-0.15111111 0.47555557 1.7500001
-0.14166668 0.47666669 1.7500001
-0.13333334 0.47333336 1.7500001
-0.125 0.47333336 1.7500001
-0.115 0.47333327 1.7500001
-0.10333334 0.47333336 1.7500001
-0.093436196 0.47387239 1.7520001
-0.083525717 0.47440952 1.7540001
-0.07333333 0.47333336 1.7500001
-0.062916666 0.47291669 1.7500001
-0.053333338 0.47333336 1.7500001
-0.043333333 0.47333336 1.7500001
-0.033441905 0.47495618 1.756
0.094483428 0.47442746 1.7590001
0.10218953 0.47576764 1.7590001
0.22280668 0.47576764 1.7590001
-0.23238097 0.48333335 1.7500001
-0.22375001 0.48375002 1.7500001
-0.19000001 0.48166668 1.7500001
-0.18222223 0.48444447 1.7500001
-0.15166666 0.48333335 1.7500001
-0.14333333 0.48333338 1.7500001
-0.13291667 0.48291668 1.7500001
-0.12466667 0.48266667 1.7500002
-0.11504715 0.48354188 1.7507501
-0.10351048 0.48416764 1.753
-0.093493342 0.48416764 1.753
-0.08338286 0.48361143 1.751
-0.07333333 0.48333338 1.7500001
-0.063333333 0.48333338 1.7500001
-0.053361908 0.48361143 1.751
-0.043382853 0.48388761 1.7520001
-0.033483811 0.4855448 1.7579999
-0.022974696 0.48486179 1.7589999
-0.013401905 0.48581907 1.7590001
-0.23166668 0.49333334 1.7500001
-0.22333333 0.49333334 1.7500001
-0.21416667 0.49583337 1.7500001
-0.19000001 0.49333334 1.7500001
-0.18333334 0.49466667 1.7500002
-0.17333335 0.4966667 1.7500001
-0.16200002 0.49466667 1.7500002
-0.15291665 0.49375001 1.7500001
-0.14333333 0.49333334 1.7500001
-0.13238095 0.49333334 1.7500001
-0.12333333 0.49333334 1.7500001
-0.11514144 0.49396762 1.7522501
-0.10386477 0.49587047 1.7589999
-0.093813337 0.4958705 1.7589999
-0.083666667 0.4953067 1.757
-0.073584765 0.4950248 1.756
-0.063479997 0.49445713 1.7540001
-0.053420953 0.49417529 1.753
-0.043382857 0.49389526 1.7520001
-0.033464763 0.49530289 1.757
-0.023453334 0.49419525 1.7590001
-0.26000002 0.50999999 1.7500001
-0.25333333 0.50833333 1.7500001
-0.24833333 0.50999999 1.7500001
-0.23066668 0.50400001 1.7500002
-0.22333334 0.50499994 1.7500001
-0.21333335 0.50499994 1.7500001
-0.20333335 0.50600004 1.7500002
-0.19333336 0.50566661 1.7500002
-0.18523809 0.50523812 1.7500001
-0.16000001 0.5 1.7500001
-0.15166666 0.505 1.7500001
-0.14333333 0.50333333 1.7500001
-0.13333334 0.50333333 1.7500001
-0.125 0.50333333 1.7500001
-0.11508082 0.50465548 1.7512858
-0.10428358 0.5059219 1.7589999
-0.092473149 0.50726211 1.7590001
-0.083654769 0.50694156 1.75675
-0.07333333 0.505 1.7500001
-0.063584767 0.50534856 1.757
-0.053510476 0.50505906 1.756
-0.043432385 0.50448954 1.7540001
-0.033504765 0.5059219 1.7589999
-0.0033504763 0.5092724 1.7590001
0.0033504763 0.50843477 1.7590001
-0.26166669 0.51333338 1.7500001
-0.25333333 0.51500005 1.7500001
-0.25 0.51500005 1.7500001
-0.23 0.51500005 1.7500001
-0.22333334 0.51500005 1.7500001
-0.21333335 0.51500005 1.7500001
-0.20333333 0.51500005 1.7500001
-0.19333334 0.51500005 1.7500001
-0.184 0.51533335 1.7500002
-0.17500001 0.51666671 1.7500001
-0.16000001 0.51666671 1.7500001
-0.15333332 0.51500005 1.7500001
-0.14407049 0.51597333 1.7589999
-0.13401905 0.51597333 1.7589999
-0.12396763 0.51597333 1.7589999
-0.11343756 0.51693064 1.7589999
-0.10368763 0.51508766 1.756
-0.093761906 0.51567811 1.7579999
-0.083333343 0.51500005 1.7500001
-0.07333333 0.51500005 1.7500001
-0.063659042 0.51597333 1.7589999
-0.053575236 0.51568002 1.7579999
-0.043556195 0.51597333 1.7589999
-0.033504762 0.51597333 1.7589999
0.21778096 0.51932383 1.7590001
0.22113144 0.51932383 1.7590001
-0.25333333 0.5266667 1.7500001
-0.24333334 0.5266667 1.7500001
-0.22333334 0.52166671 1.7500001
-0.21333335 0.52333331 1.7500001
-0.20333336 0.52166671 1.7500001
-0.19333336 0.52333331 1.7500001
-0.18333334 0.52333331 1.7500001
-0.17375001 0.52375001 1.7500001
-0.16333334 0.52500004 1.7500001
-0.15350477 0.52393335 1.7520001
-0.14407049 0.52602482 1.7589999
-0.13401905 0.52602482 1.7589999
-0.12396763 0.52602482 1.7589999
-0.1139162 0.52602482 1.7589999
-0.10368763 0.52512574 1.756
-0.09381333 0.52602476 1.7589999
-0.083333336 0.52333331 1.7500001
-0.07333333 0.52333337 1.7500001
-0.06358286 0.52542484 1.757
-0.05360762 0.52602482 1.7589999
-0.043556195 0.52602482 1.7589999
-0.033504765 0.52602482 1.7589999
-0.26166669 0.53666669 1.7500001
-0.25555557 0.5355556 1.7500001
-0.24666667 0.53666669 1.7500001
-0.22166668 0.53666669 1.7500001
-0.21333335 0.53333336 1.7500001
-0.20444445 0.53222227 1.7500001
-0.19291669 0.53291667 1.7500001
-0.18364193 0.53424764 1.753
-0.17333333 0.53333336 1.7500001
-0.16333334 0.53333336 1.7500001
-0.15359047 0.53424764 1.753
-0.14407049 0.53607631 1.7589999
-0.13401906 0.53607625 1.7589999
-0.12396763 0.53607619 1.7589999
-0.1139162 0.53607625 1.7589999
-0.10386477 0.53607625 1.7589999
-0.09381333 0.53607625 1.7589999
-0.08348 0.53425145 1.753
-0.07333333 0.53333336 1.7500001
-0.063544765 0.53516191 1.756
-0.05357524 0.53576952 1.7579999
-0.043556195 0.53607619 1.7589999
-0.033504762 0.53607625 1.7589999
-0.02680381 0.53942668 1.7590001
-0.26256382 0.5452019 1.756
-0.25565714 0.54473621 1.7545
-0.245 0.54333335 1.7500001
-0.23666668 0.54333335 1.7500001
-0.22333334 0.54666668 1.7500001
-0.21380953 0.54428571 1.7500001
-0.20400003 0.54533333 1.7500002
-0.19291669 0.54374999 1.7500001
-0.18333334 0.54333329 1.7500001
-0.17363618 0.54426473 1.753
-0.16342476 0.54364377 1.751
-0.15359619 0.54426283 1.753
-0.14407049 0.54612762 1.7589999
-0.13401905 0.54612762 1.7589999
-0.12483429 0.54620707 1.7577143
-0.11491325 0.54481006 1.7557274
-0.10386477 0.54612762 1.7589999
-0.09381333 0.54612762 1.7589999
-0.083716191 0.54581904 1.7579999
-0.07362476 0.54551053 1.757
-0.063620955 0.54581904 1.7579999
-0.053607624 0.54612762 1.7589999
-0.043556195 0.54612762 1.7589999
-0.033504765 0.54612762 1.7589999
-0.26267737 0.55550897 1.7590001
-0.25566 0.55475616 1.7545
-0.245 0.55333334 1.7500001
-0.23 0.55500001 1.7500001
-0.22291668 0.55374998 1.7500001
-0.21333335 0.55333334 1.7500001
-0.20333336 0.55333334 1.7500001
-0.19333336 0.55333334 1.7500001
-0.18333334 0.55333334 1.7500001
-0.1734343 0.55364764 1.751
-0.16333334 0.55333334 1.7500001
-0.15333332 0.55333334 1.7500001
-0.14333333 0.55333334 1.7500001
-0.13386285 0.55554664 1.757
-0.12396762 0.55617905 1.7589999
-0.1139162 0.55617905 1.7589999
-0.10386477 0.55617905 1.7589999
-0.093813337 0.55617911 1.7589999
-0.083761908 0.55617905 1.7589999
-0.073710471 0.55617911 1.7589999
-0.063659042 0.55617905 1.7589999
-0.053607624 0.55617905 1.7589999
-0.043556195 0.55617905 1.7589999
-0.033504765 0.55617911 1.7589999
-0.26133716 0.56455529 1.7590001
-0.255 0.56166667 1.7500001
-0.244 0.56300002 1.7500002
-0.23333335 0.56545454 1.7500001
-0.22333334 0.565 1.7500001
-0.2138343 0.56507218 1.7516365
-0.20333336 0.565 1.7500001
-0.19333337 0.565 1.7500001
-0.18333335 0.565 1.7500001
-0.17333336 0.565 1.7500001
-0.16333333 0.565 1.7500001
-0.15333332 0.565 1.7500001
-0.14333333 0.565 1.7500001
-0.13378666 0.56526864 1.756
-0.12396762 0.56623054 1.7589999
-0.1139162 0.56623054 1.7589999
-0.10386476 0.56623054 1.7589999
-0.09381333 0.56623048 1.7589999
-0.083761908 0.56623054 1.7589999
-0.073710479 0.56623054 1.7589999
-0.064999238 0.56489033 1.7590001
-0.05360762 0.56575191 1.7589999
-0.043975003 0.56581169 1.7589999
-0.033504762 0.56581169 1.7589999
-0.026803812 0.56623048 1.7590002
-0.24222223 0.57555562 1.7500001
-0.23333335 0.57500005 1.7500001
-0.22333334 0.57500005 1.7500001
-0.21347676 0.57597309 1.7551429
-0.20367907 0.57598859 1.7530001
-0.19399905 0.57697433 1.756
-0.18427621 0.57795715 1.7589999
-0.17348476 0.57549429 1.7515001
-0.16333334 0.57500005 1.7500001
-0.15333332 0.57500005 1.7500001
-0.14381905 0.57697147 1.756
-0.13401906 0.57628191 1.7589999
-0.12396762 0.57628191 1.7589999
-0.1139162 0.57628191 1.7589999
-0.10386477 0.57628185 1.7589999
-0.093813337 0.57628185 1.7589999
-0.083761908 0.57628185 1.7589999
-0.073710471 0.57628191 1.7589999
-0.065669335 0.57695204 1.7590001
-0.046906669 0.57293147 1.7590001
-0.26166669 0.58500004 1.7500001
-0.255 0.58500004 1.7500001
-0.24454546 0.5836364 1.7500001
-0.23333335 0.58333337 1.7500001
-0.22384003 0.58467048 1.7540001
-0.21407048 0.58533335 1.756
-0.20367621 0.58433336 1.753
-0.19421715 0.58599812 1.7579999
-0.18427621 0.58633339 1.7589999
-0.17333335 0.58333331 1.7500001
-0.16333334 0.58333331 1.7500001
-0.15333332 0.58333337 1.7500001
-0.14407049 0.58633339 1.7589999
-0.13401905 0.58633339 1.7589999
-0.12396762 0.58633339 1.7589999
-0.1139162 0.58633339 1.7589999
-0.10386477 0.58633339 1.7589999
-0.093813337 0.58633345 1.7589999
-0.083761908 0.58633339 1.7589999
-0.073710479 0.58633333 1.7589999
-0.064077854 0.58675212 1.7589999
-0.055282861 0.58633333 1.7590001
-0.26267737 0.59571469 1.7590001
-0.25521877 0.5959965 1.7564286
-0.2447761 0.59358674 1.7516365
-0.23346668 0.5936743 1.751
-0.22383812 0.59468764 1.7540001
-0.21394858 0.59502673 1.755
-0.20356193 0.59400958 1.7520001
-0.19399428 0.59536582 1.756
-0.18427621 0.59638476 1.7589999
-0.17373142 0.59469533 1.7540001
-0.16342667 0.59367436 1.751
-0.15394285 0.59570855 1.757
-0.14407049 0.59638476 1.7589999
-0.13401905 0.59638476 1.7589999
-0.12396762 0.59638476 1.7589999
-0.1139162 0.59638476 1.7589999
-0.10386476 0.59638476 1.7589999
-0.093813337 0.59638476 1.7589999
-0.083761908 0.59638476 1.7589999
-0.073710479 0.59638476 1.7589999
-0.064077854 0.59596592 1.7589999
-0.055841271 0.59526795 1.7590002
-0.042718574 0.59387195 1.7590001
-0.033504762 0.59638476 1.7589999
-0.026803812 0.59638476 1.7590002
-0.26133716 0.60308576 1.7590001
-0.25472501 0.60565829 1.75675
-0.24462745 0.6048848 1.7545
-0.23400381 0.60505527 1.755
-0.22371429 0.60436386 1.753
-0.21358097 0.60402095 1.7520001
-0.20344764 0.60368001 1.751
-0.19344574 0.60367996 1.751
-0.18406478 0.60574669 1.757
-0.17412762 0.60609329 1.7579999
-0.16389336 0.60540754 1.756
-0.15412191 0.60643619 1.7589999
-0.14407048 0.60643619 1.7589999
-0.13401905 0.60643619 1.7589999
-0.12396762 0.60643619 1.7589999
-0.1139162 0.60643619 1.7589999
-0.10386476 0.60643625 1.7589999
-0.093813337 0.60643613 1.7589999
-0.083761908 0.60643619 1.7589999
-0.074189119 0.60547894 1.7589999
-0.064775877 0.60420257 1.7590002
-0.031271111 0.60531944 1.7590002
-0.02680381 0.60308576 1.7590001
-0.25333333 0.61000001 1.7500001
-0.24390858 0.61247551 1.7511251
-0.23333335 0.61333334 1.7500001
-0.22333333 0.61333334 1.7500001
-0.21394286 0.6150896 1.755
-0.2037943 0.61473721 1.7540001
-0.19411047 0.61578482 1.757
-0.18427619 0.61648768 1.7589999
-0.17422475 0.61648762 1.7589999
-0.16417335 0.61648762 1.7589999
-0.15412191 0.61648768 1.7589999
-0.14407048 0.61648768 1.7589999
-0.13387047 0.61578673 1.757
-0.12464816 0.61513335 1.7551429
-0.11502233 0.61591417 1.7573638
-0.10386477 0.61648768 1.7589999
-0.093813337 0.61481243 1.7589999
-0.083761908 0.61648774 1.7589999
-0.077060953 0.61648762 1.7590002
-0.24133334 0.62666667 1.7500002
-0.23333335 0.62499994 1.7500001
-0.22345906 0.62369144 1.751
-0.21430665 0.62618476 1.7579999
-0.20394479 0.62686718 1.7552501
-0.19399948 0.62570959 1.7532729
-0.18422724 0.62592345 1.7554001
-0.17422478 0.62653905 1.7589999
-0.16417335 0.62653905 1.7589999
-0.1550792 0.62606043 1.7589999
-0.14407049 0.62653899 1.7589999
-0.13341656 0.62592345 1.7554001
-0.12451302 0.62479866 1.751
-0.11553173 0.62683475 1.7562308
-0.083761908 0.62653905 1.7589999
-0.076223336 0.62737668 1.7590001
-0.24266668 0.63533342 1.7500002
-0.23353048 0.63554579 1.7515001
-0.22435239 0.63622671 1.7579999
-0.2144305 0.63659048 1.7589999
-0.20333336 0.63500005 1.7500001
-0.19327593 0.63568169 1.7538573
-0.1837374 0.63660216 1.757875
-0.17422478 0.63659048 1.7589999
-0.1640781 0.63622868 1.7579999
-0.15412191 0.63659054 1.7589999
-0.14407049 0.63659054 1.7589999
-0.13427071 0.63619286 1.75675
-0.12425029 0.63664311 1.7536001
-0.11408658 0.63587517 1.756
-0.10428357 0.63700926 1.7589999
-0.093813337 0.63860077 1.7590001
-0.08418072 0.6361717 1.7589999
-0.073231831 0.63563317 1.7589999
-0.06413769 0.63754779 1.7589999
-0.013401906 0.63659048 1.7590002
-0.25333333 0.64333338 1.7500001
-0.24291667 0.64291668 1.7500001
-0.23372953 0.64443427 1.753
-0.22422287 0.64590669 1.757
-0.2144305 0.64664191 1.7589999
-0.20402859 0.64554286 1.756
-0.19449785 0.64539814 1.75675
-0.18427621 0.64496672 1.7589999
-0.17422475 0.64664197 1.7589999
-0.16417335 0.64664197 1.7589999
-0.15454072 0.64622313 1.7589999
-0.14394478 0.64441532 1.7575001
-0.1331781 0.64415318 1.7533751
-0.12333333 0.64333338 1.7500001
-0.11536215 0.64373022 1.755625
-0.10386477 0.64496672 1.7589999
-0.092138097 0.64496672 1.7590001
-0.085995555 0.64440829 1.7590002
-0.071476825 0.64440829 1.7590002
-0.06432914 0.64463168 1.7590001
-0.056958098 0.64329147 1.7590001
-0.23 0.65000004 1.7500001
-0.22390193 0.65334386 1.7545
-0.2144305 0.65501815 1.7589999
-0.2060543 0.65501815 1.7590001
-0.22280668 0.66004384 1.7590001
-0.21610573 0.66004384 1.7590001
0.013470476 0.097660959 1.7680001
0.07408762 0.097660959 1.7680001
0.083348572 0.093451433 1.7680001
0.094293334 0.094854601 1.768
0.10776381 0.097660959 1.7680001
0.11225396 0.095415868 1.7680001
0.12123429 0.097660959 1.7680001
0.13470477 0.092048258 1.7680001
0.14480762 0.092048258 1.7680001
0.15322667 0.094293334 1.7680001
0.17848381 0.094293334 1.7680001
0.18185143 0.094293334 1.7680001
-0.22899811 0.10776381 1.7680001
-0.21216001 0.10776381 1.7680001
-0.17848381 0.10776381 1.7680001
-0.11449905 0.1077638 1.7680001
-0.10608 0.10776381 1.7680001
-0.023573333 0.10271238 1.7680001
-0.015154285 0.10439619 1.7680001
0.013470476 0.10102858 1.7680001
0.053881906 0.10102858 1.7680001
0.060617145 0.10102858 1.7680001
-0.24246858 0.11113143 1.7680001
-0.23573335 0.11113143 1.7680001
0.21889524 0.19532192 1.7680001
0.22226286 0.19532192 1.7680001
0.21889524 0.20205715 1.7680001
0.22659266 0.20494369 1.7679999
0.18690285 0.24920382 1.7680001
0.19532192 0.24920382 1.7680001
0.20879239 0.24920382 1.7680001
0.21216001 0.24752 1.7680001
0.18564001 0.25635999 1.7679999
0.19490096 0.25635999 1.7679999
0.20542477 0.25425524 1.7680001
0.21216001 0.25425524 1.7680001
0.18690287 0.2660419 1.768
0.19532192 0.2660419 1.7679999
0.20205715 0.26772571 1.7680001
0.057249527 0.27951241 1.7680001
0.18656608 0.27547127 1.768
0.19307685 0.27502224 1.7680001
0.20205715 0.27782857 1.7680001
0.10608 0.28624764 1.7680001
0.11449905 0.28961524 1.7680001
0.12460191 0.28961524 1.7680001
0.13470477 0.28961524 1.7680001
0.14649144 0.28961524 1.7680001
0.15547174 0.28737018 1.768
0.18634158 0.28680888 1.768
0.19532192 0.28737018 1.768
0.20205715 0.28624764 1.7680001
0.046024129 0.29747304 1.7680001
0.053881906 0.29803431 1.7680001
0.1077638 0.29635048 1.7680001
0.11449905 0.29635048 1.7679999
0.12347937 0.29747304 1.768
0.13470477 0.29971811 1.7680001
0.14615467 0.29702401 1.768
0.15266539 0.29747304 1.7680001
0.17848381 0.29803431 1.7680001
0.18521905 0.29635051 1.7679999
0.19532192 0.29635048 1.7679999
0.20407772 0.29635048 1.768
0.21328254 0.29859558 1.7680001
0.045462858 0.30813715 1.7680001
0.1077638 0.30645335 1.7680001
0.11449904 0.30645335 1.7679999
0.12460192 0.30645335 1.7679999
0.1341435 0.30589205 1.768
0.14396572 0.30476952 1.7680001
0.15154286 0.30308571 1.7680001
0.17848381 0.30308571 1.7680001
0.18564001 0.30603236 1.7679999
0.19532193 0.30645335 1.7679999
0.20542479 0.30645335 1.768
0.21418059 0.30712685 1.768
0.22394666 0.30982095 1.7680001
0.1077638 0.31655622 1.7680001
0.1140781 0.31655622 1.7679999
0.12460191 0.31655622 1.7679999
0.13403124 0.31722975 1.768
0.14346059 0.31790322 1.768
0.15154286 0.31992382 1.7680001
0.18723962 0.31588268 1.768
0.19532192 0.31655622 1.7679999
0.21552762 0.31318858 1.7680001
0.11113143 0.32329145 1.7680001
0.13358223 0.32553652 1.7680001
0.14480762 0.32665905 1.7680001
0.15406857 0.32581714 1.7680001
0.16501333 0.32665905 1.7680001
0.17595811 0.32581717 1.7680001
0.18521905 0.32497525 1.768
0.19532192 0.32329145 1.7680001
0.087558098 0.33339429 1.7680001
0.094293334 0.33339429 1.7679999
0.10439619 0.33676192 1.7680001
0.12527543 0.33541489 1.768
0.13518585 0.33435649 1.7679999
0.14480762 0.33339429 1.7679999
0.15491048 0.33339432 1.7679999
0.16501336 0.33339429 1.7679999
0.1751162 0.33339429 1.7679999
0.18521903 0.33339429 1.7679999
0.19532192 0.33541486 1.768
0.20317967 0.33563939 1.7680001
-0.28288001 0.34686476 1.7680001
0.016838096 0.34686476 1.7680001
0.087558098 0.34012952 1.7680001
0.094293334 0.34215009 1.768
0.12556408 0.34397823 1.7679999
0.13470477 0.34349716 1.7679999
0.14480762 0.34349713 1.7679999
0.15533143 0.34307623 1.7679999
0.16501336 0.34349716 1.7679999
0.1751162 0.34349719 1.7679999
0.18521905 0.34349716 1.7679999
0.19532192 0.34349719 1.7679999
0.20542476 0.34349713 1.7679999
0.21456544 0.34349713 1.7679999
0.22394666 0.34349716 1.7680001
-0.28288001 0.35191619 1.7680001
0.016838096 0.35360003 1.7680001
0.054555427 0.35562056 1.768
0.063142858 0.35612571 1.7680001
0.11786667 0.35360003 1.7680001
0.12460191 0.3536 1.7679999
0.13470477 0.35360003 1.7679999
0.14480762 0.35360003 1.7679999
0.15491049 0.35360003 1.7679999
0.16389079 0.35416129 1.768
0.17469525 0.35317907 1.7679999
0.18570015 0.35311893 1.7679999
0.19532192 0.35360003 1.768
0.20542479 0.35360003 1.7679999
0.21552762 0.35360003 1.7679999
0.22394668 0.35360003 1.768
0.015996192 0.36454475 1.7680001
0.023092246 0.36466506 1.7679999
0.033114921 0.36426413 1.768
0.044260141 0.36466506 1.7679999
0.053881906 0.36370286 1.7679999
0.063984767 0.36370286 1.7679999
0.071842544 0.36145779 1.7680001
0.10776381 0.36538666 1.7680001
0.11449905 0.36504993 1.768
0.12460191 0.36370286 1.7679999
0.13470477 0.36370283 1.7679999
0.14480762 0.36370289 1.7679999
0.15491048 0.36370289 1.7679999
0.16501336 0.36370289 1.7679999
0.17469524 0.36370292 1.7679999
0.18521905 0.3670705 1.7680001
0.19580302 0.36466506 1.7679999
0.20542476 0.36370286 1.7679999
0.21510667 0.36370286 1.7679999
0.22338539 0.36258033 1.7680001
0.02441524 0.3721219 1.7680001
0.033195104 0.37476787 1.7679999
0.043779053 0.37380573 1.7679999
0.053881906 0.37380576 1.7679999
0.063984767 0.37380573 1.7679999
0.073666669 0.37422666 1.7679999
0.084864005 0.3758263 1.768
0.094293334 0.37422669 1.7679999
0.10439619 0.37380576 1.7679999
0.11449905 0.37380573 1.7679999
0.12460191 0.37380573 1.7679999
0.13470477 0.3738057 1.7679999
0.14480762 0.37380573 1.7679999
0.15491049 0.37380576 1.7679999
0.16501333 0.37428683 1.7679999
0.17455493 0.374367 1.768
0.18521905 0.374367 1.768
0.19532192 0.37380576 1.7679999
0.20584574 0.37422669 1.7679999
0.21350706 0.37447923 1.768
0.026940953 0.3822248 1.7680001
0.03415728 0.3829464 1.7679999
0.043779053 0.38390857 1.7679999
0.053881906 0.38390857 1.7679999
0.063984759 0.38390854 1.7679999
0.07408762 0.38390857 1.7679999
0.084190473 0.38390854 1.7679999
0.094293334 0.3839086 1.7679999
0.10439619 0.38390857 1.7679999
0.11449905 0.3839086 1.7679999
0.12460191 0.38390854 1.7679999
0.13470477 0.3839086 1.7679999
0.14480762 0.38390854 1.7679999
0.15491048 0.38432953 1.7679999
0.16501334 0.38390857 1.7679999
0.1751162 0.38390854 1.7679999
0.18521906 0.38390857 1.7679999
0.19532192 0.3839086 1.7679999
0.20542479 0.3839086 1.7679999
0.21510667 0.38432953 1.7679999
0.22394666 0.3872762 1.7680001
0.035696764 0.39468497 1.768
0.043779053 0.3940115 1.7679999
0.053881906 0.39401144 1.7679999
0.063984767 0.39401147 1.7679999
0.07408762 0.39401144 1.7679999
0.084190473 0.39401147 1.7679999
0.094293326 0.39401147 1.7679999
0.10439619 0.3940115 1.7679999
0.11449905 0.39359051 1.7679999
0.12502287 0.39359051 1.7679999
0.13512573 0.39359051 1.7679999
0.14480764 0.39401147 1.7679999
0.15491048 0.39401147 1.7679999
0.16501334 0.39401147 1.7679999
0.1751162 0.39401144 1.7679999
0.18521905 0.39401147 1.7679999
0.19484082 0.39497367 1.7679999
0.20542479 0.39401147 1.7679999
0.21552761 0.3940115 1.7679999
0.22394666 0.39064384 1.7680001
0.025257144 0.40411431 1.7680001
0.035921272 0.40299177 1.7680001
0.040411431 0.40243047 1.7680001
0.053881906 0.40411428 1.7679999
0.063984767 0.40411428 1.7679999
0.07408762 0.40411428 1.7679999
0.08419048 0.40411428 1.7679999
0.094293334 0.40411428 1.7679999
0.10439619 0.40411428 1.7679999
0.11449905 0.40411428 1.7679999
0.13723049 0.40327239 1.7680001
0.14480762 0.40411428 1.7679999
0.15448952 0.40369332 1.7679999
0.16501334 0.40209371 1.768
0.1742743 0.40158859 1.7680001
0.18521905 0.40411431 1.7679999
0.19532192 0.40411428 1.7679999
0.20542479 0.40411428 1.7679999
0.21552761 0.40411425 1.7679999
0.22394668 0.40411428 1.768
-0.026940953 0.41421714 1.7680001
0.023573333 0.41590095 1.768
0.031431112 0.41646221 1.7680001
0.057249527 0.41590095 1.7680001
0.063984767 0.4142172 1.7679999
0.07408762 0.41421717 1.7679999
0.084190488 0.4142172 1.7679999
0.094293341 0.41421714 1.7679999
0.10439619 0.41421714 1.7679999
0.11449905 0.41421714 1.7679999
0.12418097 0.41463813 1.7679999
0.13807239 0.41084954 1.7680001
0.1457698 0.41373608 1.7679999
0.15491048 0.41421717 1.7679999
0.16501334 0.41421717 1.7680001
0.17680001 0.41421717 1.7680001
0.18564001 0.41379622 1.7679999
0.19532192 0.41421717 1.7679999
0.20542479 0.41379622 1.7679999
0.21510667 0.41421717 1.7679999
0.22226286 0.41421714 1.7680001
-0.026940951 0.42432001 1.7680001
-0.0067352382 0.42768764 1.7680001
0.024535511 0.42383891 1.7679999
0.033255242 0.42474094 1.7679999
0.040411431 0.42768764 1.7680001
0.055902481 0.42499352 1.768
0.063984767 0.42431998 1.7679999
0.07408762 0.42431998 1.7679999
0.08419048 0.42431998 1.7679999
0.094293334 0.42432001 1.7679999
0.10439619 0.42431998 1.7679999
0.11449905 0.42432001 1.7679999
0.12460192 0.42432001 1.768
0.14649142 0.42432001 1.768
0.15533143 0.42389905 1.7679999
0.16501336 0.42431998 1.7679999
0.17399366 0.42432001 1.768
0.18690285 0.42095241 1.7680001
0.19574286 0.42389905 1.7679999
0.20584571 0.42389905 1.7679999
0.21510667 0.42389905 1.7679999
0.0067352382 0.43779048 1.7680001
0.016838096 0.43779048 1.7680001
0.023573335 0.43442288 1.7679999
0.033676192 0.43442285 1.7679999
0.043217778 0.43554541 1.768
0.054302856 0.43484378 1.7679999
0.063984767 0.43442288 1.7679999
0.07408762 0.43442285 1.7679999
0.08419048 0.43442291 1.7679999
0.094293334 0.43442288 1.7679999
0.10439619 0.43442285 1.7679999
0.11449905 0.43442285 1.7679999
0.12460192 0.43442285 1.7679999
0.13302097 0.43610668 1.7680001
0.14528871 0.43538508 1.7679999
0.15491049 0.43442285 1.7679999
0.16501336 0.43442288 1.7679999
0.17511621 0.43442291 1.7679999
0.18858667 0.43610668 1.7680001
0.19628407 0.43490395 1.7679999
0.20542476 0.43442285 1.7679999
0.21510668 0.43484387 1.7679999
0.22226286 0.43442288 1.7680001
-0.023573333 0.44705147 1.7680001
-0.0067352382 0.44789335 1.7680001
0.014144001 0.44654632 1.768
0.023573335 0.44452572 1.7679999
0.033676192 0.44452572 1.7679999
0.043779053 0.44452572 1.7679999
0.053881902 0.44452572 1.7679999
0.063984767 0.44452572 1.7679999
0.07408762 0.44452572 1.7679999
0.084190473 0.44452572 1.7679999
0.094293341 0.44452572 1.7679999
0.10439619 0.44452572 1.7679999
0.11449905 0.44452572 1.7679999
0.12460191 0.44452572 1.7679999
0.13470477 0.44452572 1.7679999
0.14480762 0.44452572 1.7679999
0.15448953 0.44410476 1.7679999
0.16501336 0.44452572 1.7679999
0.1746351 0.44356352 1.7679999
0.18521905 0.44115812 1.7680001
0.19784763 0.4436838 1.7680001
0.20542476 0.44452572 1.7679999
0.21350706 0.44452572 1.768
-0.023152383 0.4542076 1.7679999
-0.014817524 0.45597562 1.768
-0.0067352382 0.45799622 1.7680001
0.0050514285 0.45799622 1.7680001
0.01389143 0.45504954 1.7679999
0.023573335 0.45462862 1.7679999
0.033676192 0.45462859 1.7679999
0.043779049 0.45260802 1.768
0.054844085 0.45414755 1.7679999
0.063142858 0.45294476 1.7680001
0.07492952 0.45210287 1.7680001
0.085313022 0.45350608 1.768
0.094293334 0.45462859 1.7679999
0.10439619 0.45462859 1.7679999
0.11449905 0.45462859 1.7679999
0.12418096 0.4542076 1.7679999
0.1324597 0.45350602 1.7680001
0.14548114 0.45260802 1.768
0.15491048 0.45294476 1.768
0.16405118 0.45414749 1.7679999
0.19868954 0.45462859 1.7680001
0.20542479 0.45126095 1.7680001
0.21384382 0.45126095 1.7680001
-0.023573337 0.46473148 1.7679999
-0.013470477 0.46473148 1.7679999
-0.0053881905 0.46540499 1.768
0.0037885718 0.46515241 1.7679999
0.013470477 0.46473143 1.7679999
0.023573335 0.46473143 1.7679999
0.033676192 0.46473143 1.7679999
0.044901591 0.46697652 1.7680001
0.054443177 0.46529272 1.768
0.060617145 0.46641526 1.7680001
0.08671619 0.46557334 1.7680001
0.094293326 0.46473148 1.7679999
0.10439619 0.46473143 1.7679999
0.11449905 0.46473143 1.7679999
0.12123429 0.46304762 1.7680001
0.16299278 0.46405792 1.768
0.18858667 0.46473145 1.7680001
0.19868954 0.46473145 1.7680001
-0.023573335 0.47525522 1.7679999
-0.013470477 0.47483429 1.7679999
-0.0047146669 0.47550783 1.768
0.0033676194 0.47483429 1.7679999
0.013470477 0.47483429 1.7679999
0.023573335 0.47483429 1.7679999
0.033195104 0.47483429 1.7679999
0.055565715 0.47399238 1.7680001
0.062637717 0.47483429 1.768
0.07492952 0.47567618 1.7680001
0.084190488 0.47483429 1.7679999
0.093451433 0.47230858 1.7680001
0.10495746 0.47427306 1.768
0.11449905 0.47483429 1.7679999
0.12258134 0.47550783 1.768
0.18858667 0.47651809 1.7680001
0.19448002 0.47736001 1.7680001
0.20542477 0.47820196 1.7680001
0.21552764 0.47820196 1.7680001
0.22394666 0.47483429 1.7680001
-0.023573333 0.48156953 1.7680001
-0.013470477 0.48451623 1.7679999
-0.0050514289 0.48493716 1.768
0.0033676191 0.48493719 1.7679999
0.013470476 0.48156953 1.7680001
0.022731429 0.48325336 1.7680001
0.030308573 0.48493716 1.7680001
0.043779049 0.48830476 1.7680001
0.055228956 0.48493713 1.768
0.063984767 0.48493719 1.7679999
0.07408762 0.48493719 1.7679999
0.08419048 0.48493719 1.7679999
0.094293334 0.48493719 1.7679999
0.10439619 0.48493713 1.7679999
0.11492001 0.48451623 1.7679999
0.12418096 0.48535812 1.7679999
0.13302097 0.48662096 1.7680001
0.18690285 0.48493716 1.7680001
0.19363812 0.48156953 1.7680001
0.20626667 0.48325336 1.7680001
0.21504654 0.48397499 1.7679999
0.22394668 0.48493716 1.768
-0.094293334 0.49840763 1.7680001
-0.024134604 0.49504003 1.768
-0.013470477 0.49504 1.7679999
-0.0050514289 0.49504003 1.768
0.0033676191 0.49504 1.7679999
0.014144001 0.49638706 1.768
0.022450795 0.49616256 1.768
0.034518097 0.49756572 1.7680001
0.04209524 0.49504003 1.768
0.056407623 0.49588192 1.7680001
0.063984759 0.49504 1.7679999
0.07408762 0.49504006 1.7679999
0.08419048 0.49504006 1.7679999
0.094774418 0.49407789 1.7679999
0.1039151 0.49407783 1.7679999
0.11562159 0.49391747 1.768
0.12460191 0.49504 1.7679999
0.1337426 0.4955211 1.7679999
0.20879239 0.4916724 1.7680001
0.21216001 0.49504 1.7680001
0.22563048 0.4916724 1.7680001
-0.10102858 0.50851047 1.7680001
-0.095977142 0.50682664 1.7680001
-0.023573335 0.50514287 1.7679999
-0.013470477 0.50514293 1.7679999
-0.0050514285 0.50514287 1.768
0.0033676191 0.50472194 1.7679999
0.01389143 0.50556386 1.7679999
0.023573335 0.50514293 1.7679999
0.033676192 0.50514293 1.7679999
0.043779053 0.50514293 1.7679999
0.055565715 0.50514293 1.768
0.064546041 0.50402033 1.768
0.07450857 0.50472194 1.7679999
0.084190488 0.50514293 1.7679999
0.090925716 0.50851047 1.7680001
0.11618286 0.50514287 1.768
0.12460191 0.50514293 1.7679999
0.1337426 0.505624 1.7679999
0.20879239 0.5034591 1.7680001
0.21552762 0.5034591 1.7680001
0.22226286 0.50514287 1.7680001
-0.023573335 0.51524568 1.7679999
-0.013470477 0.51524574 1.7679999
-0.005388191 0.51591927 1.768
0.0033676194 0.51692951 1.768
0.013470477 0.51524568 1.7679999
0.023573335 0.51524568 1.7679999
0.033676192 0.51524574 1.7679999
0.043358099 0.51524574 1.7679999
0.054844085 0.51476467 1.7679999
0.062300961 0.51524574 1.768
0.07450857 0.51566666 1.7679999
0.08376953 0.51524574 1.7679999
0.11786667 0.51356196 1.7680001
0.12460191 0.5135619 1.768
0.13302097 0.51187813 1.7680001
0.20879239 0.51524574 1.7680001
0.21552761 0.51692957 1.768
-0.023092246 0.52438647 1.7679999
-0.013470477 0.5253486 1.7679999
-0.0050514285 0.5253486 1.768
0.0033676194 0.52534866 1.7679999
0.013470477 0.5253486 1.7679999
0.023573335 0.5253486 1.7679999
0.045462858 0.521981 1.7680001
0.055565719 0.5253486 1.768
0.061964195 0.52467507 1.768
0.074568704 0.52438647 1.7679999
0.083348572 0.52282292 1.7680001
0.12460191 0.52703243 1.768
0.13302097 0.52871621 1.7680001
0.20879239 0.521981 1.7680001
0.21552762 0.52366483 1.7680001
0.22226286 0.5253486 1.7680001
-0.023152383 0.5358724 1.7679999
-0.013951565 0.53448921 1.7679999
-0.0056126988 0.5332064 1.7680001
0.0033676189 0.53208381 1.7680001
0.013470476 0.53545147 1.7679999
0.02289981 0.53477794 1.768
0.030308573 0.53545147 1.7680001
0.055902474 0.53477794 1.768
0.063984767 0.53448921 1.7679999
0.073666669 0.53503048 1.7679999
0.081945397 0.5332064 1.7680001
0.1229181 0.53208381 1.7680001
-0.023152383 0.54597527 1.7679999
-0.014593016 0.54667681 1.7680001
-0.0067352382 0.54892194 1.7680001
0.0033676191 0.54892194 1.7680001
0.013470477 0.54555434 1.7679999
0.023012064 0.54667687 1.768
0.030308573 0.54892194 1.7680001
-0.023573337 0.55565715 1.7679999
-0.012989388 0.55469495 1.7679999
-0.005388191 0.55633068 1.768
0.0016838096 0.55649906 1.7680001
0.011786667 0.55565715 1.768
0.024054423 0.55565715 1.7679999
0.030308573 0.55565715 1.7680001
0.072403811 0.55397332 1.7680001
-0.062300958 0.56912762 1.7680001
-0.053881906 0.56912762 1.7680001
-0.022226285 0.56643355 1.768
-0.013049525 0.566181 1.7679999
-0.0050514289 0.56576008 1.768
0 0.56576002 1.7680001
0.024134604 0.56463748 1.768
0.067352384 0.56744385 1.7680001
0.07408762 0.56672221 1.7679999
0.083067939 0.56688255 1.768
0.090925716 0.56744385 1.7680001
0.1751162 0.56463748 1.7680001
-0.061964195 0.57518935 1.768
-0.053881906 0.57682508 1.7679999
-0.043105524 0.57653642 1.768
-0.033676192 0.57682508 1.7679999
-0.023573333 0.57518935 1.768
-0.013049524 0.57544196 1.7679999
-0.0050514285 0.57417905 1.7680001
0.07408762 0.5754419 1.7679999
0.08376953 0.57628387 1.7679999
0.093619809 0.57720995 1.768
-0.060617145 0.58428192 1.7680001
-0.053400815 0.5850035 1.7679999
-0.044901591 0.58652705 1.768
-0.033676192 0.58596575 1.7679999
-0.023573335 0.58596569 1.7679999
-0.013470476 0.58596569 1.7679999
-0.0050514289 0.58596575 1.768
0.0037885718 0.58638668 1.7679999
0.084864005 0.58394516 1.768
0.093451425 0.58512378 1.7680001
0.21721144 0.58428192 1.7680001
-0.052759364 0.59494609 1.768
-0.04445257 0.59539509 1.768
-0.033676192 0.59270096 1.7680001
-0.022226285 0.59539509 1.768
-0.013049525 0.59564769 1.7679999
-0.0050514289 0.59606862 1.768
0.0033676189 0.59606862 1.7679999
0.012989389 0.59703076 1.7679999
0.021552762 0.59674215 1.768
0.094293334 0.59270096 1.7680001
-0.062300958 0.60701334 1.7680001
-0.053881902 0.60617137 1.7679999
-0.043779053 0.60617149 1.7679999
-0.034518097 0.60869718 1.7680001
-0.022450795 0.60617143 1.768
-0.0125083 0.60569036 1.7679999
-0.0050514289 0.60617143 1.768
0.0033676194 0.60617143 1.7679999
0.013470477 0.60617137 1.7679999
0.021889525 0.60617143 1.768
-0.072403811 0.6162743 1.768
-0.063984767 0.6162743 1.7679999
-0.053460956 0.61585337 1.7679999
-0.043358099 0.61585337 1.7679999
-0.034097143 0.61669523 1.7679999
-0.026940951 0.6162743 1.7680001
-0.010102858 0.61290669 1.7680001
-0.0050514289 0.6162743 1.768
0.0033676191 0.6162743 1.7679999
0.013470477 0.61627418 1.7679999
0.022611158 0.61675537 1.7679999
-0.15154286 0.62974477 1.7680001
-0.10439619 0.62806094 1.768
-0.094293334 0.62637717 1.7679999
-0.08419048 0.62974477 1.7680001
-0.072403811 0.62637717 1.768
-0.063984767 0.62637717 1.7679999
-0.050514288 0.62300956 1.7680001
-0.040411431 0.62300956 1.7680001
-0.024246858 0.6270507 1.768
-0.013470477 0.628061 1.768
-0.0050514289 0.62637717 1.768
0.0033676189 0.62637711 1.7679999
0.013470477 0.62637717 1.7679999
0.021889525 0.62721908 1.7680001
0.030308573 0.62974477 1.7680001
-0.15154286 0.63311243 1.7680001
-0.10355429 0.63395435 1.7680001
-0.094293341 0.6355179 1.7679999
-0.070720002 0.63311243 1.7680001
-0.063311242 0.6344595 1.768
-0.055565715 0.63648003 1.7680001
-0.040411431 0.63479626 1.7680001
-0.032834288 0.63479626 1.7680001
-0.023573335 0.63605911 1.7679999
-0.013470477 0.6347962 1.768
-0.0050514289 0.63648003 1.768
0.00084190478 0.63648003 1.7680001
0.021889525 0.63732195 1.7680001
0.030308573 0.63311243 1.7680001
-0.097660959 0.64826667 1.7680001
-0.080822863 0.6465829 1.7680001
-0.076108195 0.6465829 1.768
-0.030308573 0.64321524 1.7680001
-0.023573335 0.64321524 1.7680001
-0.013470476 0.64321524 1.7680001
-0.0050514285 0.64321524 1.7680001
0.0016838096 0.64321524 1.7680001
0.020205716 0.64321524 1.7680001
0.033676192 0.64321524 1.7680001
-0.20205715 0.65668571 1.7680001
-0.19532192 0.65556318 1.7680001
-0.18437715 0.65416002 1.7680001
-0.1751162 0.65668571 1.7680001
-0.16501336 0.65668571 1.7680001
-0.15491048 0.65500188 1.7680001
-0.21216001 0.66342098 1.7680001
-0.20205715 0.66005337 1.7680001
-0.19868954 0.66005337 1.7680001
-0.15827811 0.66005337 1.7680001
0.093080953 0.088003814 1.7770001
0.064310476 0.098158099 1.7770001
0.076157153 0.096465722 1.7770001
0.08631143 0.091388576 1.7770001
0.094773337 0.091388576 1.7770001
0.10323524 0.098158099 1.7770001
0.13877524 0.091388576 1.7770001
0.14216 0.091388576 1.7770001
-0.17713588 0.10605588 1.7770001
-0.1252362 0.10831239 1.7770001
-0.013539049 0.10267112 1.7770001
-0.006769524 0.10492762 1.7770001
-0.25385717 0.11169714 1.7770001
-0.24708763 0.11169714 1.7770001
0.1963162 0.34524572 1.7770001
0.17939238 0.35878477 1.7770001
0.18446952 0.35709238 1.7770001
0.1963162 0.3554 1.7770001
0.17939238 0.3655543 1.7770001
0.18616192 0.36513123 1.7770002
0.19462381 0.36216953 1.7770001
0.22170192 0.3655543 1.7770001
0.16585334 0.3740162 1.7770001
0.17713588 0.37458029 1.7770001
0.18616192 0.37458029 1.7770001
0.20308572 0.37232381 1.7770001
0.21662477 0.37232381 1.7770001
0.22339429 0.37570855 1.7770002
