# .PCD v0.7 - Point Cloud Data file format
VERSION 0.7
FIELDS x y z
SIZE 4 4 4
TYPE F F F
COUNT 1 1 1
WIDTH 1513
HEIGHT 1
VIEWPOINT 0 0 0 1 0 0 0
POINTS 1513
DATA ascii
-0.071866669 0.59780002 1.715
-0.064925 0.59494168 1.715
-0.058800001 0.59453338 1.715
0.13502222 0.59453338 1.715
0.14046668 0.59780002 1.715
-0.071866669 0.60433334 1.715
-0.065333337 0.60433334 1.715
-0.058800001 0.60106671 1.715
0.13556667 0.6027 1.715
-0.073173337 0.61478674 1.7149999
-0.065333337 0.61366665 1.715
-0.058800001 0.61250001 1.715
-0.071866669 0.62066668 1.715
-0.064244449 0.62284446 1.715
-0.058800001 0.62720001 1.715
0.1372 0.62230003 1.715
-0.062066671 0.63373333 1.715
-0.058800001 0.63373333 1.715
0.13556667 0.63536668 1.715
0.14046668 0.6304667 1.715
-0.094733335 0.64353335 1.715
-0.088200003 0.64026672 1.715
-0.062066671 0.64026672 1.715
-0.057493336 0.64418668 1.7149999
0.13611111 0.64244443 1.715
-0.055533335 0.65006667 1.715
-0.0392 0.65333337 1.715
-0.10338001 0.10830286 1.723
-0.095175244 0.10666192 1.723
0.009845715 0.10830286 1.723
0.018050477 0.10338001 1.723
0.026255237 0.10173905 1.723
0.068920001 0.10502096 1.723
0.12799428 0.10502096 1.723
0.13127619 0.10502096 1.723
0.14276287 0.10173905 1.723
0.15589049 0.10173905 1.723
0.16409524 0.10666192 1.723
-0.16081335 0.11814857 1.723
-0.15507001 0.1173281 1.723
-0.14440382 0.11486667 1.723
-0.13291714 0.11486667 1.723
-0.12536877 0.11289753 1.7229999
-0.11486667 0.11158476 1.723
0.16628318 0.11486667 1.723
-0.16245429 0.12471239 1.7229999
-0.15424952 0.12471239 1.7229998
-0.14768572 0.12471239 1.723
0.15753144 0.12799428 1.723
0.16327477 0.12225096 1.723
-0.16081335 0.1345581 1.723
-0.15424952 0.13455808 1.7229998
-0.14768572 0.1345581 1.723
0.15643747 0.1345581 1.723
0.16081335 0.13127619 1.723
-0.15424953 0.14440382 1.7229998
-0.14686523 0.14522429 1.723
0.15753144 0.14604476 1.723
-0.15424953 0.15424953 1.7229998
-0.14481404 0.15465976 1.7229998
-0.13510509 0.15424953 1.7229999
0.15753144 0.15424953 1.723
-0.15424953 0.16409522 1.7229998
-0.14440382 0.16409524 1.7229998
-0.13619906 0.16409524 1.723
0.15753144 0.16409524 1.723
-0.1520616 0.17612888 1.723
-0.14440382 0.17394096 1.7229998
-0.13619906 0.17065905 1.723
0.15671097 0.17394096 1.723
-0.15342906 0.18132524 1.723
-0.14440382 0.18378669 1.7229998
-0.13784 0.18706858 1.723
0.15621868 0.18444307 1.7229999
-0.15260857 0.19363239 1.723
-0.14276287 0.19363238 1.7229999
-0.13701953 0.19445287 1.723
0.15507001 0.19281192 1.723
-0.14194238 0.20265763 1.723
-0.13784 0.20676 1.723
0.1555623 0.20413446 1.7229999
-0.15096763 0.21988763 1.723
-0.14221588 0.21879365 1.723
-0.13578881 0.21455452 1.7229998
0.14768572 0.21988763 1.723
0.15352023 0.21441777 1.7229998
-0.14221589 0.22535747 1.723
-0.13549578 0.22692028 1.7229998
0.14768572 0.22645144 1.723
0.15096763 0.22645144 1.723
-0.14112191 0.23629715 1.723
-0.1345581 0.23629713 1.7229998
0.14659174 0.23410921 1.723
0.15178812 0.23711763 1.723
-0.14112191 0.24614286 1.723
-0.1345581 0.24614286 1.7229998
0.14768572 0.24614286 1.723
0.15096763 0.24614286 1.723
-0.14112191 0.2559886 1.723
-0.1340111 0.25489461 1.7229999
0.14768572 0.25434762 1.723
0.15096763 0.2559886 1.723
-0.14112191 0.26419336 1.723
-0.13362041 0.2658343 1.7229998
-0.12799428 0.26747525 1.723
0.14768572 0.2658343 1.723
0.15096763 0.2658343 1.723
-0.13127619 0.27568004 1.723
-0.12512262 0.27609026 1.7229998
-0.11814857 0.27896193 1.723
0.1517881 0.27650049 1.723
-0.13291714 0.28552574 1.7229999
-0.12471238 0.28552571 1.7229998
-0.11814857 0.28224382 1.723
0.15424953 0.28716668 1.723
-0.13291715 0.29537141 1.7229999
-0.12471239 0.29537141 1.7229998
0.15424953 0.29537144 1.723
-0.13346413 0.30412319 1.7229999
-0.12471239 0.30521715 1.7229998
0.15178812 0.30439669 1.723
-0.13127619 0.31506288 1.723
-0.12512262 0.31506288 1.7229998
0.14686523 0.31588334 1.723
0.15096763 0.31506288 1.723
-0.13209666 0.3240881 1.723
-0.12471239 0.32490861 1.7229998
-0.1170546 0.32709649 1.723
0.14604476 0.32490858 1.7229999
-0.13346413 0.33584824 1.723
-0.12430214 0.33475429 1.7229998
-0.11650762 0.33475432 1.7229999
0.14571658 0.33475429 1.7229999
-0.1345581 0.34459999 1.7229998
-0.12471239 0.34460002 1.7229998
-0.11486667 0.34459999 1.7229998
-0.10830286 0.34624097 1.723
0.14440382 0.34459999 1.723
-0.13127619 0.35280478 1.723
-0.12471239 0.35444573 1.7229998
-0.11527691 0.3544457 1.7229998
-0.10830286 0.35772765 1.723
0.14768572 0.35444576 1.723
-0.12361842 0.36319748 1.7229999
-0.11650762 0.36429143 1.723
0.14768572 0.36429143 1.723
-0.12225096 0.37495762 1.723
-0.11814857 0.37249619 1.723
0.14686523 0.37495762 1.723
-0.13127619 0.3839829 1.723
-0.12471239 0.38398287 1.7229998
-0.11552306 0.385952 1.7229999
-0.10666192 0.38726479 1.723
0.14686523 0.38316241 1.723
-0.13258895 0.39382857 1.7229999
-0.12471239 0.39382857 1.7229998
-0.11486667 0.39382863 1.7229998
-0.10502096 0.3938286 1.7229998
-0.09845715 0.39711049 1.723
0.14686523 0.3938286 1.723
0.15096763 0.39382857 1.723
-0.13209666 0.40449479 1.723
-0.12512262 0.40367427 1.7229998
-0.11486667 0.4036743 1.7229998
-0.10502096 0.40367427 1.7229998
-0.09845715 0.40039238 1.723
0.14686523 0.4036743 1.723
0.15096763 0.4069562 1.723
-0.13127619 0.41023812 1.723
-0.12536877 0.41155085 1.7229999
-0.11486667 0.41352001 1.7229998
-0.1054312 0.41310981 1.7229998
0.14768572 0.41352001 1.723
-0.11363596 0.42377597 1.7229998
-0.1054312 0.42705789 1.7229998
-0.09845715 0.42992955 1.723
0.14768572 0.42500669 1.723
-0.11486667 0.43813431 1.7229999
-0.10502096 0.43649334 1.7229998
-0.09845715 0.43649337 1.723
0.14637294 0.43714976 1.7229999
-0.12143048 0.44633907 1.723
-0.11392899 0.44587022 1.7229998
-0.10502096 0.44633907 1.7229998
-0.095175244 0.44633907 1.7229998
0.14549778 0.44688603 1.7229999
-0.11322571 0.45454383 1.723
-0.10502096 0.45618474 1.7229998
-0.09558548 0.45577452 1.7229998
0.13784 0.45782572 1.723
0.14346613 0.45571592 1.7229998
-0.11158476 0.46603048 1.723
-0.10502096 0.46603048 1.7229998
-0.095175244 0.46603048 1.7229998
-0.088611431 0.46767145 1.723
0.13784 0.46438953 1.723
0.14276287 0.46603051 1.7229999
-0.11322572 0.47587621 1.7229999
-0.10502096 0.47587621 1.7229998
-0.095175244 0.47587621 1.7229998
-0.087298669 0.47521982 1.7229999
0.14385684 0.47587621 1.7229999
-0.11392898 0.48572192 1.7229998
-0.10502096 0.48572192 1.7229998
-0.095175244 0.48572195 1.7229998
-0.087790951 0.48572192 1.723
0.14440382 0.48572192 1.723
-0.11322571 0.49228573 1.723
-0.10502096 0.49359852 1.7229999
-0.095175244 0.49556765 1.7229998
-0.088611431 0.49556762 1.723
0.13784 0.49884954 1.723
0.14276285 0.49556768 1.7229999
-0.094765007 0.50541329 1.7229998
-0.087790951 0.50541335 1.723
0.14112191 0.50541335 1.723
-0.10338 0.51525909 1.7229999
-0.095175244 0.51525903 1.7229998
-0.087790951 0.51607955 1.723
0.14112191 0.51525909 1.723
-0.10338 0.52510482 1.7229999
-0.095175244 0.52510476 1.7229998
-0.087790951 0.5242843 1.723
0.13784 0.52674574 1.723
0.14440382 0.52510476 1.723
-0.10305182 0.53495049 1.7229999
-0.095175244 0.53495049 1.7229998
-0.087298669 0.53560686 1.7229999
0.13784 0.53495049 1.723
0.14112191 0.53495049 1.723
-0.10338 0.54479617 1.7229999
-0.095175236 0.54479623 1.7229998
-0.086970478 0.54479617 1.7229999
-0.07876572 0.54643714 1.723
0.13784 0.54479623 1.723
0.14221589 0.54479617 1.723
-0.10408328 0.5546419 1.7229998
-0.095175251 0.5542317 1.7229998
-0.085739762 0.55505216 1.7229998
-0.07876572 0.5546419 1.723
0.14309105 0.5546419 1.7229999
-0.10305182 0.56383127 1.7229999
-0.095175244 0.5644877 1.7229999
-0.085329525 0.5644877 1.7229998
-0.077452958 0.56514406 1.7229999
0.13784 0.56612861 1.723
0.14112191 0.56448764 1.723
-0.10173905 0.57105148 1.723
-0.093534291 0.57351291 1.723
-0.085329525 0.57433337 1.7229998
-0.076577783 0.57542735 1.7229999
-0.068920001 0.57761526 1.723
0.13784 0.57433337 1.723
0.14194238 0.57433337 1.723
-0.10502096 0.58417904 1.7229998
-0.095175244 0.58417904 1.7229998
-0.085329533 0.5841791 1.7229998
-0.075894058 0.58376878 1.7229998
-0.068920001 0.58253813 1.723
0.13784 0.58417904 1.723
0.14112191 0.58253813 1.723
-0.10502096 0.59402478 1.7229998
-0.094765007 0.59443504 1.7229998
-0.085329525 0.59402478 1.7229998
-0.075483814 0.59402484 1.7229998
-0.068920001 0.59402478 1.723
0.13784 0.59402478 1.723
0.14112191 0.59402484 1.723
-0.10502096 0.60058862 1.723
-0.095175244 0.60058862 1.723
-0.083360381 0.60321414 1.7229999
-0.077124767 0.60387051 1.7229999
0.14385684 0.60387057 1.7229999
-0.082047619 0.61699814 1.723
-0.077452958 0.61305982 1.7229999
0.14481404 0.61371619 1.7229998
-0.082047619 0.62028003 1.723
-0.076304287 0.62356186 1.723
-0.068920001 0.62684381 1.723
0.14194238 0.62274146 1.723
-0.093534291 0.63997144 1.723
-0.086149998 0.63915098 1.723
-0.072201908 0.63504857 1.723
-0.067279041 0.63504857 1.7229998
0.13784 0.63340765 1.723
0.14309105 0.63734591 1.7229999
0.15359315 0.63800228 1.7229999
-0.095175244 0.64325339 1.723
-0.083688572 0.64325339 1.723
-0.074171051 0.64653528 1.7229999
-0.065091111 0.64653528 1.7229999
0.13784 0.64653528 1.723
0.14440382 0.64653528 1.7229998
0.1520616 0.64434737 1.723
-0.063997142 0.65309906 1.723
0.019794287 0.098971434 1.7320001
0.026392384 0.098971434 1.732
0.15670477 0.098971434 1.7320001
-0.16165334 0.10886858 1.7320001
-0.1583543 0.10886858 1.7320001
-0.12536381 0.10886858 1.732
-0.11546667 0.10886858 1.7320001
-0.10886858 0.10886858 1.7320001
0.014845715 0.10392 1.7320001
0.069280006 0.10227048 1.7320001
0.11876572 0.10556953 1.7320001
0.12536381 0.10556953 1.7320001
0.13856001 0.10227048 1.7320001
0.16577716 0.10474476 1.7320001
-0.17484953 0.11876572 1.7320001
-0.16412762 0.11629143 1.7320001
-0.15505524 0.11381714 1.7320001
-0.1451581 0.11216763 1.732
-0.13526095 0.1132673 1.732
0.16825144 0.11216763 1.7320001
0.17155047 0.11546668 1.732
-0.17374985 0.12316445 1.732
-0.16825144 0.12536381 1.732
0.1649524 0.12701334 1.7320001
0.17155048 0.12206477 1.7320001
-0.17265017 0.13636065 1.732
-0.16660191 0.13526095 1.7320002
0.1583543 0.13526095 1.7320001
0.16330287 0.13526095 1.7320001
-0.16454001 0.14474572 1.7320002
0.1583543 0.14185905 1.7320001
0.16165334 0.14515811 1.732
-0.16454001 0.15546763 1.7320002
0.16165334 0.15670477 1.7320001
-0.16330287 0.1649524 1.7320002
0.16165334 0.16660191 1.7320001
-0.16330287 0.17484953 1.7320002
-0.15615492 0.17374985 1.7320002
0.16330287 0.17484953 1.7320002
-0.16330287 0.18144763 1.7320001
-0.15505525 0.1863962 1.7320001
0.1624781 0.18392192 1.7320001
-0.15439543 0.19530363 1.7320001
-0.14845715 0.19464381 1.732
0.1583543 0.19629334 1.7320001
0.16297296 0.19464383 1.7320001
-0.15464287 0.20412856 1.7320002
-0.14713754 0.20520076 1.7320001
0.1583543 0.20124191 1.7320001
0.16330287 0.20454097 1.7320002
-0.15464287 0.2148505 1.7320002
-0.14557047 0.21402574 1.7320002
0.1583543 0.21113905 1.7320001
0.16330287 0.21443813 1.7320002
-0.15439543 0.22367544 1.7320001
-0.14647773 0.22565487 1.7320001
0.15670477 0.22433525 1.7320002
0.16297296 0.22367544 1.7320001
-0.1517562 0.23258287 1.7320001
-0.14680763 0.23423238 1.7320002
0.15670477 0.23423241 1.7320002
0.16165334 0.2342324 1.7320001
-0.14680763 0.24412954 1.7320002
0.15703467 0.24478936 1.7320001
0.16330287 0.24083048 1.7320001
-0.1517562 0.25567621 1.7320001
-0.14680763 0.25402668 1.7320002
-0.13856001 0.25732571 1.7320001
0.15670477 0.25402668 1.7320002
0.16165334 0.25402665 1.7320001
-0.16165334 0.26722288 1.7320001
-0.15423048 0.26639813 1.7320001
-0.14680763 0.26392382 1.7320002
-0.13856001 0.2622743 1.7320001
0.15637486 0.26326403 1.7320001
-0.16165334 0.27052191 1.7320001
-0.1517562 0.27382097 1.732
-0.14515811 0.273821 1.7320002
-0.13724038 0.27448076 1.7320001
0.15637486 0.27382097 1.7320001
-0.1517562 0.28371811 1.732
-0.1451581 0.28371811 1.7320002
-0.13773525 0.28289336 1.7320001
0.15725462 0.28481779 1.732
-0.1517562 0.29361525 1.732
-0.14468682 0.29267266 1.7320002
-0.13856001 0.29361525 1.732
0.1583543 0.29361525 1.732
-0.1517562 0.30186287 1.7320001
-0.14474572 0.3039248 1.7320002
-0.13856001 0.30351239 1.7320001
0.15752953 0.30433714 1.7320001
-0.14268382 0.31258476 1.7320001
-0.13691048 0.31340954 1.7320002
0.15560508 0.31340954 1.7320002
-0.14327295 0.32566315 1.7320002
-0.13714613 0.32519183 1.7320002
0.1517562 0.32495618 1.7320001
-0.14421551 0.33697414 1.7320002
-0.13581081 0.33595303 1.7320002
-0.12866285 0.33650288 1.7320001
0.14845715 0.33650288 1.7320001
0.1517562 0.33650288 1.732
-0.1517562 0.34804952 1.7320001
-0.14515811 0.34639999 1.7320002
0.14845715 0.34640002 1.732
0.1517562 0.34640002 1.732
-0.1517562 0.35464764 1.7320001
-0.14474572 0.35588479 1.7320002
-0.13620354 0.35676846 1.7320002
0.1517562 0.35629714 1.732
-0.13416128 0.36509463 1.7320002
-0.12756316 0.36839366 1.732
0.15307581 0.36685413 1.7320001
-0.13196191 0.37609142 1.7320001
-0.12734322 0.37543163 1.7320001
0.15307581 0.37609142 1.7320001
-0.13526095 0.38598859 1.732
0.15340571 0.38598856 1.7320002
-0.13691048 0.39753526 1.7320001
0.15423048 0.39588571 1.7320001
-0.13724038 0.40512308 1.7320001
-0.12206477 0.40578288 1.7320001
0.15373562 0.40512305 1.7320001
-0.13471113 0.41568002 1.7320002
-0.12453905 0.4181543 1.7320001
0.15340571 0.41568002 1.7320002
-0.12646349 0.42447749 1.732
-0.11876572 0.42722666 1.7320001
0.14845715 0.42722666 1.7320001
0.15258096 0.42475241 1.7320001
-0.12371429 0.43877336 1.7320001
-0.11612648 0.43415469 1.7320001
0.15340573 0.43547431 1.7320002
-0.12536381 0.44490013 1.7320002
-0.11876572 0.44867051 1.7320001
0.15258095 0.44619623 1.7320001
-0.12442124 0.45479733 1.7320002
-0.11876572 0.45526859 1.732
0.14845715 0.45856765 1.7320001
0.15258096 0.45444381 1.7320001
-0.11546667 0.4651657 1.7320001
0.14845715 0.46516573 1.732
0.1517562 0.46516573 1.732
-0.11794096 0.47423813 1.7320001
0.14845715 0.47506288 1.7320001
0.1517562 0.47506288 1.732
-0.12206477 0.48495999 1.732
-0.11876572 0.48331049 1.7320001
0.14845715 0.48495999 1.732
0.1517562 0.48495999 1.732
-0.12316445 0.49265778 1.732
-0.11629143 0.49568191 1.7320001
-0.10556953 0.49815622 1.7320001
0.14845715 0.49485716 1.732
0.1517562 0.49485716 1.7320001
-0.11216763 0.5047543 1.732
-0.10556953 0.5047543 1.7320002
-0.098971434 0.50805336 1.7320001
0.14713754 0.50541413 1.7320001
0.1517562 0.50145525 1.7320001
-0.11216763 0.51465142 1.7320001
-0.10688914 0.51333177 1.7320001
0.14647773 0.51531124 1.7320001
0.15285589 0.51685077 1.732
-0.11381715 0.52454859 1.7320002
-0.10886858 0.52454859 1.732
0.14735746 0.52234918 1.732
0.15340573 0.52454859 1.7320001
-0.11348724 0.53510559 1.7320001
-0.10804382 0.53527051 1.7320001
0.14680763 0.53444576 1.7320002
-0.11299239 0.54351813 1.7320001
-0.10886858 0.54434294 1.732
0.14680763 0.54351813 1.7320001
-0.11216763 0.55424005 1.732
-0.10886858 0.55259049 1.7320001
0.14763239 0.55341524 1.7320001
0.1517562 0.55753905 1.7320001
-0.11216763 0.56413716 1.732
-0.10886858 0.56413716 1.732
-0.095672391 0.56413716 1.732
0.14713754 0.56479698 1.7320001
0.1517562 0.5624876 1.7320001
-0.10651212 0.57450563 1.7320002
-0.096497148 0.57485908 1.7320001
0.14680763 0.57238483 1.7320001
-0.11381715 0.5872305 1.7320001
-0.10556952 0.58063239 1.732
-0.097321913 0.58063239 1.7320001
0.14598286 0.5847562 1.7320001
-0.11299238 0.59382862 1.7320001
-0.098971434 0.59382862 1.7320001
0.14610069 0.59335726 1.7320002
-0.11216763 0.60207617 1.7320001
-0.10556953 0.60620004 1.7320001
-0.095672391 0.60702479 1.732
-0.089074291 0.60537529 1.7320001
0.14735746 0.60262603 1.732
0.1517562 0.60537529 1.7320001
-0.10392 0.61032385 1.7320001
-0.095672376 0.61032385 1.732
-0.086187623 0.61403525 1.7320002
0.14845715 0.61032385 1.7320001
0.15258096 0.61444765 1.7320001
-0.085775241 0.62352002 1.7320001
0.14735746 0.62571937 1.732
0.15307581 0.62286025 1.7320001
0.16825144 0.62681907 1.7320001
0.17155048 0.62681907 1.7320001
-0.095672376 0.63671619 1.732
-0.085775241 0.63341725 1.7320002
-0.075878099 0.63341713 1.732
0.14680763 0.63341719 1.7320002
0.15395556 0.63341713 1.7320002
0.16495238 0.63341713 1.732
-0.10227048 0.64496386 1.7320001
-0.096497148 0.64083999 1.7320001
-0.084125713 0.64001524 1.7320001
-0.077197716 0.64397413 1.7320001
-0.069280006 0.64991242 1.7320001
0.14680763 0.64001524 1.7320001
0.15670477 0.64001524 1.7320001
-0.069280006 0.65321147 1.7320001
0.016580952 0.099485718 1.7410001
0.15254477 0.099485718 1.7410001
0.16415143 0.099485718 1.7410001
-0.16470413 0.10722349 1.7410001
-0.15365016 0.1083289 1.7410001
-0.14674143 0.10860524 1.7410001
-0.13430572 0.10943429 1.7410001
-0.11440857 0.10777619 1.7410001
-0.1061181 0.1061181 1.7410001
0.12933144 0.10280191 1.7410001
0.13596381 0.10280191 1.7410001
0.16912572 0.10280191 1.7410001
0.17244191 0.10777619 1.7410001
-0.19233905 0.11938286 1.7410001
-0.18570668 0.11938286 1.7410001
-0.17443162 0.1167299 1.7409999
-0.16746762 0.11440857 1.7410001
-0.15254477 0.11275048 1.7410001
-0.13928001 0.11275048 1.7410001
0.17575811 0.11606667 1.7410001
-0.19233905 0.12435715 1.7410001
-0.1843802 0.125352 1.7409999
-0.17575809 0.12667848 1.7409999
0.16912572 0.12933144 1.7410001
0.17410001 0.12435715 1.7410001
-0.18239048 0.13762191 1.7410001
-0.17575811 0.13706921 1.7410001
0.16829668 0.13679287 1.7410001
0.17244191 0.13264762 1.7410001
-0.17534359 0.14549786 1.7410001
-0.16912572 0.14922857 1.7410001
0.16580953 0.14591238 1.7410001
-0.17481063 0.15633471 1.7410001
-0.16912572 0.15254477 1.7410001
0.16498047 0.15503192 1.7410001
-0.17465271 0.16636223 1.7410001
-0.16912572 0.16580953 1.7410001
0.16580953 0.16580953 1.7409999
-0.17509487 0.17376839 1.7409999
-0.16912572 0.17575811 1.7410001
0.16912572 0.17741621 1.7410001
-0.16580953 0.18625937 1.7410001
-0.15917715 0.18902287 1.7410001
0.16580953 0.18736477 1.7410001
-0.17410001 0.19565524 1.7410001
-0.16486204 0.19612899 1.7410001
-0.15917715 0.19399714 1.7410001
0.16580953 0.19565524 1.7410001
-0.17244191 0.20228763 1.7410001
-0.16580953 0.20560382 1.7410001
-0.15917715 0.20892 1.7410001
0.16912572 0.20560382 1.7410001
-0.17244191 0.21886858 1.7410001
-0.16580953 0.21555239 1.7410001
-0.15917715 0.2122362 1.7410001
0.16912572 0.21555239 1.7410001
0.17244191 0.21886858 1.7410001
-0.17244191 0.22550096 1.7410001
-0.16470413 0.22439557 1.7410001
-0.15807176 0.22771175 1.7410001
0.16829668 0.22633001 1.7410001
-0.16249333 0.23544954 1.7410001
-0.15680845 0.23592329 1.7410001
0.16580953 0.2347863 1.7409999
-0.15586096 0.2453981 1.7410001
0.16514629 0.24606135 1.7409999
-0.16470413 0.25755748 1.7410001
-0.15680845 0.25487295 1.7410001
0.16470413 0.25424129 1.7410001
-0.16448304 0.26463202 1.7409999
-0.15652421 0.26330552 1.7409999
0.15917715 0.26861143 1.7410001
0.16249333 0.26529524 1.7410001
-0.16580953 0.27524382 1.7410001
-0.15751906 0.27524379 1.7410001
0.15917715 0.27524382 1.7410001
-0.16580953 0.28471866 1.7410001
-0.15751906 0.2851924 1.7410001
0.15917715 0.28187621 1.7410001
0.16249333 0.28685051 1.7410001
-0.15669 0.29431191 1.7410001
-0.14757048 0.29845715 1.7410001
0.16249333 0.29514095 1.7410001
-0.15680845 0.30556327 1.7410001
-0.14922857 0.30177334 1.7410001
0.16249333 0.3050895 1.7410001
-0.15420286 0.31503811 1.7410001
-0.1479021 0.31570134 1.7409999
0.15917715 0.31503811 1.7410001
0.16249333 0.31503811 1.7410001
-0.15420286 0.3249867 1.7410001
-0.14839953 0.32415766 1.7410001
0.15718743 0.32432345 1.7409999
-0.15387124 0.33559847 1.7409999
-0.14922857 0.33493528 1.7410001
0.15586096 0.33493522 1.7410001
-0.15453449 0.34422058 1.7409999
0.15586096 0.34488383 1.7410001
-0.15586096 0.35483241 1.7410001
0.15669 0.35483241 1.7410001
-0.15475555 0.36533368 1.7410001
-0.14638613 0.36572844 1.7410001
-0.13928001 0.36809716 1.7410001
0.15586096 0.36312288 1.7410001
-0.15420286 0.37472954 1.7410001
-0.14591238 0.37472951 1.7410001
-0.1369113 0.37520331 1.7410001
0.15586096 0.37804574 1.7410001
-0.15254477 0.38302001 1.7410001
-0.14591239 0.3846781 1.7410001
-0.13845097 0.38384908 1.7410001
-0.14549786 0.39421213 1.7410001
-0.13928001 0.39462671 1.7410001
0.15917715 0.39462665 1.7410001
0.16249333 0.39462668 1.7410001
-0.14425428 0.40457526 1.7410001
0.15917715 0.40457526 1.7410001
-0.14591238 0.41452384 1.7410001
-0.13928001 0.41784 1.7410001
0.15917715 0.41120765 1.7410001
-0.14591239 0.4222616 1.7410001
-0.13596381 0.42502511 1.7410001
-0.12601525 0.42695954 1.7410001
0.15807176 0.42447242 1.7410001
-0.13264762 0.43110478 1.7410001
-0.12560073 0.43483552 1.7410001
0.15807176 0.43221018 1.7410001
0.16249333 0.43442097 1.7410001
-0.13264762 0.44436955 1.7410001
-0.12933144 0.44436955 1.7410001
0.15586096 0.44602764 1.7410001
-0.13397411 0.45498139 1.7409999
-0.12933144 0.4576343 1.7410001
0.15807176 0.45431814 1.7410001
-0.13264762 0.46095049 1.7410001
-0.12601523 0.4648194 1.7410001
-0.11938286 0.4659248 1.7410001
0.15586096 0.46426669 1.7410001
-0.12435714 0.47421527 1.7410001
0.15696636 0.47310987 1.7410001
-0.1251862 0.48333478 1.7410001
0.15586096 0.48416385 1.7410001
-0.12767334 0.49494144 1.7410001
0.15254477 0.4974286 1.7410001
-0.12435715 0.50074476 1.7410001
-0.11717206 0.50406098 1.7410001
0.15503192 0.50489002 1.7410001
-0.11496127 0.51400954 1.7410001
0.14922857 0.51400954 1.7410001
0.15530826 0.51400954 1.7410001
-0.12269905 0.52727431 1.7410001
-0.11827746 0.52395809 1.7410001
0.15669 0.52478719 1.7410001
-0.12269905 0.5339067 1.7410001
-0.11855381 0.5339067 1.7410001
0.15365016 0.53501207 1.7410001
-0.12402554 0.54319203 1.7409999
-0.11855381 0.54468429 1.7410001
0.14922857 0.54717147 1.7410001
0.15254477 0.54385525 1.7410001
-0.11772475 0.5538038 1.7410001
0.15337381 0.5546329 1.7410001
-0.11772477 0.56375241 1.7410001
0.15586096 0.56375241 1.7410001
-0.11855381 0.57287192 1.7410001
0.15254477 0.57370096 1.7410001
-0.11606666 0.58364952 1.7410001
0.14922857 0.58364952 1.7410001
0.15254477 0.58033335 1.7410001
-0.12269905 0.59359813 1.7410001
-0.11855381 0.59359813 1.7410001
0.15254477 0.59691429 1.7410001
-0.11689571 0.60271764 1.7410001
0.15365016 0.60354668 1.7410001
-0.11275048 0.61183715 1.7410001
-0.10694715 0.61598241 1.7410001
-0.096169531 0.61681145 1.7410001
0.15669 0.61432433 1.7410001
-0.10390731 0.62123305 1.7410001
-0.096169524 0.62344384 1.7410001
-0.089537144 0.62676001 1.7410001
0.15917715 0.62344384 1.7410001
-0.10280191 0.63670862 1.7410001
-0.095222048 0.63386619 1.7410001
-0.089537144 0.63007623 1.7410001
-0.079588577 0.63505054 1.7410001
0.15834811 0.63256335 1.7410001
0.16415143 0.63339239 1.7410001
-0.10501269 0.64389372 1.7410001
-0.079588577 0.64168286 1.7410001
0.13066858 0.097163811 1.7590001
0.16417335 0.097163819 1.7590002
0.17254953 0.097163811 1.7590001
-0.21108001 0.10721524 1.7590001
-0.14381905 0.10703238 1.756
-0.13378477 0.10703238 1.756
-0.12532571 0.10694095 1.7545002
-0.11556991 0.1055459 1.7536001
-0.10166667 0.10666667 1.7500001
0.0067009525 0.10721524 1.7590001
0.011696667 0.10359477 1.7545002
0.083333336 0.10333334 1.7500001
0.095488578 0.10051429 1.7590001
0.10051429 0.10218953 1.7590001
0.11640254 0.10136826 1.7545
0.12479695 0.10276953 1.7518002
0.13368048 0.10109048 1.7545
0.14407048 0.10051429 1.7590002
0.15000001 0.1 1.7500001
0.17459588 0.10230795 1.7515001
0.18331893 0.10434341 1.7589999
0.19097716 0.10721524 1.7590001
-0.22113144 0.11559144 1.7590001
-0.21344593 0.11489778 1.757
-0.20394479 0.11533713 1.7552501
-0.19466597 0.11528929 1.7545
-0.18368691 0.11521643 1.7533751
-0.17439382 0.11097477 1.7522501
-0.14 0.11000001 1.7500001
0.17666668 0.11000001 1.7500001
0.1838574 0.11349739 1.7589999
0.19097716 0.11056572 1.7590001
-0.22247164 0.12329753 1.7590001
-0.21484929 0.12438644 1.7589999
-0.20351048 0.12510572 1.7515001
-0.19444446 0.12555556 1.7500001
-0.18666667 0.12333333 1.7500001
0.17666668 0.12666667 1.7500001
0.18260096 0.12396762 1.7589999
-0.2144305 0.13401905 1.7589999
-0.20356955 0.13348763 1.7520001
-0.19344383 0.13340953 1.751
-0.18333332 0.13333334 1.7500001
-0.17666668 0.13333334 1.7500001
0.17551506 0.1334739 1.7518002
0.18275087 0.13254514 1.7572
-0.2144305 0.14407049 1.7589999
-0.2041505 0.14390859 1.757
-0.19333336 0.14333333 1.7500001
-0.18533334 0.14400001 1.7500002
0.17431358 0.14421287 1.755625
-0.21443047 0.15412191 1.7589999
-0.20437907 0.15412191 1.7589999
-0.19355813 0.15351047 1.7520001
-0.18333334 0.15333332 1.7500001
0.1730177 0.15389906 1.7564286
-0.21401167 0.16375454 1.7589999
-0.20437907 0.16417333 1.7589999
-0.19344574 0.16342859 1.751
-0.18375 0.16375001 1.7500001
-0.17666668 0.16666667 1.7500001
0.17211239 0.16375335 1.7545
-0.2134732 0.17374612 1.7589999
-0.20437907 0.17422478 1.7589999
-0.19366859 0.17363428 1.753
-0.18428572 0.17380953 1.7500001
0.17505716 0.17409742 1.7577143
-0.2144305 0.18650985 1.7590002
-0.20396027 0.18469502 1.7589999
-0.19366667 0.18364571 1.753
-0.18333334 0.18333334 1.7500001
-0.17500001 0.18333334 1.7500001
0.17253485 0.18456571 1.7554001
-0.22280669 0.19432761 1.7589999
-0.21443047 0.19432762 1.7589999
-0.20426288 0.19421715 1.7579999
-0.19333336 0.19333336 1.7500001
-0.18333334 0.19333336 1.7500001
-0.17285715 0.19333336 1.7500001
0.17211239 0.19383049 1.7545
-0.22280669 0.20437907 1.7589999
-0.21443048 0.20437905 1.7589999
-0.20403239 0.20403431 1.756
-0.19333336 0.20333336 1.7500001
-0.18333334 0.20333335 1.7500001
-0.17555557 0.20555556 1.7500001
0.17316858 0.20328428 1.7567501
-0.23118286 0.21778096 1.7590001
-0.22352464 0.21490911 1.7589999
-0.2144305 0.21443047 1.7589999
-0.20437907 0.2144305 1.7589999
-0.19344574 0.21345717 1.751
-0.18333334 0.21333335 1.7500001
-0.17500001 0.21333335 1.7500001
0.17422478 0.2144305 1.7590002
-0.22352464 0.22448194 1.7589999
-0.21443048 0.22448193 1.7589999
-0.20437908 0.22448196 1.7589999
-0.19400001 0.22410096 1.756
-0.18333334 0.22333333 1.7500001
-0.17466667 0.22400001 1.7500002
0.17422476 0.22615716 1.7590001
-0.22113144 0.23620859 1.7590001
-0.21275525 0.23537096 1.7590001
-0.20437907 0.23453334 1.7589999
-0.19411048 0.23426668 1.757
-0.18365335 0.23373334 1.753
-0.17333333 0.23333335 1.7500001
-0.16666667 0.23333335 1.7500001
0.17316857 0.23506667 1.7567501
-0.22113144 0.24458477 1.7590001
-0.21108001 0.24626002 1.7590001
-0.20186621 0.24542239 1.7590001
-0.19432762 0.24458477 1.7589999
-0.18375809 0.24388954 1.7540001
-0.17333333 0.24333334 1.7500001
-0.16533335 0.244 1.7500002
0.17346314 0.24399076 1.7512858
-0.22113144 0.2546362 1.7590002
-0.21108001 0.2546362 1.7590002
-0.20342179 0.25511482 1.7589999
-0.19432762 0.2546362 1.7589999
-0.18375809 0.25391048 1.7540001
-0.17333335 0.25333333 1.7500001
-0.16466668 0.25266665 1.7500002
0.17263809 0.25322938 1.7525715
-0.20437907 0.26426882 1.7589999
-0.19432762 0.26468763 1.7589999
-0.18427621 0.26468763 1.7589999
-0.1734343 0.26348573 1.751
0.16666667 0.26333335 1.7500001
0.17240381 0.26446477 1.7575001
-0.20485769 0.27569634 1.7589999
-0.19390881 0.27515787 1.7589999
-0.18427621 0.27473906 1.7589999
-0.17428572 0.27285713 1.7500001
0.16550478 0.27428457 1.7518002
0.17380595 0.27515787 1.7589999
-0.2034218 0.28431183 1.7589999
-0.19432762 0.28479049 1.7589999
-0.1840705 0.28446478 1.757
-0.17428572 0.28285712 1.7500001
-0.16666667 0.28666669 1.7500001
0.16533335 0.28266668 1.7500002
0.17412762 0.28462669 1.7579999
-0.20270383 0.29484192 1.7589999
-0.19421905 0.29467243 1.7579999
-0.18354668 0.29366669 1.7520001
-0.17375 0.29374999 1.7500001
-0.16444446 0.29444444 1.7500001
0.16695239 0.29384193 1.7530001
0.17393333 0.29433906 1.756
-0.2034218 0.30441469 1.7589999
-0.19400191 0.30437335 1.756
-0.18365334 0.3038533 1.753
-0.17333335 0.30333331 1.7500001
-0.16428573 0.30285713 1.7500001
0.16695239 0.30384764 1.7530001
0.17225809 0.30437335 1.756
-0.20270383 0.31494477 1.7589999
-0.19421905 0.31476763 1.7579999
-0.1837543 0.31405523 1.7540001
-0.17333335 0.31333333 1.7500001
-0.16375001 0.31375 1.7500001
0.16583334 0.31416667 1.7500001
0.17326747 0.31494477 1.7589999
-0.20236878 0.3243261 1.7590001
-0.19432762 0.32499623 1.7589999
-0.18427621 0.3249962 1.7589999
-0.17373142 0.32407811 1.7540001
-0.16333334 0.32333335 1.7500001
0.16550477 0.32433602 1.7518002
0.17314258 0.32428247 1.7577143
-0.19349 0.33253479 1.7590001
-0.18427621 0.33504763 1.7589999
-0.17373335 0.33409527 1.7540001
-0.16333334 0.33333331 1.7500001
-0.15666667 0.33333334 1.7500001
0.16380572 0.33428764 1.755
0.17171191 0.33421001 1.7590001
-0.18176335 0.34426144 1.7590001
-0.17383428 0.34431621 1.755
-0.16333334 0.34333333 1.7500001
0.16380572 0.34431621 1.755
0.1708743 0.3417486 1.7590001
-0.18176335 0.35431287 1.7590001
-0.17412762 0.35495052 1.7579999
-0.16333334 0.35333332 1.7500001
0.1639643 0.35336885 1.7522501
0.1708743 0.35850096 1.7590001
-0.18092573 0.36520192 1.7590002
-0.17422478 0.36520195 1.7589999
-0.16396429 0.36338168 1.7522501
-0.15666667 0.36333334 1.7500001
0.16361906 0.36395618 1.753
0.1708743 0.36520192 1.7590002
-0.18092573 0.37190288 1.7590001
-0.17422478 0.37525335 1.7589999
-0.16333334 0.37333333 1.7500001
0.16361906 0.37397337 1.753
0.1708743 0.37525335 1.7590002
-0.17326748 0.38482612 1.7589999
-0.16333334 0.38333338 1.7500001
-0.15666667 0.38500002 1.7500001
0.16361906 0.3839905 1.753
0.1708743 0.38530478 1.7590002
-0.19432762 0.39870667 1.7590001
-0.18331893 0.39583483 1.7589999
-0.17422478 0.39535618 1.7589999
-0.16361715 0.39401144 1.753
-0.15499999 0.39333335 1.7500001
0.16472732 0.39289367 1.7530001
0.17171191 0.39619383 1.7590001
-0.19298744 0.40607777 1.7590001
-0.18427621 0.40540764 1.7589999
-0.17422476 0.40540767 1.7589999
-0.16417333 0.40540764 1.7589999
-0.15333332 0.40333337 1.7500001
0.16556573 0.40471622 1.756
0.1708743 0.40540767 1.7590002
-0.19097716 0.4121086 1.7590001
-0.18427621 0.41210857 1.7590002
-0.17374614 0.41450185 1.7589999
-0.16389905 0.41475052 1.756
-0.1542857 0.4128572 1.7500001
0.16465306 0.41472059 1.7538573
0.1708743 0.41545907 1.7590002
-0.17221448 0.4255105 1.7590001
-0.16389905 0.42478478 1.756
-0.1542857 0.42333338 1.7500001
-0.14500001 0.42666668 1.7500001
0.16465308 0.42379022 1.7538573
0.1708743 0.42383528 1.7590001
-0.17380595 0.43598074 1.7589999
-0.16352381 0.43383053 1.7520001
-0.15333332 0.43333337 1.7500001
-0.14333333 0.43333337 1.7500001
-0.13555557 0.43555558 1.7500001
0.16501303 0.43370795 1.756
-0.18092573 0.44896382 1.7590001
-0.17422478 0.44561338 1.7589999
-0.16380571 0.44460189 1.755
-0.15333332 0.44333336 1.7500001
-0.14333333 0.44333336 1.7500001
-0.13583334 0.44250003 1.7500001
0.1628634 0.4441576 1.7551429
-0.18226592 0.45633489 1.7590001
-0.17422478 0.45566478 1.7589999
-0.1639905 0.45514864 1.757
-0.15368952 0.45437145 1.7540001
-0.14333333 0.45333332 1.7500001
-0.13666667 0.45166668 1.7500001
0.16384077 0.45473224 1.7554001
-0.18176335 0.46571621 1.7590001
-0.17422478 0.46571621 1.7589999
-0.16417333 0.46571615 1.7589999
-0.15395048 0.46518856 1.757
-0.14333333 0.46333334 1.7500001
-0.13555557 0.46555558 1.7500001
0.16344596 0.46482262 1.755625
-0.18092573 0.47241715 1.7590001
-0.17422478 0.4744274 1.7590001
-0.16369471 0.47481033 1.7589999
-0.15412191 0.47576761 1.7589999
-0.14349905 0.47387812 1.7520001
-0.13333334 0.47333336 1.7500001
0.16438644 0.47474238 1.75675
0.17171191 0.47660524 1.7590001
-0.1532843 0.48414382 1.7590001
-0.14407049 0.48581907 1.7589999
-0.13333334 0.48333338 1.7500001
0.15666667 0.48000002 1.7500001
0.16408192 0.48554099 1.7579999
-0.15244667 0.4958705 1.7589999
-0.14391047 0.49530664 1.757
-0.13375001 0.49291667 1.7500001
0.15666667 0.495 1.7500001
0.16344595 0.49450028 1.755625
-0.15244667 0.5059219 1.7589999
-0.14376619 0.50651002 1.7552501
-0.13363637 0.5054546 1.7500001
-0.125 0.50833333 1.7500001
-0.12 0.50833333 1.7500001
0.15666667 0.5 1.7500001
0.16178858 0.50539511 1.7538573
-0.15360667 0.51605999 1.757875
-0.14333333 0.51500005 1.7500001
-0.13333334 0.51500005 1.7500001
-0.125 0.51500005 1.7500001
-0.12 0.51500005 1.7500001
0.162504 0.51558399 1.7554001
-0.15360665 0.5256905 1.757875
-0.14358096 0.52423239 1.753
-0.13371237 0.5248248 1.755
-0.12510857 0.52378196 1.7515001
-0.11888888 0.52111119 1.7500001
0.16542573 0.52468479 1.7545
-0.1624981 0.53775144 1.7590001
-0.15412192 0.53607625 1.7589999
-0.14407049 0.53607619 1.7589999
-0.13333334 0.53333336 1.7500001
-0.12666667 0.53333336 1.7500001
0.1628634 0.53490067 1.7551429
-0.15244667 0.54612762 1.7589999
-0.14391047 0.54550481 1.757
-0.13333334 0.54333335 1.7500001
-0.12666667 0.54000002 1.7500001
0.15666667 0.54333335 1.7500001
0.16082287 0.54612762 1.7590002
-0.15244667 0.5545038 1.7590001
-0.14399049 0.55586475 1.7579999
-0.13379048 0.55523622 1.756
-0.12533334 0.55400002 1.7500002
0.15666667 0.55333334 1.7500001
0.16305651 0.55729586 1.7589999
-0.15412192 0.56623048 1.7590002
-0.14407048 0.56623054 1.7589999
-0.13401905 0.56623048 1.7589999
-0.12494802 0.56511593 1.7525715
0.16341525 0.56585926 1.7540911
-0.14407048 0.57293147 1.7590001
-0.13401906 0.57628185 1.7589999
-0.1255939 0.57517606 1.7536001
-0.115 0.57666671 1.7500001
0.15666667 0.57500005 1.7500001
0.16441688 0.57639426 1.7564286
-0.14072001 0.58465815 1.7590001
-0.13401906 0.58633339 1.7589999
-0.125 0.58333331 1.7500001
-0.115 0.58000004 1.7500001
0.15603477 0.584921 1.7522501
0.1624981 0.58633333 1.7589999
-0.14072001 0.59638476 1.7590002
-0.13394475 0.59604383 1.7579999
-0.12533334 0.59266675 1.7500002
0.15540285 0.59485912 1.7545
0.16082287 0.59638476 1.7590002
-0.14072001 0.60643619 1.7590002
-0.13387048 0.60574853 1.757
-0.125 0.60333329 1.7500001
-0.12 0.60666668 1.7500001
0.15666667 0.60333335 1.7500001
0.16216305 0.60710633 1.7590001
-0.14206021 0.61648762 1.7590001
-0.13401905 0.61648768 1.7589999
-0.12532286 0.61491615 1.7545
-0.11866666 0.61400002 1.7500002
0.16389906 0.61543626 1.756
-0.14072001 0.62318861 1.7590001
-0.13401906 0.62653905 1.7589999
-0.12396762 0.62653905 1.7589999
-0.11339334 0.62532228 1.7509
-0.10555556 0.62888891 1.7500001
0.16521214 0.62579715 1.7522501
0.17240927 0.62706995 1.7551429
0.18166667 0.62666667 1.7500001
-0.13234381 0.63659048 1.7589999
-0.12396763 0.63659048 1.7589999
-0.11398096 0.63521636 1.7525715
-0.10333335 0.63500005 1.7500001
0.16333334 0.63333338 1.7500001
0.17590001 0.63324004 1.7590001
0.18092573 0.63324004 1.7590001
-0.13223237 0.64608765 1.7575001
-0.12389525 0.64627242 1.7579999
-0.11333333 0.64333332 1.7500001
-0.10666667 0.64000005 1.7500001
-0.12229238 0.6533429 1.7590001
-0.11333334 0.65000004 1.7500001
0.015154285 0.097660959 1.7680001
0.087558098 0.097660959 1.7680001
0.093451433 0.096819051 1.7680001
0.12544382 0.096819051 1.7680001
0.13638857 0.097660959 1.7680001
0.14480762 0.097660959 1.7680001
0.15491049 0.097660959 1.7680001
0.17848381 0.097660959 1.7680001
0.18454553 0.096313909 1.768
0.19307685 0.095415868 1.7680001
-0.21721143 0.10776381 1.7680001
-0.20542479 0.1077638 1.7680001
-0.19868954 0.10776381 1.7680001
0.090925716 0.10102858 1.7680001
0.18858667 0.10271238 1.7680001
0.19397488 0.10372267 1.768
-0.24246858 0.11786667 1.7680001
-0.23236573 0.11786667 1.7680001
-0.22563048 0.11534095 1.7680001
-0.21889524 0.11113143 1.7680001
-0.19363812 0.11113143 1.7680001
-0.18690285 0.11113143 1.7680001
0.18858667 0.11786667 1.7680001
0.19397488 0.11517256 1.768
-0.24246858 0.1229181 1.7680001
-0.23404953 0.1229181 1.7680001
-0.22815621 0.12544382 1.7680001
0.18858667 0.12460191 1.7680001
0.19330135 0.12460192 1.768
-0.22360989 0.13403125 1.768
0.18690285 0.13638857 1.7680001
0.1919543 0.13133715 1.7680001
-0.22226286 0.14144 1.7680001
0.18479809 0.14480762 1.7679999
-0.22394668 0.15491046 1.768
0.17848381 0.15491048 1.7680001
0.18521905 0.15322666 1.768
-0.23236573 0.16501334 1.7680001
-0.22514939 0.16405116 1.7679999
-0.21889524 0.16838096 1.7680001
0.1784838 0.16501334 1.7680001
0.18185143 0.16501334 1.7680001
-0.22563046 0.17511621 1.7679999
-0.21889524 0.17680001 1.7680001
0.18185143 0.17680001 1.7680001
-0.22563049 0.18521903 1.7679999
-0.21552764 0.18409652 1.768
-0.20879239 0.18185143 1.7680001
0.1784838 0.18521905 1.7680001
-0.23236573 0.19532192 1.7680001
-0.22899811 0.19532192 1.7680001
0.1784838 0.19532192 1.7680001
0.18185143 0.19532192 1.7680001
-0.23236573 0.20542477 1.7680001
-0.22899811 0.20542477 1.7680001
0.1784838 0.20542477 1.7680001
0.18185143 0.20542477 1.7680001
-0.23505983 0.21620114 1.768
-0.22899811 0.21384382 1.7680001
0.1784838 0.21552761 1.7680001
0.18185143 0.21552761 1.7680001
-0.23404954 0.22563046 1.768
-0.22899811 0.22563049 1.7680001
0.1784838 0.22563048 1.7680001
0.18185143 0.22563048 1.7680001
-0.23236573 0.23573335 1.7680001
-0.22659266 0.23525226 1.7679999
-0.21687467 0.23505981 1.768
0.1784838 0.23573335 1.7680001
0.18185143 0.23236573 1.7680001
-0.23236573 0.2441524 1.7680001
-0.22605142 0.2458362 1.7679999
-0.21648979 0.24535513 1.7679999
-0.20744534 0.24516268 1.768
0.17848381 0.24246858 1.7680001
0.18185143 0.24246858 1.7680001
-0.23236573 0.25593904 1.7680001
-0.22731429 0.25593907 1.768
-0.21721144 0.25593904 1.768
-0.20879239 0.25425524 1.7680001
0.17848381 0.25762287 1.7680001
0.18185143 0.25762287 1.7680001
-0.22338539 0.26379684 1.7680001
-0.21552762 0.26604193 1.7679999
-0.20542477 0.26940954 1.7680001
0.1784838 0.2660419 1.7680001
-0.21504654 0.27518255 1.7679999
-0.20374095 0.27277714 1.7680001
-0.19868954 0.27277714 1.7680001
0.17848381 0.27277714 1.7680001
0.18185143 0.27614477 1.7680001
-0.21216001 0.28456384 1.7680001
-0.20879239 0.28793144 1.7680001
0.18269333 0.28708956 1.7680001
-0.21216001 0.29466668 1.7680001
-0.20879239 0.29635051 1.7680001
0.18319848 0.29567698 1.768
-0.21216001 0.30645332 1.7680001
-0.20879239 0.30813715 1.7680001
0.1784838 0.30645332 1.7680001
0.18185143 0.30645335 1.7680001
-0.21216001 0.31655622 1.7680001
-0.20879239 0.31655622 1.7680001
0.17848381 0.31655622 1.7680001
0.18269335 0.31739813 1.7680001
-0.21216001 0.32497525 1.7680001
-0.20879239 0.32497525 1.7680001
0.17848381 0.32665905 1.7680001
0.18353525 0.32497525 1.7680001
-0.21216001 0.33002669 1.7680001
-0.20584574 0.33381525 1.7679999
-0.19700572 0.33676192 1.7680001
0.17764193 0.3342362 1.7680001
0.18269333 0.33255237 1.7680001
-0.20475125 0.34147656 1.768
-0.19490097 0.34307623 1.7679999
-0.18746412 0.34574223 1.7680001
0.17607836 0.34397826 1.7679999
0.18185143 0.34181333 1.7680001
-0.19363812 0.35696763 1.7680001
-0.18690285 0.35444191 1.7680001
0.17259048 0.35444194 1.7680001
-0.19490096 0.36328191 1.7679999
-0.18690287 0.36370289 1.768
0.1759581 0.36286098 1.7680001
-0.20374095 0.37380573 1.768
-0.19532192 0.37380576 1.7679999
-0.18618122 0.37428683 1.7679999
0.1759581 0.37464762 1.7680001
-0.2044626 0.3839086 1.7679999
-0.19532193 0.3839086 1.7679999
-0.18521905 0.3839086 1.7679999
-0.17848381 0.3872762 1.7680001
0.1759581 0.38306668 1.7680001
-0.20430224 0.3928889 1.768
-0.19574286 0.39443243 1.7679999
-0.1865661 0.3926644 1.768
-0.17848381 0.39064384 1.7680001
0.1751162 0.39401141 1.7680001
-0.20205715 0.40074667 1.7680001
-0.19599544 0.40344077 1.768
0.1751162 0.40748191 1.7680001
-0.19419938 0.41646221 1.7680001
-0.18521905 0.41758478 1.7680001
0.1759581 0.41421714 1.7680001
-0.19435975 0.42480108 1.7679999
-0.18353525 0.42263621 1.7680001
-0.17713675 0.42432004 1.768
0.17646323 0.42499357 1.768
-0.1919543 0.43779048 1.7680001
-0.18353525 0.43610668 1.7680001
-0.17848381 0.43273908 1.7680001
0.17174858 0.43442288 1.7680001
-0.1919543 0.44115812 1.7680001
-0.18353526 0.44452572 1.768
0.16838096 0.44789335 1.7680001
0.17287111 0.44228065 1.7680001
-0.19363812 0.45799622 1.7680001
-0.18690285 0.45462859 1.7680001
0.16838096 0.45462859 1.7680001
0.17174858 0.45799622 1.7680001
-0.19279622 0.46388954 1.7680001
-0.18774475 0.46473145 1.7680001
0.16838096 0.46809906 1.7680001
0.17259048 0.46557337 1.7680001
-0.1919543 0.47315049 1.7680001
-0.1857803 0.47483429 1.768
-0.1751162 0.47820193 1.7680001
0.17567746 0.47483429 1.768
-0.18185143 0.48156953 1.7680001
-0.17511618 0.48535812 1.7679999
-0.1654343 0.48535815 1.7679999
-0.15491049 0.48830476 1.7680001
0.1755973 0.48589939 1.7679999
0.18185143 0.48493719 1.7680001
-0.1751162 0.49504 1.7680001
-0.16164573 0.49335623 1.7680001
-0.15743619 0.49419811 1.7680001
0.1751162 0.49504 1.7679999
0.18185143 0.49335623 1.7680001
-0.17399365 0.5062654 1.7680001
-0.16248763 0.50598478 1.7680001
-0.15827811 0.50514287 1.7680001
0.16838096 0.50514287 1.7680001
0.17444268 0.50379586 1.768
-0.17399365 0.5141232 1.7680001
-0.16389079 0.51636827 1.768
-0.15827811 0.51356196 1.7680001
0.16838096 0.51524574 1.7680001
0.17174858 0.51524574 1.7680001
-0.18521905 0.5253486 1.7680001
-0.17343238 0.5253486 1.7680001
-0.16501336 0.52534854 1.7679999
-0.15827811 0.52871621 1.7680001
0.16838096 0.521981 1.7680001
0.17174858 0.521981 1.7680001
-0.18521905 0.53881907 1.7680001
-0.17259048 0.53629333 1.7680001
-0.16549444 0.53448927 1.7679999
0.16838096 0.53545147 1.7680001
0.17174858 0.53713524 1.7680001
-0.17343238 0.54387045 1.7680001
-0.16501334 0.54611564 1.768
-0.15827811 0.54723811 1.7680001
0.16703391 0.54622781 1.768
0.17174858 0.54555428 1.7680001
-0.16332954 0.55565715 1.768
-0.15827811 0.55565715 1.7680001
0.16703391 0.55498362 1.768
0.17259048 0.55565715 1.7680001
-0.16299276 0.56643355 1.768
-0.15491048 0.56407624 1.768
0.17259048 0.56576002 1.7680001
-0.16459239 0.57628381 1.7679999
-0.15491048 0.57586282 1.7679999
-0.14480764 0.57838863 1.7680001
0.17309561 0.57653642 1.768
-0.16501334 0.58461869 1.768
-0.15491046 0.58596575 1.7679999
-0.1457698 0.58548462 1.7679999
0.16838096 0.58764958 1.7680001
0.17343239 0.58596569 1.768
-0.16838096 0.59270096 1.7680001
-0.15154286 0.59270096 1.7680001
-0.1457698 0.59558755 1.7679999
0.16703391 0.59674215 1.768
0.17287111 0.59382349 1.7680001
-0.14649144 0.60617143 1.768
0.16669714 0.60532951 1.7680001
-0.1468282 0.61627424 1.768
0.16838096 0.61290669 1.7680001
0.17174858 0.61795807 1.7680001
-0.14548114 0.6270507 1.768
0.17511618 0.62637717 1.7680001
0.18353525 0.62974477 1.7680001
-0.14144 0.63479626 1.7680001
-0.13807239 0.63816381 1.7680001
-0.13807239 0.64658284 1.7680001
-0.14144 0.65331811 1.7680001
-0.13807239 0.65331811 1.7680001
0.015231429 0.094773337 1.7770001
0.084195957 0.094350241 1.7770002
0.096465722 0.094773337 1.7770001
0.10323524 0.098158099 1.7770001
0.1252362 0.094773337 1.7770001
0.13539049 0.094773337 1.7770001
0.14216 0.094773337 1.7770001
-0.22339429 0.10831238 1.7770001
-0.17770001 0.10831238 1.7770001
0.0050771432 0.10662 1.7770001
0.08631143 0.10154286 1.7770001
0.19970097 0.10662 1.7770001
-0.24370286 0.1159281 1.7770001
-0.2335486 0.11451778 1.7770001
-0.22677906 0.11169714 1.7770001
0.19970097 0.11508191 1.7770001
-0.25289008 0.1252362 1.7770002
-0.24370286 0.12571974 1.7770002
-0.23524097 0.12862095 1.7770001
0.1963162 0.1252362 1.7770001
-0.2504724 0.13708286 1.7770001
-0.24708763 0.13539048 1.7770001
-0.23185618 0.13539048 1.7770001
-0.22677906 0.13877524 1.7770001
0.19547001 0.13454428 1.7770001
-0.23101 0.14469858 1.7770001
-0.22542515 0.14622173 1.7770001
0.18954667 0.14554477 1.7770001
-0.24201047 0.15739143 1.7770001
-0.23354858 0.15569906 1.7770002
0.18446952 0.15908381 1.7770001
-0.24273577 0.16633688 1.7770002
-0.23467684 0.16641746 1.7770001
-0.22677906 0.16923811 1.7770001
0.18616191 0.16633688 1.7770002
-0.24257462 0.17487937 1.7770001
-0.23524095 0.17600763 1.7770001
0.18531573 0.17516144 1.7770001
-0.2403181 0.18446952 1.7770001
-0.23524098 0.18616192 1.7770001
0.18413106 0.18548496 1.7770001
-0.23693334 0.1963162 1.7770001
0.18616192 0.1963162 1.7770001
-0.2403181 0.20816287 1.7770001
-0.23693334 0.20647049 1.7770001
0.18616192 0.20647049 1.7770001
-0.24201047 0.2149324 1.7770001
-0.23693334 0.21324001 1.7770001
0.18616191 0.21493238 1.7770001
-0.24234895 0.22407123 1.7770001
0.18616192 0.22339429 1.7770001
-0.24234895 0.23287162 1.7770001
-0.23693334 0.23524097 1.7770001
0.1853157 0.23439477 1.7770001
-0.24234895 0.24302593 1.7770001
-0.23693334 0.24370284 1.7770001
0.18277715 0.24370286 1.7770001
-0.24234895 0.25521106 1.7770001
-0.23608716 0.25301099 1.7770001
-0.2504724 0.26231906 1.7770001
-0.24370284 0.26358834 1.7770002
-0.23287162 0.2646884 1.7770001
-0.22677906 0.26739621 1.7770001
0.18277715 0.26570383 1.7770001
-0.23016381 0.27416572 1.7770001
-0.22508669 0.27416572 1.7770001
0.18277715 0.27078095 1.7770001
-0.22242723 0.28383648 1.7770002
-0.21662478 0.28432 1.7770001
0.18616191 0.28601238 1.7770001
-0.22085574 0.2944743 1.7770001
-0.2154965 0.2944743 1.7770001
-0.22170192 0.30632097 1.7770001
-0.21577859 0.30378237 1.7770001
0.18616191 0.3029362 1.7770001
-0.22170192 0.31478289 1.7770001
-0.21662478 0.31478286 1.7770001
0.18616191 0.31647524 1.7770001
-0.22085571 0.32409096 1.7770001
-0.21662478 0.32493713 1.7770001
0.18954667 0.32662952 1.7770001
-0.22000954 0.33509144 1.7770001
-0.21527085 0.3357684 1.7770001
0.18841843 0.33396319 1.7770001
-0.21459392 0.34456879 1.7770001
-0.20731668 0.34778428 1.7770001
-0.19970097 0.34863049 1.7770001
0.18503366 0.34524575 1.7770001
-0.21493238 0.35201526 1.7770001
-0.20647046 0.3554 1.7770002
-0.19679974 0.35443297 1.7770002
-0.18954667 0.35201526 1.7770001
0.17600763 0.35370764 1.7770001
-0.21324001 0.3655543 1.7770001
-0.20647049 0.36555433 1.7770002
-0.19970097 0.36893907 1.7770001
0.17939238 0.36893907 1.7770001
-0.21324001 0.37570858 1.7770001
-0.20985524 0.37570858 1.7770001
0.17939238 0.3740162 1.7770001
0.18277715 0.37740096 1.7770001
-0.21459392 0.38653982 1.7770001
-0.20985524 0.38586289 1.7770001
0.17939238 0.38755524 1.7770001
0.18277715 0.38586286 1.7770001
-0.21459392 0.3953402 1.7770001
-0.208727 0.39827368 1.7770001
-0.19293143 0.3926324 1.7770001
0.17939238 0.39601716 1.7770001
-0.20477811 0.40617144 1.7770001
0.17770001 0.40447906 1.7770001
-0.20308572 0.41632572 1.7770001
-0.19970097 0.41632572 1.7770001
0.17939238 0.41971049 1.7770001
-0.21324001 0.42986476 1.7770001
-0.20604737 0.42690313 1.7770002
-0.19970097 0.42478764 1.7770001
-0.18751581 0.42783394 1.7770001
0.17939238 0.42309526 1.7770001
-0.21324001 0.43494192 1.7770001
-0.20647049 0.43494192 1.7770001
-0.1963162 0.43494189 1.7770001
-0.18700811 0.43409574 1.7770001
0.17770001 0.43494192 1.7770001
-0.20308572 0.44171146 1.7770001
-0.19688033 0.44340384 1.7770001
-0.18954666 0.44340381 1.7770001
0.17600763 0.44001907 1.7770001
-0.19462381 0.45355809 1.7770001
-0.18954667 0.45186573 1.7770001
0.17262286 0.45355812 1.7770001
-0.19885477 0.46455857 1.7770001
0.17600763 0.46540478 1.7770001
-0.20308572 0.47386667 1.7770001
-0.19800858 0.47386667 1.7770001
0.17939238 0.47217429 1.7770001
0.18277715 0.47725144 1.7770001
-0.20308572 0.48063621 1.7770001
-0.19547001 0.48148242 1.7770001
-0.18729018 0.48514923 1.7770001
0.18503363 0.48402095 1.7770001
-0.19293143 0.49248287 1.7770001
-0.18567838 0.49320814 1.7770002
-0.17600763 0.4962061 1.7770001
-0.16754572 0.49586764 1.7770001
0.18616191 0.49079049 1.7770001
-0.18616192 0.50432956 1.7770001
-0.17657174 0.50376546 1.7770001
-0.16682041 0.50384605 1.7770002
0.17939238 0.50432956 1.7770001
0.18362334 0.50517577 1.7770001
-0.19293143 0.51448381 1.7770001
-0.18616192 0.51448381 1.7770002
-0.17668459 0.51380688 1.7770001
-0.16839191 0.51448381 1.7770001
0.17600763 0.51312989 1.7770001
0.18277715 0.51109904 1.7770001
-0.18616191 0.52421498 1.7770002
-0.17649116 0.52367109 1.7770002
0.17431524 0.52463812 1.7770001
-0.18573882 0.53436935 1.7770002
-0.1769747 0.53430885 1.7770002
0.17262286 0.53310001 1.7770001
-0.18616192 0.5453698 1.7770002
-0.17939238 0.54494667 1.7770001
-0.18672603 0.55397272 1.7770001
-0.17600761 0.55510098 1.7770002
-0.16923811 0.55510098 1.7770001
-0.18616191 0.56187052 1.7770001
-0.17600763 0.56525528 1.7770002
-0.16839191 0.56525528 1.7770001
-0.17431526 0.57540947 1.7770001
-0.16923811 0.57371712 1.7770001
0.17600763 0.57371712 1.7770001
-0.17346905 0.58471763 1.7770001
-0.16754572 0.58894861 1.7770001
-0.17465372 0.59504116 1.7770001
-0.16488627 0.59620172 1.7770002
-0.156376 0.59774894 1.7770001
0.17600763 0.59910285 1.7770001
-0.16923811 0.60248762 1.7770001
-0.15473199 0.60538882 1.7770002
0.16923811 0.60925716 1.7770001
0.17346905 0.60502619 1.7770001
-0.16246858 0.61941147 1.7770001
-0.15400667 0.6160267 1.7770001
0.17431524 0.6160267 1.7770001
-0.1536682 0.62550402 1.7770001
0.17770001 0.6278733 1.7770001
0.18277715 0.62956572 1.7770001
-0.15231429 0.63464284 1.7770001
-0.14757563 0.63701218 1.7770001
-0.14506122 0.64552253 1.7770002
-0.14216 0.6532591 1.7770001
0.0068038097 0.098655239 1.7860001
