# .PCD v0.7 - Point Cloud Data file format
VERSION 0.7
FIELDS x y z
SIZE 4 4 4
TYPE F F F
COUNT 1 1 1
WIDTH 1478
HEIGHT 1
VIEWPOINT 0 0 0 1 0 0 0
POINTS 1478
DATA ascii
0.14768572 0.24450192 1.723
-0.10502096 0.25598857 1.723
-0.085329525 0.25598857 1.7229998
-0.07507357 0.25557834 1.7229998
-0.065638095 0.25598857 1.7229998
-0.055792384 0.2559886 1.7229998
-0.045290288 0.25664496 1.7229999
-0.03938286 0.2559886 1.723
-0.024286097 0.25598857 1.7229999
-0.018050477 0.25680906 1.723
-0.084509045 0.26747525 1.723
-0.075483814 0.26583427 1.7229998
-0.065638095 0.26583427 1.7229998
-0.055792376 0.26583427 1.7229998
-0.049228575 0.2658343 1.723
-0.024614284 0.2658343 1.7229999
-0.017503493 0.26638126 1.7229999
-0.082868092 0.27568001 1.723
-0.075483814 0.27568001 1.7229998
-0.065638095 0.27568004 1.7229998
-0.055323537 0.27568001 1.7229998
-0.049228575 0.27732098 1.723
-0.036100954 0.27896193 1.723
-0.024614288 0.27568004 1.7229999
-0.016819762 0.27609023 1.7229998
0.0065638097 0.27896193 1.723
-0.082868099 0.28470525 1.723
-0.075483814 0.28552571 1.7229998
-0.065638103 0.28552568 1.7229998
-0.049228575 0.28880763 1.723
-0.036100954 0.28552574 1.7229998
-0.025844999 0.28593597 1.7229998
-0.016409524 0.28552571 1.7229998
-0.0065638097 0.28552571 1.7229998
0.0065638097 0.28716668 1.723
0.013127619 0.28552574 1.723
-0.084235549 0.2964654 1.7229999
-0.075483814 0.29537141 1.7229998
-0.066575781 0.29584026 1.7229998
-0.045399684 0.29427743 1.7229999
-0.036100958 0.29537144 1.7229998
-0.026255239 0.29537141 1.7229998
-0.016409524 0.29537141 1.7229998
-0.0070326538 0.29537144 1.7229998
0.0070326538 0.29443374 1.7229998
0.015471837 0.29490256 1.7229998
0.022973334 0.29537141 1.723
-0.096112929 0.305686 1.7229998
-0.085329525 0.30521715 1.7229998
-0.075483814 0.30521715 1.7229998
-0.065638095 0.30521715 1.7229998
-0.05579238 0.30685812 1.7229999
-0.047587622 0.30521715 1.7229999
-0.036100954 0.3035762 1.723
-0.025844999 0.30480692 1.7229998
-0.016409524 0.30521715 1.7229998
-0.0065638102 0.30521715 1.7229998
0.0042664767 0.30521718 1.7229998
0.016409524 0.30521715 1.723
-0.095175244 0.31834477 1.723
-0.085329533 0.3155317 1.7229998
-0.075483814 0.31506288 1.7229998
-0.065638095 0.31506288 1.7229998
-0.055792384 0.31506288 1.7229998
-0.046884354 0.31506285 1.7229998
-0.037741907 0.31424239 1.723
-0.024614288 0.31506288 1.7229999
-0.016409524 0.31506285 1.7229998
-0.006974048 0.31547314 1.7229998
0.0050720349 0.31536123 1.7229997
0.014768572 0.31670383 1.723
-0.09845715 0.32162669 1.723
-0.072201908 0.32326764 1.723
-0.064817622 0.3240881 1.723
-0.05579238 0.32449836 1.7229998
-0.045946669 0.32490858 1.7229998
-0.038562384 0.32572904 1.723
-0.024286095 0.32425219 1.7229999
-0.016409524 0.32490858 1.7229998
-0.0065638102 0.32490855 1.7229998
0.0049228575 0.32490858 1.7229997
0.016409524 0.32490861 1.7229998
0.024067303 0.32709649 1.723
-0.072201908 0.33639526 1.723
-0.065227859 0.33516455 1.7229998
-0.054854695 0.33428544 1.7229998
-0.045946669 0.33475435 1.7229998
-0.037038643 0.33522314 1.7229998
-0.024614288 0.33475432 1.7229999
-0.016409524 0.33475429 1.7229998
-0.0065638097 0.33475429 1.7229998
0.0049228575 0.33475432 1.7229997
0.016409524 0.33475429 1.7229998
0.02531755 0.33475432 1.7229998
-0.074389845 0.34569398 1.723
-0.066950858 0.34394366 1.7229999
-0.052510478 0.34295905 1.723
-0.045536432 0.34418976 1.7229998
-0.036100958 0.34459999 1.7229998
-0.02789619 0.34377953 1.723
-0.015940679 0.34366232 1.7229998
-0.0065638102 0.34459999 1.7229998
0.0044753249 0.34489834 1.7229997
0.016409524 0.34459999 1.7229998
0.026255237 0.34460002 1.7229998
0.034460001 0.34459999 1.7229999
-0.082047619 0.35772765 1.723
-0.075073577 0.35485595 1.7229998
-0.066048339 0.35485595 1.7229998
-0.057980318 0.35663366 1.723
-0.045946669 0.35772765 1.723
-0.036100954 0.3544457 1.7229998
-0.029537143 0.35444573 1.723
-0.01312762 0.35444573 1.723
-0.0065638102 0.35444573 1.7229998
0.0049228575 0.35444573 1.7229997
0.016409524 0.35444573 1.7229998
0.026255237 0.35444576 1.7229998
0.034460001 0.35444573 1.7229999
0.042664763 0.35280478 1.723
-0.074663341 0.36347097 1.723
-0.064544134 0.36319748 1.7229999
-0.055792384 0.36429146 1.7229998
-0.045946669 0.36429143 1.7229998
-0.036100954 0.36429146 1.7229998
-0.028716667 0.36511192 1.723
-0.01312762 0.36429143 1.723
-0.0054698414 0.36319745 1.7229999
0.0049228575 0.36429143 1.7229997
0.016409524 0.36429146 1.7229998
0.026255237 0.36429143 1.7229998
0.035163265 0.36429143 1.7229998
-0.074389845 0.3719492 1.723
-0.063450158 0.3719492 1.723
-0.055792384 0.37413719 1.7229998
-0.045946669 0.37413713 1.7229998
-0.03413181 0.37348077 1.7229999
-0.029537143 0.37413716 1.723
-0.01312762 0.37413716 1.723
-0.0032819051 0.37413716 1.723
0.0047405292 0.37486646 1.7229998
0.016409524 0.37413716 1.7229998
0.026255239 0.37413713 1.7229998
0.036100954 0.37413719 1.7229998
0.044305716 0.37741905 1.723
-0.054151431 0.38070098 1.723
-0.0448527 0.38288891 1.7229999
-0.035006985 0.38452986 1.7229999
-0.029537143 0.3839829 1.723
-0.0032819051 0.3839829 1.723
0.0049228575 0.3839829 1.7229997
0.016409524 0.3839829 1.7229998
0.026255237 0.38398287 1.7229998
0.036100958 0.3839829 1.7229998
0.045008983 0.38351408 1.7229998
0.054151431 0.38070098 1.723
-0.032819048 0.39054668 1.723
-0.029537143 0.3938286 1.723
0.0049228575 0.39382863 1.7229997
0.016409524 0.3938286 1.7229998
0.026255237 0.39382857 1.7229998
0.035690717 0.39341837 1.7229998
0.043758731 0.39273462 1.723
-0.044305716 0.4069562 1.723
-0.036100954 0.4069562 1.723
-0.029537143 0.40203333 1.723
-0.0032819051 0.40367427 1.723
0.004922857 0.40367427 1.7229997
0.016409524 0.40367424 1.7229998
0.026665475 0.40326408 1.7229998
0.035690717 0.40408453 1.7229998
-0.044305716 0.41352001 1.7229999
-0.036100954 0.41352001 1.7229998
-0.029537143 0.41187906 1.723
0.0051051853 0.41315538 1.7229998
0.016956508 0.41406703 1.7229999
0.026255237 0.41351998 1.7229998
0.036100958 0.41352004 1.7229998
0.043977525 0.41417637 1.7229999
0.057433337 0.41680193 1.723
0.072201908 0.41680193 1.723
-0.045399684 0.42227182 1.7229999
-0.037038643 0.42289686 1.7229998
-0.029537143 0.42008382 1.723
0.0065638097 0.42090431 1.723
0.017065903 0.42435032 1.7229998
0.026255241 0.42500675 1.7229997
0.036100958 0.42500666 1.7229997
0.045290284 0.42566305 1.7229998
0.05620262 0.4262374 1.7229998
0.064544126 0.42883554 1.723
0.018050477 0.43649337 1.7229999
0.026255239 0.43649334 1.7229998
0.036100958 0.43649334 1.7229998
0.045946669 0.43649334 1.7229998
0.055792384 0.43649334 1.7229998
0.063997142 0.43649331 1.7229999
0.091893338 0.43977526 1.723
0.14768572 0.43813431 1.723
0.01969143 0.4446981 1.723
0.026255241 0.44633904 1.723
0.055382144 0.44592878 1.7229998
0.062356193 0.44633907 1.723
0.073842861 0.44962096 1.723
0.082047619 0.44633907 1.723
0.14768572 0.44633907 1.723
-0.045946669 0.45618477 1.723
0.01969143 0.45290288 1.723
0.049228575 0.45618477 1.723
0.056730069 0.45665359 1.7229998
0.064544126 0.45727873 1.723
0.075483814 0.4561848 1.7229998
0.084235556 0.4567318 1.7229999
0.14768572 0.45782572 1.723
0.15096763 0.4594667 1.723
-0.045946669 0.46274859 1.723
0.046356905 0.46644071 1.7229998
0.054151431 0.46438953 1.723
0.07876572 0.46603048 1.723
0.084919289 0.46562028 1.7229998
0.14604476 0.46685097 1.723
0.038288891 0.4769702 1.723
0.045946669 0.47587621 1.7229998
0.055136003 0.47784534 1.7229999
0.066950858 0.47718897 1.7229999
0.077945247 0.47669667 1.723
0.085329518 0.47521982 1.7229999
0.14768572 0.47587621 1.723
0.037741907 0.48572195 1.7229999
0.044305716 0.48572192 1.7229999
0.05620262 0.48531166 1.7229998
0.065638095 0.48572192 1.7229998
0.075952657 0.48665959 1.7229998
0.084509045 0.48818335 1.723
0.038562384 0.49474716 1.723
0.042664763 0.49556765 1.723
0.05825381 0.49474716 1.723
0.065638095 0.49556765 1.7229998
0.074389845 0.4944737 1.7229999
0.088611431 0.49228573 1.723
0.037741907 0.50541335 1.7229999
0.045008983 0.50541335 1.7229998
0.05620262 0.50582355 1.7229998
0.065638095 0.50541335 1.7229998
0.072201908 0.50541335 1.723
0.088611431 0.50213146 1.723
0.09845715 0.50541335 1.723
0.14440382 0.50869524 1.723
0.03938286 0.51525909 1.723
0.042664763 0.51525903 1.723
0.057433333 0.51525909 1.7229999
0.065638095 0.51525909 1.7229998
0.073295876 0.51307112 1.723
0.096816197 0.51854098 1.723
0.10502096 0.51854098 1.723
0.11158477 0.51854098 1.723
0.14604476 0.51525909 1.7229999
0.03938286 0.52182287 1.723
0.044305716 0.52182287 1.723
0.057433337 0.52510476 1.7229999
0.065638095 0.52510476 1.7229998
0.075483814 0.52707392 1.7229999
0.085329525 0.52551502 1.7229998
0.095175244 0.52510476 1.7229998
0.10502096 0.52510476 1.7229998
0.11158476 0.52510476 1.723
0.14768572 0.52182287 1.723
0.059074286 0.53495049 1.723
0.065638103 0.53495049 1.7229998
0.075483814 0.53495049 1.7229998
0.085329533 0.53495049 1.7229998
0.095175244 0.53495049 1.7229998
0.10502096 0.53495049 1.7229998
0.11322572 0.53495049 1.7229999
0.05579238 0.54151428 1.723
0.065638095 0.54479623 1.7229998
0.07507357 0.54438597 1.7229998
0.085329533 0.54479623 1.7229998
0.095175236 0.54479623 1.7229998
0.10502095 0.54479623 1.7229998
0.11486667 0.54479617 1.7229998
0.059074286 0.55464196 1.723
0.065638095 0.55464196 1.7229998
0.074171051 0.55332917 1.7229999
0.10584144 0.55218047 1.723
0.11814857 0.55464196 1.723
0.12143048 0.55792385 1.723
0.066048339 0.56448764 1.7229998
0.07507357 0.56489789 1.7229998
0.10666191 0.56612861 1.723
0.11486667 0.5639407 1.7229999
0.15260859 0.56612861 1.723
0.065638103 0.57302064 1.7229999
0.075952657 0.57339573 1.7229998
0.085985914 0.57630253 1.7229999
0.094706409 0.57527107 1.7229998
0.10502095 0.57433343 1.7229998
0.11322571 0.57761526 1.723
0.077452958 0.58483541 1.7229999
0.085329525 0.58417904 1.7229998
0.095175244 0.58417904 1.7229998
0.10502096 0.58417916 1.7229998
0.11289753 0.58352262 1.7229999
0.14604476 0.58253813 1.723
0.077452958 0.59468114 1.7229999
0.085329525 0.59402478 1.7229998
0.095175236 0.59402484 1.7229998
0.10502096 0.59402478 1.7229998
0.11158477 0.59238386 1.723
0.14604476 0.59402478 1.723
0.15096763 0.59074289 1.723
0.07876572 0.6022296 1.723
0.085329525 0.60387057 1.7229998
0.095175244 0.6043393 1.7229998
0.10408328 0.6043393 1.7229998
0.11158477 0.6071524 1.723
0.14768572 0.60387051 1.723
0.15424953 0.60551149 1.7229999
0.07876572 0.61371619 1.723
0.085739762 0.61371624 1.7229998
0.095175244 0.61412644 1.7229998
0.10461073 0.61412644 1.7229998
0.11486668 0.61371619 1.7229998
0.12252445 0.61590415 1.723
0.14768572 0.61207521 1.723
0.15589049 0.61371619 1.723
0.077452958 0.62421829 1.7229999
0.085329525 0.62356192 1.7229998
0.095175244 0.62356192 1.7229998
0.10502095 0.62356192 1.7229998
0.11486667 0.62356198 1.7229998
0.12307144 0.62356192 1.7229999
0.14604476 0.62520289 1.723
0.15359315 0.62553102 1.7229999
0.07876572 0.63176668 1.723
0.085627884 0.63460106 1.7229997
0.095175251 0.63340765 1.7229998
0.1054898 0.6329388 1.7229998
0.11456832 0.63549614 1.7229997
0.12377469 0.63715833 1.7229998
0.1345581 0.63997144 1.723
0.14506021 0.63570499 1.7229998
0.15315557 0.63450164 1.7229998
0.088611431 0.64325339 1.723
0.11596064 0.64544129 1.7229999
0.12225096 0.64571476 1.723
0.1345581 0.64489436 1.723
0.14440382 0.64606637 1.7229998
0.15260857 0.64489436 1.723
0.13619906 0.65309906 1.723
0.018144764 0.095672384 1.7320001
0.023093333 0.095672384 1.7320001
0.13196191 0.098971434 1.7320001
-0.20289144 0.10721905 1.7320001
-0.19794287 0.10886858 1.7320001
-0.11546668 0.10886858 1.732
-0.10721906 0.10886858 1.7320001
-0.092373334 0.10556953 1.7320001
-0.089074291 0.10886858 1.7320001
-0.046186667 0.10227048 1.7320001
-0.032990478 0.10556953 1.7320001
0.0098971436 0.10227048 1.7320001
0.14185905 0.10227048 1.7320001
0.1517562 0.10886858 1.7320001
-0.20359837 0.11593796 1.7320002
-0.19423144 0.11587906 1.7320002
-0.18804573 0.1171162 1.7320001
-0.15505524 0.11876572 1.732
-0.14845715 0.11876572 1.7320001
-0.13361144 0.11546667 1.7320001
-0.12536381 0.1132673 1.732
-0.20124191 0.12206477 1.7320001
-0.19409396 0.12426413 1.7320002
-0.1863962 0.12206477 1.7320001
-0.16165334 0.12536381 1.732
-0.15505524 0.12495144 1.7320002
-0.14515811 0.1237143 1.7320001
-0.16165334 0.13196191 1.7320001
-0.15395556 0.1330616 1.732
-0.14845715 0.13856001 1.7320001
-0.13361144 0.13691048 1.7320001
0.1517562 0.13526095 1.7320001
-0.15395556 0.14295875 1.732
-0.14562941 0.1451581 1.7320002
-0.13526095 0.1451581 1.7320002
-0.12536381 0.14680763 1.7320002
-0.11876572 0.14680763 1.7320001
0.14845715 0.1451581 1.7320001
-0.13361144 0.15340573 1.7320001
-0.12495143 0.15464287 1.7320002
-0.11794095 0.15588 1.7320001
0.14845715 0.15505524 1.7320001
-0.12371429 0.1649524 1.7320002
-0.11656635 0.16385271 1.7320002
-0.15505524 0.17814858 1.7320001
-0.14515811 0.17814858 1.7320001
-0.12371429 0.17484953 1.7320002
-0.11711619 0.17567429 1.7320001
0.1517562 0.17814858 1.7320001
-0.15340573 0.18144763 1.7320001
-0.14474572 0.18433429 1.7320002
-0.13526095 0.18474668 1.7320002
-0.12371429 0.18474668 1.7320002
-0.1174461 0.18540648 1.7320001
-0.10886858 0.18804573 1.7320001
-0.14350858 0.19134477 1.7320001
-0.13460115 0.19266438 1.7320001
-0.12495143 0.19423144 1.7320002
-0.11711619 0.19464381 1.7320002
-0.10556953 0.19134478 1.732
-0.13196191 0.20124191 1.7320001
-0.12602362 0.20256153 1.7320001
-0.1146419 0.2037162 1.7320001
-0.10721906 0.20454097 1.7320002
-0.11299238 0.21526286 1.7320001
-0.10721906 0.2144381 1.7320002
0.14845715 0.21278858 1.7320001
-0.12206477 0.2276343 1.7320001
-0.11452408 0.22480655 1.7320002
-0.10651212 0.22480655 1.7320002
-0.096497148 0.22680955 1.7320001
0.14845715 0.22433525 1.732
-0.12288953 0.23505715 1.7320001
-0.11452408 0.23470369 1.7320002
-0.10556953 0.2342324 1.7320002
-0.096222229 0.23313271 1.7320002
0.14845715 0.2342324 1.7320001
-0.12316445 0.24193017 1.732
-0.11601651 0.24302985 1.7320002
-0.10509824 0.24365826 1.7320002
-0.096143678 0.24507213 1.7320002
-0.087974608 0.24632891 1.732
-0.12206477 0.25402668 1.732
-0.11656635 0.25622603 1.732
-0.10501969 0.25457653 1.7320002
-0.095672376 0.25402668 1.7320002
-0.08742477 0.25072762 1.7320001
0.14845715 0.25072762 1.7320001
-0.12206477 0.26062477 1.7320001
-0.1171162 0.26062477 1.7320001
-0.10227048 0.26722288 1.7320001
-0.095260002 0.26392382 1.7320002
-0.086435042 0.26590329 1.7320001
-0.079177149 0.26062477 1.7320001
-0.12206477 0.27052191 1.7320001
-0.11587905 0.27423334 1.7320002
-0.10490972 0.27250135 1.7320001
-0.095259994 0.27340859 1.7320002
-0.087974608 0.27492067 1.732
-0.11612648 0.28371811 1.7320001
-0.092373334 0.28701717 1.7320001
-0.087754667 0.28371811 1.7320001
0.1451581 0.28701717 1.7320001
0.1517562 0.28041905 1.7320001
-0.11629143 0.29196572 1.7320001
-0.10721906 0.29031619 1.7320001
-0.092373334 0.29361525 1.732
-0.087754674 0.29295543 1.7320001
0.14735746 0.2914159 1.732
0.1517562 0.29361525 1.7320001
-0.10446984 0.30461207 1.7320002
-0.094352767 0.30219278 1.7320001
-0.10515715 0.31340954 1.7320002
-0.095672376 0.3150591 1.7320002
-0.085775241 0.31505907 1.7320001
-0.075878099 0.31670859 1.7320001
-0.11216763 0.32330668 1.7320001
-0.10490972 0.32429639 1.7320001
-0.095260002 0.32578096 1.7320002
-0.085775249 0.32660574 1.7320002
-0.076820679 0.327077 1.7320002
-0.066640764 0.32726556 1.7320001
-0.056083813 0.32990476 1.7320001
0.14845715 0.32165715 1.7320001
-0.10392001 0.33650288 1.7320002
-0.095672384 0.33691525 1.7320002
-0.085775249 0.33650285 1.7320002
-0.076820679 0.33603159 1.7320002
-0.069280006 0.33320382 1.7320001
-0.05938286 0.33815241 1.7320001
-0.10392 0.34310097 1.7320001
-0.094352767 0.34640002 1.7320001
-0.085775249 0.34640002 1.7320002
-0.076427937 0.3458502 1.7320002
-0.064331435 0.34722477 1.7320001
-0.057026394 0.34687132 1.7320002
-0.049485717 0.34969905 1.7320001
-0.025072763 0.34705982 1.7320001
-0.018144764 0.34969905 1.7320001
0.0098971436 0.34310097 1.7320001
-0.086187631 0.35588476 1.7320002
-0.079177149 0.35299811 1.7320001
-0.062681906 0.35299811 1.7320001
-0.054984134 0.35519746 1.7320002
-0.046186667 0.35464764 1.7320002
-0.036289524 0.35629717 1.7320001
-0.024742858 0.35629714 1.7320002
-0.018144764 0.35629717 1.7320002
-0.082476191 0.36619428 1.732
-0.076537907 0.36685413 1.7320001
-0.068180323 0.36839366 1.732
-0.036289524 0.36619431 1.7320001
-0.024412954 0.36553448 1.7320001
-0.018144764 0.36619428 1.7320002
-0.0087974602 0.36839366 1.732
-0.082476191 0.37609145 1.732
-0.076427944 0.37719116 1.7320002
-0.067080639 0.3771911 1.7320002
-0.039588574 0.37609145 1.732
-0.024742858 0.37609145 1.7320002
-0.018144764 0.37609145 1.7320002
-0.0082476195 0.37609145 1.7320002
0.0032990477 0.37444192 1.7320001
0.14845715 0.37939048 1.7320001
-0.075878099 0.38268954 1.7320001
-0.062681906 0.38268954 1.7320001
-0.056908574 0.38516384 1.7320001
-0.047836192 0.38763809 1.7320001
-0.039588574 0.38928762 1.7320001
-0.024742857 0.38598859 1.7320002
-0.016495239 0.38598859 1.7320002
-0.0082476195 0.38598859 1.7320002
0.14845715 0.38268954 1.7320001
0.15505524 0.38928762 1.732
-0.044537142 0.39588571 1.7320002
-0.036701903 0.39629808 1.7320002
-0.024742857 0.39588571 1.7320002
-0.016495237 0.39588571 1.7320002
-0.0065980954 0.39588571 1.7320002
0.15505524 0.39423621 1.7320002
-0.044537142 0.40413338 1.7320001
-0.036289524 0.40413332 1.7320002
-0.026392382 0.40578288 1.7320001
-0.016495239 0.40484029 1.7320002
-0.0082476195 0.40578291 1.7320002
0.023093333 0.40908191 1.7320001
-0.062681906 0.41403049 1.7320001
-0.05608381 0.41699964 1.7320001
-0.049485717 0.41568002 1.732
-0.02969143 0.41897905 1.7320001
-0.017594922 0.41787937 1.732
-0.0065980954 0.41568002 1.7320002
0.0043987301 0.41677973 1.732
0.015395557 0.41458035 1.732
-0.056083813 0.42557713 1.7320002
-0.04728635 0.42777649 1.732
-0.032990478 0.42722666 1.7320001
-0.027217144 0.42475241 1.7320001
-0.017437825 0.42510587 1.7320002
-0.0065980954 0.42516479 1.7320002
0.0041238093 0.42681429 1.7320002
0.013196191 0.42887619 1.7320001
-0.054434288 0.43547428 1.7320002
-0.046186667 0.43547431 1.7320002
-0.036289528 0.43547431 1.7320002
-0.02969143 0.43217525 1.7320001
-0.0032990475 0.43547431 1.732
0.0049485718 0.43547428 1.7320002
0.01319619 0.43547431 1.732
-0.052784763 0.44372192 1.7320001
-0.045774285 0.44495904 1.7320002
-0.037232112 0.44584274 1.7320002
-0.0032990475 0.44537148 1.732
0.0049485713 0.44537148 1.7320002
0.014515812 0.44603124 1.7320001
0.026392382 0.44702095 1.7320001
0.036289524 0.44702098 1.7320002
0.046186671 0.44702098 1.7320002
-0.053609528 0.45609337 1.7320001
-0.046186667 0.45485625 1.7320002
-0.036289528 0.45526859 1.7320002
-0.02969143 0.45691812 1.7320001
-0.013196191 0.45691812 1.7320001
-0.0061268033 0.45621118 1.7320002
0.0049485713 0.45526853 1.7320002
0.016082859 0.45526859 1.7320002
0.026392382 0.45568097 1.7320002
0.036289524 0.45526859 1.7320002
0.045244079 0.4547973 1.7320002
0.14845715 0.45361906 1.7320001
0.1517562 0.45691812 1.7320001
-0.053609528 0.46516573 1.7320001
-0.046186671 0.46516573 1.7320002
-0.036289524 0.46516573 1.7320002
-0.02969143 0.46516573 1.732
-0.01319619 0.46516573 1.732
-0.0065980954 0.46516573 1.7320002
0.0049485718 0.46516573 1.7320002
0.016495237 0.46516576 1.7320002
0.02639238 0.46516573 1.7320002
0.036289524 0.46516573 1.7320002
0.043987304 0.46296635 1.732
0.14845715 0.46846479 1.7320001
0.15285587 0.46626544 1.732
-0.053884447 0.47286353 1.732
-0.045774288 0.47465047 1.7320002
-0.036289524 0.47506285 1.7320002
-0.02969143 0.47506288 1.732
-0.01319619 0.47506288 1.732
-0.0065980954 0.47506285 1.7320002
0.0049485713 0.47506282 1.7320002
0.016495239 0.47506285 1.7320002
0.026392382 0.47506285 1.7320002
0.03581823 0.47412029 1.7320002
0.15423048 0.4725886 1.7320001
-0.042887617 0.48495999 1.732
-0.03876381 0.48413527 1.7320001
-0.005498413 0.48386034 1.7320002
0.0049485718 0.48496008 1.7320002
0.016495237 0.48496002 1.7320002
0.02639238 0.48496002 1.7320002
0.033815239 0.48413524 1.7320001
0.049485717 0.48660955 1.7320001
-0.044537142 0.49485716 1.7320002
-0.036701906 0.49526951 1.7320002
-0.02969143 0.49485716 1.732
-0.0032990477 0.49650669 1.7320001
0.0049485718 0.4948571 1.7320002
0.016495239 0.49485716 1.7320002
0.026392382 0.49485716 1.7320002
0.033815239 0.49568191 1.7320001
0.048166096 0.49551696 1.7320001
0.053609528 0.49568194 1.7320001
-0.043987304 0.50255495 1.732
-0.036289524 0.50343472 1.7320001
-0.02969143 0.5047543 1.732
-0.013196191 0.50805336 1.7320001
-0.0061268029 0.50569689 1.7320002
0.0044987015 0.50445437 1.7320002
0.016495237 0.5047543 1.7320002
0.026392382 0.5047543 1.7320002
0.033815239 0.50392956 1.7320001
0.048386034 0.50255495 1.732
0.053884447 0.50255495 1.732
0.14845715 0.5047543 1.732
0.1517562 0.50805336 1.7320001
-0.013196191 0.51135242 1.7320001
-0.0065980949 0.51465148 1.7320002
0.0049485713 0.51465148 1.7320002
0.016495237 0.51465148 1.7320002
0.02639238 0.51465148 1.7320002
0.034310095 0.51531124 1.7320001
0.048166096 0.51531124 1.7320001
0.052784763 0.51630092 1.7320001
0.14845715 0.51135242 1.7320001
0.15258096 0.51547617 1.7320001
-0.0043987301 0.52234918 1.732
0.0053984416 0.52424872 1.7320002
0.016495237 0.52454859 1.7320002
0.02639238 0.52454859 1.7320002
0.035346944 0.52501982 1.7320002
0.047286347 0.52509844 1.7320002
0.05278476 0.52454859 1.732
0.15285587 0.52234918 1.732
0.0075406805 0.53397447 1.7320002
0.016495239 0.5344457 1.7320002
0.02639238 0.53444576 1.7320002
0.036289528 0.5344457 1.7320002
0.046186667 0.53444576 1.7320002
0.054104388 0.53510559 1.7320001
0.0098971436 0.54434282 1.732
0.016907619 0.54434288 1.7320002
0.02639238 0.54434282 1.7320002
0.036289528 0.54434288 1.7320002
0.046186671 0.54434288 1.7320002
0.055423997 0.54500264 1.7320001
0.0082476195 0.55423999 1.7320002
0.016495237 0.55423999 1.7320002
0.02639238 0.55423999 1.7320002
0.036289524 0.55423999 1.7320002
0.046186671 0.55423999 1.7320002
0.055671435 0.55424005 1.7320002
0.0098971436 0.5624876 1.7320001
0.016907619 0.56372476 1.7320002
0.02639238 0.56413716 1.7320002
0.035877142 0.56372482 1.7320002
0.046599049 0.56372482 1.7320002
0.055671431 0.56454957 1.7320002
0.062681906 0.56743622 1.7320001
0.0065980954 0.57403433 1.7320001
0.018144764 0.57403439 1.7320002
0.024742858 0.57403439 1.7320002
0.037939049 0.57568383 1.7320001
0.047836188 0.57403427 1.7320002
0.056083813 0.57403439 1.7320002
0.065980956 0.57733333 1.7320001
-0.0032990477 0.58393145 1.7320001
0.0046186666 0.58459127 1.7320001
0.016495239 0.58459127 1.7320001
0.047836192 0.58063239 1.7320001
0.056083813 0.58393151 1.7320002
0.065980956 0.58434385 1.7320002
0.073898673 0.58327162 1.7320001
0.14845715 0.5872305 1.7320001
-0.0049485713 0.59382862 1.7320001
0.0049485718 0.5938285 1.7320002
0.016966533 0.59288603 1.7320002
0.024412954 0.59316885 1.7320001
0.038268954 0.59448844 1.7320001
0.045774285 0.59341621 1.7320002
0.056496192 0.59341621 1.7320002
0.065980956 0.59382856 1.7320002
0.073403813 0.59382856 1.7320001
0.14845715 0.59382856 1.7320001
0.0046186666 0.6010865 1.7320001
0.03876381 0.60455048 1.7320001
0.042887617 0.60372573 1.732
0.057733338 0.60372573 1.7320002
0.065980956 0.60372567 1.7320002
0.073898673 0.6043855 1.7320001
0.14845715 0.60042667 1.7320001
0.1517562 0.60372573 1.7320001
0.02969143 0.6169219 1.7320001
0.036289524 0.6136229 1.7320002
0.046186667 0.61403525 1.7320002
0.05608381 0.61321044 1.7320002
0.065980963 0.6136229 1.7320002
0.074935511 0.61315155 1.7320002
0.082476191 0.6169219 1.7320001
0.02969143 0.62187052 1.7320001
0.036289524 0.62351996 1.7320002
0.046186663 0.62304872 1.7320002
0.067080639 0.62406987 1.7320002
0.073898673 0.62286019 1.7320001
0.038488891 0.63121778 1.732
0.045086991 0.63121778 1.732
0.068455242 0.63259244 1.7320001
0.073898666 0.63407695 1.7320001
0.019794287 0.64001524 1.7320001
0.054434288 0.64001524 1.7320001
0.062681906 0.64001524 1.7320001
0.075878091 0.6433143 1.7320002
0.084675558 0.64771301 1.7320002
0.095672376 0.64661336 1.7320002
0.10526962 0.64511377 1.7320002
0.11216763 0.64991242 1.7320001
0.087974608 0.65431112 1.732
0.096497148 0.65403622 1.7320001
0.10556952 0.65321147 1.732
0.11546667 0.65486097 1.7320001
0.12536381 0.65651047 1.732
0.13196191 0.65651047 1.7320001
0.14845715 0.65321147 1.7320001
0.1517562 0.65321147 1.7320001
-0.20892 0.10943429 1.7410001
-0.19565524 0.10943429 1.7410001
-0.12435715 0.10943429 1.7410001
-0.089537144 0.1061181 1.7410001
-0.043110479 0.10280191 1.7410001
-0.038136192 0.10446 1.7410001
0.12601525 0.10280191 1.7410001
0.14591238 0.10280191 1.7410001
-0.21488914 0.11805638 1.7409999
-0.20892 0.11440857 1.7410001
-0.19897144 0.11275048 1.7410001
-0.18404858 0.11938286 1.7410001
-0.17575811 0.11938286 1.7410001
-0.16514629 0.11805638 1.7409999
-0.15586096 0.11606667 1.7410001
-0.14591239 0.11606667 1.7410001
-0.13596381 0.11385588 1.7410001
-0.12933144 0.11275048 1.7410001
-0.21306524 0.1251862 1.7410001
-0.20601836 0.12642978 1.7410001
-0.19676064 0.12822604 1.7410001
-0.18523292 0.12696272 1.7410001
-0.17528436 0.12506774 1.7410001
-0.16746761 0.12601525 1.7410001
-0.15586096 0.12933144 1.7410001
-0.20449841 0.13375302 1.7410001
-0.19518149 0.13501634 1.7410001
-0.18570668 0.13596381 1.7410001
-0.17575809 0.1372903 1.7409999
-0.16622405 0.13637833 1.7410001
-0.15641366 0.13706921 1.7410001
0.15254477 0.13928001 1.7410001
-0.18239048 0.1425962 1.7410001
-0.17575809 0.1425962 1.7410001
-0.16580953 0.14591239 1.7410001
-0.15641367 0.14701778 1.7410001
-0.1425962 0.14922857 1.7410001
-0.13264762 0.14922857 1.7410001
0.14922857 0.14922857 1.7410001
0.15254477 0.1425962 1.7410001
-0.16580953 0.15420286 1.7410001
-0.15586096 0.15586096 1.7410001
-0.14591239 0.15586096 1.7410001
-0.1372903 0.15718743 1.7409999
-0.12933144 0.15917715 1.7410001
0.14922857 0.15254477 1.7410001
-0.15544644 0.16539501 1.7410001
-0.14591238 0.16580953 1.7410001
-0.13596381 0.16580953 1.7410001
-0.12933144 0.16580953 1.7410001
-0.16249333 0.17907429 1.7410001
-0.15586095 0.17708459 1.7409999
-0.14591239 0.17481062 1.7410001
-0.13596381 0.17575812 1.7410001
-0.12933144 0.17575811 1.7410001
0.15254477 0.17575811 1.7410001
-0.15420286 0.18736477 1.7410001
-0.14922857 0.18902287 1.7410001
-0.12933144 0.18570668 1.7410001
-0.15387125 0.19499201 1.7409999
-0.14638613 0.19660272 1.7410001
-0.13817461 0.19786604 1.7410001
-0.17575811 0.20892 1.7410001
-0.15519772 0.20361412 1.7409999
-0.14524916 0.20361412 1.7409999
-0.13637833 0.20601834 1.7410001
-0.1251862 0.20809096 1.7410001
-0.11772476 0.20726192 1.7410001
-0.17575811 0.21649988 1.7410001
-0.16359873 0.21776319 1.7410001
-0.15696636 0.2166578 1.7410001
-0.13375302 0.21334159 1.7410001
-0.12601525 0.21555239 1.7410001
-0.11805638 0.21488914 1.7409999
0.14922857 0.21886858 1.7410001
-0.17528437 0.22455348 1.7410001
-0.16525684 0.22550096 1.7410001
-0.13596381 0.22881715 1.7410001
-0.1251862 0.22633001 1.7410001
-0.11938286 0.22384286 1.7410001
-0.17244191 0.23213334 1.7410001
-0.16580953 0.23213334 1.7410001
-0.15917715 0.23213334 1.7410001
-0.13430572 0.23544954 1.7410001
-0.12800495 0.2347863 1.7409999
-0.11938286 0.23379144 1.7410001
0.14922857 0.23544954 1.7410001
-0.13430572 0.2453981 1.7410001
-0.12734172 0.24672458 1.7409999
-0.11496127 0.2476089 1.7410001
-0.10777619 0.2470562 1.7410001
-0.13501634 0.25487295 1.7410001
-0.12767334 0.25534669 1.7410001
-0.11551397 0.25424129 1.7410001
-0.10777619 0.25203049 1.7410001
-0.13430572 0.26529524 1.7410001
-0.12642977 0.26570979 1.7410001
-0.11559292 0.26624274 1.7410001
-0.10653263 0.26488075 1.7410001
-0.099485718 0.26529524 1.7410001
-0.13430572 0.27192762 1.7410001
-0.12642977 0.27565834 1.7410001
-0.11275048 0.27192762 1.7410001
-0.10694715 0.27690193 1.7410001
-0.099485718 0.27856001 1.7410001
-0.12560073 0.28477788 1.7410001
-0.11523762 0.2851924 1.7410001
-0.10611811 0.28519237 1.7410001
-0.09561684 0.284087 1.7410001
0.14922857 0.28685051 1.7410001
-0.12435714 0.29514098 1.7410001
-0.11540344 0.29646745 1.7409999
-0.10943429 0.29679906 1.7410001
-0.096169524 0.29348284 1.7410001
0.14922857 0.29845715 1.7410001
0.15254477 0.29182476 1.7410001
-0.12601525 0.30467498 1.7410001
-0.11606666 0.30508956 1.7410001
-0.1083289 0.30287874 1.7410001
-0.12380445 0.31614351 1.7410001
-0.1164812 0.31545264 1.7410001
-0.10943429 0.31503811 1.7410001
-0.12269905 0.32332858 1.7410001
-0.11540344 0.32432348 1.7409999
-0.10943429 0.32830286 1.7410001
0.14922857 0.32830286 1.7410001
-0.1235281 0.33410621 1.7410001
-0.11565214 0.33534977 1.7410001
-0.10943428 0.33493522 1.7410001
-0.096169524 0.33327717 1.7410001
-0.12435714 0.34488383 1.7410001
-0.11606666 0.34488386 1.7410001
-0.10744457 0.34621033 1.7409999
-0.097274922 0.34709463 1.7410001
-0.12506776 0.35530615 1.7410001
-0.11606668 0.35483238 1.7410001
-0.1061181 0.35483241 1.7410001
-0.096643269 0.35577989 1.7410001
-0.13264762 0.36146477 1.7410001
-0.12402554 0.36411771 1.7409999
-0.11701415 0.36430719 1.7410001
-0.10446 0.36146477 1.7410001
-0.094843052 0.36345449 1.7409999
-0.087879047 0.36643907 1.7410001
-0.087547429 0.37406629 1.7409999
-0.092853338 0.38799429 1.7410001
-0.086635478 0.38509262 1.7410001
-0.076272383 0.38666782 1.7409999
-0.066987053 0.38666782 1.7409999
-0.037583493 0.3835727 1.7410001
0.15254477 0.38799429 1.7410001
-0.092853338 0.39462671 1.7410001
-0.08622095 0.39462668 1.7410001
-0.076272391 0.39462665 1.7410001
-0.065376334 0.39415291 1.7410001
-0.056375239 0.39462665 1.7410001
-0.049742859 0.39462665 1.7410001
-0.094179817 0.40523848 1.7409999
-0.08622095 0.40457529 1.7410001
-0.077219866 0.40410155 1.7410001
-0.066323809 0.40457532 1.7410001
-0.056375239 0.40457523 1.7410001
-0.049742859 0.40457526 1.7410001
-0.023213334 0.40789145 1.7410001
-0.096169531 0.41203669 1.7410001
-0.08456286 0.41286573 1.7410001
-0.077219866 0.41452384 1.7410001
-0.0672713 0.41405007 1.7410001
-0.056375239 0.4140501 1.7410001
-0.049742859 0.41120765 1.7410001
-0.02453981 0.41518706 1.7409999
-0.016580954 0.41452384 1.7410001
-0.10501271 0.42336699 1.7410001
-0.096169524 0.42281431 1.7410001
-0.07793048 0.4211562 1.7410001
-0.065376334 0.42399862 1.7410001
-0.024871428 0.42447239 1.7410001
-0.013264762 0.42447239 1.7410001
-0.064334102 0.43375772 1.7409999
-0.059691429 0.43607908 1.7410001
-0.025582042 0.43489471 1.7410001
-0.016107213 0.43536848 1.7410001
-0.0079588573 0.43508419 1.7409999
-0.096169524 0.44436955 1.7410001
-0.063007623 0.44105336 1.7410001
-0.058033332 0.44436955 1.7410001
-0.033161905 0.44602764 1.7410001
-0.027856002 0.44304305 1.7409999
-0.016580952 0.44436955 1.7410001
-0.0082904762 0.44436955 1.7410001
-0.08456286 0.45100191 1.7410001
-0.063007623 0.4576343 1.7410001
-0.056375235 0.45431811 1.7409999
-0.049742859 0.45100191 1.7410001
-0.02719276 0.45431811 1.7409999
-0.016580954 0.45431808 1.7410001
-0.0082904771 0.45266002 1.7410001
-0.064334102 0.46426669 1.7409999
-0.058862381 0.46426669 1.7410001
-0.024871429 0.46426669 1.7410001
-0.018239049 0.46426669 1.7410001
-0.10280191 0.47753143 1.7410001
-0.099485718 0.47753143 1.7410001
-0.063007623 0.47255719 1.7410001
-0.058033332 0.47338623 1.7410001
-0.024871429 0.47421527 1.7410001
-0.018239049 0.47421527 1.7410001
-0.10280191 0.48084763 1.7410001
-0.054717142 0.48416379 1.7410001
-0.048416384 0.48482704 1.7409999
-0.034267303 0.48637462 1.7410001
-0.026529524 0.48416379 1.7410001
-0.016580952 0.48361111 1.7410001
-0.0099485721 0.48748001 1.7410001
0.15254477 0.48084763 1.7410001
-0.054717142 0.4941124 1.7410001
-0.048913814 0.49328336 1.7410001
-0.034267303 0.49190161 1.7410001
-0.026529524 0.49278593 1.7409999
-0.013264763 0.4941124 1.7410001
-0.007579864 0.49411243 1.7410001
-0.054717146 0.5024029 1.7410001
-0.04891381 0.50489002 1.7410001
-0.034819998 0.50737715 1.7410001
-0.026529526 0.50406098 1.7410001
-0.014093809 0.50489002 1.7410001
-0.0082904771 0.5024029 1.7410001
0.15254477 0.50737715 1.7410001
-0.055427756 0.51448327 1.7410001
-0.046900414 0.51306206 1.7410001
-0.036478098 0.51400954 1.7410001
-0.027358571 0.51318049 1.7410001
-0.017133651 0.51456225 1.7410001
0.0099485721 0.51069337 1.7410001
0.15586096 0.51400954 1.7410001
-0.067429215 0.52285272 1.7410001
-0.056375239 0.5223 1.7410001
-0.049742859 0.5223 1.7410001
-0.033161905 0.52064192 1.7410001
-0.029845715 0.5223 1.7410001
-0.014591238 0.52329487 1.7409999
-0.0088431751 0.52616888 1.7410001
0.15586096 0.52727431 1.7410001
-0.056375239 0.5339067 1.7410001
-0.0049742861 0.53059047 1.7410001
0.00082904764 0.53473574 1.7410001
0.15586096 0.53059047 1.7410001
0.0033161908 0.54385531 1.7409999
0.013264762 0.54717147 1.7410001
-0.029845715 0.55712003 1.7410001
0.0023687074 0.55333012 1.7410001
-0.029845715 0.56375241 1.7410001
-0.0082904771 0.56458145 1.7410001
0.0033161906 0.56422615 1.7410001
-0.033161905 0.57535911 1.7410001
-0.029016666 0.57453001 1.7410001
-0.013264762 0.57701719 1.7410001
-0.0066323821 0.57370096 1.7410001
0.0048235501 0.5733996 1.7409999
0.013264763 0.57370096 1.7410001
0.029845715 0.57535911 1.7410001
0.036478095 0.57370096 1.7409999
0.043110479 0.57370096 1.7410001
-0.033161905 0.58033335 1.7410001
-0.029016666 0.58447862 1.7410001
-0.014591238 0.5843128 1.7409999
-0.0070469053 0.58323503 1.7410001
0.0055269846 0.58143872 1.7410001
0.016580954 0.58364952 1.7410001
0.027003268 0.58459705 1.7410001
0.036004357 0.58459699 1.7410001
0.045100193 0.58497602 1.7409999
-0.033990953 0.59359813 1.7410001
-0.02818762 0.59359813 1.7410001
-0.01616643 0.59401268 1.7410001
-0.007106123 0.59265059 1.7410001
0.013264762 0.5902819 1.7410001
0.027855998 0.59227169 1.7409999
0.035372701 0.5924927 1.7410001
0.046426669 0.5902819 1.7410001
-0.033161905 0.60520482 1.7410001
-0.028187618 0.60354668 1.7410001
-0.014093809 0.60271764 1.7410001
-0.0062178569 0.60313213 1.7410001
0.0055269846 0.6068629 1.7410001
0.01616643 0.60396129 1.7410001
0.026944049 0.60396123 1.7410001
0.03448838 0.6042099 1.7409999
0.048416384 0.60420996 1.7409999
0.053059053 0.60354668 1.7410001
-0.033161905 0.61349529 1.7410001
-0.028740317 0.61238986 1.7410001
0.0049742861 0.61017907 1.7410001
0.019897144 0.61349529 1.7410001
0.026529524 0.61349529 1.7410001
0.033161905 0.61017907 1.7410001
0.047532067 0.61128443 1.7410001
0.053059049 0.61017907 1.7410001
0.019897144 0.62344384 1.7410001
0.024871429 0.62344384 1.7410001
0.046426669 0.62676001 1.7410001
0.056375235 0.62439126 1.7410001
0.064113021 0.62565464 1.7410001
0.017907431 0.63471889 1.7409999
0.026944049 0.63380694 1.7410001
0.034267303 0.63560325 1.7410001
0.047255717 0.63422143 1.7410001
0.056375239 0.63339251 1.7410001
0.064113021 0.63560319 1.7410001
0.0099485721 0.64168286 1.7410001
0.016279481 0.64514977 1.7409999
0.025582042 0.64286721 1.7410001
0.038688894 0.64444637 1.7410001
0.046426669 0.64433587 1.7409999
0.0567437 0.64481485 1.7410001
0.066323802 0.64566231 1.7409999
0.077101432 0.6541186 1.7410001
0.084010161 0.65881652 1.7410001
0.094511434 0.65992194 1.7410001
0.10721524 0.087112382 1.7590001
0.11056572 0.087112382 1.7590001
0.092138097 0.097163811 1.7590001
0.10587505 0.094483435 1.7590001
0.11056572 0.092138097 1.7590001
-0.32164574 0.10721524 1.7590001
-0.26133716 0.10721524 1.7590001
-0.22113144 0.10721524 1.7590001
-0.21407048 0.10703238 1.7560002
-0.16584858 0.10721524 1.7590001
-0.1535635 0.10498159 1.7589999
-0.1449081 0.10637762 1.7590001
-0.13508496 0.10498552 1.7554001
-0.12531716 0.10694095 1.7545002
-0.11514143 0.1068038 1.7522502
-0.10721524 0.10721524 1.7590001
-0.032500003 0.10416667 1.7500001
-0.025094286 0.10540286 1.7567501
0.10721524 0.10051429 1.7590001
0.11453551 0.10164899 1.7538573
0.12466159 0.10128254 1.7530001
0.13333334 0.1 1.7500001
0.14383048 0.10034286 1.7560002
0.15038572 0.10526572 1.7545002
-0.33370748 0.11525639 1.7590001
-0.32451758 0.1139162 1.7589999
-0.31494477 0.11525638 1.7590001
-0.30154288 0.11726667 1.7590001
-0.29651713 0.11726667 1.7590001
-0.28144002 0.11726667 1.7590001
-0.27557668 0.11642906 1.7590001
-0.26334497 0.11587936 1.755
-0.25470236 0.11502233 1.7573638
-0.24471253 0.11578813 1.7562311
-0.23413332 0.11706095 1.756
-0.22384572 0.1158146 1.7540001
-0.215 0.11166667 1.7500001
-0.19097716 0.1139162 1.7590001
-0.18333334 0.115 1.7500001
-0.1731374 0.11389144 1.7522501
-0.16375335 0.11194953 1.7545
-0.15346761 0.11176095 1.7515001
-0.14370191 0.11194953 1.7545
-0.13333334 0.11000001 1.7500001
-0.33504766 0.12396762 1.7589999
-0.3249962 0.12396762 1.7589999
-0.31590202 0.12396763 1.7589999
-0.3023805 0.12480524 1.7590001
-0.29484189 0.12396763 1.7589999
-0.28479049 0.12396762 1.7589999
-0.27473906 0.12396762 1.7589999
-0.26478425 0.12474122 1.7564286
-0.255 0.125 1.7500001
-0.245 0.125 1.7500001
-0.23333335 0.125 1.7500001
-0.22333334 0.125 1.7500001
-0.21666667 0.12666667 1.7500001
-0.33169717 0.13066858 1.7590001
-0.32834667 0.13066858 1.7590001
-0.30154288 0.13401906 1.7590002
-0.29484192 0.13401906 1.7589999
-0.28479049 0.13401905 1.7589999
-0.27473906 0.13401906 1.7589999
-0.26424187 0.13379048 1.756
-0.25521713 0.13344476 1.7515001
-0.245 0.13333334 1.7500001
-0.23387048 0.13363999 1.7540001
-0.22346097 0.13341144 1.751
-0.21444446 0.13444445 1.7500001
-0.20666668 0.13500001 1.7500001
-0.18000001 0.13166668 1.7500001
-0.17555557 0.13222224 1.7500001
-0.29417184 0.14206019 1.7590001
-0.2843717 0.14365168 1.7589999
-0.27473903 0.14407049 1.7589999
-0.2642419 0.14382477 1.756
-0.255 0.14333333 1.7500001
-0.245 0.14333333 1.7500001
-0.23346478 0.14341334 1.751
-0.22333333 0.14333333 1.7500001
-0.21333335 0.14333333 1.7500001
-0.20333336 0.14333333 1.7500001
-0.19380954 0.14428571 1.7500001
-0.18416667 0.14583334 1.7500001
-0.17583334 0.14416668 1.7500001
0.15333334 0.14666668 1.7500001
-0.3417486 0.15579715 1.7590001
-0.3383981 0.15747239 1.7590001
-0.28479049 0.15412191 1.7589999
-0.27473906 0.15412191 1.7589999
-0.26468766 0.15412191 1.7589999
-0.25566 0.15372761 1.7545
-0.245 0.15333332 1.7500001
-0.23333335 0.15333332 1.7500001
-0.22359239 0.15350856 1.7520001
-0.21333335 0.15333332 1.7500001
-0.20333335 0.15333332 1.7500001
-0.19333336 0.15333332 1.7500001
-0.18333334 0.15333332 1.7500001
-0.17500001 0.15333332 1.7500001
-0.34258622 0.16501096 1.7590001
-0.3383981 0.16417335 1.7590002
-0.28479052 0.16166049 1.7590001
-0.27473906 0.16417333 1.7589999
-0.26468766 0.16417333 1.7589999
-0.25559345 0.16465198 1.7589999
-0.24511743 0.16341524 1.7540909
-0.23399809 0.16380191 1.755
-0.22397524 0.1638038 1.755
-0.21333335 0.16333334 1.7500001
-0.20333336 0.16333334 1.7500001
-0.19333336 0.16333334 1.7500001
-0.18343621 0.16342857 1.751
-0.17333333 0.16333334 1.7500001
-0.16500001 0.16333334 1.7500001
-0.34283528 0.17393048 1.756
-0.3383981 0.17254953 1.7590001
-0.28311527 0.1708743 1.7590001
-0.27426043 0.17326748 1.7589999
-0.2646876 0.17374612 1.7589999
-0.2546362 0.17422478 1.7589999
-0.24458477 0.17422478 1.7589999
-0.23426287 0.17402858 1.757
-0.22359048 0.17352764 1.7520001
-0.21333335 0.17333333 1.7500001
-0.20344955 0.17343429 1.751
-0.19344574 0.17343429 1.751
-0.18354096 0.17353523 1.7520001
-0.17333335 0.17333335 1.7500001
-0.16375001 0.17291668 1.7500001
-0.155 0.17333335 1.7500001
-0.34509906 0.18427618 1.7590002
-0.33616444 0.18650985 1.7590002
-0.27138859 0.18427618 1.7590002
-0.26468763 0.18427622 1.7589999
-0.2546362 0.18331893 1.7589999
-0.24410614 0.18331893 1.7589999
-0.23453334 0.18427621 1.7589999
-0.22359239 0.1835448 1.7520001
-0.21357335 0.18354289 1.7520001
-0.20356573 0.18354098 1.7520001
-0.19366285 0.18364763 1.753
-0.18416953 0.18417335 1.7579999
-0.17353334 0.18354286 1.7520001
-0.16380954 0.18428572 1.7500001
0.15077144 0.18092573 1.7590001
-0.3417486 0.19097716 1.7590001
-0.33672285 0.19432762 1.7590001
-0.27138859 0.19432764 1.7590002
-0.26468763 0.19474642 1.7589999
-0.25597638 0.19499771 1.7590001
-0.23453334 0.19432762 1.7589999
-0.22372192 0.19366479 1.753
-0.21333335 0.19333336 1.7500001
-0.20333336 0.19333336 1.7500001
-0.19344193 0.19344193 1.751
-0.18364763 0.19365904 1.753
-0.17352764 0.19355239 1.7520001
-0.16333334 0.19333336 1.7500001
-0.33756047 0.20354144 1.7590001
-0.27138859 0.20270382 1.7590001
-0.26468766 0.20270383 1.7589999
-0.25519457 0.20382065 1.7589999
-0.24458478 0.20661271 1.7590002
-0.23453334 0.20437907 1.7589999
-0.2243562 0.20426479 1.7579999
-0.21333335 0.20333335 1.7500001
-0.20333335 0.20333336 1.7500001
-0.19333336 0.20333335 1.7500001
-0.18333334 0.20333336 1.7500001
-0.17333333 0.20333335 1.7500001
-0.16375001 0.20333336 1.7500001
-0.15333334 0.20333335 1.7500001
-0.3383981 0.21108001 1.7590001
-0.25212336 0.21443048 1.7590001
-0.24458477 0.2144305 1.7589999
-0.23453334 0.2144305 1.7589999
-0.22372192 0.21369906 1.753
-0.21333335 0.21333335 1.7500001
-0.20333336 0.21333335 1.7500001
-0.19333336 0.21333335 1.7500001
-0.18375 0.21291669 1.7500001
-0.17133334 0.21266668 1.7500002
-0.16333334 0.21291669 1.7500001
-0.15291665 0.21333335 1.7500001
-0.14375 0.21375002 1.7500001
-0.13666667 0.21666667 1.7500001
0.15412191 0.21778096 1.7590001
-0.3383981 0.22448191 1.7590001
-0.25128573 0.2244819 1.7590002
-0.24458477 0.22448193 1.7589999
-0.23453334 0.22448193 1.7589999
-0.22397716 0.22397144 1.755
-0.21333335 0.22333333 1.7500001
-0.20344764 0.22346288 1.751
-0.19333336 0.22333333 1.7500001
-0.185 0.22333334 1.7500001
-0.17 0.22166668 1.7500001
-0.16222222 0.22555555 1.7500001
-0.15291665 0.22375001 1.7500001
-0.14333333 0.22333333 1.7500001
-0.13375001 0.22375001 1.7500001
-0.12666667 0.22500001 1.7500001
0.15412191 0.22113144 1.7590001
-0.25128573 0.23453335 1.7590002
-0.24458477 0.23453334 1.7589999
-0.23453334 0.23453334 1.7589999
-0.22423047 0.23426475 1.757
-0.21381907 0.23386288 1.7540001
-0.20391431 0.234 1.755
-0.19366859 0.23373525 1.753
-0.18333334 0.23333335 1.7500001
-0.17466667 0.23466668 1.7500002
-0.1638889 0.23388891 1.7500001
-0.15333332 0.23333335 1.7500001
-0.14333333 0.23333335 1.7500001
-0.13333334 0.23 1.7500001
-0.25128573 0.24290952 1.7590001
-0.2436275 0.24410614 1.7589999
-0.23453334 0.24458477 1.7589999
-0.22448193 0.24458477 1.7589999
-0.2144305 0.24458477 1.7589999
-0.20426479 0.24444382 1.7579999
-0.19333336 0.24333334 1.7500001
-0.18333334 0.24333334 1.7500001
-0.17333335 0.24333334 1.7500001
-0.16333334 0.24333334 1.7500001
-0.15333332 0.24333334 1.7500001
-0.14333333 0.24333334 1.7500001
-0.262454 0.25686982 1.7590002
-0.25415757 0.25559345 1.7589999
-0.24458477 0.2546362 1.7589999
-0.23453334 0.2546362 1.7589999
-0.2243562 0.25449145 1.7579999
-0.21443047 0.25463623 1.7589999
-0.20403622 0.25420189 1.756
-0.19333336 0.25333336 1.7500001
-0.18333334 0.25333333 1.7500001
-0.17333335 0.25333333 1.7500001
-0.16333334 0.25333333 1.7500001
-0.15333332 0.25333333 1.7500001
-0.14375 0.25333333 1.7500001
-0.26301241 0.26301241 1.7590001
-0.25296098 0.26133716 1.7590001
-0.2450036 0.26426882 1.7589999
-0.23453334 0.26468763 1.7589999
-0.22448193 0.26468763 1.7589999
-0.2144305 0.2646876 1.7589999
-0.20437905 0.26468766 1.7589999
-0.19400001 0.26424 1.756
-0.18354098 0.26363811 1.7520001
-0.17333333 0.26333335 1.7500001
-0.16333334 0.26333335 1.7500001
-0.15333332 0.26333335 1.7500001
-0.14333333 0.26333335 1.7500001
-0.24458477 0.27473903 1.7589999
-0.23453334 0.27473906 1.7589999
-0.22448193 0.27473906 1.7589999
-0.21443047 0.27473906 1.7589999
-0.20437907 0.27473906 1.7589999
-0.19432762 0.27473906 1.7589999
-0.18385716 0.27411237 1.755
-0.17333335 0.27333334 1.7500001
-0.16333334 0.27333334 1.7500001
-0.15333332 0.27333334 1.7500001
-0.14333333 0.27333334 1.7500001
-0.13500001 0.27666667 1.7500001
-0.24346794 0.28367367 1.7589999
-0.23453334 0.28479049 1.7589999
-0.22448193 0.28479052 1.7589999
-0.2144305 0.28479049 1.7589999
-0.20437907 0.28479052 1.7589999
-0.19432762 0.28479052 1.7589999
-0.18364763 0.28381336 1.753
-0.17333335 0.28333333 1.7500001
-0.16333334 0.28333333 1.7500001
-0.15333332 0.28333333 1.7500001
-0.14333333 0.28333333 1.7500001
-0.13500001 0.28333333 1.7500001
-0.1 0.28666669 1.7500001
0.15333334 0.28666669 1.7500001
-0.25329602 0.2961821 1.7590001
-0.24458477 0.29484192 1.7589999
-0.23453332 0.29442313 1.7589999
-0.22406311 0.29442313 1.7589999
-0.2144305 0.29484192 1.7589999
-0.20437907 0.29484195 1.7589999
-0.19432762 0.29484192 1.7589999
-0.18365145 0.29384002 1.753
-0.17333333 0.29333332 1.7500001
-0.16333334 0.29333332 1.7500001
-0.15333332 0.29333332 1.7500001
-0.14333333 0.29333332 1.7500001
-0.13333334 0.29333332 1.7500001
-0.10222223 0.29444444 1.7500001
0.15333334 0.29000002 1.7500001
-0.25351939 0.30433494 1.7589999
-0.24410614 0.30393606 1.7589999
-0.23453334 0.30321813 1.7590001
-0.22280669 0.30489334 1.7589999
-0.21443047 0.30489334 1.7589999
-0.20437905 0.30489334 1.7589999
-0.19432762 0.30489334 1.7589999
-0.18417335 0.30471998 1.7579999
-0.17333333 0.30333331 1.7500001
-0.16333334 0.30333331 1.7500001
-0.15333332 0.30333331 1.7500001
-0.14333333 0.30333331 1.7500001
-0.13428572 0.30285713 1.7500001
-0.10333333 0.30000001 1.7500001
-0.096666671 0.30000001 1.7500001
0.15206096 0.30243811 1.7545002
-0.25128573 0.31494477 1.7590001
-0.24346794 0.31606159 1.7589999
-0.23587354 0.31494477 1.7590001
-0.22280668 0.31159431 1.7590001
-0.2130903 0.31360459 1.7590001
-0.20437905 0.31494474 1.7589999
-0.19432762 0.31494474 1.7589999
-0.18427621 0.31494474 1.7589999
-0.17402858 0.31459048 1.757
-0.16342857 0.31351236 1.751
-0.15333332 0.3133333 1.7500001
-0.14333333 0.31333333 1.7500001
-0.13375001 0.31375 1.7500001
-0.12583333 0.31416667 1.7500001
-0.11333334 0.31333333 1.7500001
-0.32834667 0.32667142 1.7590001
-0.24257448 0.32566628 1.7590001
-0.23453334 0.32700649 1.7590001
-0.21108001 0.3249962 1.7590002
-0.20437907 0.3249962 1.7589999
-0.19432762 0.32499623 1.7589999
-0.18427621 0.32499623 1.7589999
-0.17422478 0.3249962 1.7589999
-0.16352382 0.32370478 1.7520001
-0.15333332 0.32333335 1.7500001
-0.14333333 0.32333335 1.7500001
-0.13333334 0.32333335 1.7500001
-0.12666667 0.32500002 1.7500001
-0.11833333 0.32666668 1.7500001
0.15000001 0.32000002 1.7500001
-0.24362747 0.33504763 1.7589999
-0.23453334 0.33504766 1.7589999
-0.21108001 0.33672285 1.7590001
-0.20437907 0.3350476 1.7589999
-0.19432762 0.3350476 1.7589999
-0.18427621 0.33504766 1.7589999
-0.17422478 0.33504763 1.7589999
-0.16333334 0.33333334 1.7500001
-0.15333332 0.33333331 1.7500001
-0.14333333 0.33333331 1.7500001
-0.13333334 0.33333331 1.7500001
-0.12555556 0.33222222 1.7500001
-0.12 0.33166668 1.7500001
-0.24123429 0.3417486 1.7590001
-0.23453334 0.34342384 1.7590001
-0.21443048 0.34509906 1.7590001
-0.20342179 0.34462041 1.7589999
-0.19432762 0.34509906 1.7589999
-0.18427621 0.34509903 1.7589999
-0.17412573 0.34490478 1.7579999
-0.16333334 0.34333336 1.7500001
-0.15333332 0.34333333 1.7500001
-0.14333333 0.34333336 1.7500001
-0.13333334 0.34333333 1.7500001
-0.12666667 0.34 1.7500001
-0.19432764 0.35180005 1.7590002
-0.18385738 0.35473168 1.7589999
-0.17412762 0.35495049 1.7579999
-0.16342857 0.3535372 1.751
-0.15333332 0.35333332 1.7500001
-0.14333333 0.35333332 1.7500001
-0.13333334 0.35333332 1.7500001
-0.18315937 0.36464354 1.7589999
-0.17422478 0.36520195 1.7589999
-0.16361906 0.36395618 1.753
-0.15359809 0.36396006 1.753
-0.14333333 0.36333337 1.7500001
-0.13380952 0.36380953 1.7500001
-0.11111111 0.36555555 1.7500001
-0.10333333 0.36666667 1.7500001
-0.096666671 0.36666667 1.7500001
-0.19298741 0.37592345 1.7590001
-0.18427621 0.37525335 1.7589999
-0.17422476 0.37525335 1.7589999
-0.16417335 0.37525335 1.7589999
-0.15403619 0.37504005 1.7579999
-0.14333333 0.37333333 1.7500001
-0.13333334 0.37333331 1.7500001
-0.12533334 0.37400001 1.7500002
-0.11433333 0.37400004 1.7500002
-0.10333334 0.37333336 1.7500001
-0.09533333 0.37400001 1.7500002
-0.20236878 0.38597485 1.7590001
-0.19432762 0.38530478 1.7589999
-0.18427621 0.38530475 1.7589999
-0.17422476 0.38530478 1.7589999
-0.16417333 0.38530478 1.7589999
-0.15412191 0.38530478 1.7589999
-0.14366478 0.38420957 1.7540001
-0.13333334 0.38333338 1.7500001
-0.125 0.38333336 1.7500001
-0.115 0.38333341 1.7500001
-0.10333335 0.38333338 1.7500001
-0.094285719 0.38285717 1.7500001
0.15579715 0.38530478 1.7590001
-0.20214541 0.39312258 1.7590002
-0.19432762 0.39535621 1.7589999
-0.18417335 0.39512953 1.7579999
-0.17362478 0.39400765 1.753
-0.16352382 0.39378288 1.7520001
-0.15394285 0.39490476 1.757
-0.14398667 0.39512956 1.7579999
-0.13386856 0.39491045 1.757
