# .PCD v0.7 - Point Cloud Data file format
VERSION 0.7
FIELDS x y z
SIZE 4 4 4
TYPE F F F
COUNT 1 1 1
WIDTH 1462
HEIGHT 1
VIEWPOINT 0 0 0 1 0 0 0
POINTS 1462
DATA ascii
-0.1583543 0.16495238 1.732
-0.072579049 0.16330287 1.7320001
-0.068180323 0.16385271 1.732
-0.1583543 0.17484953 1.732
-0.066530794 0.17594922 1.7320002
-0.16297296 0.18408687 1.7320001
-0.15725462 0.18694603 1.732
-0.065038376 0.18474667 1.7320002
-0.16165334 0.1929943 1.7320001
-0.15752953 0.19381905 1.7320001
-0.069280006 0.19464381 1.732
-0.16165334 0.20124191 1.7320001
-0.15505524 0.20501223 1.7320002
-0.14845715 0.20619048 1.7320001
-0.065980956 0.20454097 1.7320001
-0.15458395 0.21349552 1.7320002
-0.14845715 0.2144381 1.732
-0.062681906 0.2144381 1.732
-0.15395556 0.22213589 1.732
-0.14610069 0.22480655 1.7320002
-0.062681906 0.22433525 1.732
-0.1517562 0.23093334 1.7320001
-0.1451581 0.2342324 1.7320002
-0.065568581 0.23464477 1.7320002
-0.14350858 0.24412954 1.7320002
-0.072579049 0.24577907 1.7320001
-0.06680572 0.24165525 1.7320001
-0.14268382 0.25402668 1.7320001
-0.13856001 0.25732571 1.7320001
-0.072579049 0.25402668 1.732
-0.069280006 0.25567621 1.7320001
-0.14185905 0.26392382 1.732
-0.13856001 0.26392382 1.732
-0.072579049 0.2622743 1.7320001
-0.067960389 0.26392382 1.7320001
-0.064001523 0.27316114 1.7320001
-0.05938286 0.27712002 1.7320001
-0.13856001 0.28536764 1.7320001
-0.062681906 0.28371811 1.7320001
-0.058283176 0.28481779 1.732
-0.13856001 0.29361525 1.732
-0.062681906 0.29361525 1.732
-0.05938286 0.29361525 1.732
-0.14185905 0.30186287 1.7320001
-0.13773525 0.30433714 1.7320001
-0.072579049 0.30681145 1.7320001
-0.067960382 0.30285257 1.7320001
-0.14185905 0.31670859 1.7320001
-0.13691048 0.31340954 1.7320001
-0.075878099 0.31258479 1.7320001
-0.14185905 0.32660574 1.7320001
-0.13691048 0.32495621 1.7320002
-0.086435057 0.3239665 1.7320001
-0.079177149 0.32000762 1.7320001
-0.14185905 0.33650288 1.732
-0.13691048 0.33650288 1.7320002
-0.089074291 0.33650288 1.732
-0.13431838 0.34592873 1.7320002
-0.086600006 0.34640002 1.7320001
-0.075878091 0.34969905 1.732
-0.069280006 0.34969905 1.7320001
-0.1330616 0.35409781 1.732
-0.12866285 0.35959619 1.7320001
-0.082476191 0.35299811 1.7320001
-0.076537915 0.35431772 1.7320001
-0.067630485 0.35629717 1.7320001
-0.12866285 0.36619428 1.732
-0.072579049 0.36619428 1.732
-0.069280006 0.36619428 1.732
-0.13196191 0.37609142 1.7320001
-0.12866285 0.37609145 1.732
-0.068455242 0.37526667 1.7320001
-0.13443619 0.38516378 1.7320001
-0.069280006 0.38433906 1.7320001
-0.13361143 0.39588574 1.7320001
-0.12866285 0.39918476 1.7320001
-0.072579049 0.39588571 1.732
-0.13196191 0.40248382 1.7320001
-0.12583511 0.40672547 1.7320002
-0.072579049 0.40578285 1.732
-0.12338439 0.41568002 1.7320001
-0.1174461 0.41633981 1.7320001
-0.072579049 0.41568002 1.732
-0.069280006 0.41568002 1.732
-0.12495144 0.42557719 1.7320002
-0.11587905 0.42598954 1.7320002
-0.10556953 0.42887619 1.7320001
-0.075878099 0.42604846 1.7320002
-0.12371429 0.43547431 1.7320002
-0.11656636 0.4343746 1.7320002
-0.082476191 0.43712384 1.7320001
-0.07752762 0.43547431 1.7320002
-0.12442124 0.44490018 1.7320002
-0.11876572 0.44537145 1.7320001
-0.082476191 0.44537148 1.732
-0.079177149 0.44207239 1.7320001
-0.12618858 0.45444381 1.7320001
-0.082476191 0.45526859 1.732
-0.079177149 0.45526859 1.7320001
-0.12536381 0.46516573 1.732
-0.082476191 0.46516573 1.732
-0.079177149 0.46846479 1.7320001
-0.12206477 0.47341335 1.7320001
-0.083795808 0.47506291 1.7320001
-0.079177149 0.47506288 1.732
-0.11876572 0.48825908 1.7320001
-0.084832661 0.48543134 1.7320002
-0.079177149 0.48495999 1.732
-0.12206477 0.4915581 1.7320001
-0.11876572 0.49485716 1.7320001
-0.083575875 0.49375749 1.732
-0.078352392 0.49568191 1.7320001
-0.11546668 0.5047543 1.732
-0.082476191 0.5047543 1.732
-0.078352384 0.50392956 1.7320001
-0.1132673 0.51465148 1.732
-0.082476191 0.51465148 1.732
-0.078352384 0.51547623 1.7320001
-0.11299238 0.52537334 1.7320001
-0.10886858 0.52454859 1.7320001
-0.082476191 0.52454859 1.732
-0.07752762 0.52454859 1.7320002
-0.11216763 0.53444576 1.732
-0.10776889 0.53664511 1.732
-0.082476191 0.53114671 1.7320001
-0.076820686 0.53491706 1.7320002
-0.11216763 0.54104382 1.7320001
-0.10515715 0.54393053 1.7320002
-0.07752762 0.54434282 1.7320002
-0.10490972 0.55489981 1.7320001
-0.07752762 0.55423999 1.7320002
-0.11216763 0.56413716 1.732
-0.10754895 0.5634774 1.7320001
-0.077197716 0.56479698 1.7320001
-0.11216763 0.57073528 1.7320001
-0.10776889 0.57513398 1.732
-0.084125713 0.57733333 1.7320001
-0.079177149 0.57403433 1.732
-0.10556953 0.58063239 1.732
-0.09614367 0.58487403 1.7320002
-0.086325087 0.58393145 1.7320002
-0.095672376 0.59217912 1.7320002
-0.086325087 0.59272891 1.7320002
-0.095672376 0.60372567 1.7320002
-0.086717837 0.60419703 1.7320002
-0.097321913 0.61032385 1.7320001
-0.085775241 0.61114866 1.7320001
-0.094022855 0.63671619 1.7320001
-0.086600006 0.63589144 1.7320001
-0.095342472 0.64529371 1.7320001
-0.085775249 0.6449638 1.7320002
-0.079177149 0.6433143 1.7320001
-0.085775249 0.65321147 1.732
-0.1442543 0.10943429 1.7410001
-0.037307143 0.10860525 1.7410001
-0.17244191 0.11938286 1.7410001
-0.16691492 0.11606666 1.7410001
-0.15586096 0.11385588 1.7410001
-0.17244191 0.12601525 1.7410001
-0.16912572 0.12601525 1.7410001
-0.046426669 0.12822604 1.7410001
-0.036478095 0.12380445 1.7410001
-0.17244191 0.13596381 1.7410001
-0.16912572 0.13762191 1.7410001
-0.063007623 0.13928001 1.7410001
-0.058033332 0.13430572 1.7410001
-0.17244191 0.1442543 1.7410001
-0.16912572 0.14591239 1.7410001
-0.07295619 0.14757048 1.7410001
-0.066323817 0.14524916 1.7409999
-0.16636223 0.15586096 1.7410001
-0.075443335 0.15503192 1.7410001
-0.066323817 0.15917715 1.7410001
-0.16448304 0.16647276 1.7409999
-0.063836671 0.16498049 1.7410001
-0.057038475 0.16779925 1.7409999
-0.049742859 0.16912572 1.7410001
-0.16415143 0.17575811 1.7410001
-0.063007623 0.17410001 1.7410001
-0.057322718 0.17528437 1.7410001
-0.16802032 0.18570668 1.7410001
-0.058862381 0.18570668 1.7410001
-0.16580953 0.19631848 1.7409999
-0.06466572 0.19565524 1.7410001
-0.059691429 0.19565524 1.7410001
-0.16525683 0.20670922 1.7410001
-0.15917715 0.20560382 1.7410001
-0.063007623 0.20394573 1.7410001
-0.059691429 0.20560382 1.7410001
-0.16470413 0.21444698 1.7410001
-0.15751906 0.21886858 1.7410001
-0.059691429 0.21555239 1.7410001
-0.16332239 0.22467192 1.7410001
-0.15641366 0.22660635 1.7410001
-0.058033332 0.22550096 1.7410001
-0.16249333 0.23544954 1.7410001
-0.15627548 0.23586407 1.7410001
-0.14922857 0.23876572 1.7410001
-0.058033332 0.23544954 1.7410001
-0.15586096 0.2453981 1.7410001
-0.14922857 0.2453981 1.7410001
-0.065660581 0.24738784 1.7409999
-0.058033332 0.24374001 1.7410001
-0.15420286 0.25534669 1.7410001
-0.1479021 0.25534669 1.7409999
-0.065376334 0.25487295 1.7410001
-0.057322718 0.25582045 1.7410001
-0.15420286 0.26529524 1.7410001
-0.14757048 0.26529527 1.7410001
-0.063836671 0.26529524 1.7410001
-0.058033332 0.26529524 1.7410001
-0.15254477 0.27524379 1.7410001
-0.14591239 0.27524379 1.7410001
-0.13928001 0.27524382 1.7410001
-0.056927934 0.27524382 1.7410001
-0.15254477 0.2851924 1.7410001
-0.14591239 0.2851924 1.7410001
-0.13928001 0.28187621 1.7410001
-0.055712003 0.2851924 1.7409999
-0.15254477 0.29514095 1.7410001
-0.14591239 0.29514095 1.7410001
-0.054717142 0.29514095 1.7410001
-0.15254477 0.30343145 1.7410001
-0.14685987 0.30556327 1.7410001
-0.064113021 0.30508953 1.7410001
-0.059691429 0.30177334 1.7410001
-0.14591238 0.31456438 1.7410001
-0.13762191 0.31503811 1.7410001
-0.074061587 0.31724891 1.7410001
-0.069640003 0.31172192 1.7410001
-0.14591238 0.32451296 1.7410001
-0.08622095 0.32830286 1.7410001
-0.078483179 0.32498667 1.7410001
-0.14685987 0.33446148 1.7410001
-0.08456286 0.33493528 1.7410001
-0.14535968 0.34488383 1.7410001
-0.13928001 0.34820002 1.7410001
-0.08456286 0.34488383 1.7410001
-0.076272391 0.34654197 1.7410001
-0.066323817 0.34654197 1.7410001
-0.059691429 0.34820002 1.7410001
-0.1425962 0.3531743 1.7410001
-0.13845095 0.35566145 1.7410001
-0.064334102 0.35416919 1.7409999
-0.13596381 0.36478093 1.7410001
-0.064334102 0.36544421 1.7409999
-0.13637833 0.37472954 1.7410001
-0.064334102 0.37472957 1.7409999
-0.1425962 0.38633621 1.7410001
-0.13845097 0.38384908 1.7410001
-0.064997338 0.3840149 1.7409999
-0.14425428 0.39462665 1.7410001
-0.13928001 0.39462671 1.7410001
-0.068810955 0.39379764 1.7410001
-0.1437016 0.40236446 1.7410001
-0.1369113 0.40504903 1.7410001
-0.067981906 0.40457526 1.7410001
-0.13554929 0.41410932 1.7410001
-0.12822604 0.41673461 1.7410001
-0.066323817 0.41386062 1.7409999
-0.13397411 0.42513567 1.7409999
-0.12933144 0.42447239 1.7410001
-0.07295619 0.42778859 1.7410001
-0.067981906 0.42447239 1.7410001
-0.13347667 0.43359193 1.7410001
-0.12933144 0.43607908 1.7410001
-0.07295619 0.43607908 1.7410001
-0.069640003 0.43442097 1.7410001
-0.13264762 0.44436955 1.7410001
-0.12933144 0.44436955 1.7410001
-0.075166993 0.44547495 1.7410001
-0.069640003 0.44436955 1.7410001
-0.13264762 0.45431814 1.7410001
-0.12933144 0.45431811 1.7410001
-0.075857863 0.45390356 1.7410001
-0.068810955 0.45514715 1.7410001
-0.13264762 0.46260858 1.7410001
-0.12933144 0.46426669 1.7410001
-0.076272383 0.46426666 1.7410001
-0.068810955 0.46343762 1.7410001
-0.12712064 0.47421527 1.7410001
-0.075443335 0.47338623 1.7410001
-0.12435714 0.48416379 1.7410001
-0.076272383 0.48416385 1.7410001
-0.12601526 0.49458614 1.7410001
-0.075443335 0.49494147 1.7410001
-0.12402554 0.50339776 1.7409999
-0.11938286 0.50406098 1.7410001
-0.073785238 0.50489002 1.7410001
-0.12269905 0.51069337 1.7410001
-0.11855381 0.51483858 1.7410001
-0.074945904 0.51467282 1.7409999
-0.12269905 0.52561617 1.7410001
-0.11772477 0.52395815 1.7410001
-0.07295619 0.52395809 1.7410001
-0.069640003 0.52727431 1.7410001
-0.12435714 0.5339067 1.7410001
-0.11805638 0.53456992 1.7409999
-0.07295619 0.5339067 1.7410001
-0.069640003 0.5339067 1.7410001
-0.12269905 0.54053909 1.7410001
-0.11606666 0.54302621 1.7410001
-0.07295619 0.54551339 1.7410001
-0.069640003 0.54717147 1.7410001
-0.11275048 0.55048764 1.7410001
-0.10860524 0.5538038 1.7410001
-0.07295619 0.5538038 1.7410001
-0.11523762 0.56292337 1.7410001
-0.07295619 0.56375241 1.7410001
-0.069640003 0.56375241 1.7410001
-0.11661937 0.57370096 1.7410001
-0.075166985 0.57370096 1.7410001
-0.11523762 0.58116239 1.7410001
-0.10611811 0.58696574 1.7410001
-0.082904764 0.58696574 1.7410001
-0.076825082 0.58420223 1.7410001
-0.10446 0.59359813 1.7410001
-0.082904764 0.59359813 1.7410001
-0.079588577 0.59359813 1.7410001
-0.10446 0.60354668 1.7410001
-0.096169531 0.60023052 1.7410001
-0.084562853 0.60271764 1.7410001
-0.079588577 0.60354668 1.7410001
-0.10446001 0.61349529 1.7410001
-0.095340483 0.61598241 1.7410001
-0.08622095 0.61681145 1.7410001
-0.079588577 0.61349529 1.7410001
-0.096169524 0.62344384 1.7410001
-0.086220957 0.62344384 1.7410001
-0.10280191 0.63505054 1.7410001
-0.096169524 0.63339239 1.7410001
-0.085806429 0.63297784 1.7410001
-0.079588577 0.63339245 1.7410001
-0.10280191 0.64499909 1.7410001
-0.09838032 0.64444637 1.7410001
-0.07793048 0.64168286 1.7410001
-0.10280191 0.65328956 1.7410001
-0.096169531 0.65660572 1.7410001
-0.086220957 0.65992194 1.7410001
-0.095488578 0.097163811 1.7590001
-0.16417333 0.10721524 1.7590001
-0.15360191 0.10684953 1.7530001
-0.14500001 0.10666667 1.7500001
-0.1362527 0.10609841 1.7590002
-0.10051429 0.10554001 1.7590001
-0.094232142 0.10428358 1.7589999
-0.035180002 0.10721524 1.7590001
-0.20270382 0.11726667 1.7590001
-0.19432764 0.11559144 1.7589999
-0.18337888 0.11623315 1.7536001
-0.17393412 0.11416972 1.7527001
-0.16333334 0.11000001 1.7500001
-0.15416667 0.11083334 1.7500001
-0.14072001 0.11056572 1.7590001
-0.094999999 0.11000001 1.7500001
-0.080411434 0.1139162 1.7590001
-0.030000001 0.11333334 1.7500001
-0.023872143 0.11433501 1.7589999
-0.20270382 0.12229238 1.7590001
-0.19432762 0.12396762 1.7589999
-0.18349333 0.12510857 1.7515001
-0.17666668 0.125 1.7500001
-0.032577142 0.12447953 1.7545002
-0.025128573 0.12061714 1.7590001
-0.19432762 0.13401905 1.7589999
-0.18354668 0.13348763 1.7520001
-0.17666668 0.13333334 1.7500001
-0.052718095 0.13547391 1.7518002
-0.043460686 0.13373007 1.7551429
-0.035675555 0.13156255 1.7560002
-0.19390881 0.14448929 1.7589999
-0.18396765 0.14382476 1.756
-0.17666668 0.14333333 1.7500001
-0.07 0.14666668 1.7500001
-0.061999999 0.14466667 1.7500002
-0.053953573 0.14346953 1.75675
-0.20437905 0.15077144 1.7590001
-0.19337034 0.15364327 1.7589999
-0.18427621 0.15412191 1.7589999
-0.17500001 0.15333332 1.7500001
-0.07 0.155 1.7500001
-0.063333333 0.15374999 1.7500001
-0.053451434 0.15368 1.7540001
-0.043974999 0.15454072 1.7589999
-0.036855239 0.15747239 1.7590001
-0.19209397 0.1619397 1.7590002
-0.18427621 0.16417335 1.7589999
-0.17343429 0.16342859 1.751
-0.060000002 0.16166668 1.7500001
-0.052916672 0.16291668 1.7500001
-0.043476194 0.16389334 1.756
-0.035515048 0.16484344 1.7590001
-0.18427621 0.17470339 1.7589999
-0.17363618 0.17363049 1.753
-0.051111113 0.17555557 1.7500001
-0.04347619 0.17392761 1.756
-0.036017619 0.17422476 1.7590001
-0.1836061 0.1836061 1.7590001
-0.17454532 0.1831241 1.7525715
-0.052380957 0.18333332 1.7500001
-0.043451436 0.18385527 1.755
-0.036017619 0.18511382 1.7590001
-0.19265239 0.19432762 1.7590001
-0.1838574 0.19474643 1.7589999
-0.17375 0.19291669 1.7500001
-0.053333338 0.19333336 1.7500001
-0.043478098 0.19399238 1.756
-0.036017619 0.19516525 1.7590001
-0.19097716 0.20437907 1.7590002
-0.18427621 0.20437905 1.7589999
-0.17333335 0.20333336 1.7500001
-0.053333338 0.20333336 1.7500001
-0.043451428 0.20391622 1.755
-0.035180002 0.20437904 1.7589999
-0.19097716 0.21275525 1.7590001
-0.1840705 0.21418476 1.757
-0.17428572 0.21380953 1.7500001
-0.053333338 0.21333335 1.7500001
-0.043476194 0.21406478 1.756
-0.035179999 0.21443047 1.7589999
-0.18407048 0.22422859 1.757
-0.17333335 0.22333333 1.7500001
-0.16666667 0.22333334 1.7500001
-0.052380953 0.22285715 1.7500001
-0.043974999 0.22406311 1.7589999
-0.035738412 0.22224827 1.7590002
-0.18331893 0.2340547 1.7589999
-0.17353524 0.23360191 1.7520001
-0.16666667 0.23333335 1.7500001
-0.051709529 0.23353048 1.7515001
-0.045191426 0.23433048 1.7575001
-0.18260096 0.24458478 1.7589999
-0.1736362 0.2437505 1.753
-0.16533335 0.244 1.7500002
-0.051666673 0.24333334 1.7500001
-0.043885 0.2445343 1.755625
-0.036855239 0.24793525 1.7590001
-0.18176335 0.2537986 1.7590001
-0.17363618 0.25376761 1.753
-0.16375001 0.25375 1.7500001
-0.060000002 0.25 1.7500001
-0.052380957 0.25285715 1.7500001
-0.04347619 0.25420192 1.756
-0.036855239 0.25296098 1.7590001
-0.18092573 0.26301241 1.7590001
-0.17393333 0.26423618 1.756
-0.16333334 0.26333335 1.7500001
-0.051333331 0.264 1.7500002
-0.043857142 0.26401263 1.7545
-0.036855239 0.26133716 1.7590001
-0.17393333 0.27427047 1.756
-0.16333334 0.27333334 1.7500001
-0.15666667 0.27500001 1.7500001
-0.051666666 0.27333334 1.7500001
-0.045231432 0.27473906 1.7589999
-0.18092573 0.2864657 1.7590001
-0.17393333 0.28430477 1.756
-0.16333334 0.28333333 1.7500001
-0.15666667 0.28333333 1.7500001
-0.050833333 0.28333333 1.7500001
-0.044513471 0.28526911 1.7589999
-0.18092573 0.29484192 1.7590002
-0.17393333 0.29433906 1.756
-0.16333334 0.29333332 1.7500001
-0.15666667 0.29333335 1.7500001
-0.050000001 0.29333335 1.7500001
-0.043478098 0.29433525 1.756
-0.18176335 0.30405572 1.7590001
-0.17412762 0.30472192 1.7579999
-0.16333334 0.30333331 1.7500001
-0.15666667 0.30333334 1.7500001
-0.060000002 0.30666667 1.7500001
-0.05293062 0.30473384 1.7525715
-0.044393811 0.3023805 1.7590001
-0.18260096 0.31494477 1.7589999
-0.17412762 0.31476763 1.7579999
-0.16342857 0.31351429 1.751
-0.1542857 0.31380954 1.7500001
-0.07 0.31666669 1.7500001
-0.062995955 0.31415716 1.7522501
-0.05404463 0.31375974 1.7577143
-0.18427619 0.32164574 1.7590001
-0.17326748 0.32451755 1.7589999
-0.16371238 0.3240743 1.7540001
-0.1542857 0.32380956 1.7500001
-0.072222225 0.32444447 1.7500001
-0.063546665 0.32444569 1.756
-0.056958098 0.32164574 1.7590001
-0.17221448 0.33571771 1.7590001
-0.16389905 0.3344762 1.756
-0.15499999 0.33333334 1.7500001
-0.080000006 0.33500001 1.7500001
-0.07333333 0.33333334 1.7500001
-0.063438088 0.33390099 1.753
-0.055841271 0.33728126 1.7590002
-0.1732675 0.34557769 1.7589999
-0.16380574 0.34431243 1.755
-0.1542857 0.34380955 1.7500001
-0.081111111 0.34222221 1.7500001
-0.07333333 0.34166667 1.7500001
-0.062857144 0.34238094 1.7500001
-0.053449526 0.34411618 1.7540001
-0.046906669 0.34677428 1.7590001
-0.17422478 0.35515049 1.7589999
-0.16361906 0.35393906 1.753
-0.15333332 0.35333332 1.7500001
-0.14666668 0.35500002 1.7500001
-0.060000002 0.35500002 1.7500001
-0.053361908 0.3535372 1.751
-0.045566477 0.3558206 1.7590001
-0.17254953 0.36185145 1.7590001
-0.16380574 0.36437336 1.755
-0.15333332 0.36333337 1.7500001
-0.145 0.36333334 1.7500001
-0.060000002 0.36333334 1.7500001
-0.053419054 0.36395618 1.753
-0.045231432 0.36520195 1.7589999
-0.16375452 0.3748346 1.7589999
-0.15377143 0.37440571 1.755
-0.145 0.37333333 1.7500001
-0.060000002 0.37333333 1.7500001
-0.053449526 0.37418672 1.7540001
-0.045231432 0.37525335 1.7589999
-0.16082287 0.38530478 1.7590002
-0.15403619 0.38508379 1.7579999
-0.14533333 0.38266668 1.7500002
-0.060000002 0.38333336 1.7500001
-0.053390481 0.38376957 1.7520001
-0.045231428 0.38530478 1.7589999
-0.16216305 0.39602628 1.7590001
-0.1536019 0.39400762 1.753
-0.14666668 0.39000002 1.7500001
-0.062380951 0.39380956 1.7500001
-0.05357524 0.39513335 1.7579999
-0.046906669 0.39200574 1.7590001
-0.16236095 0.40506193 1.7575001
-0.15333332 0.40333337 1.7500001
-0.14666668 0.4066667 1.7500001
-0.062380951 0.40285721 1.7500001
-0.053607624 0.40498886 1.7589999
-0.16321607 0.4154591 1.7589999
-0.15333332 0.41333339 1.7500001
-0.145 0.41333339 1.7500001
-0.061333336 0.41266671 1.7500002
-0.054117467 0.41621876 1.7575001
-0.046906669 0.41713428 1.7590001
-0.16216305 0.42484039 1.7590001
-0.15359618 0.42406479 1.753
-0.14333333 0.42333338 1.7500001
-0.13666667 0.42333335 1.7500001
-0.061666667 0.42333338 1.7500001
-0.05357524 0.42526859 1.7579999
-0.046906669 0.42718571 1.7590001
-0.15412191 0.43556193 1.7589999
-0.14333333 0.43333337 1.7500001
-0.13666667 0.4366667 1.7500001
-0.063333333 0.43333337 1.7500001
-0.05354286 0.43506476 1.757
-0.046906669 0.43556193 1.7590002
-0.15370309 0.44561338 1.7589999
-0.14358287 0.44409525 1.753
-0.13583334 0.44333336 1.7500001
-0.063333333 0.44333336 1.7500001
-0.053510476 0.44485337 1.756
-0.046906669 0.44561335 1.7590002
-0.15370309 0.45524597 1.7589999
-0.14358477 0.45411047 1.753
-0.13583334 0.45250002 1.7500001
-0.063333333 0.45333332 1.7500001
-0.053449526 0.45436954 1.7540001
-0.046069048 0.45566478 1.7590001
-0.15244667 0.46571615 1.7589999
-0.14333333 0.46333334 1.7500001
-0.13666667 0.46333337 1.7500001
-0.062380951 0.46380955 1.7500001
-0.053510476 0.46492189 1.756
-0.046906669 0.46571621 1.7590002
-0.15160906 0.47576761 1.7590001
-0.14391047 0.47522858 1.757
-0.13428572 0.47380954 1.7500001
-0.071111113 0.47555557 1.7500001
-0.063474283 0.47441906 1.7540001
-0.054564901 0.47528896 1.7589999
-0.046906669 0.47241715 1.7590001
-0.15077144 0.48246858 1.7590001
-0.14407048 0.48581907 1.7589999
-0.13333334 0.48333338 1.7500001
-0.071666665 0.48333335 1.7500001
-0.06456735 0.48498777 1.7577143
-0.14239524 0.4958705 1.7589999
-0.13375001 0.49291667 1.7500001
-0.071666665 0.49333334 1.7500001
-0.064077862 0.49587053 1.7589999
-0.055282861 0.49922097 1.7590001
-0.14239524 0.5059219 1.7589999
-0.13333334 0.50499994 1.7500002
-0.12666667 0.50999999 1.7500001
-0.07 0.505 1.7500001
-0.063544765 0.505059 1.756
-0.056958098 0.5059219 1.7590002
-0.15077144 0.51597333 1.7590002
-0.14407049 0.51597333 1.7589999
-0.13420871 0.51579428 1.7551429
-0.12555556 0.51555562 1.7500001
-0.071111113 0.51444453 1.7500001
-0.063620955 0.51567811 1.7579999
-0.056958098 0.51429808 1.7590001
-0.15077144 0.52602482 1.7590002
-0.14407049 0.52602482 1.7589999
-0.13356572 0.52422673 1.753
-0.12533334 0.52266669 1.7500002
-0.07 0.52333337 1.7500001
-0.06446939 0.52439266 1.7551429
-0.15077144 0.53272575 1.7590001
-0.14365168 0.53565741 1.7589999
-0.13333334 0.53333336 1.7500001
-0.12666667 0.53000003 1.7500001
-0.063908577 0.5351215 1.7545
-0.056958098 0.53942668 1.7590001
-0.14155763 0.54696524 1.7590001
-0.13341144 0.54364574 1.751
-0.12555556 0.54555559 1.7500001
-0.12 0.54666668 1.7500001
-0.07 0.54500002 1.7500001
-0.06350857 0.5448876 1.755
-0.056958098 0.54445243 1.7590001
-0.14155763 0.55534142 1.7590001
-0.13394476 0.55586475 1.7579999
-0.12521714 0.55428475 1.7530001
-0.11761905 0.55380952 1.7500001
-0.07 0.55500001 1.7500001
-0.063544765 0.55523044 1.756
-0.056958098 0.55282861 1.7590001
-0.14072001 0.56623054 1.7590002
-0.13401906 0.56623054 1.7589999
-0.12504108 0.56552732 1.7538573
-0.11833333 0.56333333 1.7500001
-0.07 0.56 1.7500001
-0.06451837 0.56492656 1.7564286
-0.13360023 0.57586312 1.7589999
-0.12572418 0.57576913 1.7554001
-0.071111113 0.57555562 1.7500001
-0.065334283 0.57628196 1.7589999
-0.14072001 0.58465815 1.7590001
-0.13401906 0.58633339 1.7589999
-0.12510857 0.58383626 1.7515001
-0.11888888 0.58444446 1.7500001
-0.071333334 0.5826667 1.7500002
-0.063994281 0.58599788 1.75675
-0.14072001 0.59638476 1.7590002
-0.13401905 0.59638476 1.7589999
-0.12521429 0.59435624 1.7530001
-0.11545455 0.59363639 1.7500001
-0.072916664 0.59375006 1.7500001
-0.063544758 0.59536767 1.756
-0.056958098 0.59638476 1.7590002
-0.14072001 0.60308576 1.7590001
-0.13401906 0.60643619 1.7589999
-0.12564287 0.60643625 1.7589999
-0.115 0.60333329 1.7500001
-0.07333333 0.60333329 1.7500001
-0.06358286 0.60574859 1.757
-0.055282857 0.60643619 1.7589999
-0.13306178 0.61600894 1.7589999
-0.12438644 0.61690646 1.7589999
-0.114 0.61300004 1.7500002
-0.073373333 0.61368579 1.751
-0.06461633 0.61600906 1.7589999
-0.13306177 0.62653905 1.7589999
-0.12396763 0.62653905 1.7589999
-0.11333334 0.62499994 1.7500001
-0.10500001 0.62666672 1.7500001
-0.080000006 0.62666667 1.7500001
-0.07339333 0.62553293 1.7515001
-0.065334283 0.62653905 1.7589999
-0.1315062 0.63575292 1.7590001
-0.12396762 0.63659054 1.7589999
-0.11333334 0.63500005 1.7500001
-0.10555556 0.63444448 1.7500001
-0.080000006 0.63666672 1.7500001
-0.07333333 0.63500005 1.7500001
-0.063951425 0.63578355 1.755625
-0.056958098 0.63994098 1.7590001
-0.13066858 0.64329147 1.7590001
-0.12348899 0.64568466 1.7589999
-0.11346477 0.64407235 1.7520001
-0.10666666 0.64333338 1.7500001
-0.072666667 0.6413334 1.7500002
-0.064166665 0.64083338 1.7500001
-0.11313297 0.65401453 1.7572
-0.10694095 0.65334666 1.7545002
-0.11056572 0.66171908 1.7590001
-0.10432573 0.66270328 1.7554001
-0.094999999 0.66333336 1.7500001
-0.10051429 0.67009526 1.7590001
-0.093813337 0.67009526 1.7590002
-0.085437149 0.67009526 1.7590001
-0.030308573 0.10776381 1.7680001
-0.026940953 0.10776381 1.7680001
-0.21216001 0.11618286 1.7680001
-0.20542479 0.11393777 1.768
-0.19532192 0.11113143 1.7680001
-0.18690285 0.11113143 1.7680001
-0.082506672 0.11113143 1.7680001
-0.020205716 0.11113143 1.7680001
-0.015491049 0.11517258 1.768
-0.21216001 0.12123429 1.7680001
-0.20626667 0.12544382 1.7680001
-0.030308573 0.12796953 1.7680001
-0.023573333 0.12516318 1.768
-0.016838096 0.12123429 1.7680001
-0.20374095 0.13470477 1.768
-0.040411431 0.13807239 1.7680001
-0.033676192 0.13470477 1.7680001
-0.20500383 0.14522858 1.7679999
-0.19868954 0.14144 1.7680001
-0.050514288 0.14817524 1.7680001
-0.045462858 0.14480762 1.768
-0.20542479 0.15533143 1.7679999
-0.19868954 0.15659429 1.7680001
-0.03704381 0.15491048 1.7680001
-0.20542479 0.16332953 1.768
-0.19644445 0.16613589 1.768
-0.031150479 0.16417143 1.7680001
-0.20317967 0.17623873 1.7680001
-0.19490096 0.17511621 1.7679999
-0.18521905 0.17343238 1.7680001
-0.033676192 0.1751162 1.7680001
-0.20289904 0.18521905 1.7680001
-0.19532192 0.18521903 1.7679999
-0.18606095 0.18606095 1.7680001
-0.033676192 0.18353525 1.7680001
-0.20317967 0.19419938 1.7680001
-0.195803 0.19532192 1.7679999
-0.18858667 0.1919543 1.7680001
-0.033676192 0.19363812 1.7680001
-0.1970057 0.20542477 1.768
-0.030308573 0.20542477 1.7680001
-0.19448002 0.21636954 1.7680001
-0.030308573 0.21552762 1.7680001
-0.19363813 0.22563048 1.768
-0.040411431 0.22899811 1.7680001
-0.03479873 0.22787558 1.7680001
-0.1927962 0.23489144 1.7680001
-0.18858667 0.23741716 1.7680001
-0.040411431 0.23573335 1.7680001
-0.035360001 0.23573333 1.768
-0.1919543 0.24752 1.7680001
-0.18858667 0.2458362 1.7680001
-0.040411431 0.24246858 1.7680001
-0.035023239 0.24516268 1.768
-0.1919543 0.25593904 1.7680001
-0.18723962 0.2566126 1.768
-0.034518097 0.25678098 1.7680001
-0.1919543 0.2660419 1.7680001
-0.18618122 0.266523 1.7679999
-0.040411431 0.2660419 1.7680001
-0.034349717 0.26604193 1.768
-0.1919543 0.27614477 1.7680001
-0.18521905 0.27614477 1.7679999
-0.040411431 0.27614477 1.7680001
-0.03704381 0.27446097 1.7680001
-0.1919543 0.28456384 1.7680001
-0.18618122 0.28576657 1.7679999
-0.040411431 0.28456384 1.7680001
-0.03704381 0.28793144 1.7680001
-0.18690287 0.29635048 1.768
-0.03704381 0.29635048 1.7680001
-0.1919543 0.30982095 1.7680001
-0.18723962 0.30712685 1.768
-0.043779049 0.30757588 1.7680001
-0.03704381 0.30308571 1.7680001
-0.19330135 0.31722975 1.768
-0.18858667 0.31655619 1.7680001
-0.052198097 0.31992382 1.7680001
-0.047146667 0.31487238 1.7680001
-0.19307685 0.32441399 1.7680001
-0.18521905 0.32531199 1.768
-0.17848381 0.32665905 1.7680001
-0.055004448 0.32553652 1.7680001
-0.1919543 0.33002669 1.7680001
-0.18409652 0.33227178 1.768
-0.1776419 0.33339429 1.7680001
-0.055228956 0.33272076 1.768
-0.18185143 0.34349716 1.7680001
-0.1784838 0.34349713 1.7680001
-0.050514288 0.34012952 1.7680001
-0.045462858 0.34349716 1.7680001
-0.18269335 0.35360003 1.7680001
-0.04209524 0.35360003 1.7680001
-0.18185143 0.36201906 1.7680001
-0.1759581 0.36622861 1.7680001
-0.040411431 0.36370289 1.7680001
-0.17511621 0.37380576 1.7679999
-0.040411431 0.37380573 1.7680001
-0.03704381 0.37717333 1.7680001
-0.17415403 0.38342747 1.7679999
-0.16703391 0.38458213 1.768
-0.040411431 0.3839086 1.7680001
-0.17287111 0.3917664 1.7680001
-0.16703391 0.39333791 1.768
-0.043105524 0.39603201 1.768
-0.16838096 0.40411428 1.7680001
-0.043779053 0.40411431 1.7679999
-0.16838096 0.41253334 1.7680001
-0.053040005 0.41421714 1.7680001
-0.043358099 0.41379625 1.7679999
-0.03704381 0.41590095 1.7680001
-0.16838096 0.42432001 1.7680001
-0.043217778 0.42375872 1.768
-0.03704381 0.42095241 1.7680001
-0.16445206 0.43442285 1.768
-0.04209524 0.43442288 1.768
-0.16164573 0.44452572 1.7680001
-0.15827811 0.44789335 1.7680001
-0.042937145 0.44368383 1.7680001
-0.16164573 0.45462859 1.7680001
-0.04209524 0.45462859 1.7680001
-0.16164573 0.46473145 1.7680001
-0.15827811 0.46473145 1.7680001
-0.04209524 0.46473145 1.768
-0.16164573 0.47483429 1.7680001
-0.15743619 0.47483432 1.7680001
-0.050514288 0.47820193 1.7680001
-0.044901591 0.47483429 1.7680001
-0.16164573 0.48662096 1.7680001
-0.15587267 0.48541829 1.7679999
-0.060617145 0.48830479 1.7680001
-0.053400815 0.48589936 1.7679999
-0.047146667 0.48493719 1.7680001
-0.15491048 0.49461904 1.7679999
-0.14817524 0.49672383 1.7680001
-0.060617145 0.49504 1.7680001
-0.053881902 0.49504 1.7679999
-0.15356342 0.50379586 1.768
-0.14817524 0.50514287 1.7680001
-0.051861335 0.50581634 1.768
-0.046024129 0.5028978 1.7680001
-0.16164573 0.51861334 1.7680001
-0.15491048 0.51608765 1.7680001
-0.14817524 0.51187813 1.7680001
-0.05253486 0.5145722 1.768
-0.15575239 0.52450669 1.7680001
-0.060617145 0.52871621 1.7680001
-0.057249527 0.5253486 1.7680001
-0.15154286 0.53881907 1.7680001
-0.060617145 0.53376764 1.7680001
-0.057249527 0.53545147 1.7680001
-0.15154286 0.54218668 1.7680001
-0.1468282 0.54622781 1.768
-0.053040005 0.54555428 1.7680001
-0.14733334 0.55649906 1.7680001
-0.055228956 0.55565715 1.768
-0.14564952 0.56491816 1.7680001
-0.060617145 0.56912762 1.7680001
-0.057249527 0.56575996 1.7680001
-0.14346059 0.57653642 1.768
-0.060617145 0.57586288 1.7680001
-0.057249527 0.57586288 1.7680001
-0.14368509 0.58596575 1.7680001
-0.13807239 0.58259809 1.7680001
-0.060617145 0.58428192 1.7680001
-0.057249527 0.58596575 1.7680001
-0.14396572 0.59522671 1.7680001
-0.054723814 0.59522671 1.7680001
-0.14396572 0.60701334 1.7680001
-0.051356189 0.60532951 1.7680001
-0.047146667 0.60785526 1.7680001
-0.14278705 0.61560076 1.768
-0.13807239 0.6196419 1.7680001
-0.060617145 0.6196419 1.7680001
-0.053881902 0.61683553 1.768
-0.047146667 0.61290669 1.7680001
-0.14144 0.62637717 1.7680001
-0.13807239 0.62469339 1.7680001
-0.060617145 0.62637717 1.7680001
-0.055565715 0.62637717 1.768
-0.14144 0.63311243 1.7680001
-0.13723049 0.63732195 1.7680001
-0.060617145 0.63479626 1.7680001
-0.056407623 0.63648009 1.7680001
-0.13554667 0.64574093 1.7680001
-0.12460191 0.65444064 1.7680001
-0.11651962 0.66409451 1.768
-0.11113143 0.67015624 1.7680001
-0.17262286 0.10831238 1.7770001
-0.14216 0.10662 1.7770001
-0.13200572 0.10831238 1.7770001
-0.12862095 0.10831238 1.7770001
-0.11508191 0.10831239 1.7770001
-0.064310476 0.10831238 1.7770001
-0.022000954 0.10831238 1.7770001
-0.016923809 0.10831238 1.7770001
-0.22000954 0.11846667 1.7770001
-0.21549653 0.11508191 1.7770001
-0.20985524 0.11169714 1.7770001
-0.011000477 0.11423571 1.7770001
-0.0059233336 0.11508191 1.7770001
-0.22000954 0.12354381 1.7770001
-0.21493238 0.1252362 1.7770001
-0.20985524 0.12862095 1.7770001
-0.020308573 0.12862095 1.7770001
-0.015231429 0.12354381 1.7770001
-0.21324001 0.13369811 1.7770001
-0.20985524 0.13539048 1.7770001
-0.032155238 0.13708286 1.7770001
-0.023693332 0.13200572 1.7770001
-0.21324001 0.14554477 1.7770001
-0.20985524 0.14216 1.7770001
-0.040617146 0.14554477 1.7770001
-0.037232384 0.14554477 1.7770001
-0.21493238 0.15569906 1.7770001
-0.040617146 0.15231429 1.7770001
-0.034693807 0.15485287 1.7770001
-0.21324001 0.16585334 1.7770001
-0.20647049 0.16923811 1.7770001
-0.025385715 0.16585334 1.7770001
-0.21324001 0.17600763 1.7770001
-0.20714745 0.17465372 1.7770001
-0.19970097 0.17600763 1.7770001
-0.030462855 0.17600763 1.7770001
-0.025724191 0.17533067 1.7770001
-0.21324001 0.18616191 1.7770001
-0.20647049 0.18954667 1.7770001
-0.030462855 0.18616192 1.7770001
-0.025949841 0.18503366 1.7770001
-0.21324001 0.1963162 1.7770001
-0.20759875 0.19688033 1.7770001
-0.030462855 0.1963162 1.7770001
-0.024370287 0.19834706 1.7770001
-0.20477812 0.20647049 1.7770001
-0.023693332 0.20647047 1.7770002
-0.016923809 0.20816287 1.7770001
-0.20421398 0.21436827 1.7770001
-0.19970097 0.21493238 1.7770001
-0.030462857 0.21662477 1.7770001
-0.023693332 0.21493238 1.7770001
-0.20308572 0.22339429 1.7770001
-0.19970097 0.22339429 1.7770001
-0.030462857 0.22508667 1.7770001
-0.025724191 0.22271733 1.7770001
-0.19885477 0.23439477 1.7770001
-0.030462857 0.23016381 1.7770001
-0.19728328 0.24370284 1.7770002
-0.20393191 0.25470334 1.7770001
-0.19800858 0.25385717 1.7770001
-0.030462855 0.25385714 1.7770001
-0.20477812 0.26401144 1.7770001
-0.19800858 0.26401144 1.7770001
-0.032155238 0.26401144 1.7770001
-0.20534223 0.27303746 1.7770001
-0.19800858 0.27416572 1.7770001
-0.033847619 0.2758581 1.7770001
-0.19800858 0.28432 1.7770001
-0.03554 0.28347385 1.7770001
-0.1963162 0.2944743 1.7770002
-0.033847619 0.2944743 1.7770001
-0.1963162 0.30462858 1.7770002
-0.034693807 0.30547476 1.7770001
-0.20308572 0.31816763 1.7770001
-0.19834706 0.31410593 1.7770001
-0.042309526 0.3130905 1.7770001
-0.037232384 0.31139812 1.7770001
-0.20308572 0.32493716 1.7770001
-0.19885477 0.32578334 1.7770001
-0.05077143 0.32662952 1.7770001
-0.047386665 0.32493716 1.7770001
-0.19563924 0.33441448 1.7770001
-0.18841843 0.33734795 1.7770001
-0.05077143 0.33509144 1.7770001
-0.046540476 0.33593762 1.7770001
-0.19293143 0.34524575 1.7770001
-0.18785429 0.34524572 1.7770001
-0.041463338 0.34439951 1.7770001
-0.03554 0.34863049 1.7770001
-0.18819277 0.35540003 1.7770001
-0.040617146 0.35201526 1.7770001
-0.03554 0.35540006 1.7770001
-0.18616191 0.3647081 1.7770001
-0.03554 0.3655543 1.7770001
-0.18413106 0.37638554 1.7770001
-0.034411747 0.37570858 1.7770001
-0.18362334 0.38501668 1.7770001
-0.17939238 0.38755524 1.7770001
-0.037232384 0.38586286 1.7770001
-0.18277715 0.39432478 1.7770001
-0.17713588 0.39714542 1.7770001
-0.040617146 0.3926324 1.7770001
-0.17431526 0.40617144 1.7770001
-0.037232384 0.40617144 1.7770001
-0.17431526 0.41632572 1.7770001
-0.033847619 0.417454 1.7770001
-0.17431526 0.42648003 1.7770001
-0.040617146 0.42986476 1.7770001
-0.036104128 0.42648003 1.7770001
-0.17431524 0.43494192 1.7770001
-0.16923811 0.4366343 1.7770001
-0.036104128 0.43437779 1.7770001
-0.17431526 0.44340381 1.7770001
-0.1678842 0.44408077 1.7770001
-0.040617146 0.44678858 1.7770001
-0.037232384 0.44171146 1.7770001
-0.17600763 0.45609671 1.7770001
-0.16754572 0.45355812 1.7770001
-0.040617146 0.45186573 1.7770001
-0.037232384 0.45355812 1.7770001
-0.18277715 0.46709716 1.7770001
-0.17697468 0.46322891 1.7770002
-0.16754572 0.46371242 1.7770001
-0.037232384 0.46371236 1.7770001
-0.18277715 0.47217429 1.7770001
-0.17803849 0.47318974 1.7770001
-0.16754572 0.4738667 1.7770001
-0.040617146 0.47555906 1.7770001
-0.036386192 0.47302049 1.7770001
-0.16682042 0.48402098 1.7770002
-0.042309523 0.48402098 1.7770001
-0.16585335 0.49417523 1.7770002
-0.043518368 0.49465877 1.7770002
-0.16585334 0.5043295 1.7770002
-0.15682732 0.50545782 1.7770001
-0.042873651 0.50376546 1.7770001
-0.03554 0.50432956 1.7770001
-0.16543025 0.51406074 1.7770002
-0.15772991 0.51380688 1.7770001
-0.044968985 0.5140003 1.7770002
-0.16627644 0.52506125 1.7770002
-0.15908381 0.52802289 1.7770001
-0.052125335 0.52531511 1.7770001
-0.045694288 0.52125335 1.7770001
-0.16488627 0.53430885 1.7770002
-0.15772991 0.53546941 1.7770001
-0.052463811 0.53479242 1.7770001
-0.047386669 0.53817719 1.7770001
-0.16359682 0.5426901 1.7770001
-0.15626319 0.54494667 1.7770001
-0.051899683 0.54269016 1.7770001
-0.045694288 0.54833144 1.7770001
-0.15400667 0.55510098 1.7770001
-0.05077143 0.55510098 1.7770001
-0.15400667 0.56187052 1.7770001
-0.14892954 0.56863999 1.7770001
-0.052125335 0.56593221 1.7770001
-0.14892954 0.57540953 1.7770001
-0.053189117 0.57589304 1.7770002
-0.15231429 0.58894861 1.7770001
-0.14808334 0.58556384 1.7770001
-0.052802283 0.58488691 1.7770001
-0.15231429 0.59571815 1.7770001
-0.14892954 0.59571815 1.7770001
-0.051617619 0.59487194 1.7770001
-0.047386665 0.59571809 1.7770001
-0.15231429 0.60248762 1.7770001
-0.14892954 0.60587239 1.7770001
-0.05077143 0.60248762 1.7770001
-0.045694288 0.60587239 1.7770001
-0.14892954 0.6160267 1.7770001
-0.044848099 0.61687291 1.7770001
-0.15231429 0.6278733 1.7770001
-0.14723715 0.62618095 1.7770001
-0.05077143 0.62618095 1.7770001
-0.1461089 0.63633531 1.7770001
-0.051617619 0.63633525 1.7770001
-0.14216 0.64648956 1.7770001
-0.13877524 0.64987433 1.7770001
-0.053027939 0.64536136 1.7770001
-0.047386669 0.64648956 1.7770001
-0.13539049 0.6532591 1.7770001
-0.1252362 0.66397744 1.7770001
-0.21432 0.10886095 1.7860001
-0.10886095 0.10886095 1.7860001
-0.08601959 0.10594504 1.7860001
-0.074841909 0.10886095 1.7860001
-0.068038099 0.10886095 1.7860001
-0.025514286 0.10545905 1.7860001
-0.013607619 0.10886095 1.7860001
-0.005102857 0.10886095 1.7860001
0 0.10886095 1.7860001
-0.22452572 0.11736572 1.7860001
-0.21772191 0.11226286 1.7860001
-0.074841909 0.11226287 1.7860001
-0.0034019048 0.11566477 1.7860001
0.0013607619 0.11498438 1.786
-0.22520609 0.12519011 1.786
-0.21772191 0.12927239 1.7860001
-0.013607618 0.12587048 1.7860001
-0.0068038097 0.12246858 1.7860001
-0.21687144 0.13692667 1.7860001
-0.030617144 0.1394781 1.7860001
-0.023813333 0.1360762 1.7860001
-0.017009525 0.13267429 1.7860001
-0.22112381 0.14968382 1.7860001
-0.21772189 0.14628191 1.7860001
-0.033168573 0.1471324 1.7860001
-0.22112381 0.15648763 1.7860001
-0.030617144 0.15818858 1.7860001
-0.025514286 0.15988953 1.7860001
-0.017009525 0.15988953 1.7860001
-0.22384533 0.1646522 1.786
-0.21772191 0.16499239 1.7860001
-0.02041143 0.16499239 1.7860001
-0.017009525 0.16499239 1.7860001
-0.22112381 0.17349716 1.7860001
-0.21772189 0.17349716 1.7860001
-0.02041143 0.17349716 1.7860001
-0.017009525 0.17349716 1.7860001
-0.22197428 0.18285239 1.7860001
-0.21431999 0.18370286 1.7860001
-0.20751619 0.18370287 1.7860001
-0.021772191 0.18302248 1.786
-0.017009525 0.18370287 1.7860001
-0.22112381 0.19390857 1.7860001
-0.21545397 0.19277461 1.7860001
-0.023327349 0.19293658 1.7860001
-0.017009525 0.19731048 1.7860001
-0.22112381 0.20411427 1.7860001
-0.21474525 0.20453954 1.7860001
-0.014968382 0.20343392 1.786
-0.22112381 0.21602096 1.7860001
-0.21432 0.21432 1.7860001
-0.20751619 0.21772191 1.7860001
-0.014968382 0.21500039 1.786
-0.22112381 0.22112381 1.7860001
-0.21432 0.22452572 1.7860001
-0.20751619 0.22452573 1.7860001
-0.021261906 0.22537619 1.7860001
-0.015875556 0.22225778 1.7860001
-0.21227887 0.23405106 1.786
-0.20581526 0.23473144 1.7860001
-0.030617144 0.23643239 1.7860001
-0.027215237 0.23473144 1.7860001
-0.2109181 0.24153525 1.7860001
-0.20581526 0.24493714 1.7860001
-0.030617142 0.24493714 1.7860001
-0.027215237 0.24493714 1.7860001
-0.21176858 0.25599334 1.7860001
-0.20751619 0.25344193 1.7860001
-0.026364762 0.2542924 1.7860001
-0.21334803 0.26583454 1.7860001
-0.030617144 0.26875049 1.7860001
-0.026364762 0.26534858 1.7860001
-0.22112381 0.2755543 1.7860001
-0.21474524 0.27597955 1.7860001
-0.20751619 0.2789562 1.7860001
-0.030617144 0.27385336 1.7860001
-0.027215239 0.27215239 1.7860001
-0.21334805 0.28527403 1.7860001
-0.20581524 0.28576002 1.7860001
-0.034019049 0.28576002 1.7860001
-0.2109181 0.29426479 1.7860001
-0.20547505 0.29528531 1.786
-0.030617144 0.29766667 1.7860001
-0.20547505 0.3068518 1.786
-0.030617144 0.30447048 1.7860001
-0.027215239 0.30276954 1.7860001
-0.2109181 0.31977907 1.7860001
-0.20615545 0.31569678 1.786
-0.042523813 0.31977907 1.7860001
-0.036286984 0.31637716 1.7860001
-0.21091811 0.32658288 1.7860001
-0.20751619 0.32658288 1.7860001
-0.043374289 0.32573241 1.7860001
-0.2109181 0.33338669 1.7860001
-0.20479468 0.33542782 1.786
-0.043090794 0.33565465 1.7860001
-0.037420955 0.33678859 1.7860001
-0.20241334 0.34359241 1.7860001
-0.19731049 0.34359241 1.7860001
-0.04082286 0.3401905 1.7860001
-0.034991022 0.34407836 1.7860001
-0.20071238 0.35379815 1.7860001
-0.1959497 0.35447851 1.786
-0.030617142 0.35379812 1.7860001
-0.20071238 0.36400381 1.7860001
-0.19488053 0.36448979 1.7860001
-0.030617144 0.36400384 1.7860001
-0.19293661 0.37469551 1.7860001
-0.18710476 0.37250859 1.7860001
-0.030617142 0.37420952 1.7860001
-0.19390857 0.38441527 1.7860001
-0.18710476 0.38781714 1.7860001
-0.035153016 0.38554922 1.7860001
-0.20071238 0.39462098 1.7860001
-0.19390857 0.39462095 1.7860001
-0.18710476 0.39462098 1.7860001
-0.036060192 0.3939406 1.786
-0.19342259 0.4038547 1.7860001
-0.18412809 0.40525192 1.7860001
-0.034869526 0.40397617 1.7860001
-0.18370286 0.41503242 1.7860001
-0.034019049 0.41503239 1.7860001
-0.18327764 0.42481285 1.7860001
-0.034019049 0.42864001 1.7860001
-0.18166173 0.43476343 1.786
-0.034019049 0.43544382 1.7860001
-0.18166173 0.44564953 1.786
-0.034869526 0.4465 1.7860001
-0.18313588 0.45585525 1.7860001
-0.17463112 0.45358732 1.7860001
-0.034019049 0.45585525 1.7860001
-0.19050667 0.46606097 1.7860001
-0.18574402 0.46538061 1.786
-0.17349716 0.46776193 1.7860001
-0.032318097 0.46606097 1.7860001
-0.19050667 0.47456574 1.7860001
-0.18625429 0.47711715 1.7860001
-0.17434764 0.47711718 1.7860001
-0.031977907 0.47694701 1.786
-0.1827309 0.48598638 1.7860001
-0.17519809 0.48647237 1.7860001
-0.034019049 0.4864724 1.7860001
-0.18200192 0.49497718 1.7860001
-0.17519811 0.49497718 1.7860001
-0.044224765 0.49667811 1.7860001
-0.034019049 0.49497715 1.7860001
-0.18115143 0.50348192 1.7860001
-0.17446913 0.50299591 1.7860001
-0.033533063 0.50250995 1.7860001
-0.18115143 0.51368761 1.7860001
-0.17519812 0.51368767 1.7860001
-0.04082286 0.51708955 1.7860001
-0.034019049 0.51368767 1.7860001
-0.18030097 0.52219236 1.7860001
-0.17446913 0.52340734 1.7860001
-0.042864002 0.52525413 1.786
-0.035720002 0.52389336 1.7860001
-0.17446913 0.53458506 1.7860001
-0.044224765 0.53409904 1.7860001
-0.035720002 0.53409904 1.7860001
-0.17307192 0.54387957 1.7860001
-0.16669334 0.54770666 1.7860001
-0.043799527 0.54473001 1.7860001
-0.036286984 0.54203683 1.7860001
-0.17307192 0.55408525 1.7860001
-0.16499239 0.55451053 1.7860001
-0.15988953 0.55451053 1.7860001
-0.043738779 0.55548251 1.7860001
-0.17009525 0.56301522 1.7860001
-0.1646522 0.56403577 1.786
-0.15784839 0.56607693 1.786
-0.044224765 0.56471622 1.7860001
-0.16414192 0.57492191 1.7860001
-0.15648763 0.57492191 1.7860001
-0.044224765 0.57492191 1.7860001
-0.17009525 0.58512759 1.7860001
-0.16499241 0.58512765 1.7860001
-0.15648764 0.58512759 1.7860001
-0.044224765 0.58512759 1.7860001
-0.17009525 0.5953334 1.7860001
-0.1646522 0.59465295 1.786
-0.1574596 0.59581935 1.7860001
-0.051028572 0.59193146 1.7860001
-0.043252792 0.59484732 1.7860001
-0.037420955 0.59703434 1.7860001
-0.1574596 0.60602504 1.7860001
-0.042183623 0.6048587 1.786
-0.037420955 0.60553908 1.7860001
-0.15551566 0.61623079 1.7860001
-0.04082286 0.61574477 1.7860001
-0.037420955 0.61574483 1.7860001
-0.16329144 0.62254858 1.7860001
-0.15691286 0.6255253 1.7860001
-0.043738779 0.62692249 1.7860001
-0.037420955 0.62424958 1.7860001
-0.15648761 0.6361562 1.7860001
-0.044224765 0.63615626 1.7860001
-0.037420955 0.6378572 1.7860001
-0.15444648 0.64568156 1.786
-0.14832306 0.64704233 1.786
-0.051028572 0.64636195 1.7860001
-0.044224765 0.64466095 1.7860001
-0.037420955 0.64296001 1.7860001
-0.14628191 0.65429974 1.7860001
-0.1360762 0.65996957 1.7860001
-0.13437524 0.66507244 1.7860001
-0.12757143 0.66677338 1.7860001
-0.23249525 0.10940953 1.7950001
-0.22565715 0.10940953 1.7950001
-0.21540001 0.10940953 1.7950001
-0.20514287 0.10940953 1.7950001
-0.13505238 0.10599048 1.7950001
-0.12582096 0.1073581 1.7950001
-0.11624762 0.10599048 1.7950001
-0.10599048 0.10428096 1.7950001
-0.082057148 0.10428096 1.7950001
-0.076928571 0.10428096 1.7950001
-0.063252389 0.10599048 1.7950001
-0.058123812 0.10599048 1.7950001
-0.020514287 0.10599048 1.7950001
-0.014815873 0.10599048 1.7950001
-0.0051285718 0.10599048 1.7950001
0.0041028569 0.1073581 1.7950001
0.01436 0.1080419 1.7950001
0.020514287 0.10770001 1.7950001
-0.23542587 0.11722449 1.7950001
-0.22651191 0.11368334 1.7950001
0.0059833331 0.11710239 1.7950001
0.013676192 0.1145381 1.7950001
0.020514287 0.11282858 1.7950001
-0.23477463 0.12536509 1.7950001
-0.22736667 0.12992382 1.7950001
-0.011966668 0.1282143 1.7950001
-0.0045587304 0.12536508 1.7950001
0 0.12308572 1.7950001
-0.23249525 0.13505238 1.7950001
-0.22565715 0.13505238 1.7950001
-0.023933334 0.1367619 1.7950001
-0.015385714 0.13505238 1.7950001
-0.23249525 0.1436 1.7950001
-0.22565715 0.1436 1.7950001
-0.030771431 0.14530954 1.7950001
-0.025073016 0.14246033 1.7950001
-0.2349374 0.15434556 1.7950001
-0.22736667 0.15385714 1.7950001
-0.030771431 0.15385714 1.7950001
-0.023933334 0.15385713 1.7950001
-0.015385714 0.15556668 1.7950001
-0.24275239 0.16240478 1.7950001
-0.2359143 0.16411431 1.7950001
-0.22793651 0.16297461 1.7950001
-0.020514287 0.16069524 1.7950001
-0.012308572 0.16479811 1.7950001
-0.0068380954 0.16582382 1.7950001
-0.23548692 0.17394407 1.7950001
-0.22736667 0.17437144 1.7950001
-0.011966668 0.17437144 1.7950001
-0.0059833331 0.1752262 1.7950001
-0.23363493 0.18234921 1.7950001
-0.22770858 0.18531239 1.7950001
-0.011966668 0.18462859 1.7950001
-0.0068380958 0.18462859 1.7950001
-0.23249525 0.19659525 1.7950001
-0.22736667 0.19488573 1.7950001
-0.013248811 0.19445834 1.7950001
-0.23335001 0.20599762 1.7950001
-0.22736667 0.20514286 1.7950001
-0.010257144 0.20514286 1.7950001
-0.23420477 0.2154 1.7950001
-0.22663401 0.21491157 1.7950001
-0.010257144 0.2154 1.7950001
-0.23335001 0.22480239 1.7950001
-0.22608452 0.22608452 1.7950001
-0.012992382 0.22634096 1.7950001
-0.22565715 0.2359143 1.7950001
-0.21796429 0.23676905 1.7950001
-0.02222381 0.2359143 1.7950001
-0.015385714 0.2359143 1.7950001
-0.22394763 0.24275239 1.7950001
-0.21582738 0.24659882 1.7950001
-0.02222381 0.24617143 1.7950001
-0.015385713 0.24617146 1.7950001
-0.22468027 0.25691703 1.7950001
-0.21745142 0.25574476 1.7950001
-0.021881906 0.25711238 1.7950001
-0.016240476 0.25557381 1.7950001
-0.22565715 0.2649762 1.7950001
-0.21881905 0.2649762 1.7950001
-0.021653971 0.26440635 1.7950001
-0.015955554 0.26440635 1.7950001
-0.22565714 0.27303538 1.7950001
-0.022956463 0.27401224 1.7950001
-0.017095238 0.27352381 1.7950001
-0.22394763 0.28378096 1.7950001
-0.21881905 0.2872 1.7950001
-0.030771429 0.28378096 1.7950001
-0.023933334 0.28378096 1.7950001
-0.015727619 0.28309715 1.7950001
-0.22394763 0.29403809 1.7950001
-0.21745142 0.29472193 1.7950001
-0.030771431 0.2923286 1.7950001
-0.023933334 0.29403815 1.7950001
-0.017095238 0.29403809 1.7950001
-0.21497262 0.30429521 1.7950001
-0.20856191 0.30258572 1.7950001
-0.023933334 0.30380681 1.7950001
-0.017095238 0.30258572 1.7950001
-0.21442313 0.31406397 1.7950001
-0.031911116 0.3145524 1.7950001
-0.025642857 0.31113335 1.7950001
-0.21676762 0.32549337 1.7950001
-0.041028574 0.32822859 1.7950001
-0.035558093 0.32549337 1.7950001
-0.21454525 0.33592144 1.7950001
-0.041028574 0.33335716 1.7950001
-0.035558097 0.33438286 1.7950001
-0.21369047 0.34532383 1.7950001
-0.20856191 0.34532383 1.7950001
-0.030771431 0.34361431 1.7950001
-0.024910206 0.34483543 1.7950001
-0.21369047 0.35558096 1.7950001
-0.20685239 0.35558096 1.7950001
-0.025642859 0.35558096 1.7950001
-0.21198095 0.36241907 1.7950001
-0.20685239 0.36583814 1.7950001
-0.030771431 0.36583811 1.7950001
-0.024910206 0.36583811 1.7950001
-0.20400317 0.37723494 1.7950001
-0.19830477 0.37438571 1.7950001
-0.025642857 0.37609527 1.7950001
-0.21198095 0.38977143 1.7950001
-0.20514286 0.38635242 1.7950001
-0.030771431 0.38806191 1.7950001
-0.024788097 0.38378811 1.7950001
-0.21312064 0.39546987 1.7950001
-0.20685239 0.39490002 1.7950001
-0.030771431 0.3931905 1.7950001
-0.21369047 0.40344763 1.7950001
-0.20557024 0.40387499 1.7950001
-0.031911116 0.40344763 1.7950001
-0.21312064 0.41256511 1.7950001
-0.20416598 0.41321635 1.7950001
-0.19531311 0.41413218 1.7950001
-0.030771429 0.41370478 1.7950001
-0.027352381 0.41712382 1.7950001
-0.2028635 0.42168257 1.7950001
-0.19488573 0.42396197 1.7950001
-0.030771431 0.42396194 1.7950001
-0.026497621 0.42396194 1.7950001
-0.19488573 0.43421906 1.7950001
-0.18804763 0.43421903 1.7950001
-0.030771429 0.43421903 1.7950001
-0.027352381 0.4376381 1.7950001
-0.19488573 0.44447619 1.7950001
-0.18668 0.44447622 1.7950001
-0.030771429 0.44447622 1.7950001
-0.19445834 0.45516071 1.7950001
-0.18804763 0.45473334 1.7950001
-0.030771431 0.45644286 1.7950001
-0.19531311 0.46456313 1.7950001
-0.030771431 0.46157146 1.7950001
-0.19488573 0.47524762 1.7950001
-0.027352381 0.47866669 1.7950001
-0.1931762 0.48550478 1.7950001
-0.18804763 0.48892382 1.7950001
-0.026497621 0.48465002 1.7950001
-0.19283429 0.49507815 1.7950001
-0.18804763 0.49576196 1.7950001
-0.025642857 0.49576196 1.7950001
-0.19146667 0.50430954 1.7950001
-0.18668 0.506019 1.7950001
-0.02598476 0.50533521 1.7950001
-0.18668 0.51627624 1.7950001
-0.027352381 0.51285714 1.7950001
-0.19146667 0.52482384 1.7950001
-0.18560545 0.52702183 1.7950001
-0.030771429 0.52653337 1.7950001
-0.18462859 0.53508091 1.7950001
-0.030771431 0.53508097 1.7950001
-0.18365172 0.54314011 1.7950001
-0.031626195 0.5444833 1.7950001
-0.18257716 0.55320197 1.7950001
-0.17779048 0.55046672 1.7950001
-0.034190476 0.55388576 1.7950001
-0.027352381 0.55046672 1.7950001
-0.18120953 0.56243336 1.7950001
-0.17642286 0.56482673 1.7950001
-0.034190476 0.56414294 1.7950001
-0.18120953 0.57440001 1.7950001
-0.17437145 0.57440001 1.7950001
-0.16753334 0.57269049 1.7950001
-0.034190476 0.57440001 1.7950001
-0.18120952 0.58465713 1.7950001
