# .PCD v0.7 - Point Cloud Data file format
VERSION 0.7
FIELDS x y z
SIZE 4 4 4
TYPE F F F
COUNT 1 1 1
WIDTH 1494
HEIGHT 1
VIEWPOINT 0 0 0 1 0 0 0
POINTS 1494
DATA ascii
-18.323345 1.6287388 -3.0202546
-18.233349 1.2155557 -3.2616687
-18.203419 0.80904055 -3.3419569
-18.264109 3.3207445 -2.0656869
-18.154524 2.8882184 -2.3663292
-18.058142 2.4624724 -2.6307399
-17.961708 2.0411017 -2.895298
-17.874931 1.6249936 -3.1333632
-17.80611 1.2140515 -3.322166
-17.748716 0.8067587 -3.479625
-17.712566 0.4025555 -3.5787966
-17.986874 4.1829915 -1.678683
-17.880606 3.7424498 -1.977006
-17.781488 3.3081822 -2.2552469
-17.690294 2.8798139 -2.5112507
-17.615602 2.457988 -2.7209301
-17.577816 2.0439315 -2.8270032
-17.529154 1.6306161 -2.9636099
-17.405027 1.2143033 -3.3120599
-17.361189 0.80749512 -3.4351199
-17.325434 0.40291512 -3.5354955
-17.305502 -1.9673332e-06 -3.5914459
-17.712412 5.0606866 -1.2652853
-17.597294 4.6088133 -1.5961472
-17.491409 4.1646199 -1.9004625
-17.425924 3.7341242 -2.0886736
-17.43815 3.3215499 -2.0535328
-17.450092 2.9083462 -2.0192111
-17.034351 1.2167369 -3.214071
-16.987921 0.80894768 -3.3475189
-16.955942 0.40371153 -3.4394319
-16.93305 3.7474584e-07 -3.5052247
-16.9354 -0.40322524 -3.4984679
-17.433496 5.9528985 -0.84483379
-17.308506 5.488061 -1.2128253
-17.201015 5.0344419 -1.5292965
-17.14646 4.6002679 -1.6899198
-17.16773 4.1872497 -1.6272945
-17.200037 3.7756155 -1.5321788
-16.687798 1.6280755 -3.0402899
-16.659575 1.218991 -3.1233842
-16.635319 0.81147861 -3.1948025
-16.597734 0.40482014 -3.3054564
-16.576942 2.2314855e-07 -3.3666713
-16.562412 -0.40396228 -3.4094512
-16.642855 -0.81184745 -3.1726096
-17.014629 6.3804841 -0.82570469
-16.905704 5.9169941 -1.1544098
-16.837261 5.4721069 -1.3609582
-16.861841 5.0585504 -1.286777
-16.896393 4.6465068 -1.1825103
-16.372192 2.4558277 -2.7644258
-16.343859 2.0429804 -2.8499274
-16.316736 1.6316724 -2.9317815
-16.294548 1.2220895 -2.9987431
-16.272696 0.81363273 -3.0646846
-16.254347 0.40635702 -3.1200571
-16.225733 -2.7857761e-06 -3.2064066
-16.211464 -0.40528771 -3.2494671
-16.211533 -0.81057894 -3.2492599
-16.725824 7.2907424 -0.4030264
-16.608646 6.8138008 -0.76571119
-16.513786 6.3514557 -1.059314
-16.539869 5.9373884 -0.97858626
-16.572937 5.5243096 -0.87623441
-16.022682 2.8758655 -2.5793579
-15.997039 2.461082 -2.6587203
-15.973322 2.0478609 -2.7321301
-15.951105 1.6360093 -2.8008947
-15.932343 1.2255638 -2.8589656
-15.915997 0.8162033 -2.9095614
-15.902322 0.40774941 -2.951889
-15.888399 -6.7035694e-07 -2.9949796
-15.865676 -0.40681553 -3.0653098
-15.855515 -0.81310481 -3.0967596
-15.89218 -1.2224765 -2.9832733
-16.434896 8.2174463 0.035146568
-16.307098 7.7244158 -0.37081295
-16.201712 7.2481332 -0.70557761
-16.201208 6.821559 -0.70718157
-16.230806 6.4068971 -0.61316413
-15.700733 3.7185938 -2.2969873
-15.67371 3.2997262 -2.3828273
-15.649066 2.8827212 -2.4611127
-15.626309 2.4673114 -2.5334055
-15.60696 2.053546 -2.5948668
-15.589994 1.6410517 -2.6487622
-15.577328 1.2297881 -2.6889989
-15.563484 0.81912923 -2.7329741
-15.553118 0.40929061 -2.7659023
-15.542766 -1.6692742e-06 -2.7987878
-15.517803 -0.40836558 -2.8780828
-15.508092 -0.81621718 -2.9089322
-15.506969 -1.2242361 -2.9124985
-16.007814 8.652873 0.052820146
-15.899959 8.1648417 -0.29905564
-15.843778 7.7077837 -0.4823463
-15.875547 7.2941694 -0.37869713
-15.346692 4.1477523 -2.1040595
-15.320507 3.7266083 -2.1894846
-15.299096 3.3079107 -2.2593391
-15.277678 2.8903706 -2.3292129
-15.260982 2.4747531 -2.3836854
-15.246091 2.0602803 -2.432265
-15.233191 1.64683 -2.4743507
-15.222077 1.2342203 -2.5106106
-15.211371 0.82223415 -2.5455377
-15.200875 0.41083243 -2.5797799
-15.191175 -1.9191227e-06 -2.6114292
-15.18181 -0.41032088 -2.6419771
-15.158582 -0.81938362 -2.7177603
-15.150553 -1.2284243 -2.7439566
-15.16902 -1.6398956 -2.6837094
-15.713607 9.6027594 0.51700592
-15.594386 9.0967255 0.11724711
-15.491202 8.6062222 -0.22873282
-15.514185 8.1880407 -0.15167381
-15.547384 7.7736897 -0.040351052
-15.016448 5.0054803 -1.8206198
-14.990747 4.5805058 -1.9067984
-14.966693 4.1574125 -1.9874545
-14.94582 3.7364542 -2.05744
-14.927589 3.3172414 -2.118571
-14.912559 2.8996634 -2.1689682
-14.898139 2.4830217 -2.2173223
-14.888047 2.0677826 -2.2511575
-14.878098 1.6531206 -2.2845151
-14.866817 1.2389003 -2.3223407
-14.856066 0.82533598 -2.3583932
-14.847374 0.41242641 -2.3875411
-14.839456 -1.7071138e-06 -2.4140861
-14.828872 -0.41191474 -2.4495771
-14.808826 -0.82271552 -2.5167887
-14.799999 -1.2333341 -2.5463908
-14.796065 -1.644009 -2.5595822
-15.285888 10.045009 0.54725093
-15.182819 9.5434837 0.19178228
-15.139999 9.0839977 0.044100888
-15.178699 8.6735411 0.17756677
-14.683922 5.8735666 -1.5288552
-14.656276 5.4437571 -1.6242024
-14.632817 5.0169635 -1.7051114
-14.610131 4.591754 -1.7833446
-14.591324 4.1689501 -1.8482126
-14.574907 3.7478333 -1.9048322
-14.562888 3.3286588 -1.9462849
-14.55032 2.910063 -1.9896321
-14.539537 2.4924901 -2.0268185
-14.5294 2.0756285 -2.0617821
-14.519215 1.6593374 -2.09691
-14.509732 1.2436895 -2.1296108
-14.500954 0.82862467 -2.1598926
-14.492372 0.41406611 -2.1894844
-14.484613 -1.4017434e-07 -2.2162442
-14.474803 -0.41356695 -2.2500801
-14.467189 -0.82669771 -2.2763441
-14.446134 -1.2382408 -2.3489583
-14.439233 -1.6501985 -2.3727577
-14.448311 -2.0640461 -2.3414483
-14.873203 10.498732 0.63265365
-14.770681 9.9919291 0.26867008
-14.790791 9.5705109 0.34006599
-14.838467 9.1649351 0.50932872
-14.318462 6.3169689 -1.3368526
-14.294473 5.8859591 -1.4220197
-14.272251 5.4570379 -1.5009135
-14.253403 5.0306106 -1.5678325
-14.236467 4.6059151 -1.6279589
-14.222365 4.1830482 -1.6780245
-14.209902 3.7614441 -1.7222742
-14.19814 3.340739 -1.7640303
-14.187819 2.92102 -1.8006729
-14.179177 2.5022068 -1.8313524
-14.170054 2.0838287 -1.8637447
-14.16045 1.6659348 -1.8978432
-14.151842 1.2486908 -1.9284035
-14.143245 0.83195329 -1.9589266
-14.134964 0.4157328 -1.9883276
-14.126509 -2.2115826e-06 -2.018342
-14.117759 -0.4152289 -2.0494101
-14.111403 -0.83008289 -2.0719788
-14.102549 -1.2443445 -2.1034122
-14.082501 -1.656767 -2.1745837
-14.077209 -2.0701807 -2.1933722
-14.140299 -2.4953494 -1.9693826
-14.553507 11.466397 1.0633774
-14.452838 10.949118 0.6951409
-14.397256 10.470731 0.49182501
-14.438458 10.063166 0.64253742
-13.97802 7.2007957 -1.0416955
-13.952004 6.7646065 -1.1368583
-13.930501 6.3320446 -1.2155184
-13.910775 5.9015393 -1.2876732
-13.894156 5.4734554 -1.3484634
-13.878429 5.0467 -1.4059875
-13.864197 4.6213975 -1.4580512
-13.853632 4.1980696 -1.4966971
-13.842841 3.7753201 -1.5361695
-13.833278 3.3535206 -1.5711545
-13.82433 2.9324336 -1.6038824
-13.816299 2.5120533 -1.6332543
-13.808279 2.0921614 -1.662595
-13.799484 1.672665 -1.6947652
-13.791121 1.2537365 -1.725352
-13.78283 0.83532202 -1.7556837
-13.774907 0.41742074 -1.7846642
-13.767294 -1.142158e-06 -1.8125123
-13.75903 -0.41694096 -1.8427397
-13.751673 -0.83343774 -1.8696487
-13.744982 -1.2495463 -1.8941287
-13.724051 -1.6635226 -1.970692
-13.717802 -2.0784578 -1.9935479
-13.720121 -2.4945688 -1.9850607
-14.128741 11.921124 1.1246758
-14.036485 11.404643 0.77666545
-14.032311 10.962741 0.76091927
-14.077389 10.558042 0.93096125
-13.608381 7.6547122 -0.83823097
-13.584578 7.2168064 -0.92802793
-13.563734 6.7818656 -1.0066547
-13.547261 6.3502779 -1.0687939
-13.531663 5.9201021 -1.1276293
-13.517769 5.4915934 -1.1800414
-13.505688 5.0646319 -1.225616
-13.495349 4.6390262 -1.2646158
-13.485619 4.2142549 -1.301317
-13.476258 3.7901978 -1.3366293
-13.46762 3.3669031 -1.3692137
-13.460115 2.9443986 -1.3975258
-13.452205 2.5222862 -1.4273593
-13.443716 2.1005802 -1.4593872
-13.435649 1.6794535 -1.4898148
-13.427533 1.2588292 -1.5204298
-13.419779 0.83873552 -1.5496827
-13.412151 0.41912848 -1.5784562
-13.405001 -2.4346928e-06 -1.6054274
-13.397449 -0.41867176 -1.6339159
-13.389962 -0.83687431 -1.6621547
-13.382427 -1.2546041 -1.6905797
-13.375016 -1.6718779 -1.7185344
-13.35452 -2.0866444 -1.7958519
-13.349581 -2.5030479 -1.814483
-13.368955 -2.9244611 -1.7414023
-13.707232 12.380723 1.2026044
-13.624153 11.866196 0.87910461
-13.658343 11.455386 1.0122361
-13.259708 8.5546484 -0.54000401
-13.23626 8.112546 -0.63130736
-13.214952 7.6731977 -0.71427768
-13.196761 7.2369328 -0.78511596
-13.18119 6.8031955 -0.84574676
-13.166823 6.3710437 -0.90169066
-13.153827 5.9404359 -0.95229751
-13.143761 5.511898 -0.99149048
-13.134176 5.0841961 -1.0288142
-13.12472 4.6571569 -1.0656313
-13.115858 4.2309203 -1.1001452
-13.108278 3.8056293 -1.1296571
-13.100708 3.3808267 -1.1591334
-13.09332 2.9565549 -1.1879047
-13.084903 2.5325608 -1.2206796
-13.076495 2.1091111 -1.2534128
-13.068732 1.6862869 -1.283643
-13.061839 1.2640488 -1.3104856
-13.054208 0.84220624 -1.3402008
-13.045726 0.42082858 -1.3732289
-13.039144 -1.1354698e-06 -1.3988628
-13.032967 -0.42042029 -1.422909
-13.025768 -0.84037316 -1.4509392
-13.01778 -1.2597867 -1.4820431
-13.009631 -1.6786635 -1.513777
-12.98547 -2.0944307 -1.6078591
-12.957104 -2.5078285 -1.7183141
-12.925375 -2.9186347 -1.8418638
-13.38596 13.385959 1.6890514
-13.287741 12.844813 1.2938541
-13.229183 12.347239 1.0582318
-13.278722 11.950849 1.2575622
-12.909161 9.4667149 -0.22943364
-12.883368 9.0183563 -0.33321971
-12.861818 8.5745449 -0.41992891
-12.843437 8.1341753 -0.49388909
-12.826481 7.695888 -0.56211156
-12.812024 7.2601457 -0.62028462
-12.798852 6.8260522 -0.67328203
-12.788096 6.3940473 -0.71656567
-12.778322 5.9632163 -0.75589073
-12.769244 5.5333381 -0.7924183
-12.760236 5.1040936 -0.82866544
-12.75254 4.6759305 -0.85962892
-12.745193 4.2483964 -0.88919353
-12.737854 3.8213534 -0.91872042
-12.72996 3.3946543 -0.95048511
-12.72202 2.9684703 -0.98243392
-12.714089 2.5428164 -1.014345
-12.707011 2.1178336 -1.0428262
-12.700445 1.69339 -1.0692436
-12.693886 1.2693871 -1.0956353
-12.685879 0.84572315 -1.1278534
-12.677826 0.42259297 -1.1602588
-12.670731 -3.1778773e-06 -1.1888014
-12.664258 -0.42214364 -1.2148442
-12.65757 -0.84384006 -1.241758
-12.650665 -1.2650684 -1.2695422
-12.645047 -1.6860089 -1.2921468
-12.639768 -2.1066289 -1.3133934
-12.531047 -2.5062103 -1.7508529
-12.490445 -2.914438 -1.9142203
-12.460463 -3.3227916 -2.0348575
-12.948982 13.842013 1.7274383
-12.866814 13.310494 1.3854148
-12.828219 12.828221 1.224771
-12.888707 12.444268 1.4765437
-12.527612 9.9356918 -0.026491329
-12.50569 9.487071 -0.11774343
-12.485581 9.0412817 -0.20143777
-12.468949 8.5992756 -0.27067298
-12.453532 8.1592102 -0.33484265
-12.440769 7.7218552 -0.38796607
-12.429255 7.2861137 -0.4358933
-12.418262 6.8514547 -0.48165309
-12.410113 6.419023 -0.51557392
-12.401365 5.986865 -0.55198312
-12.392355 5.5551925 -0.58948934
-12.385012 5.1248298 -0.62005305
-12.378063 4.6951261 -0.64897722
-12.371068 4.265883 -0.67809522
-12.36375 3.8370249 -0.70855552
-12.355014 3.4082782 -0.74492013
-12.347605 2.9804544 -0.77575624
-12.341191 2.5533483 -0.80245149
-12.334949 2.1267154 -0.82843888
-12.328384 1.700465 -0.85576046
-12.321609 1.2746485 -0.883964
-12.314568 0.84927875 -0.91327357
-12.306227 0.42435032 -0.94798887
-12.301164 -2.3933412e-06 -0.96906811
-12.29409 -0.42393738 -0.99850583
-12.28795 -0.84744668 -1.0240656
-12.282901 -1.2706456 -1.0450842
-12.278073 -1.6935288 -1.0651827
-12.272436 -2.1159387 -1.088647
-12.190474 -2.5221691 -1.4298072
-12.055405 -2.9099255 -1.9920262
-12.011545 -3.3135319 -2.1745842
-11.97187 -3.7154098 -2.3397298
-12.448308 13.782056 1.4939619
-12.41055 13.297018 1.3311847
-12.486355 12.932296 1.6579815
-12.167785 10.864095 0.28459814
-12.145981 10.410839 0.19059671
-12.125241 9.9600191 0.10118419
-12.107683 9.5131788 0.025491597
-12.092083 9.0690632 -0.041761197
-12.078479 8.6274862 -0.10040832
-12.066751 8.1881504 -0.15097229
-12.05721 7.7510619 -0.19210128
-12.047469 7.3145328 -0.23409753
-12.039255 6.8795733 -0.26950762
-12.031107 6.4452333 -0.30463687
-12.022807 6.0114036 -0.340417
-12.014574 5.5781927 -0.37591138
-12.007156 5.1459236 -0.4078899
-12.0005 4.714479 -0.43658549
-11.993851 4.2835174 -0.46525294
-11.986137 3.8526862 -0.49850315
-11.978862 3.4225307 -0.52986693
-11.971809 2.9929512 -0.56027049
-11.965672 2.56407 -0.58672911
-11.959062 2.1355448 -0.61522943
-11.952352 1.707477 -0.64415747
-11.945755 1.2799001 -0.67259359
-11.938848 0.85277313 -0.70237547
-11.932478 0.42615816 -0.7298305
-11.926858 -1.7993086e-06 -0.75406128
-11.922195 -0.42579412 -0.77415997
-11.916743 -0.85119832 -0.79766262
-11.911667 -1.2762514 -0.81955171
-11.906964 -1.7009962 -0.83982444
-11.902317 -2.1254156 -0.85985756
-11.895724 -2.5490835 -0.88828462
-11.626339 -2.9065866 -2.0496271
-11.576945 -3.3077009 -2.2625697
-11.526584 -3.7049737 -2.4796863
-11.47543 -4.0983691 -2.7002108
-12.02073 14.246789 1.5699798
-11.974847 13.748898 1.3648494
-12.05887 13.398745 1.7404965
-11.781397 11.345045 0.49997577
-11.760999 10.889813 0.40878823
-11.74227 10.437572 0.32505557
-11.725089 9.9880381 0.24823923
-11.711454 9.5426664 0.18728028
-11.699596 9.0996857 0.13426605
-11.690031 8.6592817 0.091503054
-11.681589 8.220377 0.053761214
-11.67237 7.7815776 0.012546239
-11.665479 7.3449302 -0.018267475
-11.657282 6.9080176 -0.054909043
-11.64936 6.4718657 -0.090331636
-11.641447 6.0363045 -0.12570307
-11.633493 5.6013103 -0.16126017
-11.627901 5.1679568 -0.18626434
-11.621375 4.734632 -0.21544012
-11.614074 4.3015089 -0.24808221
-11.607147 3.8690469 -0.27904928
-11.600072 3.4370568 -0.31068179
-11.593421 3.0057001 -0.34041485
-11.587141 2.5749197 -0.36849189
-11.580505 2.1445355 -0.39816046
-11.574705 1.7147688 -0.42409348
-11.56803 1.2853355 -0.45392817
-11.560901 0.85636181 -0.48580837
-11.555481 0.4279812 -0.51003903
-11.551149 -1.9489532e-06 -0.52940404
-11.546821 -0.42766124 -0.54875731
-11.542187 -0.85497755 -0.56947893
-11.537247 -1.2819184 -0.59155846
-11.532569 -1.7085307 -0.61247319
-11.528202 -2.1348529 -0.63199574
-11.523275 -2.56073 -0.65402186
-11.517019 -2.9858937 -0.68199116
-11.148672 -3.3033102 -2.3287847
-11.097191 -3.6990654 -2.5589445
-11.038316 -4.0882659 -2.8221633
-10.954455 -4.4629297 -3.1970801
-11.59361 14.714964 1.6539776
-11.548593 14.21365 1.4449724
-11.604243 13.835827 1.7033465
-11.413575 12.291543 0.81812584
-11.392082 11.830236 0.71833694
-11.37373 11.37373 0.63313752
-11.356421 10.919635 0.55277747
-11.34164 10.469207 0.48415595
-11.329526 10.022272 0.42790911
-11.319492 9.5780287 0.38132432
-11.310964 9.1357765 0.34173086
-11.302398 8.69415 0.30196315
-11.293231 8.2527447 0.25940371
-11.285868 7.8132911 0.22521731
-11.279227 7.3748784 0.19439024
-11.271933 6.9365735 0.16052221
-11.264393 6.4986873 0.12551643
-11.256864 6.0613871 0.090558603
-11.249802 5.6248989 0.057770144
-11.244523 5.1897783 0.03326419
-11.238287 4.7546597 0.0043085204
-11.231196 4.3196893 -0.02860526
-11.224771 3.8854961 -0.058428995
-11.218507 3.4518459 -0.087516159
-11.212401 3.0187216 -0.11586729
-11.204991 2.5857651 -0.15027182
-11.198445 2.1535461 -0.18065859
-11.192863 1.7219783 -0.20657405
-11.187538 1.2908678 -0.23129827
-11.181816 0.86013925 -0.25786442
-11.176351 0.42985907 -0.28324008
-11.172442 -8.8385167e-07 -0.30138245
-11.168839 -0.42957225 -0.31811899
-11.163785 -0.85875338 -0.34157825
-11.158987 -1.2875761 -0.36385426
-11.154292 -1.7160473 -0.38564724
-11.150201 -2.1442699 -0.40464801
-11.146062 -2.572171 -0.4238607
-11.140831 -2.9994555 -0.44814858
-10.729935 -3.3015203 -2.3558195
-10.63289 -3.6806169 -2.8063719
-10.521527 -4.0467429 -3.3234043
-10.413472 -4.4057021 -3.8250711
-10.457953 -4.8267498 -3.6185563
-11.129788 14.69132 1.5674833
-11.122866 14.23727 1.5340623
-11.044234 13.253079 1.1543945
-11.020466 12.783738 1.0396271
-11.000838 12.320936 0.9448536
-10.983695 11.862391 0.86208594
-10.96992 11.408714 0.79556924
-10.955977 10.955978 0.7282517
-10.94502 10.507216 0.67534131
-10.936179 10.061284 0.63265646
-10.928149 9.6167717 0.59388906
-10.92063 9.1733265 0.55757916
-10.911929 8.7295418 0.51556391
-10.903539 8.2866879 0.47505197
-10.897142 7.845943 0.4441705
-10.890656 7.4056435 0.41284937
-10.884324 6.9659657 0.38227904
-10.877062 6.5262346 0.34721571
-10.869564 6.0869536 0.31100976
-10.86306 5.6487885 0.27960593
-10.857252 5.2114811 0.25156415
-10.851452 4.7746387 0.22355334
-10.845559 4.3382211 0.19510001
-10.839622 3.902262 0.16644152
-10.832959 3.4665456 0.13426523
-10.825521 3.0311446 0.098350033
-10.820242 2.5968578 0.072861351
-10.81531 2.1630607 0.049047776
-10.809992 1.7295974 0.023372136
-10.804631 1.2965554 -0.0025119691
-10.799714 0.86397392 -0.026255699
-10.795628 0.43182257 -0.045988217
-10.791543 -1.4322129e-06 -0.065706909
-10.787075 -0.43148443 -0.087283224
-10.782076 -0.86256671 -0.11141972
-10.777276 -1.293276 -0.1345959
-10.772819 -1.7236527 -0.15611677
-10.769188 -2.1538391 -0.17364898
-10.765269 -2.5836658 -0.19256818
-10.760339 -3.0128973 -0.21637265
-10.756428 -3.4420583 -0.23526235
-10.085814 -3.6308954 -3.4732707
-9.977478 -3.9909923 -3.9963629
-9.871851 -4.3436155 -4.5063744
-9.8141212 -4.7107787 -4.7851191
-10.724591 15.19317 1.7686421
-10.68539 14.692413 1.5714787
-10.703734 14.271644 1.6637415
-10.644013 13.748516 1.3633622
-10.624597 13.280746 1.2657065
-10.607451 12.817334 1.1794726
-10.591189 12.356388 1.0976863
-10.577896 11.900133 1.0308231
-10.566771 11.447333 0.97486115
-10.55654 10.996395 0.92340869
-10.548892 10.548889 0.88494182
-10.541497 10.102265 0.84774494
-10.534113 9.6562691 0.81060666
-10.526882 9.2110214 0.77424127
-10.519085 8.7659044 0.73502254
-10.512019 8.3220148 0.69948637
-10.505876 7.8794055 0.66858345
-10.49969 7.4372783 0.63747585
-10.493608 6.9957371 0.60688525
-10.486863 6.5542884 0.57296371
-10.479221 6.1128778 0.53452331
-10.473783 5.6732969 0.50716895
-10.467969 5.2339845 0.47792676
-10.462161 4.7951565 0.44871774
-10.456408 4.3568354 0.41977897
-10.448904 3.9183369 0.38204116
-10.44326 3.4810851 0.35365194
-10.438521 3.0445666 0.32981905
-10.433362 2.6083395 0.30386561
-10.428585 2.1726189 0.27984434
-10.423104 1.7371831 0.25227782
-10.418902 1.3023614 0.23114623
-10.41513 0.8679269 0.21216772
-10.411123 0.43379551 0.19201855
-10.407026 -3.0175713e-06 0.17141299
-10.402791 -0.43345079 0.15011083
-10.39776 -0.86648071 0.12480932
-10.392688 -1.2990873 0.099295862
-10.38898 -1.731499 0.080649249
-10.385463 -2.1636405 0.062957384
-10.381152 -2.595289 0.041273877
-10.375814 -3.0262806 0.014429164
-10.371278 -3.4570937 -0.0083907396
-9.5507822 -3.5815444 -4.1351595
-9.444066 -3.9350297 -4.6719065
-9.349575 -4.2852235 -5.1471572
-9.2623978 -4.6312003 -5.5856261
-10.289053 15.209903 1.8280497
-10.253215 14.711132 1.6399575
-10.241403 14.248908 1.577968
-10.225396 13.782056 1.4939619
-10.210384 13.317891 1.4151789
-10.196172 12.856043 1.3405863
-10.18421 12.398167 1.2778001
-10.174059 11.943459 1.2245253
-10.16599 11.491987 1.1821774
-10.157887 11.04118 1.1396546
-10.150591 10.591921 1.1013653
-10.14368 10.14368 1.0650914
-10.137383 9.6966267 1.0320464
-10.130258 9.2493629 0.99464279
-10.123188 8.8027706 0.95753729
-10.117055 8.357564 0.9253583
-10.111163 7.9130821 0.89443314
-10.105324 7.469152 0.86378688
-10.098751 7.0252166 0.82929063
-10.092279 6.5819206 0.79532433
-10.086139 6.1393876 0.76310122
-10.080467 5.6976547 0.73332947
-10.074801 5.2564173 0.70359337
-10.068498 4.8153687 0.67051357
-10.062341 4.3749304 0.63819778
-10.057338 3.9354796 0.61193889
-10.052111 3.4963841 0.58450752
-10.048308 3.0581782 0.56455123
-10.044279 2.6202471 0.54340684
-10.039204 2.1824336 0.51676309
-10.034314 1.7450979 0.49110559
-10.03048 1.3083229 0.47098014
-10.026603 0.87187612 0.45063233
-10.022636 0.43576482 0.42982006
-10.018811 -1.1293944e-06 0.40974316
-10.014988 -0.43543586 0.38967767
-10.010304 -0.87046361 0.36509866
-10.00558 -1.3050768 0.34030232
-10.001224 -1.7393451 0.31743473
-9.9978218 -2.17344 0.29958415
-9.9931097 -2.6068995 0.27484849
-9.9880838 -3.0398531 0.24847765
-9.9832907 -3.4724512 0.22331746
-9.0255537 -3.5317407 -4.8031573
-8.9256945 -3.8807387 -5.3272481
-8.8411541 -4.2283783 -5.7709436
-8.7476711 -4.5640039 -6.2615676
-9.82973 14.744594 1.7623562
-9.8152275 14.276691 1.6827852
-9.8088818 13.821605 1.6479691
-9.7974443 13.360151 1.5852098
-9.7877588 12.902046 1.5320681
-9.7793627 12.446461 1.4859983
-9.7717047 11.992544 1.4439797
-9.7638321 11.539073 1.4007864
-9.7561092 11.086489 1.3584079
-9.7493887 10.635695 1.3215386
-9.7433977 10.186279 1.2886664
-9.7377739 9.737772 1.2578104
-9.7314835 9.2891445 1.2232941
-9.7247972 8.840724 1.1866056
-9.7182999 8.3930769 1.1509556
-9.7128382 7.9468675 1.1209933
-9.7076521 7.5013671 1.092537
-9.7020254 7.0560179 1.0616611
-9.6952019 6.610364 1.0242178
-9.6890993 6.1657887 0.99073702
-9.6834488 5.7220368 0.95973217
-9.6782942 5.279068 0.93144834
-9.6738987 4.8369489 0.90733385
-9.6680889 4.3945847 0.87545645
-9.6626406 3.9528959 0.84556222
-9.6590118 3.5123675 0.82564938
-9.6552963 3.0721376 0.80526865
-9.651762 2.6322973 0.78587294
-9.6470375 2.1925082 0.75995088
-9.6420536 1.7530984 0.73260564
-9.6377792 1.3142403 0.70915341
-9.6341257 0.87582678 0.68910265
-9.6306057 0.4377546 0.66978967
-9.6267366 -1.1418979e-06 0.64856517
-9.6230907 -0.43741438 0.6285575
-9.6192722 -0.87448025 0.60760468
-9.6147985 -1.3111119 0.5830639
-9.6103735 -1.7473421 0.55878067
-9.6064339 -2.1832831 0.53716505
-9.6014481 -2.6185772 0.50980699
-9.5963364 -3.053381 0.48176119
-9.591753 -3.487911 0.4566153
-8.514698 -3.4832878 -5.4530215
-8.4226103 -3.8284609 -5.9582982
-8.3428764 -4.1714406 -6.3957839
-8.2537699 -4.5020571 -6.8846989
-9.6091471 -5.6781349 0.55205554
-9.4111738 14.788984 1.9247392
-9.3978176 14.320482 1.8479627
-9.3969841 13.871739 1.8431739
-9.3872128 13.4103 1.7870049
-9.3804321 12.953931 1.7480329
-9.3730516 12.497401 1.7056028
-9.3656368 12.041531 1.6629909
-9.3589754 11.587301 1.6246989
-9.3523226 11.133718 1.5864573
-9.345767 10.680877 1.5487716
-9.3400002 10.229523 1.5156249
-9.3345003 9.7789984 1.4840057
-9.3291349 9.329134 1.4531714
-9.3231306 8.8791704 1.418651
-9.3170462 8.4297066 1.3836811
-9.3112717 7.9810891 1.3504856
-9.3060627 7.5334792 1.3205465
-9.3006887 7.086236 1.2896551
-9.2947617 6.6391139 1.2555913
-9.2887573 6.1925039 1.2210751
-9.2835312 5.7469463 1.1910369
-9.2800217 5.3028693 1.1708641
-9.2750626 4.8583646 1.1423564
-9.2707052 4.4146218 1.1173109
-9.2664385 3.971329 1.0927802
-9.2617912 3.5282996 1.0660685
-9.2580862 3.0860262 1.044768
-9.2546377 2.6441824 1.0249507
-9.2506828 2.2025423 1.0022148
-9.245924 1.7611269 0.97486234
-9.2415094 1.3202156 0.94948876
-9.2383709 0.87984306 0.93145066
-9.2349386 0.43975818 0.91171533
-9.2306194 -5.9002514e-07 0.8868897
-9.2270651 -0.43938604 0.86646056
-9.2229643 -0.8783794 0.84289086
-9.2184877 -1.3169283 0.81715542
-9.2146902 -1.7551795 0.7953251
-9.2108116 -2.1930511 0.77302873
-9.205925 -2.6302655 0.7449429
-9.2015076 -3.0671706 0.71954662
-9.198143 -3.504056 0.70021331
-8.0191393 -3.4367757 -6.0768533
-7.9315872 -3.776948 -6.580112
-7.8574104 -4.115788 -7.0064902
-7.7774196 -4.4442425 -7.4662857
-7.8357563 -4.8507071 -7.1309605
-8.9824657 14.371944 2.042089
-8.9757366 13.912393 2.0014782
-8.9767885 13.465181 2.0078182
-8.9698582 13.006292 1.9659936
-8.9633999 12.548759 1.9270173
-8.9582481 12.093633 1.895923
-8.9521408 11.637784 1.8590646
-8.9454165 11.181769 1.818476
-8.9398689 10.727839 1.7849932
-8.93466 10.274858 1.753562
-8.9291677 9.8220844 1.7204072
-8.9232674 9.3694305 1.6847894
-8.9176636 8.9176645 1.6509722
-8.9121084 8.4665012 1.6174457
-8.9070988 8.0163898 1.5872074
-8.9020948 7.5667787 1.5570033
-8.8963118 7.1170487 1.5221004
-8.8909063 6.66818 1.4894798
-8.8861265 6.2202868 1.4606321
-8.8827095 5.7737613 1.440004
-8.8785954 5.3271575 1.4151767
-8.874403 4.8809218 1.389876
-8.8698874 4.4349442 1.362618
-8.8654575 3.989454 1.3358836
-8.8611555 3.5444617 1.309916
-8.8575115 3.1001277 1.2879267
-8.8538713 2.6561613 1.265952
-8.8502741 2.2125661 1.2442453
-8.8466816 1.7693349 1.2225556
-8.843008 1.3264494 1.2003887
-8.8393803 0.88393652 1.1784906
-8.8355513 0.44177702 1.1553757
-8.8312368 -2.8428537e-06 1.1293397
-8.8273335 -0.44136718 1.1057786
-8.8228645 -0.88228756 1.0788095
-8.8189688 -1.3228476 1.0552961
-8.8158054 -1.7631642 1.0362052
-8.8115911 -2.2028995 1.0107707
-8.8079081 -2.6423731 0.98853761
-8.8039837 -3.0813956 0.96485817
-8.7986507 -3.5194621 0.9326694
-7.5417986 -3.3938122 -6.6531062
-7.4548488 -3.7274261 -7.177896
-7.3853245 -4.0619311 -7.5975113
-7.3118668 -4.3871236 -8.0408649
-7.2838655 -4.7345142 -8.2098713
-8.7931633 -6.1552162 0.89954519
-8.5762157 14.444152 2.3144703
-8.5622654 13.970012 2.2258439
-8.5559511 13.509396 2.1857262
-8.5581617 13.062456 2.1997733
-8.5523758 12.603498 2.1630096
-8.5475988 12.146586 2.1326621
-8.5419865 11.689034 2.0970089
-8.5363417 11.232028 2.0611463
-8.5305843 10.775474 2.0245676
-8.5249548 10.31968 1.9887983
-8.519372 9.8645353 1.9533325
-8.513916 9.4101171 1.9186689
-8.5091429 8.9569893 1.888345
-8.5042562 8.5042553 1.8572983
-8.4990969 8.0517731 1.824522
-8.4937067 7.5996308 1.790274
-8.4887981 7.1484599 1.7590911
-8.485239 6.6988711 1.7364784
-8.4815245 6.2495432 1.7128813
-8.4775372 5.8004179 1.6875491
-8.4733171 5.3515677 1.6607388
-8.4689436 4.9030714 1.6329535
-8.4647322 4.455121 1.606197
-8.4610758 4.0078759 1.5829641
-8.4574213 3.561018 1.5597484
-8.4540453 3.1146472 1.5382981
-8.4504766 2.6685698 1.5156227
-8.4468708 2.2228603 1.4927156
-8.4435816 1.7775953 1.4718181
-8.4401379 1.3326511 1.4499446
-8.4365807 0.8880586 1.4273412
-8.4320889 0.44379288 1.3988023
-8.428031 -1.9391684e-06 1.3730237
-8.4242105 -0.44338086 1.3487542
-8.4205494 -0.88637644 1.3254945
-8.4168911 -1.3289841 1.3022524
-8.4134703 -1.7712587 1.2805161
-8.4098568 -2.2131228 1.2575644
-8.404541 -2.6540661 1.2237864
-8.4005089 -3.0949261 1.1981738
-8.3960562 -3.5351825 1.1698802
-8.3922262 -3.9752667 1.1455494
-6.9908791 -3.6794128 -7.7574792
-6.9252763 -4.0093727 -8.1742668
-6.856761 -4.3305869 -8.609561
-6.8000064 -4.6526375 -8.9701319
-8.367589 -6.1655941 0.98902625
-8.1485481 14.033609 2.4734864
-8.1408596 13.568096 2.4219241
-8.1413584 13.11663 2.4252717
-8.1372118 12.657884 2.3974631
-8.1329546 12.199431 2.3689134
-8.127017 11.739024 2.3290987
-8.121891 11.280403 2.2947221
-8.1175356 10.82338 2.2655091
-8.1125355 10.366016 2.2319832
-8.1068182 9.9083328 2.1936433
-8.1017933 9.4520941 2.1599469
-8.0973835 8.9970932 2.1303697
-8.091877 8.5414248 2.0934448
-8.0870228 8.0870209 2.0608923
-8.0831585 7.6340919 2.0349777
-8.079752 7.1820011 2.0121331
-8.0759325 6.7299418 1.9865196
-8.0723429 6.2784872 1.9624492
-8.0686064 5.8273258 1.9373854
-8.0644207 5.3762798 1.909315
-8.0605774 4.9259071 1.8835452
-8.0569649 4.47609 1.8593172
-8.0533552 4.0266767 1.8351068
-8.0499353 3.5777483 1.8121772
-8.0465193 3.1291997 1.7892697
-8.0431061 2.6810336 1.7663811
-8.0397711 2.233269 1.7440113
-8.0366259 1.7859153 1.7229199
-8.0334072 1.3388991 1.7013414
-8.0294456 0.89215803 1.6747667
-8.0250015 0.44583166 1.6449637
-8.021122 -1.5888315e-06 1.6189452
-8.0176926 -0.44542825 1.5959519
-8.0143414 -0.89048237 1.573474
-8.0109921 -1.3351656 1.5510176
-8.0061598 -1.7791493 1.5186129
-8.0017796 -2.222719 1.489233
-7.9987001 -2.6662345 1.4685857
-7.9944386 -3.1089494 1.4400046
-7.9904771 -3.5513244 1.4134415
-6.5388346 -3.6326869 -8.3214903
-6.4762516 -3.9577119 -8.7411766
-6.4132347 -4.2754927 -9.1637793
-6.3561349 -4.5905437 -9.5467014
-7.957386 -6.1890793 1.1915284
-7.9823818 -6.6519876 1.3591527
-7.7226567 13.628218 2.6638231
-7.717463 13.165081 2.626946
-7.7193274 12.714185 2.6401861
-7.7144303 12.252329 2.6054149
-7.7099781 11.79173 2.5737989
-7.7047286 11.330482 2.5365279
-7.7005057 10.871301 2.506537
-7.6962504 10.412573 2.4763284
-7.6912017 9.9533186 2.4404733
-7.6866307 9.4952497 2.4080186
-7.6817751 9.0373812 2.3735425
-7.6770349 8.5802135 2.3398807
-7.6732397 8.1246042 2.3129287
-7.6693392 7.6693387 2.2852366
-7.6659842 7.2150431 2.261416
-7.6627755 6.7612705 2.2386339
-7.6596785 6.3079691 2.2166405
-7.6565833 5.855032 2.1946645
-7.6522689 5.4016004 2.1640275
-7.6492877 4.9495392 2.1428587
-7.6463447 4.4978485 2.1219623
-7.6421137 4.0458231 2.0919187
-7.6380658 3.594382 2.0631785
-7.634738 3.1437151 2.0395467
-7.6315918 2.6935022 2.0172052
-7.6286268 2.2437139 1.9961511
-7.6256638 1.7942733 1.9751134
-7.622489 1.3451437 1.9525717
-7.6186047 0.89630574 1.924991
-7.6144753 0.447909 1.8956724
-7.6104927 1.5798165e-07 1.8673903
-7.607224 -0.44748569 1.8441826
-7.6038523 -0.89457303 1.8202403
-7.5997739 -1.3411361 1.7912818
-7.5957713 -1.7872421 1.7628621
-7.5914192 -2.2327712 1.7319573
-7.5876369 -2.6779897 1.7051007
-6.0978303 -3.5869603 -8.8734617
-6.0392561 -3.9077568 -9.2893753
-5.9833341 -4.2235322 -9.6864595
-5.9255066 -4.5312705 -10.097072
-7.5471559 -6.2153068 1.4176596
-7.5460725 -6.6583009 1.4099665
-7.2962508 13.224454 2.8740754
-7.2913256 12.759821 2.8369162
-7.2927127 12.306452 2.8473759
-7.2888308 11.84435 2.8180928
-7.2841234 11.381442 2.7825749
-7.27949 10.919235 2.7476263
-7.2755542 10.458609 2.717926
-7.2704153 9.9968195 2.6791606
-7.2663851 9.5371304 2.6487546
-7.2635288 9.0794115 2.6272061
-7.2595062 8.6206627 2.596859
-7.2552485 8.1621523 2.5647357
-7.252161 7.7054186 2.5414426
-7.2491789 7.2491803 2.5189438
-7.2460628 6.7931805 2.4954326
-7.2427773 6.3374286 2.470649
-7.2394953 5.8820896 2.4458888
-7.2362847 5.4272122 2.421665
-7.2332478 4.9728551 2.3987534
-7.2301106 4.5188169 2.375087
-7.2264318 4.064867 2.3473287
-7.2226882 3.6113427 2.3190892
-7.2190509 3.1583338 2.2916465
-7.2161298 2.706048 2.2696092
-7.2133136 2.2541585 2.2483582
-7.2100582 1.802514 2.2237983
-7.2068729 1.3512881 2.1997726
-7.203793 0.9004733 2.1765325
-7.1999378 0.44999516 2.14745
-7.1960192 -2.2432259e-06 2.1178865
-7.1923413 -0.44952235 2.0901353
-7.1887007 -0.89858842 2.06267
-7.1837845 -1.3469602 2.0255814
-7.1811614 -1.7952913 2.00579
-5.6665969 -3.5416236 -9.4207163
-5.614079 -3.8596814 -9.8169298
-5.5632119 -4.1724119 -10.200694
-5.5090799 -4.4761286 -10.609091
-5.5507293 -4.8568897 -10.294869
-7.1255465 -6.6802015 1.5862112
-7.1457305 -7.145731 1.7384857
-6.8804941 13.302288 3.1980531
-6.8660712 12.816668 3.0819862
-6.8623357 12.352204 3.0519249
-6.864203 11.897951 3.0669518
-6.8599129 11.433187 3.032428
-6.8556943 10.969109 2.998477
-6.851088 10.505001 2.961411
-6.8472061 10.042568 2.9301689
-6.844305 9.5820265 2.9068279
-6.841342 9.1217899 2.8829789
-6.8381209 8.6616201 2.85706
-6.8351302 8.2021551 2.8329926
-6.8324342 7.7434225 2.8113008
-6.8291898 7.2844696 2.7851865
-6.8259802 6.8259783 2.7593575
-6.8229032 6.3680425 2.7345967
-6.8196673 5.9103751 2.7085567
-6.8165636 5.453249 2.6835811
-6.8135271 4.9965844 2.659147
-6.8102999 4.5401998 2.6331749
-6.8067217 4.0840325 2.6043797
-6.8032436 3.6283944 2.5763898
-6.7998013 3.1732378 2.5486879
-6.7967157 2.7186842 2.5238571
-6.7936969 2.264564 2.4995651
-6.7904248 1.8107796 2.4732282
-6.7874117 1.3574803 2.4489844
-6.7843695 0.90458095 2.4244995
-6.7811375 0.45207545 2.398494
-6.776855 -1.4957629e-06 2.3640304
-6.7734394 -0.451565 2.3365436
-6.7694535 -0.90259463 2.304467
-6.7680836 -1.3536192 2.2934401
-5.2481766 -3.4987855 -9.9378223
-5.1992359 -3.8127751 -10.331667
-5.1521597 -4.1217294 -10.710506
-5.1038079 -4.4233017 -11.099615
-5.0897708 -4.750453 -11.212579
-6.7120061 -6.7120085 1.8421669
-6.7056208 -7.1526632 1.7907777
-6.4406257 12.88125 3.3604136
-6.4325681 12.405666 3.2909453
-6.4322596 11.945622 3.2882867
-6.4310884 11.484085 3.2781856
-6.4278545 11.019177 3.2502995
-6.424408 10.554383 3.2205849
-6.4217029 10.091245 3.1972625
-6.4189382 9.6284065 3.173425
-6.4162688 9.1660957 3.1504061
-6.4135699 8.7041292 3.1271415
-6.4106598 8.2422752 3.1020467
-6.407721 7.7808027 3.0767095
-6.4047551 7.3197193 3.0511341
-6.4017606 6.8590302 3.0253193
-6.3987393 6.3987374 2.9992659
-6.39569 5.9388537 2.9729729
-6.3928566 5.4795904 2.9485416
-6.3894777 5.0203037 2.9194133
-6.3859816 4.5614138 2.8892686
-6.382762 4.1032038 2.8615067
-6.3797889 3.6455925 2.8358686
-6.3768783 3.1884375 2.8107784
-6.3739405 2.7316885 2.7854464
-6.370461 2.2751625 2.7554483
-6.3669553 1.8191284 2.7252178
-6.3634834 1.363603 2.6952825
-6.3601055 0.90858519 2.6661634
-6.3574243 0.45410085 2.6430428
-6.354414 -2.3682007e-06 2.617089
-6.3509259 -0.4536396 2.5870109
-4.8388505 -3.4563243 -10.450391
-4.7933965 -3.7662432 -10.842305
-4.7497802 -4.0712428 -11.218375
-4.7080069 -4.3717227 -11.578552
-4.6731534 -4.6731558 -11.879065
-6.2788124 -7.175787 1.9652324
-6.2901721 -7.6380682 2.0631795
-6.0022135 12.466134 3.561286
-5.9953408 11.99068 3.4974704
-6.000277 11.538993 3.5433066
-5.9974475 11.072206 3.5170286
-5.9946489 10.605915 3.4910426
-5.9920545 10.140398 3.4669561
-5.989491 9.6753321 3.4431572
-5.9868441 9.2105274 3.4185731
-5.9839115 8.7457151 3.391346
-5.9812694 8.2817554 3.3668103
-5.9785719 7.8181305 3.3417666
-5.9756193 7.3546047 3.3143482
-5.9729557 6.8918705 3.2896135
-5.97018 6.4294238 3.2638431
-5.9673214 5.9673204 3.2372944
-5.9639225 5.5051589 3.2057416
-5.9607849 5.0437393 3.1766047
-5.9579067 4.5830035 3.1498766
-5.9552302 4.1228509 3.1250265
-5.9525275 3.6630938 3.0999327
-5.9492598 3.2034459 3.0695901
-5.9459953 2.7443054 3.0392761
-5.9424796 2.2855682 3.0066311
-5.9393072 1.8274779 2.9771788
-5.9367895 1.3700269 2.9537954
-5.9340477 0.91292769 2.9283338
-5.9307709 0.45621264 2.8979144
-4.4428706 -3.4175937 -10.917895
-4.3986626 -3.7219467 -11.328382
-4.3603702 -4.02496 -11.683943
-4.3238192 -4.3238206 -12.023339
-4.2984352 -4.6290855 -12.25904
-5.8616714 -7.214366 2.2562919
-5.8496203 -7.6495056 2.1443899
-5.8809242 -8.1428194 2.4350624
-5.5387435 12.00061 3.5435741
-5.5336013 11.528336 3.4918485
-5.5632811 11.12656 3.7903953
-5.5605378 10.657698 3.7628005
-5.558012 10.189689 3.7373962
-5.5553012 9.7217751 3.7101269
-5.5526733 9.2544527 3.683692
-5.5500746 8.7876177 3.6575534
-5.5475321 8.3212976 3.6319749
-5.5449648 7.8553672 3.606149
-5.5423465 7.3897939 3.579814
-5.5398912 6.924861 3.5551119
-5.5374641 6.4603753 3.5307009
-5.5344801 5.9956865 3.500684
-5.5310473 5.5310445 3.4661534
-5.5282564 5.0675659 3.4380779
-5.525866 4.6048875 3.4140346
-5.5228949 4.1421695 3.3841438
-5.5198474 3.6798956 3.3534882
-5.5175176 3.2185493 3.3300507
-5.5145812 2.7572894 3.3005147
-5.5110412 2.2962654 3.2649045
-5.508666 1.8362207 3.2410104
-5.5059767 1.3764921 3.2139578
-4.0146327 -3.6800811 -11.787802
-3.9902897 -3.9902921 -12.032673
-3.9858241 -4.3179784 -12.077595
-3.9918683 -4.6571813 -12.016791
-5.4202838 -7.6787362 2.3519533
-5.4229922 -8.134491 2.3792012
-5.0730052 11.990737 3.4977376
-5.0540152 11.486398 3.2893476
-5.1051307 11.138467 3.850271
-5.1217937 10.709206 4.0331326
-5.1191831 10.238367 4.0044808
-5.1166744 9.7681923 3.9769504
-5.1144657 9.2990294 3.9527123
-5.1120853 8.8299646 3.9265924
-5.1093602 8.3607693 3.8966897
-5.1071825 7.8929162 3.8727927
-5.1048336 7.4252114 3.8470154
-5.1026354 6.9581385 3.82289
-5.1003895 6.491405 3.798245
-5.0976276 6.0244684 3.7679405
-5.0945983 5.5577426 3.7346978
-5.091794 5.0917931 3.7039211
-5.0891156 4.6264672 3.6745253
-5.0862675 4.1614909 3.6432772
-5.0841098 3.6975319 3.6195977
-5.0807533 3.2332065 3.5827687
-5.0782089 2.7699313 3.5548432
-5.0764241 2.3074639 3.5352607
-3.6747065 -3.6747067 -11.846769
-3.6775386 -4.0118623 -11.815687
-4.9983158 -7.7246709 2.6781189
-4.972928 -8.1375217 2.3995247
-5.0037708 -8.6428785 2.737982
-4.6047115 11.97225 3.4118986
-4.5848241 11.462059 3.1718378
-4.6215615 11.091747 3.6152916
-4.6732464 10.748466 4.2391834
-4.6761413 10.287509 4.2741289
-4.6741576 9.8157291 4.2501826
-4.6722894 9.3445778 4.2276344
-4.6700363 8.8730659 4.2004323
-4.6677165 8.4018898 4.1724372
-4.6658082 7.9318743 4.1493974
-4.6633568 7.461369 4.1198068
-4.6607265 6.9910898 4.0880599
-4.6585069 6.5219111 4.0612655
-4.6561761 6.0530286 4.0331316
-4.6531701 5.5838027 3.996846
-4.6508675 5.1159525 3.9690506
-4.6480937 4.6480932 3.9355664
-4.6458635 4.1812758 3.9086461
-4.6439729 3.7151778 3.8858242
-4.6412749 3.2488916 3.8532541
-4.6579413 -6.5211182 4.0544343
-4.6208482 -6.9312739 3.606689
-4.6063051 -7.3700891 3.4311299
-4.5960574 -7.8132987 3.3074307
-4.4723954 -8.0503111 1.8146967
-4.46808 -8.4893522 1.7626084
-4.5996962 -9.1993933 3.3513546
-4.1353412 11.946541 3.2925413
-4.1193676 11.442685 3.0782933
-4.1423101 11.04616 3.3860099
-4.1876702 10.701822 3.9943926
-4.2293649 10.338444 4.5536075
-4.2272716 9.8636322 4.5255351
-4.225636 9.3903017 4.5035977
-4.2234225 8.9161148 4.4739113
-4.2215004 8.4430017 4.4481354
-4.2196217 7.970397 4.422935
-4.2170639 7.4970016 4.3886294
-4.2145715 7.0242848 4.3551974
-4.2123284 6.5525079 4.3251157
-4.2101088 6.0812664 4.2953405
-4.207973 5.6106281 4.2666965
-4.2054706 5.1400185 4.2331314
-4.2032576 4.6702857 4.2034526
-4.2013745 4.2013741 4.178196
-4.2521482 -5.1970716 4.859189
-4.2315011 -5.6420012 4.5822644
-4.2166314 -6.0906916 4.3828278
-4.2013335 -6.5354109 4.1776495
-4.1887074 -6.9811802 4.0082989
-4.0963464 -7.2823954 2.7695289
-4.0626664 -7.6739268 2.3178055
-3.9825869 -7.9651742 1.2437515
-3.951287 -8.341609 0.82395154
-4.1935735 -9.3190546 4.0735664
-3.6681929 11.921626 3.1768699
-3.6545057 11.42033 2.9703457
-3.6658082 10.997422 3.1408863
-3.708226 10.661149 3.780925
-3.7495646 10.311301 4.4046726
-3.7762256 9.91259 4.806953
-3.7746642 9.4366589 4.7833982
-3.7727699 8.9603252 4.7548156
-3.7707109 8.4840984 4.7237473
-3.7687097 8.0085077 4.6935511
-3.7665625 7.5331225 4.6611519
-3.7645285 7.0584908 4.630465
-3.7625523 6.5844665 4.6006422
-3.7603753 6.1106095 4.5677958
-3.7583299 5.6374912 4.5369282
-3.756176 5.1647401 4.5044317
-3.7548335 4.693541 4.4841743
-3.8377752 -3.8377762 5.7356701
-3.8186462 -4.2959781 5.4470339
-3.8102221 -4.7627792 5.3199277
-3.8004034 -5.2255559 5.1717734
-3.7896237 -5.6844378 5.0091214
-3.7775462 -6.1385126 4.8268814
-3.6620622 -6.4086108 3.0843637
-3.6317818 -6.8095922 2.6274664
-3.6019981 -7.2039971 2.1780653
-3.5726156 -7.5918102 1.7347199
-3.5028059 -7.8813162 0.68137783
-3.4739432 -8.250617 0.24586777
-3.5701706 -8.9254293 1.6978304
-3.8155303 -10.015768 5.4000196
-3.2006056 11.887963 3.0205805
-3.1814551 11.362339 2.6903436
-3.1900005 10.937145 2.8376997
-3.2702837 10.745219 4.2221375
-3.2913291 10.344176 4.5850492
-3.3067374 9.9202108 4.8507586
-3.3190699 9.483057 5.0634222
-3.3169043 9.0030251 5.0260777
-3.315249 8.5249271 4.9975357
-3.3136613 8.0474606 4.9701529
-3.3117967 7.5698199 4.9380026
-3.3098366 7.0925055 4.9041986
-3.30796 6.6159201 4.8718405
-3.305923 6.1395702 4.8367095
-3.3045552 5.6649499 4.8131289
-3.4084229 -2.4345894 6.604259
-3.3834515 -2.9001021 6.1736441
-3.3776269 -3.3776276 6.0732026
-3.3717716 -3.8534548 5.9722342
-3.3650925 -4.3265481 5.8570566
-3.3577003 -4.7967167 5.7295847
-3.3497388 -5.263876 5.5922871
-3.2227871 -5.5247784 3.4030881
-3.1959715 -5.9353781 2.9406676
-3.1696134 -6.3392272 2.4861355
-3.1436863 -6.7364702 2.0390391
-3.1181653 -7.1272368 1.5989476
-3.0929272 -7.5113969 1.1637359
-3.0323238 -7.7974048 0.11866422
-3.007844 -8.1641502 -0.3034744
-3.0498407 -8.7138319 0.42073569
-3.3679299 -10.103792 5.9059877
-3.4225564 -10.756609 6.8479896
-2.7191749 11.783088 2.5336809
-2.6865456 11.193941 1.8772341
-2.8539658 10.46454 5.24547
-2.8537533 9.9881363 5.2411957
-2.8550851 9.5169477 5.2679863
-2.857326 9.0481977 5.3130722
-2.8551416 8.5654211 5.2691264
-2.8540647 8.0865173 5.2474656
-2.8522248 7.6059308 5.2104459
-2.8504579 7.1261444 5.1749015
-2.8492579 6.6482658 5.1507525
-2.9387913 -1.4693977 6.9520268
-2.9248481 -1.9498997 6.6715112
-2.9223959 -2.4353321 6.622179
-2.9191034 -2.9191043 6.5559335
-2.9147985 -3.4006002 6.4693294
-2.9099171 -3.8798904 6.3711262
-2.9052725 -4.3579097 6.2776814
-2.7784021 -4.6306715 3.7252445
-2.7551641 -5.0511341 3.2577331
-2.7323117 -5.4646268 2.7979801
-2.7098224 -5.8712831 2.3455307
-2.6877131 -6.2713337 1.9007252
-2.6659493 -6.6648746 1.4628669
-2.644474 -7.0519323 1.0308225
-2.6232824 -7.4326339 0.60447592
-2.6024277 -7.8072844 0.18491307
-2.5519226 -8.0810909 -0.8311702
-2.553282 -8.5109415 -0.8038215
-2.9525952 -10.826183 7.2297401
-2.2581961 12.194257 2.3457899
-2.2302871 11.597493 1.6720076
-2.2113233 11.056613 1.2141778
-2.3930171 10.05067 5.6006522
-2.3911426 9.5645685 5.5554008
-2.3918347 9.0889692 5.5721102
-2.3910949 8.6079426 5.5542502
-2.3897717 8.1252241 5.5223012
-2.3883665 7.6427732 5.4883771
-2.4647853 -0.49295971 7.3332968
-2.4540961 -0.98163909 7.0752344
-2.4537067 -1.472226 7.0658336
-2.4522502 -1.9618013 7.0306764
-2.4512222 -2.4512246 7.0058489
-2.4484172 -2.9381022 6.9381337
-2.328846 -3.7261567 4.0514307
-2.3092444 -4.1566424 3.5782034
-2.2899806 -4.5799637 3.1131396
-2.2710357 -4.9962807 2.6557682
-2.2523913 -5.4057412 2.2056499
-2.2340608 -5.8085585 1.7631117
-2.2160161 -6.204845 1.3274716
-2.19824 -6.5947227 0.89832854
-2.1806779 -6.9781704 0.47433406
-2.1633844 -7.3555079 0.056827433
-2.1463723 -7.7269425 -0.35387579
-2.1043434 -7.9965057 -1.3685446
-2.0886078 -8.354434 -1.7484335
-2.1749091 -9.1346188 0.33506191
-2.5178723 -11.582212 8.6149273
-1.7775466 11.998439 1.4703264
-1.7563529 11.416294 0.83074754
-1.7542396 10.963996 0.76697284
-1.9227943 9.6139698 5.8535619
-1.9214261 9.1267729 5.812273
-1.922399 8.6507959 5.8416371
-1.9734724 -3.1830036e-06 7.3829107
-1.9743055 -0.49357754 7.4080534
-1.9747326 -0.98736882 7.4209418
-1.9747937 -1.4810965 7.4227843
-1.9740719 -1.9740723 7.4009995
-1.8740034 -2.811007 4.3811698
-1.8581473 -3.2517605 3.9026694
-1.8425573 -3.6851158 3.4321969
-1.8272181 -4.1112418 2.9692943
-1.8121405 -4.5303516 2.5142903
-1.7973014 -4.9425802 2.0664821
-1.7827117 -5.3481374 1.6261994
-1.7683488 -5.7471342 1.192759
-1.7542235 -6.1397834 0.76648974
-1.7402509 -6.5259433 0.3448303
-1.7264837 -6.9059367 -0.070630811
-1.7129402 -7.2799988 -0.47934264
-1.6996001 -7.6482015 -0.88192022
-1.6674712 -7.9204903 -1.8514934
-1.6545916 -8.2729597 -2.2401721
-1.6998638 -8.9242868 -0.87395847
-2.0623908 -12.374345 10.066259
-1.3122996 11.810696 0.63096642
-1.2967077 11.238132 0.0036022
-1.306748 10.889566 0.40759227
-1.4484366 9.1734285 6.1086988
-1.4475908 8.685544 6.0746689
-1.4602705 8.2748652 6.5848608
-1.4855864 0.99039066 7.6034918
-1.4868076 0.49560124 7.6526318
-1.4878153 -1.1364345e-06 7.6931753
-1.4889169 -0.49630737 7.7374978
-1.4894334 -0.99295598 7.758286
-1.4138011 -1.8850707 4.7150769
-1.401762 -2.336272 4.2306604
-1.3899329 -2.7798657 3.7546914
-1.3783017 -3.2160392 3.286691
-1.3668572 -3.6449542 2.8261971
-1.3556074 -4.0668225 2.3735423
-1.3445351 -4.4817853 1.9280266
-1.3336483 -4.8900452 1.4899781
-1.3229305 -5.2917237 1.0587229
-1.3123894 -5.6870241 0.63458449
-1.3019855 -6.0759349 0.21596581
-1.2917105 -6.4585552 -0.19747005
-1.2816021 -6.8352137 -0.60420126
-1.2716451 -7.2059908 -1.004842
-1.2618415 -7.5710506 -1.3993056
-1.2375313 -7.8377004 -2.3774707
-1.2282764 -8.188509 -2.7498662
-1.242155 -8.6950855 -2.1914296
-1.5849417 -13.207849 11.601239
-0.87181902 12.205465 0.44704193
-0.86199981 11.636994 -0.14559378
-0.85326445 11.092434 -0.67282397
-0.9696486 8.7268381 6.3515821
-0.96958488 8.2414713 6.3477368
-0.99535793 1.9907132 7.9032798
-0.99359888 1.4903963 7.7971125
-0.994986 0.9949863 7.8808289
-0.996113 0.49805489 7.9488511
-0.99719584 -2.211428e-06 8.0142059
-0.94812751 -0.94812894 5.0526686
-0.94001091 -1.4100182 4.5627866
-0.93202752 -1.8640566 4.0809474
-0.92418301 -2.3104596 3.6074946
-0.91646957 -2.7494106 3.1419435
-0.90887946 -3.1810791 2.6838412
-0.90141827 -3.605674 2.2335176
-0.89407444 -4.0233359 1.790277
-0.8868534 -4.434269 1.3544474
-0.87974399 -4.8385921 0.92535573
-0.87275159 -5.2365127 0.50333387
-0.86586565 -5.6281276 0.087726705
-0.85904902 -6.0133443 -0.32369399
-0.85234261 -6.392571 -0.72846013
-0.84573638 -6.765893 -1.1271796
-0.83923179 -7.1334734 -1.5197656
-0.83283013 -7.4954724 -1.9061422
-0.82652181 -7.8519588 -2.2868838
-0.81072402 -8.1072416 -3.2403648
-0.81011766 -8.5062361 -3.276962
-1.0794122 -13.492655 12.976407
-1.0838915 -14.09059 13.24675
-0.42926678 12.019469 -0.35480455
-0.42443535 11.45975 -0.93800992
-0.42286447 10.994477 -1.1276301
-0.48851305 8.7932329 6.7968564
-0.48677415 8.2751589 6.5869508
-0.48827422 7.8123875 6.7680225
-0.49752659 2.4876318 7.8848815
-0.49827135 1.9930853 7.9747863
-0.4991509 1.4974509 8.0809565
-0.49990317 0.99980658 8.1717644
-0.50069171 0.50069141 8.2669497
-0.47691518 -2.3568812e-06 5.3968678
-0.47279879 -0.47280017 4.8999743
-0.46875057 -0.9375037 4.4113111
-0.46478236 -1.3943483 3.9323039
-0.46087849 -1.8435156 3.461072
-0.45704192 -2.2852111 2.9979517
-0.4532665 -2.7196 2.5422177
-0.44955507 -3.1468863 2.0942082
-0.44590184 -3.5672157 1.6532239
-0.44230956 -3.9807882 1.2196001
-0.43877268 -4.3877292 0.79266036
-0.43529388 -4.7882342 0.372733
-0.4318679 -5.182416 -0.04082121
-0.4284839 -5.5702934 -0.44930527
-0.42514688 -5.9520564 -0.85212046
-0.42185959 -6.3278956 -1.2489307
-0.41862273 -6.6979642 -1.6396568
-0.41543695 -7.0624309 -2.02421
-0.41229755 -7.4213567 -2.4031732
-0.40920696 -7.7749352 -2.7762365
-0.40146756 -8.0293512 -3.7104695
-0.39846209 -8.3677063 -4.0732589
-0.4151293 -9.1328468 -2.0613458
-0.55153388 -14.339883 14.404141
-0.55629647 -15.020006 14.979033
1.3955181e-23 11.842556 -1.1174939
7.6540799e-24 11.288861 -1.7020316
1.1246137e-23 10.90896 -1.5246428
8.4320928e-25 8.3194351 6.901319
7.0430795e-24 7.8196769 6.8230143
5.765044e-24 7.3899484 7.2978201
6.7702764e-24 3.4950006 8.0972748
8.3535234e-24 2.9916174 8.0148315
4.6980193e-24 2.4978342 8.1311979
4.9673617e-24 2.0021384 8.2480154
1.2570843e-23 1.5044222 8.3614874
-4.2683623e-24 0.95960146 5.7452321
1.450699e-23 0.47563049 5.2420516
-3.6293376e-24 -4.2054066e-07 4.7478147
4.7883419e-24 -0.46751246 4.2617407
1.5920198e-23 -0.92711192 3.7841725
1.8211627e-23 -1.3790182 3.3154135
5.3130567e-24 -1.823421 2.8547037
2.4241782e-24 -2.2604976 2.4013245
5.9098457e-24 -2.6904423 1.9556105
6.213982e-24 -3.1134069 1.5168686
9.6357135e-24 -3.5295868 1.085427
1.3035284e-24 -3.9391108 0.66062182
1.6632907e-23 -4.3421764 0.24278027
1.7247033e-23 -4.7388911 -0.16873941
1.7520183e-24 -5.1293812 -0.57430965
1.7464544e-23 -5.5136342 -0.97541165
5.3642983e-24 -5.8919816 -1.3701044
3.1193613e-24 -6.264514 -1.7589798
6.3924728e-24 -6.6314158 -2.1417274
1.2283515e-24 -6.9927573 -2.5189214
2.6601484e-24 -7.3487229 -2.8902609
1.3571811e-23 -7.6993728 -3.2562902
1.4354711e-23 -7.9515271 -4.1801848
-2.0117334e-24 -8.2896252 -4.5220785
7.6005565e-24 -8.9121628 -3.2722087
-2.6915429e-24 -15.256756 16.037489
8.4424525e-25 -15.922626 16.472067
0.42142376 12.221289 -1.3015395
0.41677356 11.669658 -1.8628701
0.41223016 11.130214 -2.4113052
0.49078155 7.8525019 7.0706844
0.49110088 7.3665113 7.1092281
0.49841386 3.9873106 7.9919887
0.49944216 3.4960945 8.1161175
0.50071526 3.0042894 8.2697926
0.50179511 2.5089734 8.4001446
0.48272222 1.9308876 6.0978398
0.47850305 1.4355066 5.5885401
0.4743593 0.94871694 5.0883489
0.47028443 0.47028202 4.596467
0.46628124 -2.2927397e-06 4.1132374
0.46234336 -0.46234426 3.6378932
0.45847148 -0.9169445 3.1705139
0.45467466 -1.3640239 2.7121994
0.45093811 -1.8037535 2.2611582
0.44726458 -2.2363253 1.8177204
0.44364834 -2.6618919 1.3812026
0.44009212 -3.080647 0.95192939
0.43659046 -3.4927247 0.52924281
0.43314606 -3.8983147 0.11346544
0.42975366 -4.2975378 -0.29603299
0.42641586 -4.6905751 -0.69893938
0.42311084 -5.0773315 -1.0978913
0.4198567 -5.4581404 -1.4907027
0.41665035 -5.8331079 -1.8777393
0.41349444 -6.2024188 -2.2586942
0.41038421 -6.5661497 -2.6341319
0.40732214 -6.9244776 -3.0037563
0.4043037 -7.2774682 -3.3681104
0.4013297 -7.6252661 -3.7271044
0.39371607 -7.8743215 -4.6461554
0.39098611 -8.2107105 -4.9756889
0.39592597 -8.7103739 -4.3793926
0.56983477 -15.955375 16.613253
0.83057153 12.043286 -2.0424583
0.82122892 11.497202 -2.6063352
0.8163231 11.020362 -2.9024301
0.98468369 7.3851247 7.2590289
0.98703593 6.9092488 7.4009991
0.99748635 4.4886904 8.0317392
1.0000201 4.0000787 8.1846676
1.0028448 3.5099564 8.3551559
0.97135824 2.9140747 6.4547672
0.9628166 2.4070408 5.9392376
0.95442867 1.908855 5.4329791
0.94618094 1.4192706 4.9351826
0.93807453 0.9380725 4.4459181
0.93011034 0.46505329 3.9652367
0.92227584 -1.2475068e-06 3.492382
0.91457653 -0.45728976 3.0276906
0.90700042 -0.90700066 2.5704319
0.89956576 -1.3493497 2.1217055
