# .PCD v0.7 - Point Cloud Data file format
VERSION 0.7
FIELDS x y z
SIZE 4 4 4
TYPE F F F
COUNT 1 1 1
WIDTH 1520
HEIGHT 1
VIEWPOINT 0 0 0 1 0 0 0
POINTS 1520
DATA ascii
-8.8574715 -2.657243 1.2876781
-8.8611145 -3.1013913 1.30967
-8.8654575 -3.5461841 1.3358833
-8.8699284 -3.9914691 1.3628656
-8.874403 -4.4372034 1.3898791
-8.8785954 -4.8832283 1.4151766
-8.8827095 -5.3296275 1.4400054
-8.8861675 -5.77601 1.4608774
-8.8909063 -6.2236357 1.4894818
-8.8963118 -6.672235 1.5220997
-8.9020948 -7.1216769 1.5570045
-8.9070988 -7.5710368 1.5872098
-8.9121504 -8.020937 1.6176946
-8.9177046 -8.4718218 1.6512243
-8.9232674 -8.9232674 1.6847893
-8.9291258 -9.3755856 1.7201589
-8.93466 -9.8281288 1.753562
-8.9398689 -10.280849 1.7849908
-8.9454575 -10.73455 1.8187281
-8.9521828 -11.19023 1.8593172
-8.9582481 -11.645723 1.8959235
-8.9633999 -12.100591 1.9270164
-8.9698582 -12.557802 1.9659922
-8.9767885 -13.016343 2.0078197
-8.9757786 -13.46367 2.0017304
-8.9824228 -13.922757 2.0418329
-8.3676271 6.6060209 0.98927051
-6.8000064 5.0105286 -8.9701328
-6.8567867 4.6914849 -8.609395
-6.9221444 4.3718791 -8.1941662
-6.9909325 4.0473809 -7.7571406
-8.3921871 4.4169397 1.1453037
-8.3960562 3.9770768 1.1698813
-8.4005089 3.5370545 1.1981733
-8.4045801 3.096421 1.2240336
-8.4098186 2.655731 1.2573158
-8.4134312 2.2140601 1.2802684
-8.416853 1.7719671 1.3020082
-8.4205494 1.3295575 1.3254949
-8.4242105 0.8867569 1.3487545
-8.428031 0.44357917 1.373023
-8.4320889 -4.7034473e-07 1.3988023
-8.4365416 -0.44402999 1.4270921
-8.4400988 -0.88843274 1.449695
-8.4435425 -1.3331926 1.4715698
-8.4468708 -1.7782911 1.4927181
-8.4505148 -2.2238214 1.5158709
-8.4540453 -2.6696999 1.538301
-8.4574213 -3.1158943 1.5597483
-8.461154 -3.562592 1.5834606
-8.4647722 -4.0096302 1.6064451
-8.4689837 -4.4573607 1.6332011
-8.4733562 -4.9056292 1.6609877
-8.4775772 -5.3542624 1.6878
-8.4815245 -5.8031502 1.7128792
-8.485239 -6.2522836 1.7364779
-8.4887981 -6.701684 1.7590899
-8.4937067 -7.1525979 1.7902771
-8.4991369 -7.6044912 1.8247734
-8.5043354 -8.0567398 1.8578033
-8.5091829 -8.5091858 1.8885994
-8.5139561 -8.96206 1.9189235
-8.5193319 -9.4161062 1.9530799
-8.5249548 -9.8710012 1.9887999
-8.5305843 -10.326499 2.0245671
-8.5363417 -10.782748 2.0611463
-8.5420265 -11.239511 2.0972631
-8.5476389 -11.696771 2.1329179
-8.5524158 -12.153435 2.1632626
-8.5581617 -12.612029 2.1997745
-8.5559511 -13.059084 2.1857255
-8.5622654 -13.51937 2.2258456
-8.5762558 -13.992841 2.3147273
-7.9823818 7.095449 1.3591504
-7.957386 6.6311531 1.1915287
-6.3561583 4.9436774 -9.5465441
-6.4132586 4.6317973 -9.1636209
-6.4751344 4.3167558 -8.7486763
-6.5388594 3.9959671 -8.3213243
-7.9904771 3.9952362 1.4134409
-7.9944386 3.5530827 1.4400049
-7.9987001 3.1106033 1.4685857
-8.0017796 2.6672575 1.4892323
-8.0061598 2.2239308 1.5186136
-8.0109549 1.7802119 1.550768
-8.0143032 1.3357153 1.5732259
-8.0176926 0.89085293 1.5959507
-8.021122 0.44561547 1.6189462
-8.0250015 -1.538721e-06 1.6449645
-8.0294075 -0.44607931 1.6745157
-8.03337 -0.89259732 1.7010887
-8.0365877 -1.3394328 1.7226664
-8.0397711 -1.7866186 1.7440133
-8.0431061 -2.2341971 1.7663788
-8.0465193 -2.6821756 1.7892703
-8.0499735 -3.1305475 1.8124307
-8.0533924 -3.579288 1.835359
-8.0570021 -4.028502 1.8595695
-8.0606155 -4.4781222 1.8837999
-8.0644579 -4.9282799 1.9095684
-8.0686436 -5.3790975 1.9376402
-8.072381 -5.8300557 1.9627014
-8.0759706 -6.281311 1.9867713
-8.079752 -6.7331285 2.0121326
-8.0831966 -7.1850653 2.0352309
-8.0870609 -7.6377811 2.0611439
-8.091877 -8.0918798 2.0934458
-8.0974216 -8.5472813 2.1306262
-8.1018324 -9.002037 2.1602025
-8.1068182 -9.4579554 2.1936419
-8.1125355 -9.9153233 2.2319844
-8.1175356 -10.372407 2.2655108
-8.1219292 -10.829241 2.2949772
-8.127017 -11.287526 2.3290997
-8.1329546 -11.747602 2.3689146
-8.1372118 -12.205821 2.3974669
-8.1413584 -12.664338 2.4252746
-8.1408205 -13.115767 2.4216669
-8.1485481 -13.580915 2.4734886
-7.5460725 7.1021843 1.409968
-7.5471907 6.6592846 1.4179094
-5.9255276 4.8798447 -10.09692
-5.983356 4.5755072 -9.6863022
-6.0392561 4.2630019 -9.2893772
-6.0978532 3.9456692 -8.8733006
-7.5876722 3.1243341 1.7053537
-7.5914545 2.6793356 1.7322085
-7.5957713 2.2340484 1.7628621
-7.5997739 1.7881815 1.7912823
-7.6038523 1.3418546 1.8202399
-7.607224 0.89496636 1.8441821
-7.6104574 0.44767234 1.867139
-7.6144753 -6.4874462e-07 1.8956705
-7.6186047 -0.44815469 1.9249922
-7.6224537 -0.89676017 1.9523193
-7.625628 -1.3457021 1.9748617
-7.6286268 -1.7949723 1.9961525
-7.6315918 -2.2445867 2.0172067
-7.634738 -2.6946144 2.039547
-7.6380658 -3.145087 2.0631781
-7.6421494 -3.5963068 2.0921705
-7.6463447 -4.0480657 2.1219609
-7.6493235 -4.4996037 2.1431165
-7.6523051 -4.9514914 2.164283
-7.6565833 -5.4046493 2.1946635
-7.6597147 -5.8574305 2.2168968
-7.6628118 -6.3105536 2.2388897
-7.6659842 -6.7641053 2.2614152
-7.6693392 -7.2182021 2.2852371
-7.6732397 -7.6732421 2.312932
-7.6771073 -8.1287031 2.3403955
-7.6818118 -8.5855551 2.3737988
-7.6866307 -9.0430965 2.4080188
-7.6912384 -9.5009432 2.4407349
-7.6962504 -9.959856 2.4763253
-7.7005057 -10.418333 2.5065401
-7.7047653 -10.877317 2.5367844
-7.7100143 -11.338259 2.574059
-7.7144675 -11.798598 2.6056745
-7.7192907 -12.260052 2.6399264
-7.7174997 -12.711179 2.6272073
-7.7226567 -13.173945 2.6638229
-7.1456971 7.5923009 1.7382339
-7.1255136 7.1255116 1.5859611
-5.5507092 5.2037888 -10.295021
-5.5091195 4.8204784 -10.608791
-5.5632319 4.5201249 -10.200542
-5.614079 4.2105579 -9.8169327
-5.6665969 3.8957825 -9.4207153
-7.1811948 2.2441216 2.0060441
-7.1837845 1.7959433 2.025584
-7.1887007 1.3478791 2.0626693
-7.1923747 0.899046 2.0903919
-7.1960192 0.44974983 2.1178865
-7.1999378 -4.7365066e-07 2.147449
-7.203793 -0.45023736 2.1765323
-7.2068729 -0.90085918 2.1997714
-7.2100582 -1.3518879 2.223798
-7.2133136 -1.8033302 2.2483571
-7.2161298 -2.2550411 2.2696087
-7.2190509 -2.7071457 2.2916462
-7.2226882 -3.1599278 2.3190887
-7.2264657 -3.6132352 2.3475885
-7.230145 -4.0669575 2.375344
-7.2332478 -4.5207825 2.3987539
-7.2363191 -4.9749718 2.4219244
-7.2395301 -5.4296494 2.446146
-7.2428122 -5.8847852 2.4709065
-7.2461309 -6.3403649 2.4959478
-7.2491789 -6.7961073 2.5189459
-7.252161 -7.252162 2.5414426
-7.2552485 -7.7087026 2.5647352
-7.2595062 -8.1669464 2.5968626
-7.2635288 -8.6254416 2.6272066
-7.2663851 -9.0829821 2.6487553
-7.2704153 -9.5424204 2.6791589
-7.2755542 -10.00389 2.7179291
-7.27949 -10.464268 2.7476261
-7.2841578 -10.926239 2.7828391
-7.2888656 -11.388852 2.8183551
-7.2927127 -11.850658 2.847378
-7.2913604 -12.304172 2.8371761
-7.2962508 -12.76844 2.8740754
-6.7056208 7.5997019 1.7907772
-6.7120061 7.1594725 1.8421668
-5.0897708 5.0897698 -11.212578
-5.103826 4.7635694 -11.099468
-5.1521597 4.4652038 -10.710508
-5.1992359 4.1593871 -10.331665
-5.248158 3.8486481 -9.9379749
-6.7680836 1.8048196 2.2934415
-6.769485 1.3538954 2.3047214
-6.7734394 0.90312362 2.3365426
-6.776855 0.45178807 2.3640332
-6.7811375 -2.7338453e-06 2.3984964
-6.7843695 -0.45229128 2.424499
-6.7874117 -0.90498948 2.4489827
-6.7904248 -1.3580869 2.4732289
-6.7936969 -1.8116534 2.4995632
-6.7967157 -2.265573 2.5238571
-6.7998013 -2.719923 2.5486875
-6.8032761 -3.1748633 2.5766468
-6.8067541 -3.63027 2.6046369
-6.8102999 -4.0861802 2.6331761
-6.8135271 -4.5423536 2.6591461
-6.8165636 -4.9988146 2.6835797
-6.8196998 -5.4557614 2.7088158
-6.822968 -5.9132404 2.7351193
-6.8260126 -6.3709459 2.7596202
-6.8291574 -6.8291578 2.7849243
-6.8323698 -7.2878628 2.8107798
-6.8350978 -7.7464461 2.8327322
-6.8380885 -8.2057076 2.8567984
-6.841342 -8.6657009 2.8829787
-6.8442721 -9.1256981 2.9065657
-6.8471732 -9.5860443 2.929908
-6.8510556 -10.048216 2.9611504
-6.8556943 -10.512067 2.9984784
-6.8599129 -10.975861 3.0324285
-6.8642354 -11.440395 3.0672164
-6.8623357 -11.894716 3.0519242
-6.8660388 -12.358871 3.081723
-6.8804941 -12.843592 3.1980555
-6.2901721 8.0873632 2.0631769
-6.2787833 7.6242371 1.9649796
-4.6731534 5.0069489 -11.879065
-4.7080069 4.7080054 -11.578554
-4.7497964 4.4105234 -11.218232
-4.7934136 4.1086397 -10.842159
-4.8388505 3.8019533 -10.450391
-6.3509564 0.90727967 2.58727
-6.354414 0.45388463 2.6170881
-6.3574548 -1.3312921e-06 2.643302
-6.360136 -0.45429677 2.6664214
-6.3635135 -0.90907466 2.6955445
-6.3669853 -1.3643554 2.7254777
-6.370461 -1.8201325 2.7554476
-6.373971 -2.2764215 2.7857101
-6.3769088 -2.7329614 2.8110375
-6.3797889 -3.1898959 2.8358703
-6.382762 -3.6472945 2.8615081
-6.3859816 -4.1052752 2.8892651
-6.3894472 -4.5638928 2.9191513
-6.3928261 -5.0229373 2.9482813
-6.39569 -5.4820228 2.9729731
-6.3987393 -5.9416881 2.9992642
-6.4017606 -6.4017634 3.0253205
-6.4047241 -6.8622055 3.0508709
-6.4076905 -7.3230762 3.0764458
-6.4106288 -7.784337 3.1017845
-6.4135394 -8.2459803 3.1268771
-6.4162688 -8.7077942 3.1504047
-6.4189081 -9.1698685 3.1731622
-6.4217029 -9.632556 3.197262
-6.4244385 -10.09555 3.2208531
-6.4278545 -10.560047 3.2502997
-6.4310884 -11.024724 3.2781856
-6.4322596 -11.486179 3.2882876
-6.4326296 -11.946315 3.2914779
-6.4406562 -12.421267 3.360683
-5.8809242 8.5951958 2.4350655
-5.8496203 8.099474 2.1443896
-5.8616443 7.6652265 2.2560382
-4.29845 4.9597473 -12.258902
-4.3238192 4.6564183 -12.02334
-4.3603702 4.3603692 -11.683943
-4.3986626 4.0603013 -11.328382
-4.4428706 3.7593501 -10.917895
-5.9307995 -1.7400986e-06 2.8981781
-5.9340191 -0.45646596 2.928071
-5.9367895 -0.91335332 2.9537928
-5.9393072 -1.3706115 2.9771786
-5.9424796 -1.8284576 3.0066333
-5.9459953 -2.2869215 3.0392773
-5.9492598 -2.7458141 3.0695884
-5.9525275 -3.2052076 3.0999324
-5.9552302 -3.6647594 3.1250272
-5.9579067 -4.1247063 3.1498783
-5.9607849 -4.5852213 3.1766055
-5.9639225 -5.0463982 3.2057414
-5.9673214 -5.508297 3.2372968
-5.9701514 -5.9701543 3.2635767
-5.9729557 -6.432416 3.2896156
-5.9756193 -6.8949475 3.3143482
-5.9785438 -7.3582087 3.3414998
-5.9812694 -7.8216619 3.3668122
-5.9839115 -8.2854176 3.3913481
-5.9868731 -8.7500467 3.4188437
-5.989491 -9.2146044 3.4431551
-5.9920545 -9.6794739 3.4669547
-5.9946489 -10.144792 3.4910424
-5.9974475 -10.610869 3.5170283
-6.0002484 -11.077384 3.5430396
-5.9953117 -11.529449 3.4972024
-6.0022135 -12.00443 3.5612857
-5.4229922 8.586401 2.3792009
-5.4203091 8.1304636 2.3522105
-3.9918683 4.9898343 -12.016793
-3.9858241 4.650126 -12.077595
-3.9902761 4.3227973 -12.032811
-4.0146327 4.0146317 -11.787802
-5.5059767 -0.91766477 3.2139592
-5.508666 -1.3771678 3.2410123
-5.5110412 -1.8370154 3.2649047
-5.5145812 -2.2977443 3.3005176
-5.5175176 -2.7587595 3.3300483
-5.5198474 -3.2199116 3.353487
-5.5228949 -3.6819329 3.3841455
-5.525866 -4.1444016 3.4140341
-5.5282564 -4.6068821 3.4380779
-5.5310736 -5.0701528 3.4664221
-5.5344534 -5.5344558 3.5004163
-5.5374374 -5.9988923 3.5304322
-5.5398912 -6.4632077 3.5551105
-5.5423198 -6.9279017 3.5795448
-5.5449648 -7.3932881 3.6061518
-5.5475321 -7.859004 3.6319747
-5.5501013 -8.3251524 3.6578205
-5.5527005 -8.7917767 3.6839616
-5.5553012 -9.2588377 3.7101276
-5.558012 -9.7265215 3.7373977
-5.5605378 -10.194322 3.7628028
-5.5632811 -10.662954 3.7903945
-5.5336013 -11.067204 3.4918458
-5.5387177 -11.538996 3.5433059
-5.0037475 9.0977201 2.7377219
-4.972928 8.5896006 2.3995233
-4.9983397 8.1790991 2.6783776
-3.6775386 4.3461809 -11.815689
-3.6747193 4.0087819 -11.846628
-5.0764241 -1.8459722 3.5352578
-5.0782089 -2.3082778 3.5548425
-5.0807533 -2.7713208 3.5827675
-5.0841341 -3.2353604 3.6198666
-5.0862675 -3.6991057 3.6432784
-5.0891156 -4.1638236 3.6745269
-5.091794 -4.6289058 3.7039216
-5.0945983 -5.0945997 3.7346973
-5.0976276 -5.5610495 3.7679391
-5.1003647 -6.0277052 3.7979758
-5.1026106 -6.4942327 3.8226209
-5.1048336 -6.9611382 3.8470173
-5.1071825 -7.4286299 3.872792
-5.109385 -7.8963242 3.8969626
-5.1121101 -8.3652725 3.9268622
-5.11449 -8.8341227 3.952986
-5.1166744 -9.3030462 3.9769526
-5.1191831 -9.7729883 4.0044842
-5.1217937 -10.243589 4.0331311
-5.1051307 -10.674364 3.850271
-5.0540152 -11.026943 3.2893503
-5.0730052 -11.529559 3.4977381
-4.5996962 9.6593609 3.3513532
-4.46808 8.9361591 1.7626089
-4.4723954 8.4975491 1.8146948
-4.5960574 8.2729025 3.3074303
-4.6063051 7.8307176 3.4311311
-4.6208711 7.393394 3.6069565
-4.657918 6.9868774 4.0541601
-4.6412749 -2.7847662 3.8532557
-4.6439729 -3.2507827 3.885828
-4.6458411 -3.7166746 3.9083767
-4.6480937 -4.1832862 3.9355698
-4.6508675 -4.6508684 3.9690492
-4.6531482 -5.1184645 3.9965763
-4.6561761 -5.5874119 4.0331316
-4.6585069 -6.0560589 4.0612655
-4.6607037 -6.5249872 4.0877852
-4.6633339 -6.9950018 4.1195345
-4.6658306 -7.4653306 4.1496735
-4.6677394 -7.9351578 4.1727095
-4.6700587 -8.406106 4.200707
-4.6722894 -8.8773527 4.2276349
-4.6741576 -9.3483171 4.2501855
-4.6761413 -9.8198967 4.2741294
-4.673223 -10.281092 4.2389064
-4.6215615 -10.629593 3.6152942
-4.5848241 -11.003579 3.1718385
-4.6047115 -11.51178 3.4118986
-4.1935735 9.7850027 4.0735645
-3.951287 8.7806368 0.82394922
-3.9826052 8.4077206 1.2439981
-4.0626664 8.1253319 2.3178053
-4.0963659 7.7375774 2.7697904
-4.1887074 7.4465895 4.0083017
-4.2013335 7.0022202 4.1776457
-4.2166314 6.5592051 4.3828249
-4.2315011 6.1121674 4.5822659
-4.2521482 5.6695299 4.8591881
-4.201395 -3.7345736 4.1784706
-4.2032371 -4.203239 4.2031813
-4.2054706 -4.6727467 4.2331324
-4.207973 -5.1430793 4.2666955
-4.2100883 -5.6134515 4.2950625
-4.2123284 -6.084476 4.3251152
-4.2145715 -6.5560021 4.3552003
-4.2170639 -7.0284424 4.3886309
-4.2196217 -7.5015502 4.4229336
-4.2215004 -7.973948 4.4481354
-4.2234225 -8.446846 4.4739122
-4.225636 -8.9207878 4.5035977
-4.2272716 -9.3939381 4.5255361
-4.2293649 -9.8685179 4.5536084
-4.1876702 -10.236527 3.9943919
-4.1423101 -10.585905 3.3860118
-4.1193476 -10.984929 3.0780308
-4.1353412 -11.487062 3.2925408
-3.8155303 10.492706 5.4000196
-3.5701706 9.3716965 1.6978269
-3.4739432 8.6848555 0.24586719
-3.5028222 8.3192034 0.68161714
-3.5726323 8.0384226 1.7349703
-3.6019981 7.6542444 2.1780653
-3.631799 7.263597 2.6277263
-3.6620796 6.8663974 3.0846269
-3.777565 6.6107373 4.8271632
-3.7896426 6.1581664 5.0094018
-3.8003848 5.7005758 5.1714878
-3.8102412 5.2390804 5.32021
-3.8186462 4.7733054 5.4470339
-3.8377945 4.3175182 5.7359571
-3.7548151 -4.2241688 4.4838948
-3.756176 -4.6952209 4.5044289
-3.7583299 -5.1677046 4.5369282
-3.7603939 -5.6405921 4.5680714
-3.7625523 -6.1141491 4.6006422
-3.7645285 -6.5879254 4.6304631
-3.7665625 -7.0623064 4.6611524
-3.7687283 -7.5374584 4.6938295
-3.7707109 -8.012763 4.7237496
-3.7727699 -8.4887352 4.754818
-3.7746642 -8.9648314 4.7833986
-3.7762256 -9.4405651 4.8069534
-3.7495828 -9.8426552 4.4049482
-3.708226 -10.197624 3.7809236
-3.6658082 -10.5392 3.1408877
-3.6544709 -10.963414 2.9698191
-3.6681929 -11.463104 3.1768699
-3.4225564 11.245543 6.8479881
-3.3679132 10.584867 5.905694
-3.0498407 9.1495228 0.42073542
-3.0078709 8.5939178 -0.3030093
-3.0323102 8.2305517 0.11842851
-3.0929272 7.9532423 1.1637347
-3.11818 7.572722 1.5991979
-3.1436863 7.1855664 2.0390413
-3.1696281 6.7920594 2.4863937
-3.1959867 6.3919711 2.9409292
-3.2228026 5.9852042 3.4033556
-3.3497388 5.7424092 5.5922894
-3.3576837 5.2763586 5.7292943
-3.3650756 4.807251 5.8567648
-3.3717546 4.3351111 5.9719419
-3.3776441 3.8601644 6.0734954
-3.3834515 3.3834512 6.1736436
-3.4084055 2.9214878 6.6039624
-3.3045552 -5.1928735 4.813128
-3.305923 -5.6672978 4.83671
-3.30796 -6.1433568 4.8718424
-3.3098202 -6.6196413 4.9039159
-3.3117967 -7.0967078 4.9380002
-3.3136613 -7.5740848 4.9701524
-3.315249 -8.051321 4.9975362
-3.3169208 -8.5292263 5.0263605
-3.3190534 -9.0088596 5.0631399
-3.3067374 -9.4478235 4.8507566
-3.2913129 -9.8739405 4.5847726
-3.2702837 -10.278035 4.222137
-3.1900005 -10.481432 2.8377025
-3.1814551 -10.907846 2.6903415
-3.2006056 -11.430737 3.0205815
-2.95258 11.318223 7.2294354
-2.553282 8.9364872 -0.80382168
-2.5519338 8.5064459 -0.83094406
-2.6024394 8.2410555 0.18514988
-2.6232941 7.8698816 0.60471952
-2.644474 7.4926758 1.0308211
-2.6659615 7.1092281 1.4631169
-2.6877131 6.7192817 1.9007232
-2.7098353 6.322948 2.3457875
-2.7323117 5.9200068 2.7979798
-2.7551773 5.510354 3.2579994
-2.7784154 5.0937595 3.7255158
-2.9052725 4.8421187 6.2776785
-2.9099171 4.3648744 6.3711233
-2.9147985 3.8863978 6.469326
-2.9191034 3.4056201 6.5559344
-2.9223959 2.9223948 6.6221766
-2.9248631 2.4373846 6.6718087
-2.9387913 1.9591924 6.9520268
-2.8492579 -6.1733923 5.1507511
-2.8504579 -6.6510701 5.1748981
-2.8522248 -7.1305647 5.2104492
-2.8540647 -7.6108413 5.2474642
-2.8551416 -8.0895691 5.2691264
-2.8573117 -8.5719366 5.3127847
-2.8550851 -9.0411034 5.2679863
-2.8537533 -9.5125113 5.2411952
-2.8539658 -9.9888821 5.245472
-2.6865456 -10.746183 1.8772342
-2.7191617 -11.329842 2.5334234
-2.5178723 12.085785 8.6149273
-2.1749091 9.5695982 0.33506033
-2.0886078 8.772151 -1.7484355
-2.1043341 8.4173374 -1.3687686
-2.1463819 8.15625 -0.35364446
-2.163394 7.7882185 0.057061356
-2.1806877 7.4143381 0.47457191
-2.1982505 7.0344 0.89856893
-2.2160263 6.648077 1.3277204
-2.2340608 6.2553697 1.7631129
-2.2524021 5.8562427 2.2059047
-2.2710357 5.4504848 2.6557665
-2.2899916 5.0379806 3.1134007
-2.3092554 4.6185093 3.5784721
-2.328846 4.1919217 4.0514302
-2.4484048 3.4277656 6.9378333
-2.4512346 2.9414806 7.0061526
-2.4522502 2.45225 7.0306749
-2.4537067 1.962963 7.0658326
-2.4540837 1.4724486 7.0749331
-2.4647727 0.98590779 7.3329897
-2.3883784 -7.1651359 5.4886661
-2.3897717 -7.6472697 5.5223017
-2.3910949 -8.1297226 5.5542493
-2.3918347 -8.6106052 5.5721102
-2.3911548 -9.0863886 5.5556889
-2.3930171 -9.5720701 5.6006527
-2.2113132 -10.614305 1.2139342
-2.2302978 -11.15149 1.6722599
-2.2581856 -11.742566 2.3455341
-2.0623908 12.88994 10.066258
-1.6998713 9.3492899 -0.87373316
-1.6545916 8.6866045 -2.2401726
-1.6674784 8.3373909 -1.8512744
-1.6996076 8.0731335 -0.88169074
-1.7129402 7.7082314 -0.47934434
-1.7264916 7.3375878 -0.070397653
-1.7402589 6.9610343 0.34506923
-1.7542315 6.5783663 0.76673168
-1.768357 6.1892476 1.193005
-1.7827117 5.7938108 1.6261984
-1.79731 5.3919287 2.0667362
-1.8121405 4.9833846 2.5142915
-1.8272268 4.5680647 2.969557
-1.8425573 4.1457539 3.4321971
-1.8581473 3.7162929 3.902669
-1.8740125 3.2795212 4.3814435
-1.9740719 2.4675884 7.4009972
-1.9747937 1.974791 7.4227834
-1.9747326 1.4810469 7.4209418
-1.9742954 0.98714513 7.4077477
-1.9734927 0.49337214 7.3835235
-1.922399 -8.1701975 5.8416348
-1.9214261 -8.6464195 5.8122754
-1.9227943 -9.1332741 5.8535662
-1.7542396 -10.525438 0.7669726
-1.7563448 -10.977157 0.83050531
-1.7775466 -11.554054 1.4703287
-1.5849417 13.736159 11.60124
-1.2421604 9.1091747 -2.1912136
-1.2282711 8.5978966 -2.750077
-1.2375313 8.2502069 -2.37747
-1.261847 7.9916964 -1.3990818
-1.2716507 7.6299019 -1.0046152
-1.2816021 7.2624111 -0.60420233
-1.2917162 6.8891535 -0.19723897
-1.3019915 6.5099549 0.21620177
-1.3123955 6.1245098 0.63482368
-1.3229365 5.7327242 1.0589654
-1.3336483 5.3345914 1.4899803
-1.3445414 4.929985 1.9282789
-1.3556074 4.5186901 2.3735445
-1.3668636 4.1005902 2.8264585
-1.3783017 3.6754692 3.2866902
-1.3899329 3.2431762 3.7546918
-1.4017688 2.8035347 4.2309341
-1.4138011 2.3563349 4.715075
-1.4894257 1.4894246 7.7579761
-1.4889169 0.99261141 7.7374973
-1.487823 0.4959397 7.6934843
-1.4868152 1.183937e-07 7.6529388
-1.485594 -0.49519822 7.6038008
-1.4602705 -7.7881117 6.5848618
-1.4475908 -8.2030172 6.0746717
-1.4484293 -8.6905766 6.1084075
-1.306748 -10.453986 0.40759265
-1.2967077 -10.805901 0.0036041867
-1.3122996 -11.373265 0.63096982
-1.0838915 14.632536 13.246748
-1.0794122 14.032357 12.976405
-0.81012446 8.9113684 -3.2765474
-0.81072402 8.5126009 -3.2403641
-0.82652539 8.2652531 -2.2866683
-0.83283013 7.9118853 -1.906141
-0.83923548 7.5531197 -1.5195452
-0.84574014 7.1887913 -1.1269546
-0.85234261 6.8187389 -0.72845811
-0.8590529 6.4428935 -0.32346135
-0.86586958 6.0610838 0.087964676
-0.87275559 5.6729107 0.50357151
-0.87974805 5.2784877 0.92559987
-0.8868534 4.8776927 1.3544477
-0.89407861 4.4703903 1.7905289
-0.90141827 4.0563803 2.2335172
-0.90888375 3.6355333 2.6841006
-0.91646957 3.2076428 3.1419439
-0.92418301 2.7725492 3.6074946
-0.93203205 2.3300798 4.0812206
-0.94001091 1.8800203 4.5627871
-0.94812751 1.4221909 5.0526676
-0.99720097 0.4986001 8.0145159
-0.996113 -1.3806598e-06 7.9488487
-0.994986 -0.49749529 7.8808308
-0.99359888 -0.99359924 7.7971106
-0.99536306 -1.4930457 7.9035878
-0.96958977 -7.7567205 6.348033
-0.9696486 -8.2420149 6.3515835
-0.85326445 -10.665807 -0.67282283
-0.86199981 -11.206001 -0.14559188
-0.87181503 -11.769506 0.44680259
-0.55629647 15.576302 14.979033
-0.55153704 14.891498 14.404524
-0.4151293 9.5479727 -2.0613484
-0.39846376 8.766201 -4.0730619
-0.40146923 8.4308519 -3.710264
-0.40920696 8.1841373 -2.7762363
-0.41229931 7.8336859 -2.4029591
-0.41543695 7.4778633 -2.0242102
-0.41862452 7.1166148 -1.6394343
-0.42186144 6.749783 -1.2487094
-0.42514688 6.3772025 -0.85211879
-0.42848581 5.9987993 -0.44907477
-0.43186983 5.6143064 -0.040587876
-0.43529588 5.2235494 0.37297261
-0.43877468 4.8265204 0.79290253
-0.44230956 4.4230957 1.2195979
-0.44590393 4.013134 1.6534754
-0.44955507 3.5964386 2.0942094
-0.45326865 3.1728783 2.5424781
-0.45704192 2.7422502 2.9979479
-0.46087849 2.3043923 3.4610701
-0.46478236 1.8591279 3.9323053
-0.46875057 1.4062517 4.4113097
-0.47279879 0.94559687 4.8999753
-0.47691518 0.47691453 5.3968678
-0.50069171 -2.6141479e-06 8.2669506
-0.49990317 -0.49990323 8.1717644
-0.4991509 -0.99830312 8.0809555
-0.49827397 -1.4948239 7.9751005
-0.49752659 -1.9901075 7.8848839
-0.48827422 -7.3241148 6.7680235
-0.48677415 -7.7883868 6.5869489
-0.48851058 -8.3046818 6.7965565
-0.42286447 -10.571614 -1.1276281
-0.42443344 -11.035273 -0.93823659
-0.42926678 -11.590205 -0.35480544
1.2798736e-23 16.49119 16.471661
1.0144045e-23 15.821911 16.037891
1.2511966e-23 9.3172569 -3.2722099
-1.9024454e-24 8.6843672 -4.522079
9.5277863e-24 8.3490992 -4.1801853
1.4723032e-24 8.1046352 -3.2560854
1.1239859e-23 7.7569838 -2.8902595
-5.1545623e-24 7.4041266 -2.5187097
4.8197224e-24 7.0458775 -2.1417267
2.0125265e-23 6.6821742 -1.7587576
4.0157943e-24 6.3128624 -1.3698845
9.4025033e-24 5.9377813 -0.97518724
-3.6424272e-25 5.5568528 -0.57408112
1.3929725e-23 5.1697187 -0.16850728
1.7741965e-23 4.7764106 0.24301782
6.6903688e-25 4.3768072 0.66086322
-6.6826675e-25 3.9707816 1.0854248
1.0811433e-23 3.5581927 1.5171177
8.9032774e-24 3.1388476 1.9556102
1.8680261e-23 2.7126071 2.4015844
-2.6015915e-24 2.2792766 2.8547027
-1.3093985e-24 1.8386862 3.3154111
-7.5963479e-25 1.3906659 3.7841699
1.9937006e-23 0.93502045 4.2617431
9.0996226e-24 0.47153714 4.7478147
8.0428732e-24 -1.4048494e-06 5.242053
8.180273e-24 -0.47980228 5.745234
3.1042181e-24 -1.0029517 8.3614864
1.0760534e-23 -1.5016065 8.2480145
8.0287999e-24 -1.99828 8.1315107
9.2671545e-24 -2.493016 8.0148306
1.9882665e-23 -2.9957192 8.0972776
-1.7634181e-24 -6.8972864 7.2978196
-1.8842022e-24 -7.3309464 6.8230119
2.7068421e-24 -7.8300571 6.901319
1.3888616e-23 -10.489344 -1.524864
9.6177448e-24 -10.870759 -1.7020291
3.8499165e-24 -11.419559 -1.1177219
0.56983477 16.525208 16.613251
0.39592597 9.1062956 -4.379395
0.39098611 8.6016932 -4.9756889
0.39371607 8.2680368 -4.6461573
0.40133139 8.0266256 -3.7269025
0.4043037 7.6817698 -3.3681102
0.40732214 7.3317976 -3.0037572
0.41038597 6.9765606 -2.6339202
0.41349444 6.6159091 -2.258692
0.41665217 6.2497816 -1.8775209
0.41985852 5.8780179 -1.4904823
0.42311272 5.5004649 -1.0976655
0.42641777 5.1170111 -0.69870955
0.4297556 4.7273097 -0.29579994
0.433148 4.3314781 0.1137013
0.43659246 3.9293308 0.52948177
0.44009212 3.520736 0.95192868
0.44365036 3.1055522 1.3814477
0.44726458 2.6835847 1.8177201
0.45094022 2.2547002 2.2614126
0.45467466 1.8186982 2.7121985
0.45847148 1.3754126 3.1705163
0.46234336 0.92468458 3.6378965
0.46628124 0.46627989 4.1132374
0.47028443 -2.6946267e-08 4.5964646
0.4743593 -0.47436124 5.0883493
0.47850305 -0.95700651 5.5885396
0.48272222 -1.4481691 6.0978436
0.50179249 -2.0071714 8.399826
0.50071526 -2.503577 8.2697906
0.49944216 -2.9966552 8.1161165
0.49841386 -3.4888999 7.9919882
0.49110088 -6.8754134 7.1092296
0.49078408 -7.3617611 7.0709882
0.41223016 -10.717985 -2.4113057
0.41676992 -11.25279 -1.8633081
0.42142189 -11.799815 -1.3017631
1.1411618 17.117428 16.703325
1.1436807 16.583366 16.855345
0.77493012 8.9116936 -5.4007158
0.77459204 8.5205116 -5.4211235
0.78030771 8.1932306 -5.0761538
0.79501075 7.9501066 -4.1887422
0.8008455 7.6080303 -3.8365831
0.80676323 7.2608676 -3.4794195
0.81277245 6.9085646 -3.1167336
0.81887186 6.5509729 -2.7485983
0.82505995 6.1879482 -2.3751128
0.83134592 5.8194199 -1.9957256
0.83772838 5.4452324 -1.6105083
0.84420586 5.0652332 -1.2195559
0.85076922 4.6792278 -0.82342362
0.85741234 4.2870603 -0.42247343
0.86416405 3.8887365 -0.01497629
0.87101889 3.4840751 0.3987526
0.87798339 3.0729396 0.81909782
0.88506424 2.6551902 1.2464656
0.89225602 2.2306404 1.6805283
0.89956999 1.7991387 2.1219606
0.90700042 1.3604995 2.5704305
0.91457653 0.91457558 3.0276878
0.92227584 0.46113631 3.4923823
0.93011034 -1.3932282e-06 3.9652367
0.93807906 -0.46903941 4.4461942
0.94618094 -0.94618344 4.9351845
0.95442867 -1.4316436 5.4329777
0.9628166 -1.9256347 5.9392381
0.97135824 -2.4283974 6.4547691
1.0028396 -3.0085189 8.3548355
1.0000201 -3.5000713 8.1846685
0.99748635 -3.989948 8.0317411
0.98703593 -6.4157348 7.4010005
0.98468369 -6.8927865 7.2590299
0.81631964 -10.612157 -2.9026408
0.8212254 -11.086546 -2.6065457
0.83057153 -11.628004 -2.0424588
1.7047515 17.047514 16.422016
1.1882982 9.5063839 -4.3584609
1.143096 8.7637329 -6.1772575
1.1510155 8.4407797 -5.8586006
1.1727957 8.209569 -4.982234
1.1812549 7.875031 -4.6418605
1.189842 7.5356636 -4.2963443
1.1985549 7.1913266 -3.9457657
1.2073911 6.8418808 -3.5902212
1.2163638 6.4872718 -3.229188
1.2254709 6.1273518 -2.8627477
1.23471 5.7619781 -2.4909942
1.244095 5.3910766 -2.1133733
1.2536236 5.014492 -1.7299708
1.2632937 4.6320758 -1.3408699
1.2730693 4.2435613 -0.94753534
1.2829858 3.8489549 -0.54852736
1.2930638 3.4481692 -0.14302048
1.3032955 3.0410225 0.26866993
1.3136904 2.6273801 0.68692911
1.3242584 2.2070951 1.1121597
1.3349918 1.7799886 1.5440334
1.3459069 1.3459055 1.9832227
1.3570275 0.90468436 2.4306815
1.368327 0.45610803 2.8853378
1.3798227 -1.37327e-06 3.3478942
1.3915066 -0.4638367 3.8180132
1.4033968 -0.93559837 4.2964416
1.4154921 -1.4154946 4.7831173
1.4277906 -1.9037223 5.2779684
1.4403118 -2.4005201 5.7817831
1.4530473 -2.9060957 6.2942176
1.4660174 -3.4207094 6.8160954
1.5017928 -4.0047808 8.2555866
1.4976711 -4.4930143 8.0897417
1.4988889 -4.9962974 8.1387415
1.4880308 -5.9521236 7.701848
1.4822937 -6.4232755 7.4710107
1.2155001 -10.534335 -3.2639413
1.2145811 -10.931233 -3.3009145
1.2283497 -11.4646 -2.7469103
2.259887 16.94915 16.026236
1.5490651 9.2943897 -5.4247131
1.5106119 8.686018 -6.5851426
1.5206584 8.3636208 -6.2819619
1.5492028 8.1333141 -5.420558
1.5602788 7.801393 -5.0863109
1.5715079 7.4646626 -4.7474427
1.5829062 7.1230788 -4.4034653
1.5944713 6.7765021 -4.0544596
1.6061999 6.424798 -3.7005231
1.618109 6.0679078 -3.3411312
1.630196 5.7056842 -2.976371
1.6424578 5.3379865 -2.6063342
1.6549128 4.9647365 -2.2304738
1.6675582 4.5857835 -1.8488687
1.6803762 4.2009397 -1.4620516
1.6933329 3.8099971 -1.0710485
1.7064909 3.4129803 -0.67396992
1.7198628 3.009757 -0.27043837
1.733438 2.6001546 0.13923161
1.7472292 2.1840353 0.55541903
1.7612498 1.7612489 0.97852361
1.7754971 1.3316221 1.4084772
1.790002 0.8950004 1.8461992
1.8047543 0.45118728 2.291389
1.819743 -1.4177378e-06 2.7437158
1.8349917 -0.45874944 3.203887
1.8504981 -0.92525005 3.6718321
1.8662597 -1.399696 4.1474805
1.8823013 -1.8823022 4.6315775
1.8986117 -2.3732674 5.1237893
1.9152168 -2.8728278 5.6248918
1.932115 -3.3812025 6.1348376
1.9493039 -3.8986092 6.6535635
1.9668117 -4.4253273 7.1819024
2.0004578 -5.0011463 8.1972656
1.9952011 -5.486805 8.0386314
1.9845853 -5.9537582 7.7182746
1.9858495 -6.4540133 7.7564244
1.6099021 -10.464365 -3.588794
1.5965891 -10.77698 -3.9905457
1.6141717 -11.299205 -3.4599457
1.6320764 -11.832555 -2.9196272
2.7858634 17.272352 15.084808
1.8944145 9.0931892 -6.4366746
1.8709362 8.6063042 -7.0034947
1.883775 8.2886076 -6.6935382
1.9186816 8.0584621 -5.8508153
1.9322722 7.7290883 -5.5227108
1.9460565 7.3950152 -5.1899281
1.9600309 7.0561109 -4.8525543
1.9742156 6.7123332 -4.5101066
1.9886072 6.3635406 -4.1626635
2.0032017 6.0096025 -3.8103201
2.0180204 5.6504564 -3.4525647
2.0330601 5.285954 -3.0894735
2.048317 4.9159584 -2.7211421
2.0638134 4.5403867 -2.3470254
2.079546 4.1590905 -1.9672074
2.0954561 3.7718189 -1.5830984
2.1115746 3.3785183 -1.1939683
2.1279428 2.9791176 -0.79880315
2.1445763 2.5734909 -0.39723542
2.1614623 2.1614614 0.01042709
2.178616 1.7428914 0.42455855
2.1960547 1.3176327 0.84556019
2.2138155 0.88552541 1.2743433
2.2318659 0.44637299 1.7101191
2.2502024 -1.4954628e-06 2.1528032
2.2688537 -0.45377278 2.6030843
2.2878056 -0.91512263 3.0606232
2.3070879 -1.3842525 3.5261412
2.3266981 -1.8613598 3.9995739
2.346633 -2.3466332 4.480844
2.366924 -2.8403096 4.9707174
2.3875573 -3.3425832 5.4688482
2.4085655 -3.8537066 5.9760318
2.4299467 -4.3739061 6.4922199
2.4516985 -4.903398 7.0173521
2.473856 -5.4424858 7.552279
2.4681869 -5.9236488 7.4154167
1.9734435 -10.656597 -4.5287466
1.9892592 -11.139853 -4.1469235
2.0112462 -11.665229 -3.6161115
3.3092601 17.097845 14.405288
2.2239416 8.8957653 -7.4296393
2.2251115 8.5295925 -7.4060988
2.2402613 8.2142906 -7.1013117
2.281431 7.9850078 -6.2730422
2.2974334 7.6581087 -5.951097
2.3136711 7.3266239 -5.6244183
2.3301399 6.9904184 -5.2930889
2.3468354 6.6493649 -4.957202
2.3637817 6.3034148 -4.616271
2.3809745 5.9524345 -4.2703829
2.3984089 5.5962858 -3.9196236
2.4161112 5.2349067 -3.5634894
2.4340761 4.8681521 -3.2020564
2.4523003 4.4958839 -2.8354192
2.4708097 4.1180153 -2.4630368
2.4895899 3.7343838 -2.0852075
2.5085595 3.3447459 -1.7035712
2.5278091 2.9491079 -1.3162967
2.5473564 2.5473549 -0.92303425
2.5672197 2.1393471 -0.52341175
2.587384 1.7249221 -0.11774207
2.6078789 1.3039377 0.29458785
2.6287496 0.87624925 0.71446955
2.6499445 0.44165707 1.1408808
2.6714966 -2.8234115e-06 1.5744741
2.6934021 -0.44890112 2.0151777
2.7156568 -0.90522051 2.4629078
2.7382956 -1.3691497 2.9183645
2.7613015 -1.8408684 3.3812096
2.7847111 -2.3205936 3.8521693
2.8085208 -2.8085213 4.3311849
2.832727 -3.3048511 4.8181815
2.8573685 -3.8098261 5.3139272
2.8824282 -4.3236437 5.8180881
2.9079459 -4.8465781 6.3314648
2.9339192 -5.3788543 6.8540101
2.926738 -5.853478 6.709538
2.3493183 -10.571935 -4.9072518
2.3541262 -10.985924 -4.8105273
2.3798907 -11.502808 -4.2921839
3.8288605 16.956383 13.854447
2.6519604 9.4712839 -6.4404697
2.5584118 8.771697 -8.0536547
2.5745692 8.4592981 -7.775032
2.6196172 8.2330818 -6.9982033
2.6376166 7.9128489 -6.6878181
2.6559594 7.5884547 -6.3715062
2.6745486 7.2594881 -6.0509501
2.6934106 6.9259119 -5.7256846
2.7125406 6.5875955 -5.3957992
2.7319331 6.2444177 -5.0613904
2.7516162 5.8963184 -4.7219663
2.7715847 5.5431676 -4.3776178
2.7918341 5.1848335 -4.0284362
2.812393 4.8212442 -3.6739104
2.8332567 4.4522586 -3.314122
2.8544207 4.0777421 -2.9491684
2.8759153 3.6976035 -2.5785079
2.8976734 3.3116241 -2.2032998
2.9196997 2.9196992 -1.823468
2.9420507 2.5217557 -1.4380387
2.9647465 2.1176739 -1.0466652
2.9878085 1.7073189 -0.64897668
3.0112319 1.2905258 -0.24505079
3.0350804 0.86716515 0.16620199
3.0592961 0.43704051 0.58378553
3.0839152 -4.3836403e-07 1.0083256
3.1089196 -0.44413233 1.4395068
3.134347 -0.89552957 1.8779942
3.1601794 -1.3543631 2.3234506
3.186456 -1.8208321 2.7765739
3.2131732 -2.2951245 3.2372966
3.2403264 -2.7774236 3.7055395
3.2679584 -3.2679598 4.1820393
3.2960498 -3.7669163 4.6664557
3.3246446 -4.2745438 5.1595573
3.35374 -4.7910581 5.6612873
3.383332 -5.3166666 6.1715856
3.3753843 -5.7863736 6.0345306
3.4051366 -6.3238258 6.5475907
2.7224896 -10.501034 -5.2242365
2.7098677 -10.839474 -5.4418902
2.7370255 -11.339108 -4.9735699
2.768132 -11.863424 -4.4371591
4.318646 17.274584 12.991447
2.9694462 9.2795191 -7.366405
2.9052019 8.7156048 -8.3357763
2.9216156 8.3996429 -8.0881119
2.967803 8.1614561 -7.3912001
2.9878297 7.8430519 -7.0890212
3.0081284 7.520319 -6.782732
3.0288846 7.1935992 -6.4695492
3.0500381 6.8625855 -6.1503692
3.0715015 6.5269394 -5.826509
3.0932691 6.1865382 -5.4980626
3.115335 5.8412509 -5.1651163
3.1377306 5.4910278 -4.8271937
3.1604505 5.1357317 -4.4843745
3.1834886 4.7752309 -4.136754
3.2068784 4.4094577 -3.7838287
3.2306147 4.0382681 -3.4256775
3.2546909 3.6615264 -3.0623944
3.2791431 3.2791402 -2.6934419
3.3038368 2.8908558 -2.3208375
3.3288913 2.4966669 -1.9427966
3.3543139 2.0964448 -1.5592009
3.3801277 1.6900623 -1.1697035
3.4063721 1.277388 -0.77370453
3.4330578 0.85826325 -0.37104565
3.4601808 0.43252236 0.038209323
3.48772 -1.8267409e-06 0.45374438
3.5157173 -0.4394657 0.87618786
3.5441673 -0.88604355 1.3054659
3.573065 -1.3398999 1.7415007
3.6024549 -1.8012298 2.1849599
3.6323152 -2.2701993 2.6355135
3.6626918 -2.7470207 3.0938613
3.6935809 -3.2318845 3.5599439
3.7249773 -3.7249789 4.033679
3.7569304 -4.2265468 4.5158148
3.7894366 -4.7367973 5.0062947
3.8224909 -5.2559247 5.5050468
3.818418 -5.7276282 5.4435925
3.84636 -6.2503371 5.8652053
3.057919 -10.702719 -6.0314541
3.0865586 -11.188776 -5.5993147
3.1178174 -11.691816 -5.1276579
4.8101516 17.10276 12.343297
3.2733867 9.0927391 -8.2682505
3.2508764 8.6690016 -8.5701637
3.2676342 8.3506184 -8.3454065
3.3134022 8.0994253 -7.7315531
3.3321245 7.7749553 -7.4804459
3.3545644 7.4545865 -7.1794715
3.3773088 7.1298723 -6.8744168
3.4003904 6.8007803 -6.5648403
3.423912 6.4673872 -6.2493596
3.4479544 6.1296945 -5.9268985
3.4723365 5.7872248 -5.5998759
3.497052 5.439858 -5.2683892
3.522136 5.0875278 -4.931952
3.5475826 4.7301092 -4.5906568
3.5733845 4.3674688 -4.2445908
3.59958 3.9995313 -3.8932498
3.6261621 3.6261604 -3.5367222
3.6531241 3.2472188 -3.1750984
3.6804748 2.8625891 -2.8082671
3.7080944 2.4720628 -2.4378262
3.7361479 2.0756366 -2.0615642
3.7646124 1.6731604 -1.679787
3.7935307 1.264509 -1.291924
3.8229647 0.84954673 -0.89714557
3.8528593 0.42809525 -0.49619544
3.8832071 -3.1863263e-07 -0.089159273
3.9140549 -0.43489712 0.32458082
3.9453783 -0.87675238 0.74470061
3.9772258 -1.3257446 1.1718485
4.0095916 -1.7820419 1.6059449
4.0424695 -2.2458184 2.0469155
4.0759101 -2.7172732 2.4954305
4.109889 -3.1965821 2.9511683
4.1444597 -3.6839635 3.4148343
4.1796165 -4.1796174 3.886369
4.215354 -4.6837287 4.3656955
4.251729 -5.196559 4.8535662
4.2592854 -5.67905 4.9549184
4.2773619 -6.1784129 5.1973619
3.4114428 -10.613379 -6.4165993
3.4254484 -11.037559 -6.2287555
3.4607618 -11.535874 -5.7551208
5.3009896 16.963163 11.816715
3.5812771 8.9531918 -8.94205
3.5968647 8.6324739 -8.75389
3.6416559 8.3758068 -8.213212
3.6609318 8.0540495 -7.9805307
3.6804271 7.7288952 -7.7452011
3.7001166 7.4002323 -7.5075274
3.7199316 7.0678687 -7.2683415
3.7450006 6.7409997 -6.9657321
3.7705135 6.4098711 -6.6577625
3.7964218 6.0742736 -6.3450255
3.8228104 5.7342157 -6.0264869
3.8497536 5.3896551 -5.7012491
3.8770955 5.0402236 -5.3712077
3.9048443 4.6858115 -5.0362506
3.9329929 4.3262901 -4.6964626
3.961534 3.9615335 -4.3519421
3.9905093 3.5914567 -4.0021791
4.0199113 3.2159276 -3.6472657
4.0497327 2.8348122 -3.2872896
4.0799131 2.4479475 -2.9229801
4.1104584 2.055227 -2.5542626
4.1414828 1.6565915 -2.1797674
4.1729789 1.2518919 -1.7995768
4.2050314 0.84100461 -1.4126703
4.2375612 0.42375493 -1.0199968
4.2706175 -1.90158e-06 -0.62097383
4.3041935 -0.43042183 -0.21567389
4.3382821 -0.86765909 0.1958127
4.3729348 -1.3118824 0.61410654
4.4081254 -1.7632517 1.038896
4.4439077 -2.2219543 1.4708241
4.4802756 -2.6881669 1.9098208
4.5172219 -3.1620555 2.3558071
4.5548053 -3.6438444 2.8094704
4.5930185 -4.1337166 3.2707469
4.631856 -4.6318569 3.7395606
4.6713786 -5.1385179 4.21664
4.6958408 -5.6350112 4.511929
4.6982117 -6.107676 4.5405421
3.7939727 -10.623124 -6.3745894
3.7917213 -10.995995 -6.4017587
3.7995214 -11.398567 -6.3076053
3.8364727 -11.893067 -5.8615656
5.758893 17.276678 11.024467
5.8013811 16.876745 11.490717
4.0036922 9.4632721 -8.236578
3.9283097 8.9279757 -9.0638008
3.9434416 8.6038713 -8.8977518
3.9836209 8.3293877 -8.4568367
4.0046043 8.0092077 -8.2265663
4.0258107 7.685637 -7.9938593
4.0472269 7.3585935 -7.7588439
4.0688877 7.0280776 -7.5211425
4.0907345 6.6939273 -7.2814083
4.1127524 6.35607 -7.0397844
4.139164 6.0206013 -6.7499518
4.1675143 5.6829724 -6.4388428
4.1963058 5.3407521 -6.1228971
4.2256165 4.9939075 -5.8012509
4.2554765 4.6423373 -5.4735742
4.2858663 4.2858648 -5.1400886
4.3166933 3.9242659 -4.8018026
4.3479486 3.5574095 -4.4588108
4.3796782 3.1852207 -4.1106195
4.4118562 2.807543 -3.7575076
4.4445295 2.4242864 -3.3989661
4.4774995 2.0352256 -3.0371592
4.5109429 1.6403415 -2.6701608
4.5449295 1.2395242 -2.2972021
4.5794911 0.83263338 -1.917931
4.6145635 0.4195047 -1.533067
4.6501966 -2.2175791e-06 -1.1420349
4.6863632 -0.42603439 -0.745148
4.7231188 -0.85875106 -0.34180877
4.7604337 -1.2983015 0.067673087
4.7983646 -1.7448615 0.48391858
4.836905 -2.1985939 0.90684664
4.8760467 -2.6596649 1.3363786
4.9158506 -3.1282701 1.7731714
4.9563093 -3.6045897 2.2171524
4.9974155 -4.0887957 2.6682398
5.0392337 -4.5811224 3.1271389
5.0817575 -5.081759 3.5937862
5.1226649 -5.5883622 4.0426884
5.1104498 -6.0396247 3.9086475
4.2013884 -11.458335 -6.0671182
4.1983943 -11.83184 -6.0999761
6.2208662 17.107382 10.405193
4.2781453 9.2693138 -9.1370697
4.276825 8.9100504 -9.1503496
4.2919207 8.5838404 -8.9985018
4.3365936 8.3118019 -8.5491238
4.3523946 7.9793892 -8.3901796
4.368361 7.6446295 -8.2295694
4.3904519 7.31742 -8.0073481
4.4138184 6.988543 -7.7723064
4.437417 6.6561232 -7.5349221
4.4612865 6.3201528 -7.2948112
4.4853268 5.9804349 -7.0529842
4.5095925 5.6369891 -6.8088903
4.5371265 5.2933121 -6.5319214
4.5683341 4.9490271 -6.2179909
4.6000853 4.6000838 -5.8986025
4.6323733 4.2463408 -5.5738068
4.6652131 3.8876767 -5.2434683
4.6986942 3.524019 -4.906672
4.7326403 3.1550927 -4.5652061
4.7670994 2.7808068 -4.2185717
4.8020444 2.4010208 -3.8670526
4.8374448 2.0156016 -3.5109546
4.8732462 1.6244148 -3.1508143
4.9096036 1.2273996 -2.7850943
4.9465494 0.82442445 -2.4134452
4.984077 0.41533968 -2.0359454
5.0221567 -1.3303106e-06 -1.6528933
5.0608454 -0.42173865 -1.2637182
5.1001339 -0.85002345 -0.86850387
5.1400146 -1.2850052 -0.46733296
5.1805472 -1.7268507 -0.059602994
5.2217245 -2.1757212 0.35460582
5.2635374 -2.6317689 0.77520865
5.3060498 -3.0951984 1.2028528
5.3492541 -3.5661721 1.6374568
5.3931432 -4.0448585 2.0789411
5.4377837 -4.5314894 2.5279934
5.4831696 -5.0262399 2.984539
5.5292926 -5.5292945 3.4485033
5.5145812 -5.9741311 3.3005149
6.6849356 16.969452 9.9006596
4.7368522 9.8380766 -8.1881475
4.6122212 9.2244406 -9.3454008
4.6268106 8.8977118 -9.2099285
4.6722951 8.6257744 -8.7875853
4.689208 8.2962904 -8.6305418
4.7062621 7.9644413 -8.4721899
4.7234225 7.6301422 -8.3128481
4.7407265 7.2934241 -8.152173
4.7582302 6.9543352 -7.9896412
4.780169 6.6186938 -7.7859306
4.805737 6.2844234 -7.5485196
4.8315616 5.9465361 -7.3087316
4.8576832 5.6050191 -7.0661755
4.883956 5.259644 -6.8222246
4.9105139 4.9105129 -6.5756216
4.9389081 4.55899 -6.3119688
4.9730449 4.2079592 -5.994997
5.0077972 3.8521497 -5.6723037
5.0431204 3.4913883 -5.3443108
5.0789871 3.1255295 -5.0112767
5.1156192 2.7545645 -4.6711292
5.1527843 2.378206 -4.326036
5.1904712 1.9963326 -3.9760976
5.2285595 1.608786 -3.6224258
5.2671895 1.2155038 -3.2637351
5.3064618 0.816378 -2.8990729
5.3463244 0.41125351 -2.5289309
5.3867664 -1.1906202e-06 -2.1534057
5.4278498 -0.41752943 -1.7719322
5.469564 -0.84147263 -1.384599
5.5118999 -1.2719783 -0.99149168
5.5549212 -1.7092083 -0.59201956
5.598619 -2.1533163 -0.18626307
5.6429849 -2.6044548 0.22568853
5.6880851 -3.0628169 0.64446479
5.733912 -3.528564 1.0699903
5.7804565 -4.0018563 1.5021758
5.8277903 -4.4829178 1.9416894
5.8759055 -4.971921 2.3884585
5.9247937 -5.4690423 2.8424087
5.9083323 -5.9083352 2.689563
7.1147389 17.278652 9.1727514
7.1593356 16.875576 9.5572758
4.9875154 9.6187782 -9.1685753
4.9652433 9.2211647 -9.360611
4.9799461 8.8927593 -9.2338419
5.0237727 8.6121798 -8.8559589
5.0405092 8.2808361 -8.7116537
5.0588059 7.9495506 -8.5538931
5.0772176 7.6158257 -8.3951483
5.0957823 7.2796879 -8.2350769
5.1144643 6.9410582 -8.0739985
5.1333232 6.5999861 -7.9113965
5.15238 6.2564621 -7.7470798
5.1738129 5.9129281 -7.562283
5.2016268 5.5731702 -7.3224673
5.2297406 5.2297392 -7.0800595
5.2581196 4.8825383 -6.8353715
5.2866836 4.5314417 -6.5890946
5.3155799 4.1765246 -6.3399405
5.3447728 3.8176949 -6.0882359
5.3817019 3.4596634 -5.7698255
5.4195385 3.0968785 -5.4435906
5.4579554 2.728976 -5.1123509
5.4969206 2.3558218 -4.7763834
5.5367436 1.9774064 -4.4330254
5.5771246 1.5934626 -4.0848546
5.6179342 1.2038413 -3.7329869
5.6594167 0.80848765 -3.3753157
5.7014923 0.40724775 -3.0125303
5.7442231 -2.3415889e-06 -2.6440983
5.7875991 -0.41340256 -2.2701018
5.8316097 -0.8330887 -1.8906341
5.8763208 -1.2592133 -1.5051274
5.9217224 -1.6919222 -1.1136669
5.9678044 -2.1313589 -0.71633667
6.0146365 -2.5777028 -0.31254175
6.0622096 -3.0311072 0.097642101
6.1105127 -3.4917233 0.51412654
6.1596212 -3.9597576 0.93754262
6.2095246 -4.4353771 1.3678207
6.2602139 -4.9187422 1.8048767
6.3117676 -5.410089 2.2493808
6.2933574 -5.8438334 2.090647
6.346271 -6.3462734 2.5468769
7.5492549 17.111643 8.5798225
5.4492764 10.171982 -8.3194962
5.3080416 9.5544729 -9.4560671
5.3215375 9.2239962 -9.3474617
5.3715549 8.95259 -8.9449558
5.3854561 8.6167288 -8.8330841
5.3994098 8.2790928 -8.7207937
5.4134769 7.9397655 -8.6075916
5.4296875 7.6015596 -8.4771395
5.4495034 7.2660031 -8.317668
5.4694448 6.9279613 -8.157197
5.489553 6.5874619 -7.995378
5.509789 6.2444258 -7.8325338
5.5302591 5.8989425 -7.667799
5.5509038 5.5509019 -7.5016637
5.571703 5.2002554 -7.3342867
5.6015477 4.8546724 -7.0941124
5.6319785 4.5055819 -6.8492246
5.662653 4.1526093 -6.6023765
5.693573 3.7957137 -6.3535509
5.7248549 3.4349132 -6.1018128
5.7564597 3.0701089 -5.8474751
5.7943635 2.7040346 -5.542449
5.83535 2.3341377 -5.212616
5.8769202 1.9589736 -4.8780842
5.9190874 1.5784217 -4.5387483
5.9620123 1.1924011 -4.1933203
6.0056143 0.80074781 -3.8424377
6.0498328 0.40331957 -3.4865901
6.0947342 -2.9018254e-06 -3.1252563
6.1403065 -0.40935564 -2.7585201
6.1865382 -0.82487315 -2.3864701
6.2334991 -1.2467024 -2.0085588
6.281179 -1.674982 -1.624867
6.329565 -2.1098552 -1.2354835
6.3787308 -2.5514946 -0.83982402
6.4286666 -3.0000463 -0.43797353
6.4793611 -3.4556608 -0.03001575
6.5308914 -3.9185364 0.3846662
6.5832477 -4.388834 0.80599731
6.6364193 -4.8667097 1.2338902
6.6904879 -5.3523917 1.6690018
6.6691699 -5.7799478 1.4974438
6.7233672 -6.2751427 1.933592
7.9884529 16.975464 8.0963345
5.6975613 9.9707317 -9.187108
5.6674762 9.5638647 -9.4140825
5.6809111 9.2314796 -9.3127232
5.7326775 8.9573078 -8.9221754
5.7475219 8.6212807 -8.8101835
5.7624216 8.2834797 -8.6977758
5.7774205 7.9439507 -8.5846186
5.7924757 7.602623 -8.4710331
5.8076539 7.2595658 -8.3565264
5.8230882 6.9149165 -8.2400818
5.8444562 6.5750113 -8.0788717
5.8659592 6.2325802 -7.9166427
5.8876438 5.8876419 -7.7530479
5.9094663 5.540122 -7.588408
5.9315662 5.1901174 -7.4216781
5.9538312 4.8374858 -7.2536974
5.9762645 4.4821968 -7.0844541
6.0055623 4.1288218 -6.86342
6.0383558 3.773972 -6.6160121
6.0713654 3.4151428 -6.3669753
6.1046891 3.0523431 -6.1155639
6.1384058 2.6855497 -5.8611941
6.1724715 2.3146756 -5.6041899
6.2111402 1.9409795 -5.3124523
6.2552929 1.5638212 -4.9793463
6.3000264 1.1812522 -4.6418605
6.3453779 0.79317033 -4.2997127
6.39152 0.39946812 -3.9515944
6.4384999 -2.131106e-07 -3.5971572
6.4861488 -0.40538564 -3.2376733
6.5345354 -0.81681812 -2.8726237
6.5836501 -1.2344347 -2.5020835
6.6334796 -1.6583731 -2.1261475
6.6840987 -2.0887823 -1.7442602
6.7354956 -2.5258133 -1.3564955
6.7876596 -2.9696026 -0.96295226
6.8406682 -3.4203355 -0.56303453
6.8945112 -3.878165 -0.15681788
6.9491768 -4.3432364 0.25560328
7.0047483 -4.8157668 0.67485851
7.0612159 -5.2959137 1.1008742
7.0543308 -5.7316451 1.0489275
7.0948925 -6.2080326 1.3549418
8.3933916 17.280512 7.4264674
8.4375448 16.875088 7.7399783
6.01758 9.9113073 -9.4432917
6.0304284 9.5777388 -9.3520584
6.0866933 9.3090591 -8.9525442
6.0983324 8.9681349 -8.8698978
6.1099701 8.6258392 -8.7872601
6.1258178 8.2878695 -8.6747332
6.1417713 7.9481735 -8.5614548
6.1577845 7.6066732 -8.447751
6.1738815 7.2633896 -8.3334532
6.1900864 6.9183292 -8.2183876
6.2063999 6.5714808 -8.1025486
6.2227998 6.2227983 -7.9860983
6.2437334 5.8764548 -7.8374596
6.2668319 5.5295539 -7.6734462
6.2901258 5.1801014 -7.5080438
6.3136182 4.8280587 -7.3412347
6.3373604 4.4734287 -7.172647
6.3612571 4.1161065 -7.0029645
6.3853602 3.7560921 -6.8318191
6.4137325 3.3955033 -6.6303549
6.4489112 3.034781 -6.3805695
6.4843225 2.6700146 -6.129127
6.5200987 2.3012097 -5.8750916
6.5562983 1.928322 -5.6180511
6.5928755 1.5512627 -5.3583307
6.6319947 1.1703496 -5.0805597
6.6792917 0.78579742 -4.7447209
6.7272687 0.39572063 -4.4040561
6.7759395 -4.0776493e-07 -4.0584617
6.825377 -0.40149552 -3.707423
6.875802 -0.80891889 -3.3493726
6.9269781 -1.2224103 -2.9859917
6.9788914 -1.6420947 -2.6173723
7.0316195 -2.0681262 -2.2429717
7.0851502 -2.5006433 -1.8628702
7.1394706 -2.9397838 -1.4771583
7.1946626 -3.3857245 -1.0852637
7.2507148 -3.8386159 -0.68726009
7.3076143 -4.2985973 -0.28323856
7.3654466 -4.7658792 0.12741072
7.4242015 -5.2406144 0.5446071
7.4391818 -5.6887879 0.65097404
7.4602284 -6.1437197 0.80041814
8.8023863 17.115749 6.8582263
6.4886727 10.453971 -8.6578856
6.3869319 9.9352264 -9.3401718
6.3982768 9.5974121 -9.2640934
6.458653 9.3291636 -8.8592005
6.4710298 8.9875412 -8.7761974
6.4834552 8.6446047 -8.6928749
6.4959278 8.3003502 -8.609231
6.5083013 7.9545879 -8.5262547
6.5234828 7.6107287 -8.4244432
6.540545 7.2672701 -8.3100224
6.5577211 6.9220376 -8.1948347
6.5749631 6.5749612 -8.0792084
6.5923209 6.2260785 -7.9628024
6.609796 5.8753734 -7.8456135
6.6273899 5.5228229 -7.7276249
6.6474066 5.1702032 -7.5933876
6.6721344 4.8187628 -7.4275651
6.697072 4.4647141 -7.260325
6.72225 4.1080394 -7.0914783
6.7476707 3.748704 -6.9210057
6.773284 3.3866396 -6.7492371
6.7990928 3.0218177 -6.5761619
6.8261247 2.654604 -6.3948808
6.8637047 2.2879007 -6.1428618
6.9015903 1.9171065 -5.8887939
6.9398689 1.5421914 -5.6320934
6.9786024 1.1630988 -5.3723397
7.0177708 0.77975047 -5.1096725
7.0573812 0.39207566 -4.8440394
7.1074691 -2.3542236e-06 -4.5081401
7.1587777 -0.39770991 -4.1640587
7.2108331 -0.80120367 -3.8149703
7.2636504 -1.2106117 -3.4607656
7.3175888 -1.6261313 -3.0990491
7.372334 -2.0478728 -2.7319183
7.4278727 -2.4759603 -2.3594649
7.4842873 -2.9105577 -1.9811424
7.5415654 -3.3518078 -1.5970291
7.5996928 -3.7998483 -1.207215
7.6587577 -4.254868 -0.81111634
7.7187481 -4.7170148 -0.40881476
7.7796507 -5.1864343 -0.00039517536
7.8169031 -5.6455421 0.24942829
7.8159113 -6.0790448 0.24277882
9.2183294 16.981131 6.39394
6.8439808 10.446074 -8.6907511
6.8492832 10.093678 -8.6570673
6.8453188 9.0069962 -8.6822519
6.8584905 8.6633558 -8.5985689
6.8717132 8.3183889 -8.5145607
6.8849874 7.9720893 -8.4302301
6.8983126 7.6244493 -8.3455734
6.9115319 7.2752962 -8.2615862
6.9257507 6.9257493 -8.1712551
6.9439697 6.5784965 -8.0555038
6.9623117 6.2294354 -7.9389739
6.9807239 5.8785028 -7.8219953
6.9992614 5.5257325 -7.7042294
7.0179505 5.1711211 -7.5854897
7.0367131 4.8145919 -7.4662867
7.0555763 4.456152 -7.3464432
7.0819407 4.10007 -7.1789465
7.1085587 3.7413449 -7.0098405
7.1354604 3.3799539 -6.8389268
7.1625953 3.0158284 -6.666533
7.1899371 2.6489227 -6.4928226
7.2174892 2.2792058 -6.3177857
7.2452521 1.9066445 -6.1413989
7.2828274 1.5332247 -5.9026747
7.3232379 1.156298 -5.6459408
7.364099 0.77516687 -5.3863449
7.4054184 0.38975605 -5.1238317
7.4472041 -1.2500805e-06 -4.8583598
7.4894643 -0.39418396 -4.5898724
7.5400019 -0.79368609 -4.2687969
7.594677 -1.1991616 -3.9214356
7.6501827 -1.610568 -3.568795
7.7065058 -2.0280297 -3.2109656
7.7639294 -2.4517689 -2.8461425
7.8223152 -2.8819075 -2.475203
7.8815861 -3.318563 -2.0986452
7.9417276 -3.7618735 -1.7165544
8.0028296 -4.2120171 -1.3283641
8.0648785 -4.6691408 -0.93415546
