# .PCD v0.7 - Point Cloud Data file format
VERSION 0.7
FIELDS x y z
SIZE 4 4 4
TYPE F F F
COUNT 1 1 1
WIDTH 1473
HEIGHT 1
VIEWPOINT 0 0 0 1 0 0 0
POINTS 1473
DATA ascii
-6.1988258 -8.9538603 -6.3032322
-6.1879869 -9.2819786 -6.3759241
-6.1766076 -9.6080542 -6.4522338
-6.1654382 -9.9332056 -6.5271368
-6.1542854 -10.25714 -6.6019316
-6.1425533 -10.578842 -6.6806045
-6.1297998 -10.897421 -6.7661338
-6.1171227 -11.214725 -6.8511467
-6.1044741 -11.530673 -6.9359698
-6.0917144 -11.845 -7.0215402
-6.0787745 -12.157548 -7.1083159
-6.0696282 -12.476458 -7.1696506
-6.804687 2.401655 0.44406939
-6.7953601 1.9986353 0.37784567
-6.4542284 1.5186436 -2.044405
-6.2899766 1.1099968 -3.2107017
-6.21489 0.73116523 -3.7438602
-6.1649914 0.36264658 -4.0981703
-6.1311388 7.3473842e-07 -4.3385448
-6.104816 -0.35910437 -4.5254545
-6.0827193 -0.71561193 -4.6823583
-6.060781 -1.0695482 -4.838131
-6.0418034 -1.4215993 -4.9728851
-6.027842 -1.7728938 -5.0720181
-6.0139446 -2.1225669 -5.1706958
-6.0021563 -2.4714751 -5.2544022
-5.9930272 -2.8202479 -5.3192253
-5.9840932 -3.1680479 -5.3826609
-5.9765453 -3.5156145 -5.436255
-5.9690881 -3.8623517 -5.4892073
-5.9616494 -4.2082224 -5.5420284
-5.954205 -4.5532146 -5.5948877
-5.9468031 -4.8973656 -5.6474457
-5.9386187 -5.2399569 -5.7055573
-5.930222 -5.5813847 -5.7651792
-5.9218493 -5.9218473 -5.8246355
-5.9141765 -6.2620683 -5.8791108
-5.9066877 -6.6015906 -5.9322891
-5.897707 -6.938478 -5.996058
-5.8887305 -7.2743134 -6.0597944
-5.88059 -7.6101742 -6.1176009
-5.8715734 -7.943893 -6.181623
-5.8617353 -8.2753887 -6.2514825
-5.8519297 -8.6057777 -6.3211064
-5.8424764 -8.9355507 -6.3882313
-5.8322129 -9.2629251 -6.4611073
-5.8214874 -9.5883312 -6.5372643
-5.8107786 -9.9125032 -6.6133032
-5.8002219 -10.235685 -6.6882634
-5.7888751 -10.556183 -6.7688336
-5.7767034 -10.873794 -6.8552618
-5.7645822 -11.190071 -6.9413271
-5.752667 -11.505333 -7.0259347
-5.7399421 -11.817527 -7.1162877
-5.7278872 -12.129642 -7.2018857
-5.717629 -12.444251 -7.2747226
-6.3441815 2.3790705 -0.010331084
-6.3648691 1.9890226 0.14575116
-6.0210252 1.5052586 -2.4483576
-5.8938322 1.1050951 -3.4079545
-5.8239503 0.7279954 -3.9351716
-5.7794766 0.36121747 -4.2706981
-5.749671 4.9599862e-07 -4.495563
-5.7271686 -0.35794678 -4.6653323
-5.7066669 -0.7133323 -4.8200064
-5.6863346 -1.0661854 -4.9734044
-5.67098 -1.4177443 -5.0892406
-5.6579108 -1.768096 -5.18784
-5.6446986 -2.1167614 -5.2875195
-5.6349931 -2.4653091 -5.3607421
-5.6263986 -2.8131981 -5.4255829
-5.618794 -3.1605711 -5.4829559
-5.6118126 -3.5073817 -5.535625
-5.6048269 -3.8533173 -5.5883307
-5.5978584 -4.1983929 -5.6409044
-5.5909071 -4.5426097 -5.693347
-5.5838623 -4.8858781 -5.7464957
-5.5759745 -5.2274761 -5.8060007
-5.5681977 -5.5681968 -5.864675
-5.561276 -5.9088531 -5.9168978
-5.5543928 -6.2486906 -5.968823
-5.5468068 -6.5868311 -6.0260577
-5.5383921 -6.9229894 -6.089541
-5.5308495 -7.2592378 -6.1464458
-5.5235004 -7.5948138 -6.2018867
-5.5145521 -7.9271669 -6.2693987
-5.5053315 -8.2579966 -6.3389616
-5.4965281 -8.5883245 -6.4053817
-5.4878378 -8.9177361 -6.4709425
-5.4778967 -9.2439499 -6.5459428
-5.4678435 -9.5687265 -6.6217866
-5.4579325 -9.8925018 -6.696559
-5.448163 -10.215306 -6.7702646
-5.4372325 -10.534637 -6.8527293
-5.4258232 -10.851645 -6.938807
-5.4146075 -11.167627 -7.0234241
-5.4036036 -11.482656 -7.106441
-5.3911386 -11.793114 -7.2004852
-5.3794694 -12.103806 -7.288516
-5.3674426 -12.41221 -7.3792534
-5.9071422 2.3628571 -0.33647445
-5.9440041 1.9813353 -0.03983124
-5.6095748 1.4958869 -2.7311089
-5.5036006 1.1007198 -3.5839236
-5.4392724 0.72523731 -4.101594
-5.40202 0.36013529 -4.4013834
-5.373064 1.1332489e-06 -4.6344018
-5.3531432 -0.35687616 -4.7947092
-5.3333702 -0.71111399 -4.9538341
-5.3144054 -1.0628787 -5.1064525
-5.3020563 -1.4138818 -5.2058272
-5.289659 -1.7632194 -5.3055935
-5.2778463 -2.1111376 -5.4006553
-5.2698464 -2.45926 -5.4650316
-5.2619338 -2.8063633 -5.5287118
-5.2552776 -3.1531661 -5.582273
-5.2487636 -3.4991746 -5.6346955
-5.2422657 -3.8443265 -5.6869879
-5.2357836 -4.1886263 -5.7391491
-5.2292972 -4.5320563 -5.7913494
-5.222414 -4.8742504 -5.8467426
-5.2154865 -5.2154856 -5.9024887
-5.2090297 -5.5562978 -5.9544482
-5.2025681 -5.8962445 -6.0064454
-5.1961226 -6.2353463 -6.0583158
-5.1885314 -6.5721388 -6.1194062
-5.1815925 -6.9087873 -6.1752486
-5.1747122 -7.2445955 -6.2306161
-5.1676888 -7.5792751 -6.287137
-5.1590519 -7.9105458 -6.3566399
-5.1508455 -8.2413511 -6.4226799
-5.142725 -8.571207 -6.4880271
-5.1344509 -8.8997135 -6.5546136
-5.1250296 -9.2250528 -6.6304274
-5.1157818 -9.5494595 -6.7048488
-5.1066065 -9.8727713 -6.7786856
-5.0974841 -10.194968 -6.8520966
-5.0870223 -10.51318 -6.9362845
-5.0765066 -10.829881 -7.0209107
-5.0662084 -11.145658 -7.103785
-5.0559335 -11.460115 -7.1864753
-5.0441775 -11.769746 -7.2810788
-5.0325332 -12.078078 -7.3747826
-5.0210385 -12.385228 -7.4672842
-5.4832749 2.3499761 -0.59563661
-5.2057853 1.4873685 -2.9882054
-5.1139207 1.0958406 -3.7802787
-5.0613389 0.72304899 -4.2336507
-5.0267987 0.35905761 -4.5314617
-5.0013337 -4.3654609e-09 -4.7510276
-4.9828005 -0.35591251 -4.9108229
-4.964365 -0.70919377 -5.069778
-4.9482679 -1.0603435 -5.2085667
-4.9366593 -1.4104724 -5.3086624
-4.9250259 -1.7589355 -5.408967
-4.9151707 -2.1065001 -5.4939394
-4.9076781 -2.4538374 -5.5585413
-4.9005203 -2.8002963 -5.6202602
-4.8943152 -3.1463449 -5.6737595
-4.8881264 -3.491519 -5.7271223
-4.8819332 -3.8358047 -5.7805176
-4.8757758 -4.179235 -5.8336153
-4.86971 -4.5218725 -5.8859124
-4.8636594 -4.8636589 -5.9380789
-4.857471 -5.204432 -5.9914393
-4.8513746 -5.5444269 -6.0440035
-4.8453693 -5.8836622 -6.0957785
-4.8392277 -6.2218642 -6.1487355
-4.8328166 -6.5588231 -6.20401
-4.8264046 -6.8948617 -6.2593021
-4.8200278 -7.2300396 -6.3142843
-4.8130856 -7.5634189 -6.3741403
-4.8054695 -7.8946991 -6.4398036
-4.7978787 -8.2249336 -6.5052562
-4.7903109 -8.5541248 -6.570507
-4.7823591 -8.8815222 -6.6390681
-4.7737503 -9.2065172 -6.7132969
-4.7652087 -9.5304165 -6.786943
-4.7566977 -9.853158 -6.8603253
-4.7481985 -10.174711 -6.9336047
-4.7383823 -10.492131 -7.0182447
-4.7287517 -10.808574 -7.1012821
-4.7191601 -11.123734 -7.1839833
-4.709517 -11.437399 -7.2671247
-4.698606 -11.746514 -7.3612013
-4.6877279 -12.054157 -7.4549942
-4.6771836 -12.361127 -7.5459108
-5.0693631 2.3397059 -0.80223274
-4.8061457 1.4788145 -3.2463183
-4.7306495 1.0916896 -3.9473352
-4.6845469 0.72070158 -4.3754153
-4.6543651 0.35802913 -4.6556716
-4.6325021 5.4819566e-08 -4.8586736
-4.6145978 -0.35496721 -5.0249271
-4.5975509 -0.70731497 -5.1832123
-4.5845733 -1.0579761 -5.30372
-4.5735488 -1.407246 -5.4060822
-4.5624866 -1.7548012 -5.508801
-4.5548453 -2.102236 -5.5797505
-4.5479708 -2.4489079 -5.6435857
-4.5417471 -2.7949204 -5.7013788
-4.5359898 -3.1402993 -5.7548375
-4.5303183 -3.484858 -5.8074999
-4.5251975 -3.8290129 -5.8550467
-4.5200882 -4.1723871 -5.9024887
-4.5149016 -4.5149007 -5.9506464
-4.5091586 -4.8560162 -6.003974
-4.5034304 -5.1962647 -6.0571656
-4.4977341 -5.5356727 -6.110055
-4.4923167 -5.874567 -6.1603584
-4.486877 -6.2125983 -6.2108698
-4.4808016 -6.5488625 -6.267283
-4.4747424 -6.8842201 -6.3235393
-4.46877 -7.2187805 -6.3790011
-4.4621868 -7.5513921 -6.4401278
-4.4550166 -7.8819528 -6.5067053
-4.4478693 -8.2114496 -6.5730734
-4.4407277 -8.5398598 -6.6393871
-4.4332829 -8.8665648 -6.7085147
-4.42523 -9.1908617 -6.7832899
-4.4171886 -9.5139446 -6.8579531
-4.4091773 -9.8358574 -6.9323425
-4.4010596 -10.156291 -7.0077224
-4.3919945 -10.473216 -7.0918975
-4.3829489 -10.788796 -7.1758847
-4.3739581 -11.103125 -7.2593694
-4.3647547 -11.41551 -7.3448319
-4.355258 -11.725693 -7.4330101
-4.3457861 -12.034483 -7.5209618
-4.3350744 -12.338288 -7.6204195
-4.6609225 2.3304629 -0.98822588
-4.5838652 1.9099454 -1.7633595
-4.4080219 1.4693424 -3.5322049
-4.3491259 1.0872833 -4.124651
-4.3110571 0.71851069 -4.5075941
-4.2854495 0.35712269 -4.765192
-4.2667823 1.7088155e-06 -4.9529667
-4.2499685 -0.35416257 -5.1221032
-4.2332864 -0.70554703 -5.2899079
-4.2226148 -1.0556523 -5.3972621
-4.2123318 -1.4041098 -5.5006938
-4.202734 -1.7511382 -5.597239
-4.1962938 -2.098146 -5.6620278
-4.1898727 -2.4440916 -5.7266221
-4.1849122 -2.7899413 -5.7765174
-4.1801782 -3.1351328 -5.8241363
-4.1754551 -3.4795454 -5.8716469
-4.1707425 -3.823179 -5.9190493
-4.1660247 -4.1660242 -5.9665103
-4.1610551 -4.5078096 -6.0165
-4.1557708 -4.8483968 -6.0696616
-4.1505156 -5.1881433 -6.1225209
-4.1457782 -5.5277038 -6.1701765
-4.1412945 -5.8668323 -6.2152777
-4.1359143 -6.2038698 -6.2693982
-4.1303058 -6.53965 -6.3258138
-4.1248574 -6.8747602 -6.380621
-4.1196804 -7.2094398 -6.4326973
-4.1132512 -7.5409613 -6.4973683
-4.1066508 -7.8710804 -6.563766
-4.1001034 -8.2002058 -6.6296296
-4.0939412 -8.5290432 -6.6916161
-4.0868015 -8.8547363 -6.7634311
-4.0793724 -9.178587 -6.8381653
-4.0719857 -9.501298 -6.9124708
-4.0647039 -9.8230324 -6.9857197
-4.0571208 -10.142801 -7.0619984
-4.0487747 -10.459333 -7.1459522
-4.0404477 -10.774528 -7.2297139
-4.0321398 -11.088385 -7.3132892
-4.0234671 -11.399822 -7.4005289
-4.0137033 -11.706635 -7.4987411
-4.0050044 -12.015012 -7.5862513
-3.9953604 -12.319027 -7.6832633
-4.2672434 2.7155194 -1.0460434
-4.2564449 2.3216996 -1.1645451
-4.1514091 1.8870049 -2.3171678
-4.0283723 1.4648643 -3.6673465
-3.9730151 1.0835507 -4.2748113
-3.9404392 0.71644425 -4.6322937
-3.9180975 0.35619292 -4.8774624
-3.9025993 1.3641881e-06 -5.0475364
-3.88727 -0.35338745 -5.2157583
-3.8732986 -0.70423472 -5.369071
-3.8638606 -1.0537807 -5.4726424
-3.854315 -1.4015697 -5.5773935
-3.8465869 -1.7484471 -5.6621981
-3.8406858 -2.0949171 -5.7269564
-3.8350608 -2.4404919 -5.7886839
-3.8304968 -2.785816 -5.8387651
-3.8259892 -3.1303539 -5.8882313
-3.8216729 -3.474247 -5.9355989
-3.8173513 -3.8173492 -5.9830232
-3.8130543 -4.1596947 -6.0301757
-3.8083181 -4.5007386 -6.082149
-3.803519 -4.8408399 -6.1348147
-3.7993872 -5.1809826 -6.1801524
-3.7952795 -5.5204058 -6.2252326
-3.7910619 -5.8589134 -6.2715139
-3.7859213 -6.1951442 -6.3279233
-3.7809718 -6.5307679 -6.3822398
-3.7762265 -6.8658657 -6.4343128
-3.7713315 -7.1998134 -6.4880285
-3.7652783 -7.5305567 -6.5544519
-3.7593031 -7.8603587 -6.620028
-3.7536519 -8.189785 -6.6820412
-3.7480175 -8.5182219 -6.7438688
-3.7412443 -8.8429403 -6.8181977
-3.734452 -9.1663818 -6.8927331
-3.7277992 -9.4889412 -6.9657412
-3.7211986 -9.8104315 -7.0381732
-3.7140946 -10.129348 -7.1161323
-3.70645 -10.445451 -7.200016
-3.6988373 -10.760253 -7.2835579
-3.6911852 -11.073554 -7.3675313
-3.6831307 -11.38422 -7.4559188
-3.6741495 -11.690475 -7.5544748
-3.6653094 -11.995557 -7.6514845
-3.656884 -12.300427 -7.7439413
-3.8634357 2.7044065 -1.2376902
-3.8578513 2.3147109 -1.305097
-3.7384784 1.86924 -2.7460549
-3.6509683 1.4603882 -3.8023942
-3.602304 1.0806923 -4.3898277
-3.5743816 0.71487641 -4.7268777
-3.5546045 0.35546091 -4.965611
-3.5403306 1.0260618e-06 -5.1379104
-3.5261569 -0.35261512 -5.3090024
-3.5148993 -0.70297801 -5.4448938
-3.5061684 -1.0518489 -5.5502863
-3.4974666 -1.3989844 -5.6553254
-3.4915187 -1.7457579 -5.7271228
-3.4861844 -2.0917091 -5.7915163
-3.4814167 -2.4369907 -5.8490663
-3.4772794 -2.781822 -5.8990073
-3.4731519 -3.1258361 -5.9488292
-3.4690208 -3.4690187 -5.9986968
-3.4650495 -3.8115525 -6.0466356
-3.4610736 -4.1532855 -6.0946307
-3.4569166 -4.4939914 -6.1448059
-3.453176 -4.834444 -6.1899624
-3.4494433 -5.1741648 -6.2350173
-3.4457188 -5.5131493 -6.2799768
-3.441572 -5.8506699 -6.3300352
-3.437113 -6.1868038 -6.3838587
-3.4327996 -6.5223179 -6.4359269
-3.4284835 -6.8569646 -6.4880276
-3.4237521 -7.1898794 -6.5451365
-3.4183571 -7.5203862 -6.6102595
-3.4132173 -7.8503995 -6.6723027
-3.408093 -8.1794233 -6.7341599
-3.4027736 -8.5069332 -6.7983723
-3.396606 -8.8311749 -6.8728204
-3.3905652 -9.1545248 -6.9457397
-3.3845587 -9.4767647 -7.0182438
-3.3785605 -9.7978258 -7.0906463
-3.3719771 -10.115931 -7.1701198
-3.3650329 -10.431602 -7.2539406
-3.3580792 -10.745852 -7.3378792
-3.3511417 -11.058766 -7.4216256
-3.3437245 -11.368663 -7.5111547
-3.335582 -11.674537 -7.6094437
-3.3275044 -11.979014 -7.7069507
-3.319591 -12.282486 -7.8024721
-3.462935 2.6933935 -1.4275657
-3.4623148 2.308212 -1.4358842
-3.3488102 1.8604528 -2.9582441
-3.2751329 1.4556161 -3.9464252
-3.2349026 1.0783014 -4.4860039
-3.2109492 0.71354532 -4.8072748
-3.1935632 0.3548409 -5.040462
-3.1806338 2.0345085e-06 -5.2138743
-3.1677203 -0.35196763 -5.3870759
-3.1586194 -0.70191544 -5.5091367
-3.1507101 -1.0502357 -5.6152191
-3.1430771 -1.3969227 -5.7175965
-3.1382117 -1.7434499 -5.7828522
-3.133312 -2.0888729 -5.8485708
-3.1292424 -2.4338541 -5.903151
-3.1254673 -2.778192 -5.9537859
-3.1217008 -3.1216991 -6.0043025
-3.1179433 -3.4643817 -6.0546961
-3.1141953 -3.8062384 -6.1049695
-3.1107123 -4.1476159 -6.1516833
-3.1072493 -4.4882469 -6.1981316
-3.1037939 -4.8281231 -6.2444725
-3.1004071 -5.1673431 -6.2899017
-3.0970638 -5.5058894 -6.3347416
-3.0932689 -5.8428411 -6.3856382
-3.0893869 -6.1787734 -6.4377027
-3.0855148 -6.513864 -6.4896383
-3.0816526 -6.8481169 -6.5414424
-3.07725 -7.1802497 -6.6004877
-3.0726221 -7.5108523 -6.6625619
-3.0680077 -7.8404622 -6.7244487
-3.0634074 -8.1690855 -6.7861481
-3.0584197 -8.4956102 -6.8530459
-3.0529895 -8.819747 -6.925879
-3.0475783 -9.1427336 -6.9984541
-3.0421867 -9.4645805 -7.0707693
-3.0368137 -9.7852879 -7.1428323
-3.0307412 -10.102471 -7.2242761
-3.0244739 -10.417632 -7.3083372
-3.0182323 -10.731492 -7.3920522
-3.0120051 -11.044018 -7.4755764
-3.0052447 -11.353148 -7.5662427
-2.9982429 -11.659832 -7.6601582
-2.9916008 -11.966402 -7.7492423
-2.9840891 -12.267921 -7.8499908
-3.0683126 2.6847746 -1.5762212
-3.0723395 2.3042543 -1.5154581
-2.967056 1.8544105 -3.1040635
-2.9036112 1.451807 -4.0613723
-2.8698359 1.0761899 -4.5710044
-2.8482354 0.71206039 -4.8969278
-2.8338706 0.35423467 -5.1136761
-2.8221231 1.6906785e-06 -5.2909317
-2.8108201 -0.35135254 -5.4614792
-2.8037405 -0.70093393 -5.5683055
-2.7965407 -1.0487018 -5.6769414
-2.7905822 -1.3952906 -5.7668476
-2.7861795 -1.7413616 -5.8332825
-2.7818015 -2.0863492 -5.8993402
-2.7784448 -2.4311371 -5.9499869
-2.7750964 -2.7750947 -6.0005112
-2.7719195 -3.1184092 -6.0484443
-2.768826 -3.4610312 -6.0951233
-2.7657506 -3.8029058 -6.1415319
-2.7626708 -4.1440053 -6.1879983
-2.7595978 -4.4843459 -6.234364
-2.756532 -4.8239298 -6.2806273
-2.7534833 -5.1627798 -6.3266268
-2.750592 -5.501183 -6.3702545
-2.7470961 -5.8375773 -6.4230046
-2.7436197 -6.1731439 -6.4754562
-2.7401414 -6.5078354 -6.5279398
-2.7368741 -6.8421831 -6.5772448
-2.7328296 -7.1736765 -6.6382666
-2.7286599 -7.5038147 -6.7011814
-2.724503 -7.8329444 -6.7639079
-2.7204111 -8.161232 -6.8256483
-2.7159128 -8.4872265 -6.8935242
-2.7110536 -8.8109245 -6.9668407
-2.7062118 -9.1334639 -7.0398989
-2.7013874 -9.4548559 -7.1126919
-2.6966319 -9.7752886 -7.1844525
-2.6910291 -10.091359 -7.2689867
-2.6853986 -10.405919 -7.3539462
-2.6797814 -10.719126 -7.4387002
-2.6741979 -11.031066 -7.5229516
-2.6682131 -11.339905 -7.613256
-2.6622951 -11.647541 -7.7025466
-2.6564035 -11.953815 -7.7914476
-2.6497707 -12.255187 -7.8915324
-2.6780095 2.6780112 -1.6928608
-2.684411 2.3009264 -1.5824722
-2.5850167 1.8464427 -3.2964666
-2.533654 1.4478022 -4.1821809
-2.5054939 1.0737842 -4.667789
-2.4876909 0.71077031 -4.9747863
-2.4761512 0.35373667 -5.1737809
-2.4655757 4.3071668e-07 -5.3561516
-2.4561658 -0.35088083 -5.5184188
-2.4498222 -0.69994885 -5.6278138
-2.443511 -1.0472177 -5.7366428
-2.4388809 -1.3936455 -5.8164859
-2.4349222 -1.7392293 -5.8847508
-2.4314365 -2.0840883 -5.944859
-2.428726 -2.428726 -5.9916029
-2.4260118 -2.7725835 -6.0384064
-2.4233131 -3.1156881 -6.0849404
-2.4206209 -3.4580271 -6.1313734
-2.4179246 -3.7995961 -6.1778636
-2.4152346 -4.1404023 -6.2242513
-2.4125504 -4.4804492 -6.2705379
-2.4099667 -4.8199315 -6.3150945
-2.4075012 -5.1589293 -6.3576117
-2.4047687 -5.496613 -6.4047332
-2.4017146 -5.832736 -6.4573956
-2.3986778 -6.1680264 -6.5097656
-2.3958814 -6.5031066 -6.5579867
-2.3930173 -6.8371916 -6.6073775
-2.3893633 -7.1680889 -6.6703887
-2.3857205 -7.4979763 -6.7332063
-2.3821807 -7.8271642 -6.7942467
-2.3787801 -8.1558151 -6.85289
-2.3746572 -8.480917 -6.9239879
-2.3704209 -8.8044195 -6.9970379
-2.3661907 -9.1267338 -7.0699873
-2.3620386 -9.4481544 -7.1415815
-2.3578472 -9.7682247 -7.2138596
-2.3529072 -10.083888 -7.2990484
-2.3479879 -10.398231 -7.3838825
-2.34308 -10.711224 -7.468513
-2.3382638 -11.023243 -7.5515695
-2.3329108 -11.331281 -7.6438742
-2.3273101 -11.636549 -7.740458
-2.3219109 -11.941255 -7.8335624
-2.3163974 -12.243815 -7.9286366
-2.2900059 2.6716745 -1.8021232
-2.2974126 2.2974145 -1.6531078
-2.2079616 1.839968 -3.4527259
-2.1672149 1.4448106 -4.2724857
-2.143281 1.0716412 -4.7540026
-2.1290336 0.70967942 -5.0406356
-2.1195977 0.35326844 -5.2304711
-2.1102366 2.067165e-06 -5.4188032
-2.1030731 -0.35051131 -5.5629177
-2.0976222 -0.69920731 -5.6725845
-2.0921328 -1.0460651 -5.78302
-2.0887344 -1.3924892 -5.8513913
-2.0852892 -1.7377391 -5.9207067
-2.0824625 -2.0824614 -5.9775734
-2.079987 -2.4266505 -6.0273747
-2.077632 -2.7701759 -6.0747542
-2.0753148 -3.1129713 -6.1213722
-2.0730109 -3.4550176 -6.1677222
-2.070704 -3.7962897 -6.2141356
-2.0684023 -4.1368046 -6.2604408
-2.066251 -4.4768772 -6.3037195
-2.0641446 -4.8163371 -6.3460999
-2.0620344 -5.1550865 -6.3885522
-2.0595191 -5.4920487 -6.439158
-2.056946 -5.8280129 -6.4909267
-2.0545785 -6.1637349 -6.5385504
-2.052217 -6.4986854 -6.5860653
-2.0495586 -6.8318605 -6.6395473
-2.0464396 -7.1625371 -6.7022982
-2.0434246 -7.4925547 -6.7629538
-2.0405133 -7.8219666 -6.8215256
-2.0375628 -8.1502504 -6.8808837
-2.0339162 -8.4746504 -6.9542475
-2.0302827 -8.7978907 -7.0273485
-2.0267477 -9.1203623 -7.0984688
-2.0232251 -9.4417152 -7.1693411
-2.0195136 -9.7609825 -7.2440047
-2.0152857 -10.076427 -7.3290672
-2.0110829 -10.390594 -7.41362
-2.0069358 -10.703656 -7.4970541
-2.0028133 -11.015471 -7.5799932
-1.998171 -11.322968 -7.6733847
-1.9933776 -11.628035 -7.7698255
-1.9886067 -11.931638 -7.8658056
-1.9836801 -12.232693 -7.9649224
-1.9050279 2.6670406 -1.8820398
-1.9123075 2.2947695 -1.7062942
-1.8333956 1.8333973 -3.6113985
-1.8024716 1.4419775 -4.3579674
-1.7841138 1.07047 -4.8011675
-1.7721599 0.70886493 -5.0897603
-1.7639189 0.35278592 -5.2887154
-1.7558662 1.4747395e-06 -5.4831257
-1.750659 -0.35013118 -5.6088352
-1.7460294 -0.69840997 -5.7206068
-1.7419958 -1.0451952 -5.8179832
-1.7390928 -1.3912731 -5.8880672
-1.7361995 -1.7361983 -5.9579186
-1.734087 -2.0809035 -6.0089183
-1.7320273 -2.4248366 -6.0586457
-1.7299657 -2.7679429 -6.108417
-1.7279294 -3.1102715 -6.1575794
-1.726006 -3.4520113 -6.204011
-1.7241207 -3.7930646 -6.2495255
-1.7223541 -4.1336479 -6.2921782
-1.7205977 -4.4735522 -6.3345804
-1.7188382 -4.8127451 -6.377058
-1.7170154 -5.1510439 -6.4210653
-1.7149225 -5.4877515 -6.4715891
-1.7129482 -5.8240223 -6.5192585
-1.7109782 -6.1595211 -6.5668149
-1.7090129 -6.4942484 -6.6142631
-1.7066418 -6.8265653 -6.6715045
-1.7041587 -7.157465 -6.7314534
-1.7017286 -7.4876051 -6.7901201
-1.6992991 -7.8167753 -6.848773
-1.6967064 -8.1441908 -6.9113641
-1.6936916 -8.4684572 -6.984149
-1.6907396 -8.7918444 -7.0554175
-1.6877978 -9.1141071 -7.1264396
-1.6848661 -9.4352493 -7.1972175
-1.6816813 -9.7537508 -7.2741032
-1.6781759 -10.069055 -7.3587322
-1.6747105 -10.383205 -7.4423909
-1.671266 -10.696101 -7.5255537
-1.6678289 -11.007671 -7.6085281
-1.663922 -11.31467 -7.7028503
-1.6599958 -11.619969 -7.7976413
-1.6562186 -11.924773 -7.8888264
-1.6519877 -12.22471 -7.9909687
-1.5217184 2.663008 -1.9515672
-1.5283529 2.2925305 -1.7513573
-1.463457 1.8293227 -3.709765
-1.4393146 1.4393167 -4.4383249
-1.4257891 1.0693431 -4.8464894
-1.4163088 0.70815557 -5.1325855
-1.4097517 0.35243943 -5.3304644
-1.4032997 2.2817419e-07 -5.5251675
-1.3995368 -0.34988368 -5.638721
-1.3957388 -0.69786716 -5.7533379
-1.3927318 -1.044548 -5.8440828
-1.3903958 -1.3903939 -5.9145784
-1.3881332 -1.7351658 -5.9828563
-1.386467 -2.0797 -6.0331378
-1.3848048 -2.4234076 -6.0832987
-1.3831412 -2.7662816 -6.1335034
-1.381487 -3.108345 -6.1834211
-1.3799341 -3.4498339 -6.2302885
-1.3784978 -3.7908692 -6.2736292
-1.3770592 -4.1311769 -6.3170443
-1.3756236 -4.4707756 -6.3603678
-1.3741909 -4.8096681 -6.4036007
-1.3726918 -5.1475945 -6.4488435
-1.3710945 -5.4843769 -6.4970465
-1.3695009 -5.8203773 -6.5451393
-1.367911 -6.1555977 -6.5931191
-1.3663248 -6.4900413 -6.6409864
-1.3643986 -6.8219924 -6.6991119
-1.3624307 -7.1527586 -6.7585034
-1.3604786 -7.4826326 -6.8174052
-1.3585376 -7.8115892 -6.8759842
-1.356388 -8.1383266 -6.9408555
-1.3540212 -8.4626312 -7.0122786
-1.3516629 -8.7858076 -7.0834479
-1.3493177 -9.1078939 -7.1542187
-1.3469756 -9.4288273 -7.2248993
-1.3443645 -9.7466412 -7.3036952
-1.3415847 -10.061885 -7.3875809
-1.3388214 -10.375865 -7.4709706
-1.3360645 -10.688516 -7.5541682
-1.333324 -10.999922 -7.6368723
-1.330258 -11.307192 -7.7293954
-1.327226 -11.613229 -7.8208899
-1.324208 -11.917871 -7.9119711
-1.3208668 -12.218018 -8.0127993
-1.1400775 2.6601813 -2.0003102
-1.145251 2.290504 -1.7921375
-1.0958493 1.8264164 -3.7799149
-1.0784154 1.437887 -4.4814
-1.0681919 1.068193 -4.8927574
-1.0614464 0.7076326 -5.1641779
-1.0564007 0.35213408 -5.3672009
-1.0519217 2.5457567e-07 -5.5474219
-1.0490192 -0.34967166 -5.6642103
-1.0460126 -0.69734108 -5.785183
-1.0440742 -1.0440723 -5.863184
-1.0422251 -1.3896323 -5.9375839
-1.0406611 -1.7344339 -6.0005116
-1.0394125 -2.0788248 -6.0507488
-1.0381997 -2.4224656 -6.0995541
-1.03701 -2.7653582 -6.1474261
-1.0358229 -3.1074669 -6.1951914
-1.0346831 -3.4489415 -6.2410507
-1.0336267 -3.7899637 -6.2835574
-1.0325482 -4.1301923 -6.3269506
-1.0314721 -4.4697108 -6.3702555
-1.030398 -4.8085241 -6.413466
-1.0293063 -5.1465316 -6.4573956
-1.0281048 -5.4832253 -6.5057397
-1.0269101 -5.8191557 -6.5538116
-1.0257181 -6.1543088 -6.6017714
-1.0244972 -6.488482 -6.6508975
-1.0230732 -6.8204856 -6.7081981
-1.0215977 -7.1511827 -6.7675643
-1.0201266 -7.480927 -6.8267589
-1.0186714 -7.8098135 -6.8853083
-1.0170834 -8.1366653 -6.9492068
-1.015313 -8.4609404 -7.0204425
-1.013541 -8.7840204 -7.0917435
-1.0117712 -9.1059418 -7.1629496
-1.0099845 -9.4265223 -7.2348418
-1.008008 -9.7440758 -7.3143735
-1.0059088 -10.059089 -7.3988318
-1.0038223 -10.37283 -7.4827886
-1.0017445 -10.685274 -7.5663958
-0.99950498 -10.994554 -7.6565065
-0.99717009 -11.301261 -7.7504535
-0.99484622 -11.606538 -7.8439646
-0.99258149 -11.910976 -7.9350886
-0.99012297 -12.211516 -8.0340109
-0.75943887 2.658036 -2.037292
-0.76326913 2.2898088 -1.8061147
-0.72976714 1.8244181 -3.8281374
-0.71837181 1.4367431 -4.5159068
-0.71171647 1.0675759 -4.9175916
-0.70732117 0.70732349 -5.1828709
-0.70385909 0.35192955 -5.391829
-0.70092118 6.1035723e-07 -5.5691485
-0.69889939 -0.34944868 -5.6911721
-0.69694442 -0.69694293 -5.8091631
-0.69570857 -1.0435624 -5.8837557
-0.69447708 -1.3889521 -5.958086
-0.69352555 -1.733812 -6.0155129
-0.69273192 -2.0781949 -6.0634136
-0.69193733 -2.4217803 -6.1113682
-0.69114465 -2.7645788 -6.1592131
-0.69035369 -3.1065912 -6.2069497
-0.68961316 -3.4480641 -6.2516446
-0.68891466 -3.7890294 -6.2938056
-0.68820143 -4.1292081 -6.3368521
-0.68748432 -4.468647 -6.3801346
-0.68676597 -4.8073611 -6.4234886
-0.68604654 -5.1453481 -6.4669123
-0.68526191 -5.4820929 -6.5142708
-0.68446308 -5.8179369 -6.5624804
-0.68365288 -6.1528754 -6.6113825
-0.68283135 -6.486896 -6.660965
-0.6818983 -6.8189816 -6.7172818
-0.68091512 -7.1496072 -6.7766213
-0.67994267 -7.4793696 -6.8353119
-0.67898345 -7.8083081 -6.8932095
-0.67789388 -8.1347256 -6.958971
-0.67677134 -8.4596395 -7.026721
-0.67558771 -8.7826405 -7.0981545
-0.67441094 -9.1045475 -7.1691837
-0.67315835 -9.4242172 -7.2447796
-0.67187715 -9.7422199 -7.3221073
-0.67048085 -10.057213 -7.4063802
-0.66909039 -10.370899 -7.4903069
-0.66760945 -10.68175 -7.5796881
-0.66604441 -10.989734 -7.6741438
-0.66448921 -11.296316 -7.7680097
-0.66294128 -11.601472 -7.8614368
-0.6614899 -11.906816 -7.9490356
-0.65986681 -12.207536 -8.0469942
-0.37951162 2.6565819 -2.062377
-0.38157836 2.2894707 -1.8128995
-0.3645981 1.8229922 -3.8626008
-0.35897362 1.4358958 -4.5415316
-0.35563841 1.0669159 -4.9441261
-0.35345626 0.70691401 -5.2075415
-0.35170892 0.35171071 -5.4184642
-0.35046479 7.7883652e-07 -5.5686421
-0.34937763 -0.34937647 -5.6998706
-0.34842122 -0.69684029 -5.815321
-0.34780344 -1.0434093 -5.8898911
-0.34721115 -1.3888444 -5.9613895
-0.34666315 -1.7333144 -6.0275402
-0.34626654 -2.0775995 -6.0754123
-0.34587085 -2.4210956 -6.123178
-0.34547472 -2.763798 -6.1709948
-0.34507948 -3.1057148 -6.2187033
-0.34471753 -3.4471743 -6.2623954
-0.3443698 -3.7880685 -6.3043704
-0.34401873 -4.1282239 -6.3467498
-0.34366032 -4.4675837 -6.3900099
-0.34330001 -4.8061981 -6.4335065
-0.34293911 -5.1440859 -6.4770689
-0.34255898 -5.4809437 -6.5229564
-0.34215575 -5.8166471 -6.5716295
-0.34174418 -6.1513948 -6.6213064
-0.34133363 -6.4853387 -6.6708674
-0.34087393 -6.8174767 -6.7263598
-0.34038648 -7.1481156 -6.7851973
-0.33990574 -7.4779239 -6.8432326
-0.33941323 -7.8065033 -6.9026842
-0.33886608 -8.1327848 -6.9687309
-0.33832067 -8.4580173 -7.0345631
-0.33774206 -8.781292 -7.1044083
-0.33713317 -9.1025944 -7.1779099
-0.33649558 -9.4218769 -7.2548695
-0.33585918 -9.7399149 -7.3316946
-0.33517665 -10.055298 -7.4140816
-0.33444229 -10.36771 -7.502727
-0.33365804 -10.677056 -7.5973945
-0.33290264 -10.985786 -7.6885777
-0.33219698 -11.294698 -7.7737584
-0.33148685 -11.602037 -7.8594823
-0.330699 -11.905164 -7.9545813
-0.32987782 -12.205479 -8.0537071
-8.9381175e-24 2.6560225 -2.0720472
-9.9172753e-24 2.2891452 -1.8194858
-1.0213104e-23 1.8215531 -3.8973699
-6.5118732e-25 1.436509 -4.5229783
-2.1846264e-24 1.0671067 -4.9364996
-5.9593984e-24 0.70705605 -5.1989775
5.4641831e-24 0.35158831 -5.4332061
7.3448638e-24 1.2137925e-06 -5.5671272
-1.9272511e-24 -0.3493734 -5.7002058
-2.7209043e-24 -0.69674772 -5.8209777
1.0893551e-23 -1.0433354 -5.8928738
1.330253e-23 -1.3887411 -5.9645271
-1.3684236e-24 -1.7329741 -6.0357714
5.0892636e-24 -2.0770016 -6.0874043
-8.9111463e-25 -2.420392 -6.1353045
4.7854275e-26 -2.7630048 -6.1829329
-9.3925897e-24 -3.1048386 -6.2304525
-6.1937248e-24 -3.4462965 -6.2729802
-2.9948603e-24 -3.7870891 -6.3150969
9.9563334e-24 -4.127193 -6.3571248
-4.8802801e-25 -4.4664845 -6.4002051
-6.8746798e-24 -4.8050199 -6.4436793
5.2720805e-24 -5.1428442 -6.4870605
-4.3795822e-24 -5.4797502 -6.5319605
2.5168804e-25 -5.8152232 -6.5817351
-6.3175563e-24 -6.1498904 -6.6313882
-2.6410826e-25 -6.4837561 -6.6809239
-3.7635055e-24 -6.8160787 -6.7347984
7.2049088e-24 -7.1467628 -6.7929754
-4.5499738e-24 -7.4765105 -6.8509912
4.3746447e-24 -7.8046389 -6.9124684
-6.1292386e-24 -8.1308441 -6.9784851
5.7529401e-24 -8.4559708 -7.0444441
-4.0284815e-24 -8.779912 -7.1108193
1.7811099e-24 -9.1003294 -7.1880326
9.7265721e-25 -9.4195366 -7.2649541
-7.2722531e-24 -9.7375002 -7.341743
9.1366667e-24 -10.052698 -7.4245477
-4.1675743e-24 -10.365584 -7.5110044
-8.7193474e-24 -10.677177 -7.5969367
-5.1302709e-24 -10.987447 -7.6825037
1.115348e-24 -11.295676 -7.7702785
5.9946175e-24 -11.600204 -7.8658042
9.6305135e-25 -11.903286 -7.960876
-1.3559019e-23 -12.203512 -8.0601206
0.37950835 2.6565599 -2.0627723
0.38159817 2.2895906 -1.8105074
0.36456189 1.8228112 -3.8669708
0.35900146 1.436007 -4.538177
0.35563698 1.0669113 -4.9443021
0.35342646 0.70685315 -5.2111359
0.35167658 0.35167712 -5.4223609
0.35046756 7.5594875e-07 -5.5683045
0.34936655 -0.34936601 -5.7012091
0.34841433 -0.69682807 -5.8161526
0.3478007 -1.0434014 -5.890224
0.34720704 -1.3888265 -5.961885
0.34665087 -1.7332536 -6.0290217
0.34625429 -2.0775237 -6.0768929
0.34585863 -2.4210098 -6.1246524
0.34546253 -2.7636991 -6.1724653
0.34506732 -3.1056061 -6.2201729
0.34470671 -3.4470654 -6.2637
0.34435767 -3.7879348 -6.3058329
0.34400797 -4.1280951 -6.3480468
0.34364825 -4.4674268 -6.3914671
0.34328797 -4.8060317 -6.4349575
0.34292841 -5.1439257 -6.4783597
0.34254831 -5.4807711 -6.5242438
0.3421438 -5.8164444 -6.5730715
0.34173226 -6.1511784 -6.6227489
0.34132174 -6.4851122 -6.6723042
0.34086338 -6.8172669 -6.7276335
0.34037727 -7.1479225 -6.7863078
0.33989653 -7.4777236 -6.8443389
0.33940145 -7.8062329 -6.9041023
0.33885041 -8.1324091 -6.9706206
0.33830249 -8.4575615 -7.0367599
0.33772913 -8.7809563 -7.1059723
0.3371138 -9.1020718 -7.1802464
0.33647501 -9.4212999 -7.2573543
0.33583996 -9.7393579 -7.3340149
0.33516008 -10.054801 -7.4160833
0.33445245 -10.368025 -7.5015006
0.33373895 -10.679645 -7.5876274
0.33302975 -10.989983 -7.6732321
0.33228597 -11.297723 -7.7630172
0.33149683 -11.602387 -7.8582768
0.33070895 -11.905521 -7.9533815
0.32986793 -12.205112 -8.0549011
0.75940609 2.6579227 -2.0392711
0.76334518 2.2900374 -1.8015239
0.7296946 1.8242362 -3.8325167
0.71830738 1.4366155 -4.5197954
0.71167624 1.067517 -4.9200215
0.70726722 0.70726746 -5.1861248
0.70379156 0.35189655 -5.3959031
0.70091003 1.8729986e-06 -5.5698228
0.69887447 -0.34943494 -5.6926775
0.6969251 -0.69692433 -5.8103285
0.69569206 -1.043537 -5.8847523
0.69446611 -1.3889318 -5.958744
0.693501 -1.7337515 -6.016994
0.69270742 -2.0781226 -6.0648918
0.69191289 -2.4216928 -6.1128459
0.69112027 -2.7644799 -6.1606884
0.69032937 -3.1064825 -6.2084193
0.68959159 -3.4479587 -6.2529473
0.68889314 -3.7889106 -6.295104
0.68817991 -4.1290789 -6.3381491
0.68746012 -4.4684901 -6.3815918
0.68673921 -4.8071733 -6.4251041
0.68601978 -5.1451483 -6.4685249
0.68523788 -5.4819031 -6.515717
0.68444175 -5.8177543 -6.5637665
0.68362898 -6.1526608 -6.6128216
0.68280751 -6.4866714 -6.6624022
0.68187457 -6.8187437 -6.7187152
0.68089145 -7.1493597 -6.778049
0.67992163 -7.4791374 -6.8365808
0.67896247 -7.8080668 -6.8944726
0.67786252 -8.1343489 -6.9608607
0.67674792 -8.4593487 -7.028131
0.67556441 -8.7823372 -7.0995617
0.67438763 -9.1042328 -7.1705875
0.67311978 -9.4236755 -7.2471094
0.67184901 -9.7418108 -7.3238082
0.67045027 -10.056751 -7.4082308
0.66905731 -10.370388 -7.4923
0.66764235 -10.682278 -7.5777006
0.66622329 -10.992682 -7.6633515
0.66470987 -11.300067 -7.754693
0.66315091 -11.605141 -7.8487844
0.66157687 -11.908382 -7.9437866
0.65984952 -12.207215 -8.0480394
1.1399937 2.6599879 -2.0036757
1.145251 2.290504 -1.7921375
1.0957084 1.8261832 -3.7855833
1.078336 1.437781 -4.4845872
1.0680667 1.0680671 -4.8977952
1.0613909 0.70759434 -5.1664076
1.0562528 0.35208535 -5.3731499
1.0518212 1.9715105e-06 -5.551466
1.0488694 -0.34962124 -5.6702404
1.0458677 -0.69724452 -5.7910156
1.0439752 -1.0439746 -5.8671641
1.0421429 -1.3895239 -5.9408913
1.0406079 -1.7343458 -6.002655
1.0393595 -2.0787179 -6.0528898
1.0381629 -2.4223785 -6.1010318
1.0369732 -2.7652609 -6.1489024
1.0357863 -3.107358 -6.1966605
1.0346506 -3.4488342 -6.2423563
1.0335944 -3.7898467 -6.2848573
1.0325119 -4.1300468 -6.3284101
1.0314358 -4.4695539 -6.3717122
1.0303578 -4.8083363 -6.415082
1.0292702 -5.1463518 -6.4588475
1.0280688 -5.4830332 -6.5071883
1.0268742 -5.8189526 -6.5552578
1.0256823 -6.1540923 -6.6032138
1.0244535 -6.488203 -6.6526566
1.0230335 -6.8202238 -6.7097902
1.0215582 -7.150907 -6.7691526
1.0200872 -7.4806385 -6.8283434
1.0186361 -7.8095422 -6.8867302
1.0170364 -8.1362896 -6.951097
1.0152818 -8.460681 -7.0216985
1.0135061 -8.7837181 -7.0931506
1.0117403 -9.1056623 -7.1641979
1.0099344 -9.426053 -7.2368608
1.0079657 -9.7436676 -7.3160748
1.0058668 -10.058667 -7.4005294
1.0037805 -10.372398 -7.4844751
1.0016989 -10.684788 -7.5682311
0.99957687 -10.995344 -7.6536164
0.99727553 -11.302455 -7.7462139
0.99493605 -11.607587 -7.8403459
0.99260008 -11.9112 -7.9343386
0.990008 -12.210096 -8.03864
1.5215738 2.6627555 -1.9559327
1.5285584 2.2928395 -1.7451541
1.4632198 1.8290244 -3.7169161
1.43915 1.4391503 -4.4432898
1.425616 1.069212 -4.8517122
1.4161379 0.70807093 -5.1377401
1.4095881 0.35239932 -5.3354001
1.4031935 8.5122997e-07 -5.5283728
1.3994091 -0.34985098 -5.6425815
1.3955399 -0.69776976 -5.7593436
1.3926271 -1.0444702 -5.8472404
1.390308 -1.3903061 -5.9172282
1.3880621 -1.7350756 -5.985003
1.3863961 -2.0795934 -6.0352788
1.3847287 -2.4232748 -6.0855966
1.3830706 -2.7661402 -6.135632
1.3814383 -3.1082358 -6.1848946
1.3798909 -3.4497266 -6.2315941
1.3784547 -3.79075 -6.2749319
1.3770108 -4.1310296 -6.3185077
1.3755699 -4.470602 -6.3619876
1.374132 -4.8094602 -6.4053817
1.3726436 -5.1474123 -6.4502983
1.3710412 -5.4841638 -6.4986553
1.3694476 -5.8201509 -6.5467448
1.3678578 -6.1553597 -6.5947213
1.3662665 -6.4897647 -6.6427431
1.3643405 -6.821701 -6.7008638
1.3623726 -7.1524553 -6.7602515
1.3604103 -7.4822559 -6.819468
1.3584538 -7.8111086 -6.878511
1.3562992 -8.1377954 -6.9435334
1.3539224 -8.4620132 -7.0152621
1.351559 -8.7851334 -7.0865788
1.3491988 -9.1070919 -7.157804
1.3468521 -9.4279623 -7.2286272
1.3442158 -9.7455635 -7.3081841
1.3414161 -10.06062 -7.3926697
1.3386282 -10.374368 -7.4768028
1.3358518 -10.686812 -7.5605888
1.3330919 -10.998007 -7.643877
1.3299868 -11.304887 -7.7375798
1.3268812 -11.610211 -7.8312979
1.3237851 -11.914064 -7.9247332
1.3206439 -12.215955 -8.0195265
1.9048796 2.6668327 -1.8856229
1.9126314 2.2951586 -1.6984743
1.8329301 1.8329314 -3.6226358
1.8020512 1.4416409 -4.3681169
1.783803 1.0702816 -4.8086686
1.7719032 0.70876193 -5.0959558
1.7636575 0.3527326 -5.2950268
1.7555162 1.7763087e-06 -5.4915752
1.7503737 -0.35007474 -5.6157231
1.7456971 -0.69827902 -5.7286248
1.7417202 -1.0450313 -5.8246355
1.7388594 -1.3910874 -5.8937025
1.7360079 -1.7360066 -5.9625468
1.7339231 -2.0807061 -6.0128765
1.7318639 -2.4246097 -6.0625906
1.7298026 -2.767683 -6.1123548
1.727753 -3.1099541 -6.1618323
1.7258098 -3.4516189 -6.208746
1.7239453 -3.7926793 -6.2537632
1.7221587 -4.1331806 -6.2968936
1.7203827 -4.4729939 -6.3397727
1.71861 -4.8121061 -6.3825641
1.7167543 -5.1502619 -6.4273667
1.7147089 -5.4870667 -6.4767475
1.7127416 -5.8233209 -6.5242424
1.7107722 -6.1587772 -6.5717902
1.7088072 -6.4934659 -6.6192279
1.7063904 -6.825561 -6.6775708
1.7039475 -7.1565781 -6.7365489
1.7015116 -7.4866509 -6.7953558
1.6990893 -7.8158097 -6.853838
1.6964712 -8.1430607 -6.9170461
1.6934702 -8.46735 -6.9894943
1.6905189 -8.7906961 -7.0607467
1.6875843 -9.1129551 -7.1315932
1.6846534 -9.4340572 -7.2023511
1.6814373 -9.7523355 -7.2799954
1.6779265 -10.067558 -7.3647523
1.6744494 -10.381586 -7.4486947
1.6709869 -10.694315 -7.5322914
1.6675384 -11.005754 -7.61554
1.6635951 -11.312447 -7.710743
1.6596955 -11.617867 -7.8048902
1.6558203 -11.921905 -7.8984475
1.6516656 -12.222324 -7.9987478
2.2898271 2.6714659 -1.8057156
2.2970731 2.2970738 -1.6599388
2.2073159 1.8394314 -3.4657168
2.1666994 1.4444685 -4.282856
2.1428549 1.07143 -4.7625694
2.1286049 0.70953643 -5.0492625
2.119045 0.35317498 -5.2415853
2.1097312 1.5136962e-06 -5.4289718
2.1027634 -0.35046026 -5.5691471
2.0972974 -0.69909841 -5.6791158
2.0918596 -1.045929 -5.7885175
2.0884621 -1.3923068 -5.8568735
2.0850422 -1.7375339 -5.9256725
2.0822737 -2.0822716 -5.9813724
2.0797906 -2.4264214 -6.0313268
2.0773952 -2.76986 -6.0795193
2.0750704 -3.1126044 -6.1262918
2.0727589 -3.4545975 -6.1727953
2.0704446 -3.7958138 -6.2193565
2.0681434 -4.1362858 -6.2656527
2.0660088 -4.4763513 -6.3085985
2.0638788 -4.8157153 -6.3514524
2.0617528 -5.1543822 -6.394218
2.0592222 -5.4912601 -6.4451308
2.0567136 -5.8273544 -6.4955997
2.054347 -6.1630402 -6.5432096
2.0519857 -6.4979558 -6.5907121
2.0492885 -6.8309622 -6.6449823
2.0461464 -7.1615119 -6.7081962
2.0431719 -7.4916296 -6.7680392
2.040261 -7.8209996 -6.8265986
2.0372801 -8.1491184 -6.8865733
2.0336347 -8.4734755 -6.9599156
2.0300174 -8.7967424 -7.0326819
2.0264835 -9.1191759 -7.1037831
2.0229616 -9.440486 -7.1746383
2.019228 -9.7596016 -7.2497497
2.0149784 -10.074892 -7.3352494
2.0107613 -10.388934 -7.4200845
2.006608 -10.701909 -7.5036469
2.0024641 -11.013551 -7.5870166
1.9977859 -11.320786 -7.6811347
1.9929639 -11.625623 -7.7781434
1.9882998 -11.929798 -7.8719773
1.9832335 -12.229939 -7.9739079
2.677649 2.6776507 -1.6990778
2.6834881 2.300133 -1.5983882
2.584399 1.8460004 -3.307117
2.5330815 1.4474765 -4.1920538
2.5048118 1.0734911 -4.6795502
2.4869785 0.710567 -4.9870739
2.4756045 0.35365763 -5.1832123
2.464994 8.7655957e-07 -5.3661819
2.4557257 -0.35081685 -5.5260124
2.4494426 -0.69984043 -5.6343589
2.4431818 -1.0470773 -5.7423201
2.4386206 -1.3934965 -5.8209763
2.4346626 -1.7390444 -5.8892274
2.4311681 -2.0838573 -5.9494896
2.4284391 -2.4284375 -5.9965534
2.4257255 -2.7722552 -6.0433455
2.4230084 -3.1152961 -6.0901952
2.4202976 -3.4575655 -6.1369448
2.417593 -3.799073 -6.183588
2.4149036 -4.1398349 -6.2299614
2.4122202 -4.4798374 -6.2762341
2.4096651 -4.8193307 -6.3202915
2.4071815 -5.1582441 -6.3631248
2.404412 -5.4957981 -6.410881
2.4013872 -5.8319383 -6.4630432
2.3983979 -6.1673083 -6.5145922
2.3956394 -6.5024509 -6.5621591
2.3927293 -6.8363681 -6.6123438
2.3890579 -7.1671715 -6.6756563
2.3853884 -7.496932 -6.7389374
2.3818772 -7.8261671 -6.7994823
2.3784864 -8.15481 -6.8579516
2.3743279 -8.4797411 -6.9296646
2.3700926 -8.8032007 -7.002696
2.3658638 -9.125473 -7.0756245
2.3617401 -9.4469604 -7.1467314
2.3575137 -9.7668428 -7.2196126
2.3525481 -10.082349 -7.3052416
2.3476033 -10.396528 -7.390512
2.3426974 -10.709472 -7.4751167
2.3378561 -11.02132 -7.5586004
2.3324609 -11.329093 -7.6516385
2.3268356 -11.634178 -7.7486367
2.3212292 -11.937749 -7.8453207
2.3157537 -12.240412 -7.9397383
3.0680053 2.6845059 -1.5808586
3.0720448 2.3040345 -1.5199056
2.9662442 1.8539041 -3.1163166
2.9028099 1.4514067 -4.0734663
2.8687258 1.0757734 -4.5877528
2.8474758 0.71186936 -4.9083905
2.8332098 0.35415363 -5.1236501
2.8212981 1.1663582e-06 -5.3033781
2.8101475 -0.35126671 -5.4716301
2.8030713 -0.70076621 -5.5784054
2.7959747 -1.04849 -5.6854782
2.7901292 -1.3950644 -5.7736835
2.7856727 -1.7410438 -5.8409276
2.7813513 -2.0860133 -5.9061303
2.7779851 -2.4307351 -5.9569273
2.7746484 -2.7746465 -6.0072718
2.7715378 -3.1179795 -6.054204
2.7684345 -3.460541 -6.1010323
2.7653379 -3.8023398 -6.1477537
2.7622592 -4.1433878 -6.1942105
2.7591872 -4.4836779 -6.2405629
2.7561221 -4.8232131 -6.286809
2.7531176 -5.1620946 -6.3321443
2.7501733 -5.5003457 -6.3765707
2.7467108 -5.8367577 -6.4288211
2.7432671 -6.1723504 -6.4807782
2.7398219 -6.5070772 -6.532764
2.7366188 -6.8415465 -6.5810919
2.732501 -7.1728153 -6.6432223
2.7283113 -7.5028548 -6.7064452
2.7241237 -7.8318548 -6.769629
2.7200646 -8.1601934 -6.8308768
2.7155359 -8.4860497 -6.8992081
2.7106781 -8.8097029 -6.9725065
2.7058377 -9.1322002 -7.0455432
2.7010148 -9.4535503 -7.118319
2.6962912 -9.7740536 -7.1895905
2.6906285 -10.089856 -7.275034
2.6849689 -10.404254 -7.3604302
2.6793332 -10.717331 -7.4454684
2.6737313 -11.02914 -7.529994
2.6676373 -11.337458 -7.621943
2.6612394 -11.642922 -7.7184787
2.6552625 -11.948681 -7.8086638
2.6489935 -12.251595 -7.9032555
3.4621184 2.69276 -1.4385209
3.4625719 2.3083827 -1.4324353
3.3480039 1.8600029 -2.9690545
3.2741182 1.4551641 -3.9600341
3.2340183 1.0780071 -4.4978638
3.2098312 0.71329671 -4.8222723
3.1928942 0.35476619 -5.0494332
3.1798682 7.6737535e-08 -5.2241411
3.1668975 -0.35187688 -5.3981075
3.1579778 -0.7017718 -5.5177464
3.150084 -1.050028 -5.6236162
3.1425912 -1.3967066 -5.7241144
3.1376405 -1.7431333 -5.7905159
3.1326432 -2.0884295 -5.8575368
3.1286497 -2.4333916 -5.9111023
3.1248634 -2.7776549 -5.9618864
3.1210861 -3.1210847 -6.0125461
3.1173303 -3.4636996 -6.0629196
3.1136935 -3.805625 -6.1116953
3.1102118 -4.1469474 -6.1583972
3.10675 -4.4875278 -6.2048268
3.1032958 -4.8273473 -6.2511549
3.0998495 -5.1664147 -6.2973824
3.0964105 -5.5047278 -6.3435035
3.0926051 -5.8415871 -6.3945427
3.0887492 -6.1774979 -6.4462614
3.0849385 -6.5126481 -6.4973679
3.0811374 -6.8469715 -6.5483494
3.0767124 -7.1789961 -6.607697
3.0720384 -7.5094261 -6.6703882
3.0673666 -7.8388257 -6.7330465
3.0627091 -8.167223 -6.795516
3.0576882 -8.493578 -6.8628592
3.0522606 -8.8176403 -6.9356556
3.0468524 -9.1405554 -7.0081954
3.0414629 -9.462328 -7.0804772
3.0360811 -9.7829256 -7.1526599
3.0299537 -10.099845 -7.2348418
3.0236318 -10.414731 -7.3196344
3.0173247 -10.728265 -7.4042258
3.0110552 -11.040535 -7.4883127
3.0042768 -11.349488 -7.5792294
2.9975059 -11.656966 -7.6700425
2.9907544 -11.963017 -7.7605953
2.9833591 -12.264919 -7.8597827
3.8639948 2.7047985 -1.2309386
3.857429 2.3144581 -1.3101952
3.7359097 1.8679554 -2.777065
3.6491683 1.4596695 -3.8241251
3.6010671 1.0803208 -4.4047594
3.5732362 0.71464956 -4.7407074
3.5537009 0.35537112 -4.9765186
3.5394201 1.8370971e-06 -5.1489043
3.5252538 -0.35252404 -5.3199053
3.514086 -0.70281678 -5.45471
3.5053589 -1.0516058 -5.5600557
3.4966614 -1.3986628 -5.6650462
3.4907577 -1.7453773 -5.73631
3.4852877 -2.091171 -5.8023376
3.480536 -2.4363735 -5.8596969
3.4764011 -2.7811184 -5.9096107
3.4722757 -3.125047 -5.9594064
3.4681602 -3.4681602 -6.0090847
3.4641089 -3.810519 -6.0579858
3.4600809 -4.1520953 -6.1066117
3.4561028 -4.4929323 -6.1546307
3.4523637 -4.8333073 -6.1997657
3.4486332 -5.1729488 -6.2447982
3.4449236 -5.5118766 -6.2895761
3.4407248 -5.8492312 -6.3402596
3.4363756 -6.1854753 -6.3927617
3.4321306 -6.5210471 -6.4440002
3.4278963 -6.855792 -6.4951134
3.4231267 -7.1885657 -6.5526857
3.4177206 -7.5189848 -6.6179457
3.4125164 -7.8487873 -6.6807642
3.4073284 -8.1775856 -6.7433929
3.4019325 -8.5048313 -6.8085246
3.3957679 -8.8289957 -6.8829379
3.3897431 -9.1523056 -6.9556642
3.3837395 -9.4744711 -7.0281315
3.3777573 -9.795496 -7.1003423
3.3711381 -10.113413 -7.1802459
3.3641591 -10.428892 -7.2644901
3.3571322 -10.742824 -7.3493104
3.3501472 -11.055486 -7.4336252
3.342684 -11.365125 -7.5237184
3.3345971 -11.67109 -7.6213322
3.3270648 -11.977432 -7.7122598
3.3190782 -12.280588 -7.8086653
4.2671866 2.7154837 -1.0466647
4.2558837 2.3213911 -1.1706988
4.1496139 1.8861904 -2.3368754
4.0268316 1.4643042 -3.6842506
3.9717126 1.0831964 -4.2891102
3.9393976 0.71625507 -4.6437201
3.917084 0.35609862 -4.888586
3.9014678 -1.7088786e-07 -5.0599527
3.8860381 -0.35327628 -5.2292724
3.8722925 -0.70405334 -5.3801131
3.8629978 -1.0535443 -5.48211
3.8534105 -1.4012377 -5.5873208
3.8458388 -1.7481074 -5.6704073
3.8398943 -2.094487 -5.7356424
3.8342109 -2.4399509 -5.7980118
3.829649 -2.7851973 -5.8480716
3.8250978 -3.1296248 -5.8980112
3.8207235 -3.4733837 -5.9460192
3.8163438 -3.8163424 -5.9940791
3.8119743 -4.1585174 -6.0420275
3.8072705 -4.4995003 -6.0936437
3.8026831 -4.839777 -6.1439886
3.798568 -5.179863 -6.1891451
3.7944622 -5.5192151 -6.2342033
3.7901869 -5.8575606 -6.281117
3.7850635 -6.1937389 -6.3373384
3.7802193 -6.5294695 -6.3904953
3.7755497 -6.8646359 -6.4417405
3.7706714 -7.1985521 -6.4952769
3.7645323 -7.5290647 -6.5626416
3.7585592 -7.8588047 -6.6281877
3.7528374 -8.1880074 -6.6909776
3.7471189 -8.5161772 -6.7537327
3.7403054 -8.8407221 -6.8285007
3.733531 -9.1641207 -6.9028401
3.7268958 -9.4866428 -6.9756527
3.7202985 -9.8080587 -7.0480514
3.7131691 -10.126823 -7.1262851
3.7055428 -10.442894 -7.2099719
3.6978631 -10.75742 -7.2942486
3.6901591 -11.070476 -7.3787942
3.6820531 -11.38089 -7.4677453
3.6731188 -11.687195 -7.5657864
3.6642418 -11.992064 -7.6631975
3.6558905 -12.297085 -7.7548451
4.6598744 2.3299379 -0.9987675
4.5759268 1.9066368 -1.8432117
4.4063129 1.4687705 -3.5493956
4.347105 1.0867779 -4.1449847
4.3092642 0.71821177 -4.5256286
4.2840252 0.35700333 -4.7795191
4.265439 2.4015785e-06 -4.9664783
4.2484312 -0.35403347 -5.137569
4.2316594 -0.70527536 -5.3062754
4.2214341 -1.0553584 -5.4091358
4.2113085 -1.4037682 -5.510993
4.2019153 -1.7507976 -5.605474
4.1954775 -2.0977385 -5.6702394
4.1890421 -2.4436066 -5.734972
4.1840506 -2.7893667 -5.7851849
4.1792359 -3.1344259 -5.8336148
4.1744328 -3.4786928 -5.8819323
4.1696568 -3.8221838 -5.9299746
4.1648755 -4.164875 -5.9780688
4.1598759 -4.5065317 -6.0283608
4.1546922 -4.8471413 -6.0805058
4.1495051 -5.1868792 -6.1326847
4.1449485 -5.5265975 -6.1785197
4.1404672 -5.8656611 -6.2235994
4.1350408 -6.2025595 -6.2781882
4.1294503 -6.5382962 -6.3344173
4.1241012 -6.8735013 -6.3882303
4.1190062 -7.2082596 -6.4394808
4.1124668 -7.5395217 -6.5052571
4.1057734 -7.8693976 -6.5725927
4.0992126 -8.1984243 -6.638586
4.0929742 -8.5270281 -6.7013431
4.0857749 -8.8525114 -6.7737608
4.0783648 -9.1763191 -6.8482995
4.0709662 -9.4989214 -6.9227238
4.0637193 -9.820653 -6.995625
4.0561085 -10.140271 -7.0721788
4.0477672 -10.456731 -7.1560884
4.0394444 -10.77185 -7.2398129
4.0310941 -11.085507 -7.3238106
4.0223494 -11.396656 -7.4117727
4.0125914 -11.703392 -7.5099292
4.0031838 -12.009551 -7.6045628
3.9941068 -12.315162 -7.6958694
5.0684428 2.3392823 -0.8107757
4.8034239 1.477978 -3.2715945
4.7281885 1.0911216 -3.9701898
4.6827269 0.72042078 -4.3923154
4.6529088 0.35791695 -4.6691947
4.6311154 8.0823219e-07 -4.8715496
4.6126275 -0.35481682 -5.0432215
4.5953555 -0.70697618 -5.2036009
4.58283 -1.057575 -5.3199058
4.5719419 -1.40675 -5.4210057
4.5611057 -1.7542707 -5.521625
4.5537043 -2.1017077 -5.5903473
4.546833 -2.4482944 -5.6541519
4.5405946 -2.7942114 -5.712081
4.5347495 -3.1394413 -5.7663488
4.529243 -3.4840324 -5.8174825
4.5240355 -3.8280301 -5.8658376
4.5188575 -4.1712513 -5.9139175
4.5135851 -4.5135827 -5.9628773
4.5079517 -4.8547173 -6.0151825
4.502315 -5.1949763 -6.0675235
4.4967093 -5.534411 -6.1195683
4.4915061 -5.8735065 -6.1678867
4.4860153 -6.2114058 -6.2188673
4.4799428 -6.5476074 -6.275259
4.473886 -6.8829007 -6.3314977
4.4680204 -7.2175708 -6.385962
4.4613528 -7.5499811 -6.4478745
4.4540982 -7.8803272 -6.515234
4.4468503 -8.209568 -6.5825362
4.439712 -8.5379057 -6.648819
4.4321671 -8.8643341 -6.7188721
4.4241185 -9.1885519 -6.793611
4.4160814 -9.5115604 -6.8682337
4.4080911 -9.8334322 -6.9424329
4.3999605 -10.153753 -7.01793
4.3908992 -10.470606 -7.1020641
4.3818588 -10.786115 -7.186007
4.3728724 -11.100367 -7.2694535
4.3636065 -11.412508 -7.3554893
4.3536844 -11.721457 -7.4476204
4.344121 -12.029871 -7.5364232
4.3342872 -12.336047 -7.6277332
5.4831285 2.3499134 -0.59689659
5.2040939 1.486884 -3.0027893
5.1119699 1.0954238 -3.7970986
5.0591168 0.72273302 -4.252811
5.0248117 0.35891661 -4.5485954
4.9995894 9.0111695e-07 -4.7660661
4.9807682 -0.35576868 -4.9283485
4.9620476 -0.7088626 -5.0897589
4.9463029 -1.0599196 -5.2255111
4.9349403 -1.4099822 -5.323483
4.9234529 -1.7583736 -5.4225316
4.9139371 -2.1059711 -5.50458
4.9064283 -2.4532154 -5.569315
4.8993134 -2.7996056 -5.6306672
4.8929949 -3.1454966 -5.6851439
4.886693 -3.4904945 -5.7394814
4.8804069 -3.8346059 -5.7936797
4.8741565 -4.1778479 -5.8475714
4.8683257 -4.520586 -5.8978481
4.862298 -4.8622971 -5.949821
4.8562274 -5.2030988 -6.0021601
4.850172 -5.5430551 -6.0543675
4.8441133 -5.8821359 -6.1066108
4.8380122 -6.2203007 -6.1592164
4.8315859 -6.5571504 -6.2146235
4.8251953 -6.8931365 -6.2697229
4.8188028 -7.2282033 -6.324841
4.8118267 -7.5614414 -6.3849916
4.8040657 -7.8923922 -6.4519119
4.7963295 -8.2222776 -6.5186138
4.7886181 -8.5511017 -6.5851035
4.7805424 -8.87815 -6.6547313
4.7719765 -9.2030964 -6.7285891
4.7634416 -9.5268812 -6.8021812
4.7549181 -9.849473 -6.8756671
4.7463894 -10.170834 -6.9492044
4.7366166 -10.488222 -7.0334659
4.7270112 -10.804596 -7.1162872
4.7174268 -11.119648 -7.1989269
4.7077727 -11.433162 -7.2821651
4.6968522 -11.74213 -7.3763242
4.686214 -12.050262 -7.4680529
4.6756587 -12.357098 -7.5590591
5.9072475 2.362901 -0.33562598
5.9429879 1.9809954 -0.048007175
5.6079082 1.4954427 -2.7445223
5.5015612 1.1003122 -3.6003382
5.4377952 0.72504091 -4.1134863
5.3998342 0.35998967 -4.4189725
5.371098 1.3687724e-06 -4.6502228
5.3508673 -0.35672361 -4.8130288
5.3307877 -0.71077007 -4.9746151
5.3117557 -1.0623506 -5.1277728
5.2996531 -1.4132403 -5.2251678
5.2875843 -1.762526 -5.3222914
5.2761602 -2.110462 -5.4142246
5.2681656 -2.4584761 -5.4785609
5.2602158 -2.8054457 -5.5425358
5.2534595 -3.1520741 -5.5969043
5.2468042 -3.4978683 -5.6504636
5.2401447 -3.842772 -5.7040548
5.2335019 -4.1867995 -5.7575083
5.2270832 -4.530138 -5.809164
5.2202058 -4.8721905 -5.8645096
5.2136345 -5.2136321 -5.9173951
5.2073054 -5.5544577 -5.968328
5.2009912 -5.8944569 -6.0191364
5.1947131 -6.2336555 -6.0696588
5.1871667 -6.5704107 -6.1303892
5.1802921 -6.9070554 -6.1857095
5.1734152 -7.2427807 -6.2410522
5.1662946 -7.5772319 -6.2983561
5.1575413 -7.9082294 -6.3687954
5.1492195 -8.2387505 -6.4357657
5.140924 -8.5682058 -6.502521
5.1324759 -8.8962927 -6.5705042
5.1230621 -9.2215109 -6.6462617
