# .PCD v0.7 - Point Cloud Data file format
VERSION 0.7
FIELDS x y z
SIZE 4 4 4
TYPE F F F
COUNT 1 1 1
WIDTH 1504
HEIGHT 1
VIEWPOINT 0 0 0 1 0 0 0
POINTS 1504
DATA ascii
-9.6938267 5.7022514 2.1725588
-9.6793613 5.1243677 2.0698404
-9.6633635 4.5474648 1.9562484
-9.6472387 3.9723899 1.8417549
-9.6311235 3.3992205 1.7273251
-9.6151066 2.82797 1.613595
-9.5991869 2.2586296 1.500559
-9.5816841 1.6908821 1.3762709
-9.5658302 1.1253904 1.2637055
-9.5562286 0.56212854 1.195531
-9.5523586 -1.3576354e-06 1.1680468
-9.5531502 -0.56195152 1.1736656
-9.557065 -1.124362 1.2014668
-9.5625687 -1.6875143 1.2405474
-9.5698442 -2.2517273 1.2922
-9.5774393 -2.8168938 1.3461319
-9.5568447 -3.3730047 1.199903
-9.5523586 -3.9333248 1.1680465
-9.5549974 -4.49647 1.1867827
-9.5653009 -5.0639834 1.2599453
-9.5737724 -5.6316338 1.3200974
-9.5797815 -6.1986837 1.3627647
-9.587348 -6.7675419 1.4164953
-9.5935078 -7.3362136 1.4602342
-9.5962133 -7.9027658 1.4794438
-9.5994091 -8.4700689 1.5021346
-9.6086969 -9.0434799 1.5680823
-9.6166658 -9.6166668 1.6246644
-9.6249161 -10.191088 1.6832482
-9.6344767 -10.767947 1.7511337
-9.6497049 -11.352597 1.8592736
-9.6704321 -11.945829 2.006438
-9.6918354 -12.542377 2.158417
-9.7202024 -13.150864 2.359843
-9.7505684 -13.765512 2.5754595
-9.7858734 -14.390993 2.8261547
-9.8270168 -15.029557 3.1182899
-9.8718853 -15.67888 3.4368911
-9.9184933 -16.336348 3.7678366
-9.9702349 -17.008049 4.1352291
-10.027022 -17.694744 4.5384507
-8.7068739 17.413748 -0.9714129
-8.7106009 16.876787 -0.94329542
-8.8404074 16.575764 0.036022078
-9.1395226 16.565384 2.2926745
-9.371686 16.400454 4.044208
-9.3719559 15.815173 4.0462422
-9.509181 15.452418 5.0815334
-9.3029118 12.210071 3.5253475
-9.292778 11.615972 3.4488926
-9.2826653 11.023166 3.3726029
-9.2708597 10.429717 3.2835312
-9.2590389 9.8377275 3.1943586
-9.2472057 9.2472048 3.1050761
-9.2354021 8.6581879 3.0160236
-9.223628 8.070672 2.9272025
-9.2096262 7.4828196 2.8215666
-9.1957111 6.8967805 2.7165773
-9.1818361 6.312511 2.6119063
-9.168047 5.7300296 2.5078728
-9.1542559 5.1492677 2.4038308
-9.1390953 4.5695462 2.2894509
-9.1239424 3.9917233 2.1751306
-9.108798 3.4157977 2.0608683
-9.0936594 2.8417685 1.9466643
-9.0783615 2.2695882 1.8312516
-9.0610971 1.6989533 1.7009994
-8.8012152 1.1001524 -0.25965625
-8.832613 0.55203533 -0.022778962
-8.8422079 -1.9722168e-06 0.049607884
-8.8345709 -0.55216366 -0.0080131516
-8.8294191 -1.1036799 -0.046874236
-9.0425577 -1.6954803 1.561132
-9.0483809 -2.2620978 1.6050572
-9.0568542 -2.8302674 1.6689878
-9.0269728 -3.3851161 1.4435514
-8.8545923 -3.8738837 0.14304073
-8.8593311 -4.429666 0.1787913
-8.868783 -4.9886899 0.2500979
-8.8807173 -5.5504513 0.34013581
-8.892602 -6.1136675 0.42980379
-8.9054937 -6.6791224 0.52706259
-8.9206619 -7.2480392 0.6414969
-8.9387856 -7.8214383 0.77823138
-8.9568186 -8.3970213 0.91428125
-8.974925 -8.9749269 1.0508771
-8.9968319 -9.5591373 1.2161558
-9.0210533 -10.148686 1.3988911
-9.0469141 -10.743212 1.5939944
-9.0752411 -11.344053 1.807704
-9.105443 -11.950897 2.0355666
-9.1380701 -12.564848 2.2817118
-9.1719208 -13.184638 2.537101
-9.2074995 -13.811251 2.8055198
-9.247468 -14.44917 3.1070592
-9.2884922 -15.0938 3.4165585
-9.3352757 -15.753281 3.7695186
-9.3800564 -16.4151 4.1073575
-9.4323215 -17.096085 4.5016675
-9.4883051 -17.790573 4.9240336
-7.9858317 17.56883 -2.3946929
-7.9875379 17.040081 -2.3809569
-8.0119982 16.55813 -2.1841164
-8.2826347 16.565269 -0.0062069194
-8.8277121 16.478394 4.3802414
-8.8283081 15.890952 4.3850374
-8.9166374 15.455503 5.0958548
-8.6370783 5.7580514 2.846144
-8.6240644 5.174439 2.7414052
-8.6097116 4.5918441 2.6259081
-8.5953264 4.0111513 2.5101464
-8.5809488 3.4323788 2.3944449
-8.5666199 2.8555393 2.2791317
-8.5523376 2.2806234 2.164201
-8.5351992 1.707038 2.026278
-8.011858 1.0682449 -2.1852424
-8.0384436 0.53589338 -1.9712999
-8.0413027 -1.3092042e-06 -1.9482975
-8.0354452 -0.53569674 -1.9954278
-8.0369625 -1.0715957 -1.9832245
-8.1001644 -1.620034 -1.4746132
-8.523838 -2.2730238 1.9348485
-8.5309448 -2.8436501 1.9920475
-8.4995098 -3.3998055 1.7390712
-8.304945 -3.8756418 0.17333348
-8.30231 -4.4279013 0.15212791
-8.3159943 -4.9895978 0.26225346
-8.3301029 -5.5534029 0.37579101
-8.3460464 -6.1204343 0.50409472
-8.3643045 -6.6914449 0.65102762
-8.3829508 -7.2652264 0.80107355
-8.4011774 -7.8411002 0.94775802
-8.4199877 -8.4199905 1.0991337
-8.4418783 -9.0046721 1.275287
-8.4647818 -9.593421 1.4596004
-8.4886761 -10.186412 1.6518843
-8.5142879 -10.784765 1.8579971
-8.5412102 -11.388282 2.0746512
-8.5703077 -11.998433 2.3088102
-8.6014624 -12.615478 2.5595245
-8.6336174 -13.238215 2.8182931
-8.6688442 -13.870152 3.1017766
-8.7064705 -14.510787 3.4045675
-8.7465544 -15.160696 3.7271345
-8.7927046 -15.82687 4.0985227
-8.836359 -16.494537 4.4498215
-8.8888102 -17.185036 4.8719211
-7.2954345 17.196383 -3.7570674
-7.2954345 16.67528 -3.7570665
-7.4807124 16.564434 -2.1595688
-8.2785835 16.557169 4.7198286
-8.2793055 15.96723 4.7260556
-8.3255186 15.461679 5.1245141
-7.2810469 1.0401471 -3.8811245
-7.3029461 0.5216397 -3.692301
-7.3029461 -2.3004413e-06 -3.6923003
-7.3028841 -0.52163583 -3.692836
-7.2988615 -1.0426962 -3.7275236
-7.3210568 -1.5687997 -3.53615
-8.0965939 -2.8916414 3.1506815
-7.9568415 -3.4100752 1.945708
-7.78723 -3.8936148 0.48328927
-7.7856345 -4.4489369 0.46952868
-7.7978525 -5.0129061 0.57487637
-7.8085032 -5.5775051 0.66671193
-7.823514 -6.1470499 0.79613411
-7.8413153 -6.7211289 0.94962114
-7.8563075 -7.295146 1.0788891
-7.872808 -7.8728104 1.2211558
-7.8904338 -8.4540377 1.3731306
-7.9094925 -9.0394201 1.5374573
-7.9309611 -9.630456 1.7225668
-7.9538426 -10.226372 1.9198512
-7.9775629 -10.826693 2.1243725
-8.0029993 -11.432857 2.3436863
-8.0312757 -12.046914 2.5874946
-8.0605135 -12.666523 2.8395867
-8.0909595 -13.292293 3.1021068
-8.1256151 -13.929626 3.4008996
-8.1608 -14.572861 3.7042866
-8.2014446 -15.231255 4.0547247
-8.2449207 -15.90092 4.4295874
-8.2899466 -16.579893 4.8177981
-8.3416491 -17.279129 5.263587
-6.6323438 17.346127 -5.0754924
-6.6323438 16.835949 -5.0754914
-6.7225142 16.547726 -4.2382174
-6.9452515 16.561752 -2.1700101
-7.7248564 16.043932 5.0689669
-7.7323456 15.464691 5.1385021
-6.5959072 1.0147541 -5.4138212
-6.6179914 0.50907469 -5.2087598
-6.6179914 -6.7409411e-07 -5.2087603
-6.6179638 -0.50907636 -5.2090135
-6.6151781 -1.0177212 -5.2348833
-6.6179914 -1.5272312 -5.2087584
-7.5411267 -2.900435 3.3629577
-7.4189553 -3.4241354 2.228543
-7.2649574 -3.9119017 0.79860318
-7.2639599 -4.4701309 0.78934234
-7.2735133 -5.0355105 0.87804896
-7.283092 -5.6023808 0.96699125
-7.2965517 -6.1740069 1.0919691
-7.3123507 -6.7498636 1.2386706
-7.3253098 -7.3253126 1.359002
-7.3401809 -7.9048104 1.4970888
-7.3566136 -8.4884033 1.6496696
-7.373085 -9.0745659 1.8026137
-7.3930383 -9.6678209 1.9878902
-7.414762 -10.266593 2.1896014
-7.4367881 -10.869152 2.3941243
-7.4607334 -11.478052 2.6164634
-7.4879045 -12.095849 2.8687687
-7.5152397 -12.718101 3.1225877
-7.5452495 -13.349288 3.4012339
-7.5777054 -13.989612 3.702605
-7.6109161 -14.636379 4.0109859
-7.6514959 -15.302994 4.3877778
-7.6925464 -15.97683 4.7689571
-7.7396603 -16.670038 5.2064204
-7.789341 -17.376225 5.6677337
-5.9972639 17.49202 -6.3318815
-5.9972639 16.992245 -6.331883
-6.0119801 16.532942 -6.1838493
-6.2076592 16.553757 -4.2154698
-7.1650553 16.121374 5.4151869
-7.1645298 15.523146 5.4099007
-5.9512234 0.99186885 -6.7950196
-5.9652524 0.49710342 -6.6538939
-5.9652524 -3.4400585e-08 -6.6538944
-5.9652524 -0.49710572 -6.6538959
-5.9629459 -0.99382657 -6.6770926
-5.9655681 -1.491392 -6.6507201
-6.9823041 -2.9092956 3.5768607
-6.8766165 -3.438308 2.5137153
-6.7377563 -3.9303606 1.1168942
-6.7357121 -4.4904766 1.0963299
-6.7443933 -5.0582948 1.1836586
-6.7533154 -5.6277647 1.273407
-6.7653527 -6.2015748 1.394493
-6.7778401 -6.7778411 1.5201058
-6.7899017 -7.3557262 1.6414368
-6.8031435 -7.9370008 1.7746401
-6.8184042 -8.5230074 1.9281485
-6.8337331 -9.1116457 2.0823445
-6.8510847 -9.7057037 2.2568884
-6.8714557 -10.307184 2.4618073
-6.8919487 -10.912255 2.6679537
-6.9150109 -11.525022 2.8999419
-6.9407268 -12.146274 3.1586192
-6.9666338 -12.772163 3.4192245
-6.995707 -13.408441 3.7116778
-7.0262027 -14.052407 4.0184417
-7.0594478 -14.707184 4.3528581
-7.0973039 -15.377494 4.7336626
-7.1371326 -16.058548 5.1343069
-7.1816669 -16.757227 5.5822935
-7.2289004 -17.469845 6.0574274
-5.3884439 17.634907 -7.528543
-5.3876872 17.142641 -7.5368466
-5.3876872 16.652849 -7.5368476
-5.5132895 16.539869 -6.1585259
-5.6919942 16.558529 -4.1974773
-6.599823 16.199562 5.7647648
-6.599596 15.599044 5.7622743
-5.3294287 0.96898574 -8.1761618
-5.3526444 0.48660332 -7.921402
-5.3526444 -6.0101678e-07 -7.9214005
-5.3526444 -0.48660636 -7.9214001
-5.3511939 -0.97294581 -7.9373131
-5.3506184 -1.4592593 -7.9436321
-6.4200268 -2.9181945 3.7917371
-6.3280382 -3.4516575 2.7822783
-6.2055278 -3.9489737 1.4378847
-6.2041802 -4.5121307 1.4230978
-6.2117848 -5.0823708 1.5065476
-6.2193789 -5.6539807 1.5898831
-6.2282038 -6.2282062 1.6867319
-6.2395468 -6.8067789 1.8112019
-6.2509017 -7.3874307 1.9358091
-6.2627068 -7.9707193 2.0653548
-6.27702 -8.559577 2.222425
-6.2913985 -9.1511269 2.3802137
-6.3073835 -9.747777 2.555624
-6.3267264 -10.352828 2.7678888
-6.3457389 -10.960822 2.9765191
-6.3668571 -11.576103 3.2082636
-6.3906393 -12.200313 3.4692435
-6.4145689 -12.829141 3.7318432
-6.4417362 -13.469085 4.0299644
-6.4709735 -14.118487 4.3508067
-6.5026488 -14.778748 4.6984038
-6.5384216 -15.454453 5.0909672
-6.5761037 -16.141346 5.5044737
-6.618329 -16.846657 5.9678426
-6.6648021 -17.570843 6.4778237
-4.8022113 17.287958 -8.691884
-4.8019848 16.806946 -8.6946182
-4.8602676 16.524908 -7.9910784
-5.0139751 16.546116 -6.1356668
-6.0290818 16.278521 6.1177497
-6.0290818 15.675611 6.1177516
-4.7465029 0.9492982 -9.3643379
-4.7693834 0.47693726 -9.0881567
-4.7693834 -1.182546e-06 -9.0881519
-4.7693834 -0.47693956 -9.0881538
-4.7685633 -0.95371389 -9.0980501
-4.7642651 -1.4292821 -9.149931
-4.9197059 -1.9678837 -7.273602
-5.8543267 -2.9271655 4.0082736
-5.7749109 -3.4649482 3.0496407
-5.6682601 -3.9677827 1.7622503
-5.6675234 -4.5340199 1.7533584
-5.6738706 -5.1064868 1.8299781
-5.6802063 -5.6802077 1.9064512
-5.6882243 -6.2570486 2.0032406
-5.6986313 -6.8383594 2.1288686
-5.70857 -7.4211435 2.2488341
-5.7190247 -8.0066347 2.375036
-5.7321548 -8.5982342 2.5335264
-5.7451558 -9.1922493 2.6904621
-5.7600899 -9.7921543 2.8707364
-5.7777529 -10.399958 3.0839477
-5.7942047 -11.008989 3.2825363
-5.8138494 -11.627698 3.5196674
-5.8356352 -12.254836 3.7826469
-5.857585 -12.886686 4.0476017
-5.8830433 -13.531002 4.3549128
-5.9109836 -14.186362 4.6921878
-5.9404335 -14.851085 5.0476761
-5.9746485 -15.534086 5.4606829
-6.0094075 -16.225399 5.8802605
-6.0512238 -16.943428 6.3850298
-6.0939603 -17.672487 6.9009118
-4.2396469 17.429659 -9.7962914
-4.23878 16.95512 -9.8079176
-4.2475791 16.518362 -9.6899061
-4.3765931 16.533796 -7.9595337
-5.4527493 16.35825 6.4741964
-5.4527493 15.752387 6.474195
-4.1883879 0.93075269 -10.483798
-4.208858 0.46765113 -10.209245
-4.208858 -2.5565948e-06 -10.209245
-4.208858 -0.46765423 -10.209243
-4.2085357 -0.9352327 -10.213568
-4.2060547 -1.4020187 -10.246842
-4.2550626 -1.8911407 -9.5895338
-5.2851129 -2.9361744 4.2258029
-5.2175078 -3.4783404 3.3190696
-5.1258259 -3.9867561 2.089401
-5.1246543 -4.5552487 2.0736861
-5.1300611 -5.1300616 2.1462092
-5.1358161 -5.7064629 2.2233891
-5.1432195 -6.286159 2.3226922
-5.152432 -6.8699098 2.4462521
-5.1607566 -7.4544291 2.5579004
-5.1704211 -8.0428782 2.6875246
-5.1822228 -8.6370411 2.8458157
-5.1939068 -9.2336159 3.0025241
-5.2077651 -9.8368912 3.1883969
-5.2228646 -10.44573 3.3909101
-5.2378016 -11.057585 3.5912566
-5.2558646 -11.6797 3.8335204
-5.2756481 -12.309848 4.0988626
-5.2955809 -12.944755 4.3662057
-5.3204517 -13.596711 4.6997862
-5.3463902 -14.257044 5.0476775
-5.374711 -14.929752 5.4275231
-5.4061518 -15.617771 5.8492103
-5.4383922 -16.31518 6.2816391
-5.4767466 -17.038767 6.7960534
-5.5178337 -17.779688 7.3471246
-3.6980901 17.565926 -10.859831
-3.6972222 17.099653 -10.872926
-3.6968024 16.635609 -10.879259
-3.7755821 16.518169 -9.6905708
-3.8917308 16.539854 -7.9380159
-4.8707438 16.438761 6.8341484
-4.8707438 15.829918 6.8341517
-4.9497786 15.468056 8.0266886
-3.6557503 0.91393602 -11.498685
-3.6711257 0.45889002 -11.266694
-3.6711257 -7.4898645e-07 -11.266696
-3.6711257 -0.45889249 -11.266691
-3.6711257 -0.91778326 -11.266692
-3.6714015 -1.3767773 -11.262528
-3.6975582 -1.8487796 -10.867859
-4.7124066 -2.9452529 4.4450183
-4.6555576 -3.4916711 3.5872388
-4.5782008 -4.005929 2.4200168
-4.577836 -4.5778389 2.4145126
-4.5819378 -5.1546812 2.4764011
-4.5863695 -5.7329626 2.5432725
-4.5930986 -6.3155122 2.6448066
-4.6005406 -6.9008136 2.7570975
-4.6080065 -7.4880123 2.8697495
-4.6167846 -8.0793753 3.0021958
-4.6272168 -8.676034 3.1596088
-4.6376967 -9.2753944 3.3177402
-4.6499281 -9.8810978 3.5022972
-4.6635818 -10.49306 3.7083149
-4.6773162 -11.108628 3.9155509
-4.6943331 -11.735833 4.1723156
-4.7126336 -12.370665 4.4484525
-4.7311006 -13.010529 4.7270923
-4.7541971 -13.668321 5.0756011
-4.7774978 -14.332496 5.4271731
-4.8034358 -15.010737 5.8185444
-4.8317113 -15.703064 6.2451959
-4.8613138 -16.406935 6.6918616
-4.8969951 -17.139486 7.2302504
-3.1757109 17.239573 -11.896526
-3.1749325 16.781782 -11.909951
-3.2101476 16.509327 -11.302689
-3.3056149 16.528072 -9.6564159
-4.2829809 16.520069 7.1976657
-4.2829809 15.908215 7.1976652
-4.3328128 15.474332 8.0569792
-3.1419017 0.89768612 -12.479551
-3.1582954 0.45118427 -12.196842
-3.1582954 -5.3498184e-08 -12.196844
-3.1582954 -0.4511869 -12.196842
-3.1582954 -0.90237123 -12.196845
-3.1565461 -1.3528074 -12.227014
-3.1725163 -1.8128678 -11.951613
-4.1399136 -2.957083 4.7305489
-4.0882273 -3.5041962 3.8392549
-4.0252647 -4.0252662 2.7534981
-4.0253592 -4.6004114 2.7551351
-4.0290217 -5.1801729 2.8182912
-4.0326529 -5.7609339 2.880903
-4.0378919 -6.3452606 2.9712558
-4.0445995 -6.9336009 3.08692
-4.0513287 -7.5238991 3.2029681
-4.0591216 -8.1182451 3.3373494
-4.0685124 -8.7182446 3.4992907
-4.077908 -9.3209352 3.6613107
-4.0889511 -9.9303112 3.8517349
-4.1010175 -10.545476 4.0598173
-4.1133142 -11.16471 4.2718601
-4.1286936 -11.796269 4.5370746
-4.1448321 -12.434501 4.8153749
-4.1615229 -13.079073 5.1031947
-4.1819468 -13.740684 5.4553924
-4.2025518 -14.40875 5.8107038
-4.2259288 -15.092605 6.2138329
-4.2509627 -15.789292 6.6455269
-4.2781143 -16.501299 7.1137428
-4.310914 -17.243658 7.6793571
-2.6729732 17.374325 -12.883633
-2.672359 16.92494 -12.895992
-2.6765475 16.505375 -12.811719
-2.7519684 16.51181 -11.29437
-3.6893749 15.987288 7.5647926
-3.7152519 15.480221 8.0853996
-2.6494529 8.8315086 -13.356829
-2.649817 8.3910866 -13.349501
-2.6501908 7.9505711 -13.341981
-2.6505551 7.5099058 -13.334648
-2.6507566 7.0686836 -13.330595
-2.6509101 6.6272731 -13.327509
-2.6510634 6.185813 -13.324422
-2.6511595 5.7441773 -13.32249
-2.6510923 5.3021832 -13.323841
-2.6510348 4.860229 -13.324999
-2.6509676 4.4182782 -13.326352
-2.6507375 3.9761038 -13.330982
-2.6504498 3.5339315 -13.336772
-2.6501622 3.0918548 -13.342557
-2.6482267 0.88273919 -13.381491
-2.662394 0.4437305 -13.096465
-2.662394 -1.1281206e-06 -13.096465
-2.662394 -0.44373438 -13.096467
-2.662394 -0.8874656 -13.096467
-2.6621428 -1.3310722 -13.101529
-2.6730025 -1.782004 -12.883043
-3.5663075 -2.9719241 5.0888691
-3.5168116 -3.5168121 4.0930862
-3.46698 -4.0448122 3.0905492
-3.4672425 -4.6229925 3.0958321
-3.4703798 -5.2055688 3.158947
-3.4735227 -5.7892075 3.2221813
-3.4781899 -6.3766828 3.3160789
-3.4839962 -6.9679947 3.4328914
-3.4894893 -7.5605602 3.5434015
-3.4964175 -8.158309 3.6827896
-3.5045466 -8.7613678 3.8463359
-3.5126128 -9.3669691 4.0086126
-3.5223413 -9.9799681 4.2043319
-3.5328901 -10.598674 4.4165602
-3.5435882 -11.221364 4.6317844
-3.5571816 -11.857275 4.9052658
-3.5711408 -12.498994 5.1861014
-3.585912 -13.148346 5.4832773
-3.6036046 -13.813819 5.8392243
-3.6215799 -14.48632 6.2008615
-3.6427402 -15.178085 6.6265736
-3.664974 -15.881557 7.0738816
-3.6898766 -16.604446 7.5748892
-3.7179675 -17.350515 8.1400251
-2.1763146 20.892618 -14.118821
-2.1763842 20.458012 -14.117134
-2.1764464 20.023304 -14.11564
-2.1764619 19.588154 -14.115263
-2.1763377 19.151772 -14.118259
-2.1762135 18.715435 -14.121256
-2.1760895 18.27915 -14.124254
-2.1762524 17.845268 -14.12032
-2.1764929 17.411942 -14.114514
-2.1767492 16.978642 -14.10833
-2.1769664 16.544945 -14.103083
-2.1770363 16.110067 -14.101397
-2.1771061 15.675162 -14.099708
-2.1771991 15.240395 -14.097459
-2.1771529 14.804637 -14.098584
-2.1770439 14.368488 -14.101209
-2.1769509 13.932484 -14.103457
-2.1768422 13.496422 -14.106083
-2.1765473 13.059281 -14.113202
-2.1763921 12.623074 -14.116949
-2.176687 12.189447 -14.10983
-2.1768732 11.755115 -14.105332
-2.1769819 11.320305 -14.102708
-2.1767335 10.883667 -14.108705
-2.1763532 10.446494 -14.117887
-2.1762679 10.01083 -14.119945
-2.1763532 9.5759544 -14.117886
-2.1768577 9.1428013 -14.105706
-2.1772614 8.7090435 -14.095961
-2.1775565 8.2747154 -14.088837
-2.1775022 7.8390055 -14.090148
-2.1772926 7.4027944 -14.09521
-2.1774168 6.967732 -14.092211
-2.1775644 6.5326934 -14.088648
-2.1776807 6.0975046 -14.085834
-2.1777353 5.6621094 -14.084522
-2.1776886 5.2264509 -14.085649
-2.1776421 4.7908101 -14.086774
-2.1776032 4.3552036 -14.08771
-2.1775177 3.9195302 -14.089772
-2.1774168 3.4838669 -14.09221
-2.1773157 3.0482409 -14.094648
-2.1772149 2.6126571 -14.097086
-2.1771216 2.1771197 -14.099334
-2.1770208 1.7416157 -14.101771
-2.1769354 1.3061604 -14.103834
-2.1691692 0.86766684 -14.291324
-2.1826172 0.43652204 -13.966661
-2.1826172 -7.2829226e-07 -13.966662
-2.1826172 -0.4365235 -13.966664
-2.1826172 -0.87304884 -13.96666
-2.1824219 -1.3094552 -13.971374
-2.1925886 -1.7540715 -13.725932
-2.9869149 -2.9869146 5.4508028
-2.9423723 -3.530849 4.3754497
-2.9032471 -4.0645471 3.4308882
-2.9035923 -4.6457481 3.4392219
-2.9062326 -5.2312217 3.502965
-2.9088778 -5.8177581 3.5668209
-2.9129167 -6.4084187 3.6643331
-2.9175806 -7.0021944 3.7769206
-2.9221611 -7.5976195 3.8875105
-2.9281461 -8.1988115 4.0320024
-2.9349174 -8.8047533 4.1954722
-2.94172 -9.4135046 4.359704
-2.9500933 -10.030318 4.5618501
-2.9590445 -10.652564 4.7779589
-2.9680507 -11.278593 4.995379
-2.9799311 -11.919725 5.2821975
-2.9920385 -12.566562 5.5745015
-3.0050883 -13.222389 5.8895445
-3.0204024 -13.893854 6.259264
-3.0357225 -14.571469 6.6291213
-3.0539463 -15.269733 7.0690856
-3.0728233 -15.978682 7.5248141
-3.0945053 -16.710331 8.0482731
-3.1171961 -17.456299 8.5960655
-1.7165674 21.45709 -14.857698
-1.716121 21.022484 -14.871169
-1.7161692 20.59403 -14.869713
-1.7162175 20.165554 -14.868255
-1.7162719 19.737123 -14.866621
-1.7161933 19.307173 -14.868984
-1.7161089 18.877199 -14.871533
-1.7160186 18.447199 -14.874262
-1.7160125 18.018131 -14.874443
-1.7162114 17.591166 -14.868437
-1.7164105 17.164106 -14.862432
-1.7166096 16.736942 -14.856422
-1.7167122 16.308764 -14.85333
-1.7167847 15.880257 -14.851142
-1.716857 15.451712 -14.848958
-1.7169052 15.022921 -14.847502
-1.716839 14.59313 -14.849504
-1.7167786 14.163423 -14.851325
-1.7167182 13.733746 -14.853146
-1.7167604 13.304891 -14.85187
-1.7169899 12.877423 -14.84495
-1.7172132 12.449794 -14.838208
-1.7174426 12.022099 -14.831284
-1.7172253 11.591269 -14.837845
-1.7169235 11.16 -14.846952
-1.7166218 10.728885 -14.856058
-1.7165372 10.299222 -14.858608
-1.7169235 9.8723087 -14.846955
-1.7173158 9.4452353 -14.835112
-1.7177085 9.0179682 -14.823263
-1.7177327 8.5886631 -14.822533
-1.7175696 8.158453 -14.827456
-1.7174064 7.7283278 -14.832376
-1.7172736 7.2984128 -14.836387
-1.7173944 6.8695774 -14.832742
-1.7175092 6.4406571 -14.829278
-1.7176239 6.0116816 -14.825815
-1.7176541 5.5823741 -14.824903
-1.7176239 5.1528702 -14.825814
-1.7175996 4.7233982 -14.826543
-1.7175696 4.2939224 -14.827455
-1.717491 3.8643539 -14.829824
-1.7173581 3.4347157 -14.833835
-1.7172011 3.0050995 -14.838573
-1.7170382 2.5755548 -14.843491
-1.717014 2.1462655 -14.84422
-1.7171106 1.7171091 -14.841307
-1.7172011 1.2879004 -14.838573
-1.7087535 0.85437548 -15.093499
-1.7181799 0.42954272 -14.809038
-1.7181799 -9.3532458e-07 -14.809038
-1.7181799 -0.42954805 -14.809038
-1.7181799 -0.85909069 -14.809039
-1.7181556 -1.2886194 -14.809766
-1.722367 -1.7223701 -14.682678
-2.4016588 -3.0020733 5.8167629
-2.3637183 -3.545579 4.6718121
-2.3339751 -4.0844588 3.7742324
-2.3346558 -4.669311 3.7947679
-2.3366439 -5.2574496 3.8547714
-2.3386357 -5.8465915 3.914875
-2.3418429 -6.4400687 4.0116615
-2.3455546 -7.036665 4.1236696
-2.3493233 -7.6353002 4.2373962
-2.3543971 -8.2403908 4.3905158
-2.3600175 -8.8500662 4.5601282
-2.3656533 -9.462616 4.730206
-2.3727679 -10.084264 4.9448996
-2.3801687 -10.710762 5.1682477
-2.3880131 -11.343061 5.4049664
-2.3977206 -11.988603 5.6979179
-2.4074242 -12.638979 5.9907551
-2.4182601 -13.300434 6.3177571
-2.4305844 -13.97586 6.6896691
-2.4429982 -14.657989 7.0642896
-2.4580607 -15.362883 7.5188441
-2.4733977 -16.077085 7.981678
-2.4908824 -16.813456 8.5093222
-2.5090282 -17.563198 9.0569248
-1.2808213 21.347021 -15.123431
-1.2817087 20.934576 -15.087726
-1.2825749 20.521198 -15.052874
-1.2834377 20.107191 -15.018154
-1.2843063 19.692694 -14.983207
-1.2851218 19.276827 -14.950392
-1.2858933 18.859766 -14.919349
-1.2866658 18.442209 -14.888268
-1.2873849 18.023386 -14.859339
-1.2879778 17.602362 -14.835475
-1.2885532 17.18071 -14.812321
-1.2891337 16.758739 -14.788965
-1.2896421 16.335466 -14.768511
-1.2901237 15.911524 -14.749136
-1.2906054 15.487263 -14.729747
-1.2910831 15.062635 -14.710526
-1.2914428 14.636349 -14.696058
-1.2918253 14.210078 -14.680663
-1.2922081 13.783553 -14.665259
-1.292532 13.35616 -14.652232
-1.2927326 12.927324 -14.644156
-1.292906 12.49809 -14.63718
-1.2930795 12.068742 -14.630202
-1.2932165 11.638947 -14.624691
-1.2934128 11.209576 -14.616789
-1.2936138 10.780115 -14.608702
-1.2937692 10.350152 -14.602451
-1.293728 9.9185801 -14.604104
-1.2935956 9.4863653 -14.609437
-1.293463 9.0542412 -14.614768
-1.2933397 8.6222639 -14.619729
-1.2932165 8.1903687 -14.624689
-1.2930932 7.7585573 -14.629649
-1.2928512 7.3261561 -14.639382
-1.2925638 6.8936715 -14.650947
-1.2922127 6.4610634 -14.665075
-1.2918663 6.0287085 -14.679012
-1.2914292 5.5961905 -14.696608
-1.2908238 5.1632943 -14.720962
-1.2901918 4.730701 -14.746393
-1.2895559 4.2985172 -14.771981
-1.2889931 3.8669784 -14.794621
-1.2885532 3.4361405 -14.812322
-1.288082 3.005523 -14.831285
-1.2875341 2.5750668 -14.853328
-1.2869687 2.1449451 -14.876081
-1.2861824 1.7149087 -14.907721
-1.2853969 1.2853959 -14.939322
-1.2803019 0.85353363 -15.14433
-1.2839866 0.42799354 -14.996068
-1.2839822 -7.3247656e-07 -14.99625
-1.2839822 -0.42799589 -14.99625
-1.2839866 -0.85599351 -14.996067
-1.2839866 -1.2839892 -14.996067
-1.2853789 -1.7138413 -14.940045
-1.4724112 -2.45402 -7.4144454
-1.7792993 -3.558599 4.9337716
-1.7587521 -4.1037564 4.1070175
-1.7600112 -4.6933637 4.1576805
-1.7615516 -5.284658 4.2196674
-1.7631203 -5.877069 4.2827845
-1.765619 -6.4739366 4.3833241
-1.7684749 -7.0739002 4.4982305
-1.7714856 -7.6764388 4.6193743
-1.7754698 -8.2855263 4.7796874
-1.7797229 -8.8986158 4.9508157
-1.7839789 -9.514555 5.122066
-1.7894959 -10.14048 5.344058
-1.7952143 -10.771287 5.5741477
-1.8013769 -11.408722 5.8221092
-1.8087065 -12.058044 6.1170316
-1.8159791 -12.711855 6.4096537
-1.8244547 -13.379336 6.7506838
-1.8337072 -14.058422 7.1229749
-1.8433969 -14.747178 7.5128694
-1.8551047 -15.459207 7.9839478
-1.8667622 -16.178608 8.4530058
-1.8797432 -16.91769 8.9753237
-1.8934149 -17.671873 9.5254316
-0.85800624 21.450155 -14.874442
-0.85864282 21.036747 -14.836023
-0.85920179 20.620842 -14.802287
-0.85977346 20.204679 -14.767778
-0.86035514 19.788168 -14.732674
-0.86091936 19.370684 -14.698624
-0.86147821 18.952518 -14.664893
-0.86200434 18.533092 -14.63314
-0.86251277 18.112768 -14.602452
-0.8629182 17.689821 -14.577985
-0.86332083 17.266417 -14.553679
-0.86370862 16.842319 -14.530272
-0.86406624 16.417257 -14.50869
-0.86438745 15.991165 -14.489307
-0.86470878 15.564757 -14.469907
-0.86503351 15.138084 -14.45031
-0.86528796 14.709893 -14.434955
-0.86552715 14.281198 -14.420516
-0.86578494 13.852557 -14.404957
-0.86601526 13.423235 -14.391058
-0.86617494 12.992623 -14.381417
-0.86631632 12.561585 -14.372886
-0.86643314 12.130062 -14.365837
-0.86653149 11.698174 -14.359899
-0.86661762 11.266027 -14.3547
-0.86674368 10.834295 -14.347091
-0.86686373 10.402365 -14.339848
-0.86686069 9.9688969 -14.340031
-0.86683297 9.535161 -14.341704
-0.86674678 9.1008415 -14.346904
-0.86666065 8.666605 -14.352104
-0.86657763 8.2324858 -14.357114
-0.866427 7.7978425 -14.366207
-0.86625791 7.3631897 -14.37641
-0.86607671 6.9286113 -14.387351
-0.86588007 6.4940987 -14.399215
-0.86564684 6.0595269 -14.413294
-0.86536151 5.6248493 -14.430513
-0.86500895 5.1900525 -14.451792
-0.86459553 4.7552738 -14.476746
-0.86417019 4.320848 -14.502414
-0.86374527 3.8868544 -14.52806
-0.86331785 3.453269 -14.553864
-0.86289376 3.0201261 -14.579456
-0.86247009 2.5874074 -14.605023
-0.8620469 2.1551149 -14.630569
-0.86169404 1.7233852 -14.651866
-0.86126244 1.2918925 -14.677913
-0.85648048 0.85647768 -14.966533
-0.85915941 0.42957857 -14.804843
-0.85905969 -3.0257609e-06 -14.810863
-0.85900831 -0.42950585 -14.81396
-0.85900831 -0.8590107 -14.813963
-0.85900831 -1.2885157 -14.813961
-0.86012173 -1.7202461 -14.746758
-0.96364498 -2.4091139 -8.4985809
-1.1907053 -3.5721173 5.2057204
-1.1785166 -4.1248107 4.4700723
-1.1794901 -4.7179618 4.5288243
-1.180545 -5.3124518 4.5924916
-1.1816019 -5.9080105 4.6562805
-1.183331 -6.5083218 4.7606492
-1.1853358 -7.1120152 4.8816404
-1.1874223 -7.7182446 5.0075755
-1.1901598 -8.3311195 5.1727982
-1.1930147 -8.9476109 5.3451114
-1.1959187 -9.5673523 5.5203776
-1.1997321 -10.197725 5.7505322
-1.2036409 -10.832769 5.9864545
-1.207904 -11.475088 6.2437515
-1.2127693 -12.127693 6.5373955
-1.2177589 -12.786469 6.8385463
-1.2237579 -13.461341 7.2006269
-1.2302006 -14.147307 7.5894694
-1.2370183 -14.844223 8.0009623
-1.2449459 -15.561824 8.4794283
-1.2524422 -16.281748 8.9318752
-1.2613378 -17.028061 9.4687634
-1.2702546 -17.783567 10.006949
-0.43108889 21.554443 -14.622669
-0.43142706 21.139925 -14.581846
-0.43170926 20.722044 -14.547783
-0.43199185 20.303617 -14.51367
-0.43227479 19.88464 -14.479518
-0.43256274 19.465321 -14.44476
-0.43284491 19.045174 -14.410701
-0.43312588 18.624413 -14.376781
-0.43339953 18.202782 -14.343747
-0.43361041 17.778025 -14.318293
-0.43381381 17.352551 -14.293745
-0.43401891 16.926735 -14.268988
-0.4342072 16.499872 -14.246255
-0.43436787 16.071608 -14.226862
-0.43453017 15.643084 -14.207268
-0.43469262 15.21424 -14.18766
-0.43482885 14.78418 -14.171214
-0.43494967 14.353339 -14.156631
-0.43507209 13.922305 -14.14185
-0.43519461 13.491033 -14.127062
-0.43527532 13.05826 -14.117325
-0.43535447 12.625278 -14.107769
-0.43543056 12.192053 -14.098585
-0.43548027 11.757965 -14.092587
-0.43552375 11.323616 -14.087336
-0.43556723 10.88918 -14.082084
-0.4356294 10.455105 -14.074582
-0.43562785 10.01944 -14.074766
-0.43562475 9.5837431 -14.075143
-0.43561387 9.1478891 -14.076456
-0.43557033 8.7114038 -14.081708
-0.43550044 8.2745085 -14.090149
-0.43541503 7.8374686 -14.100459
-0.4353312 7.400629 -14.110579
-0.43523961 6.9638333 -14.121632
-0.43514654 6.5271978 -14.132865
-0.43504733 6.090661 -14.144844
-0.4349063 5.6537814 -14.161867
-0.43472821 5.2167368 -14.183363
-0.43455184 4.7800684 -14.204656
-0.43434161 4.3434153 -14.230032
-0.43412536 3.9071262 -14.256133
-0.43391091 3.4712875 -14.28202
-0.43369669 3.035876 -14.307881
-0.4334811 2.6008859 -14.333901
-0.4332765 2.1663795 -14.358599
-0.43309361 1.7323714 -14.380675
-0.43283108 1.2984926 -14.412368
-0.42972943 0.85945797 -14.786773
-0.43122289 0.43122065 -14.606494
-0.43115434 -2.5656882e-06 -14.614767
-0.43109801 -0.43109918 -14.621566
-0.43106148 -0.86212564 -14.625975
-0.431025 -1.293076 -14.630386
-0.43158871 -1.7263564 -14.562333
-0.47468907 -2.3734472 -9.3596611
-0.59770757 -3.5862482 5.4899888
-0.59208155 -4.1445723 4.8108683
-0.59271395 -4.7417111 4.8871975
-0.59336489 -5.3402848 4.9657788
-0.59392488 -5.9392509 5.0333767
-0.59485662 -6.5434241 5.1458473
-0.59590763 -7.1508923 5.272716
-0.59696239 -7.7605119 5.4000344
-0.5983696 -8.3771753 5.5699024
-0.59981298 -8.9971962 5.7441273
-0.60137582 -9.622014 5.9327817
-0.60339385 -10.257697 6.1763783
-0.60542244 -10.897605 6.4212494
-0.60769749 -11.546254 6.6958752
-0.6102367 -12.204735 7.0023837
-0.61275107 -12.867773 7.3058987
-0.61587906 -13.549341 7.6834812
-0.61905801 -14.238336 8.0672092
-0.62262845 -14.943085 8.4982042
-0.62641066 -15.660269 8.9547577
-0.63030744 -16.387995 9.4251404
-0.634642 -17.135336 9.9483662
1.7642013e-23 16.194441 -13.826125
2.5729175e-23 15.757884 -13.822336
4.1507242e-24 15.383148 -13.605124
1.0940677e-23 16.479702 9.8509312
1.025058e-23 15.845458 9.8489428
1.7729889e-23 5.6830325 -13.890252
1.2587487e-23 5.2437167 -13.911972
1.8331253e-23 4.8047619 -13.933674
9.8116531e-24 4.3661685 -13.955358
2.4273652e-23 3.9277117 -13.980037
2.1116917e-23 3.4898267 -14.002245
7.9412229e-24 3.0523007 -14.024625
1.6906215e-23 2.6151466 -14.046985
1.0672335e-23 2.1779819 -14.07852
1.7427392e-23 1.741311 -14.110953
1.2964815e-23 1.3051746 -14.143536
1.6619988e-23 0.86249828 -14.603185
2.5755872e-23 0.43287468 -14.406811
1.297101e-23 -2.281422e-06 -14.415146
2.8757868e-23 -0.43274093 -14.423476
1.2489618e-23 -0.86535335 -14.431069
2.0817291e-23 -1.2979217 -14.435509
1.2230924e-23 -1.7325181 -14.376411
9.1957295e-24 -2.3413942 -10.133466
1.3260185e-23 -3.6004882 5.7765102
7.7478771e-24 -4.1667972 5.1941581
2.5682894e-23 -4.7669854 5.2685041
1.3866209e-23 -5.3681488 5.3394833
1.672274e-23 -5.9714351 5.421886
-3.2155659e-24 -6.5800977 5.5483122
-1.504028e-24 -7.1912212 5.6783819
1.7990972e-23 -7.805202 5.8149819
1.4003471e-23 -8.4263191 5.9936204
3.1998691e-24 -9.0507298 6.1749377
1.5216715e-23 -9.6818161 6.3839445
-2.6604523e-24 -10.32161 6.6302147
9.6548749e-24 -10.966228 6.8814564
1.8742967e-23 -11.620346 7.1665888
2.2855162e-24 -12.282638 7.4725761
1.2352921e-23 -12.949794 7.7773499
1.1593073e-23 -13.637256 8.1658535
9.4173773e-24 -14.330177 8.5492163
1.8193923e-23 -15.039567 8.9834795
1.5954564e-23 -15.763629 9.453824
1.2595269e-23 -16.493322 9.9141397
-1.3607614e-23 -17.244331 10.435665
0.64946562 25.329159 11.737734
0.64918244 24.66893 11.703553
0.43993506 16.277596 -13.554846
0.43998256 15.839373 -13.549104
0.43995407 15.398391 -13.552547
0.64792156 22.029331 11.551351
0.64759165 21.370525 11.511526
0.6472621 20.712385 11.471743
0.64692938 20.05481 11.431587
0.64660048 19.39801 11.391882
0.64627188 18.741882 11.352221
0.6459437 18.086424 11.3126
0.64561576 17.431627 11.273017
0.6371159 16.565012 10.246988
0.6370793 15.92698 10.242574
0.64470214 15.472852 11.162733
0.64441973 14.821651 11.128642
0.6441341 14.170951 11.094171
0.64377749 13.519324 11.051119
0.64342469 12.868492 11.008527
0.64306885 12.218305 10.965576
0.64275062 11.569511 10.927162
0.64244288 10.921526 10.890011
0.64213204 10.27411 10.852486
0.64181805 9.6272707 10.814596
0.6415078 8.9811077 10.777143
0.64118779 8.3354406 10.738513
0.64084452 7.6901336 10.697077
0.64062595 7.0468817 10.670692
0.43278348 0.86556625 -14.418109
0.43454564 0.43454519 -14.205401
0.4344745 -1.9505526e-06 -14.213987
0.43440497 -0.43440619 -14.222386
0.43433544 -0.86867267 -14.23078
0.43426743 -1.3028028 -14.238984
0.43467867 -1.7387162 -14.189343
0.46702662 -2.3351343 -10.284605
0.6024738 -3.6148429 6.0653191
0.59837836 -4.1886492 5.5709629
0.59895378 -4.7916307 5.6404123
0.59974813 -5.3977323 5.7363033
0.60054463 -6.0054488 5.8324513
0.60162473 -6.6178746 5.9628305
0.60275632 -7.2330775 6.0994263
0.60396391 -7.8515344 6.2451963
0.60546148 -8.4764614 6.4259601
0.6070962 -9.1064444 6.6232905
0.60889763 -9.7423639 6.8407483
0.61098486 -10.386744 7.0926962
0.6131019 -11.035833 7.3482399
0.61552197 -11.694918 7.640378
0.61805832 -12.361166 7.946537
0.62077022 -13.036177 8.2738962
0.62409568 -13.730105 8.675312
0.62742794 -14.430842 9.077548
0.6310274 -15.144658 9.512042
0.63494897 -15.873726 9.9854183
0.63857538 -16.602961 10.423168
0.64287245 -17.357557 10.941869
1.2912588 25.825176 11.274668
1.2907469 25.169565 11.243772
1.2902355 24.514475 11.212896
0.88441122 16.361607 -13.280765
0.88452971 15.921535 -13.273609
0.88448167 15.478429 -13.27651
0.90523368 15.388972 -12.024017
1.2871885 21.238607 11.029
1.2864901 20.583841 10.986839
1.2857584 19.929256 10.942685
1.2847775 19.271664 10.883483
1.2837914 18.614975 10.823963
1.2828068 17.959295 10.764533
1.2764965 17.232702 10.38368
1.27671 16.597231 10.396567
1.2794192 15.992743 10.56008
1.2781467 15.337761 10.483286
1.2768836 14.684161 10.407044
1.2756163 14.031776 10.33055
1.2740722 13.377756 10.237355
1.2725185 12.725184 10.143584
1.2709621 12.07414 10.049644
1.269416 11.424744 9.9563341
1.2683017 10.780566 9.8890791
1.2677355 10.141884 9.8549023
1.2671632 9.5037241 9.8203573
1.2665979 8.8661833 9.7862453
1.2660332 8.2292118 9.7521582
1.2652853 7.5917125 9.7070236
1.2645121 6.9548144 9.6603575
1.2637398 6.3186989 9.6137505
1.2630601 5.6837711 9.5727215
1.2624136 5.0496511 9.5337
1.2617677 4.4161863 9.4947262
1.2611227 3.7833664 9.4557886
1.2605238 3.1513066 9.4196405
1.259984 2.5199664 9.3870583
1.259438 1.8891578 9.3541088
0.86885011 0.86884934 -14.219961
0.87245107 0.43622339 -14.002619
0.87231082 -1.6543739e-06 -14.011085
0.87216753 -0.43608508 -14.019734
0.87202734 -0.87202895 -14.028198
0.87188721 -1.3078334 -14.036651
0.87260377 -1.7452096 -13.993402
0.93156236 -2.3289096 -10.434934
1.2103287 -3.6309879 6.3900995
1.2030598 -4.2107091 5.9513812
1.2047454 -4.8189816 6.0531201
1.2063525 -5.428587 6.1501083
1.2080055 -6.0400276 6.2498822
1.2102686 -6.6564794 6.3864765
1.2126306 -7.2757864 6.529036
1.2151409 -7.8984189 6.6805468
1.2183969 -8.528779 6.8770528
1.2217131 -9.1628485 7.0772009
1.2255698 -9.8045597 7.3099809
1.2299899 -10.454916 7.576757
1.2344482 -11.110036 7.8458385
1.2395804 -11.776016 8.1555977
1.2449142 -12.449142 8.4775171
1.2506526 -13.131855 8.8238611
1.2573111 -13.830423 9.2257338
1.2637661 -14.533311 9.6153278
1.270929 -15.25115 10.047649
1.2785819 -15.982276 10.509542
1.2858803 -16.716446 10.950045
1.9465227 25.304796 11.662324
1.9457471 24.64613 11.631122
1.3334943 16.44643 -13.004035
1.333703 16.004436 -12.995633
1.3336545 15.5593 -12.997587
1.3573322 15.383097 -12.044871
1.9411482 21.352627 11.446071
1.9400789 20.694172 11.403046
1.9390006 20.036341 11.359654
1.937544 19.375439 11.301053
1.9360487 18.715137 11.240889
1.894159 17.67882 9.5553732
1.8945117 17.050606 9.5695629
1.9175715 16.61895 10.497419
1.9294809 16.079006 10.976614
1.9275415 15.420332 10.898584
1.9256161 14.763056 10.821111
1.9236947 14.107093 10.743796
1.9214141 13.449897 10.652031
1.9190786 12.793858 10.558056
1.9167488 12.139405 10.464312
1.9143945 11.486368 10.369582
1.9119163 10.834189 10.269869
1.909156 10.182164 10.158802
1.9064232 9.5321178 10.048846
1.9036885 8.8838787 9.9388142
1.9009717 8.2375412 9.8294888
1.8980262 7.5921059 9.7109776
1.8950117 6.9483743 9.5896788
1.8920163 6.3067164 9.4691563
1.8889817 5.6669459 9.3470554
1.8858209 5.0288558 9.2198753
1.8823514 4.3921518 9.0802746
1.8788754 3.7577496 8.9404087
1.8753353 3.1255593 8.797966
1.8718183 2.4957569 8.6564445
1.8677807 1.8677783 8.4939899
1.3084708 0.87231278 -14.0109
1.3137554 0.43791795 -13.79827
1.3135433 -1.5787762e-06 -13.806798
1.3133314 -0.43777937 -13.815326
1.3131289 -0.87542069 -13.823472
1.3130348 -1.3130363 -13.827264
1.3143588 -1.752479 -13.773987
1.3936327 -2.3227224 -10.584252
1.8237278 -3.6474569 6.7214446
1.8143059 -4.2333808 6.3423357
1.8169429 -4.8451834 6.4484415
1.8195968 -5.4587932 6.5552154
1.8227206 -6.075736 6.6809125
1.8263923 -6.6967731 6.8286514
1.8300425 -7.3201723 6.9755216
1.8343223 -7.9487319 7.1477318
1.8394257 -8.5839882 7.3530722
1.844734 -9.223671 7.566659
1.8512793 -9.8734913 7.8300233
1.858003 -10.528685 8.1005678
1.8649372 -11.189623 8.3795767
1.8727274 -11.860608 8.6930323
1.8809304 -12.539537 9.023097
1.8899174 -13.229425 9.3847046
1.8997096 -13.931206 9.7787132
1.9093848 -14.638618 10.16801
1.7875785 16.088205 -12.714747
1.7875392 15.640965 -12.715933
1.8100244 15.385207 -12.03738
2.4991548 17.494085 8.7589655
2.4995897 16.872229 8.7720871
2.5555313 16.610954 10.460273
2.566355 11.548597 10.78691
2.563082 10.893097 10.688141
2.5593615 10.237446 10.57586
2.555665 9.5837431 10.46431
2.5519791 8.9319277 10.353083
2.5483038 8.2819862 10.242171
2.5443609 7.633081 10.123177
2.5401921 6.9855251 9.9973793
2.5359976 6.3399949 9.8707952
2.5318167 5.6965866 9.7446299
2.5275714 5.055141 9.6165142
2.522897 4.4150681 9.4754467
2.5182397 3.7773583 9.3349047
2.5136127 3.1420152 9.1952705
2.5091186 2.5091183 9.0596476
2.5038826 1.8779101 8.9016476
1.7516298 0.87581313 -13.799594
1.7585045 0.4396227 -13.592131
1.7582134 -1.2810727e-06 -13.600919
1.7579665 -0.43949401 -13.608369
1.75784 -0.87892181 -13.612185
1.7577133 -1.3182858 -13.616004
1.7598035 -1.7598058 -13.552931
1.8598609 -2.3248267 -10.53343
2.4426928 -3.6640401 7.0550709
2.4321942 -4.2563429 6.738256
2.4361496 -4.8723001 6.8576131
2.4401052 -5.4902368 6.9769897
2.4447346 -6.1118383 7.1166987
2.450537 -6.7389765 7.2917929
2.4554653 -7.3663993 7.4405222
2.4618397 -8.0009794 7.6328864
2.4687467 -8.6406155 7.8413196
2.4769228 -9.2884617 8.0880547
2.4858615 -9.9434471 8.35781
2.4950309 -10.603882 8.6345148
2.5046275 -11.270824 8.9241238
2.5150754 -11.946609 9.2394142
2.5277545 -12.638772 9.6220398
2.246222 16.172796 -12.431107
2.246222 15.723552 -12.431107
2.2628827 15.387603 -12.028877
3.0916221 17.313082 7.978652
3.0919194 16.696367 7.9858356
3.164361 3.7972338 9.7347279
3.1585979 3.1585968 9.5955944
3.1528392 2.5222726 9.4565735
3.1468098 1.8880833 9.3110113
2.1985424 0.87941563 -13.582192
2.2067282 0.44134292 -13.384571
2.206449 -1.1673205e-06 -13.391313
2.2063053 -0.44126126 -13.394778
2.2063453 -0.8825382 -13.393816
2.2063851 -1.3238332 -13.392852
2.2089958 -1.7671981 -13.329824
2.3319397 -2.3319421 -10.361696
3.0672808 -3.6807373 7.3910027
3.0572653 -4.2801738 7.1492119
3.0629561 -4.9007311 7.2865987
3.0679896 -5.5223827 7.408123
3.0743396 -6.1486807 7.5614257
3.0820382 -6.7804856 7.7472882
3.0889626 -7.4135108 7.9144483
3.0976775 -8.0539637 8.1248455
3.1072953 -8.700428 8.3570442
3.1181674 -9.3545027 8.6195154
3.1336932 -10.027821 8.9943504
2.7096739 16.258041 -12.145271
2.709734 15.806781 -12.144063
2.7160635 15.391025 -12.016726
3.6719363 17.135702 7.2139535
3.6863859 16.588737 7.5046568
2.6491461 0.88304633 -13.362994
2.6586838 0.44311216 -13.171116
2.6587319 -1.4754125e-06 -13.170144
2.6587899 -0.44313294 -13.168979
2.658838 -0.88627893 -13.168008
2.6588864 -1.3294443 -13.167037
2.6619782 -1.7746532 -13.104835
2.8069267 -2.3391082 -10.188694
3.6975687 -3.6975689 7.7296324
3.689059 -4.303905 7.5584383
3.696449 -4.9285998 7.7071104
3.7038686 -5.5558062 7.8563857
3.7129362 -6.1882272 8.0388031
3.1780255 16.34413 -11.856612
3.1781673 15.890836 -11.854167
3.178061 15.436296 -11.856001
3.2655139 15.394565 -10.347932
4.2397857 17.564825 6.4527912
4.2402277 16.960911 6.4604077
4.3014112 16.591156 7.5154829
3.1043663 0.88696086 -13.126818
3.115638 0.44508746 -12.932444
3.1154904 -3.3843219e-06 -12.93499
3.1155131 -0.44507462 -12.934599
3.1155925 -0.89017147 -12.933228
3.1156609 -1.3352848 -12.932052
3.1193795 -1.7825042 -12.867928
3.2848294 -2.3463087 -10.014845
3.6513772 16.431196 -11.564673
3.6516092 15.975789 -11.561171
3.6515546 15.519106 -11.561996
3.7310038 15.390387 -10.363203
4.796854 17.388597 5.7192369
4.7969718 16.7894 5.7210155
4.9171605 16.595415 7.5345249
3.5641074 0.89102727 -12.881474
3.5770683 0.44713253 -12.685906
3.5768983 -2.2704469e-06 -12.688471
3.5767281 -0.44709161 -12.691046
3.5765445 -0.89413786 -12.693809
3.576479 -1.3411821 -12.694798
3.581712 -1.7908572 -12.615844
3.7757571 -2.3598487 -9.6879244
4.1297836 16.519133 -11.269816
4.1301408 16.061655 -11.26503
4.1301408 15.602752 -11.26503
4.1979723 15.392565 -10.355247
5.3425431 17.214857 4.9960771
5.3425689 16.621326 4.9964271
4.0279489 0.89509946 -12.635653
4.042768 0.44919336 -12.43689
4.0425601 -1.17175e-06 -12.439682
4.0423665 -0.44915336 -12.442275
4.0421729 -0.89826018 -12.444872
4.0422325 -1.3474125 -12.444074
4.0484729 -1.7993231 -12.360376
4.2780895 -2.3767166 -9.2806911
4.6138434 16.148449 -10.965683
4.6138434 15.687067 -10.965681
4.6650734 15.39474 -10.347285
5.8771248 17.631374 4.2834687
5.8773227 17.044235 4.285862
5.9195237 16.574667 4.7952733
4.4958348 0.89916515 -12.390168
4.5127683 0.4512769 -12.185774
4.5126009 -7.2861144e-07 -12.187785
4.5127015 -0.45127097 -12.186578
4.5128016 -0.90256375 -12.185368
4.5128851 -1.3538679 -12.184361
4.5196509 -1.807862 -12.102689
4.7876549 -2.3938308 -8.8675909
5.1028028 16.236189 -10.663086
5.1028028 15.772298 -10.663085
5.1323061 15.396917 -10.339323
6.4015746 17.458839 3.5892446
6.4016051 16.876961 3.5895822
6.5130868 16.578766 4.8129497
4.9684157 0.90334642 -12.13781
4.9880123 0.45345396 -11.922763
4.9881234 -3.7059051e-06 -11.921541
4.9882345 -0.45347679 -11.920324
4.9883642 -0.9069761 -11.918901
4.9884753 -1.360495 -11.917681
4.9958978 -1.8166916 -11.836226
5.3045897 -2.4111781 -8.4487314
5.5971041 16.324884 -10.357181
5.5971041 15.858459 -10.357183
5.5997996 15.399447 -10.330069
6.9156318 17.289076 2.9061816
6.9156642 16.712854 2.9065073
5.4473348 0.90788591 -11.863743
5.4697456 0.45580855 -11.638308
5.4695616 -6.3475142e-08 -11.640159
5.469378 -0.4557842 -11.642006
5.469378 -0.91156447 -11.642006
5.4695005 -1.3673766 -11.640775
5.4791756 -1.8263936 -11.543453
5.9228349 -2.4678502 -7.0805826
6.0968356 16.414557 -10.047916
6.0968356 15.94557 -10.047915
6.0968356 15.476583 -10.047918
6.2553983 15.397902 -8.5755997
7.4194412 17.692513 2.2330508
7.4195452 17.122026 2.2340164
7.4241953 16.561666 2.2771986
5.9311156 0.91247755 -11.586701
5.956512 0.45819157 -11.350886
5.9563107 -2.140649e-06 -11.352753
5.95611 -0.45816553 -11.354619
5.9559083 -0.91629559 -11.356489
5.9557295 -1.3744023 -11.358147
5.9675975 -1.8361864 -11.247948
6.6020875 16.505217 -9.7352352
6.6021132 16.033703 -9.7350149
6.6021132 15.562123 -9.7350168
6.7374849 15.399966 -8.5678148
7.9137769 17.523365 1.5743989
7.9138503 16.958248 1.5750325
7.9975319 16.566315 2.2965486
6.4210911 0.91729766 -11.295823
6.4483914 0.46059871 -11.060441
6.4481721 -5.7637129e-07 -11.062329
6.44805 -0.46057704 -11.063378
6.44805 -0.92114913 -11.063378
6.44805 -1.3817266 -11.063375
6.4610658 -1.8460202 -10.951157
7.1130352 16.122877 -9.418416
7.1130352 15.648677 -9.4184141
7.2197018 15.402029 -8.5600281
8.3987503 17.357418 0.92822582
8.3987894 16.797579 0.92853785
8.5711908 16.570965 2.3159132
6.916348 0.92217737 -11.001227
6.9458055 0.46305215 -10.764174
6.9458055 -1.9812182e-07 -10.764175
6.9458055 -0.46305296 -10.764175
6.9458055 -0.92611074 -10.764173
6.9458055 -1.3891631 -10.764174
6.9607739 -1.8562071 -10.64372
7.6296716 16.213053 -9.0982733
7.6296716 15.736197 -9.0982723
7.7020478 15.404095 -8.5522394
8.8745842 17.19451 0.29386944
8.8746252 16.639919 0.29417107
7.4202285 0.92752802 -10.678402
7.4525847 0.46578735 -10.434294
7.4519019 -1.7981736e-06 -10.439437
7.45122 -0.46570292 -10.444584
7.4511633 -0.9313966 -10.445016
7.4511633 -1.3970948 -10.445014
7.4698825 -1.8674715 -10.303791
8.1521845 16.304367 -8.7740765
8.1521521 15.824764 -8.7743025
8.1844902 15.406097 -8.5446796
9.3415279 17.03455 -0.32898593
9.3831244 16.558451 -0.03362703
7.9308062 0.93303561 -10.345994
7.9657784 0.46857288 -10.097672
7.965045 -1.1232258e-06 -10.10288
7.9643111 -0.46849012 -10.108088
7.9635782 -0.93689156 -10.113297
7.9628444 -1.4052094 -10.118502
7.9852386 -1.8788831 -9.9594898
8.6802721 16.396069 -8.4485035
8.6805124 15.914273 -8.4468927
8.6802378 15.431534 -8.4487314
9.7999067 16.877617 -0.94006795
9.937768 16.562944 -0.015548632
8.4471264 0.93856746 -10.012013
8.4851542 0.47139651 -9.7569933
8.4843683 -1.7030791e-06 -9.7622681
8.4839754 -0.47133207 -9.764905
8.4838772 -0.94265544 -9.7655602
8.483778 -1.4139649 -9.7662191
8.5068979 -1.8904235 -9.6111813
9.2145176 16.489138 -8.118084
9.2148838 16.004797 -8.1157608
9.2148476 15.519741 -8.1159935
9.445137 15.410485 -6.6529174
10.490578 16.564072 -0.011028977
8.9695377 0.94416118 -9.6744871
9.011735 0.47430086 -9.4064054
9.0116644 -1.8935541e-06 -9.4068518
9.0115595 -0.47429323 -9.4075203
9.0114546 -0.94857556 -9.4081888
9.0113497 -1.4228442 -9.4088545
9.0388775 -1.9029223 -9.233963
9.7554083 16.096422 -7.7806029
9.7553701 15.60859 -7.7808366
9.9413185 15.409041 -6.6585383
9.503314 0.95033103 -9.3021288
9.5484266 0.47742125 -9.02985
9.5475683 5.4159477e-07 -9.0350313
9.5467463 -0.47733733 -9.0399885
9.5460377 -0.95460445 -9.0442686
9.5459261 -1.4318911 -9.0449409
9.5832014 -1.9166402 -8.8199644
10.302695 16.189947 -7.4384923
10.302116 15.698461 -7.441824
10.439872 15.411239 -6.6499834
10.04537 0.95670158 -8.9176321
10.092344 0.48058677 -8.6476173
10.091431 -1.2782127e-06 -8.6528721
10.090517 -0.48050076 -8.6581211
10.089724 -0.96092755 -8.6626863
10.089843 -1.4414071 -8.6620016
10.135431 -1.9305605 -8.3999472
10.854581 16.281868 -7.102253
10.855151 15.789309 -7.0991254
10.93692 15.411112 -6.6504745
10.594785 0.96316206 -8.5277166
10.643483 0.48379305 -8.2605143
10.643441 -1.2350891e-06 -8.260746
10.643568 -0.48380128 -8.2600517
10.643737 -0.96761286 -8.2591248
10.643863 -1.4514366 -8.2584333
10.698254 -1.9451395 -7.9599996
11.413419 16.375774 -6.7587633
11.414625 15.881216 -6.7524362
11.431027 15.407037 -6.6663499
11.858171 9.2803068 -4.4245734
11.855267 8.7625875 -4.4398136
11.853416 8.2458544 -4.449533
11.851516 7.7292471 -4.4595065
11.849215 7.212564 -4.4715829
11.846565 6.6958833 -4.4854856
11.843917 6.1794324 -4.499382
11.84207 5.6635957 -4.5090828
11.84122 5.148356 -4.5135398
11.840372 4.6331887 -4.5179949
11.839123 4.1179533 -4.5245409
11.837576 3.6027405 -4.5326624
11.83603 3.0876591 -4.540782
11.835182 2.5728626 -4.545229
11.83543 2.0583348 -4.5439215
11.835681 1.5437831 -4.5426102
11.152999 0.96982509 -8.1255274
11.208242 0.48731381 -7.8355961
11.207884 -5.673769e-08 -7.8374734
11.207794 -0.48729447 -7.8379421
11.208018 -0.97461092 -7.8367686
11.208242 -1.4619455 -7.8355942
11.281276 -1.9619608 -7.452291
12.380174 17.53858 -4.3922338
11.979768 16.472183 -6.4061198
11.981336 15.975112 -6.3982358
11.979817 15.473927 -6.4058733
12.304689 15.380862 -4.7718902
12.297924 14.859992 -4.8059192
12.291012 14.339515 -4.8406839
12.284984 13.820607 -4.871006
12.280247 13.3036 -4.8948293
12.275412 12.786883 -4.9191508
12.270322 12.270319 -4.9447446
12.266418 11.755317 -4.9643812
12.26339 11.241442 -4.9796157
12.260208 10.727682 -4.995616
12.256619 10.213847 -5.0136695
12.252826 9.7001524 -5.0327439
12.248882 9.1866589 -5.0525799
12.246066 8.6742945 -5.0667391
12.244123 8.1627464 -5.0765224
12.241872 7.6511703 -5.0878434
12.239212 7.1395411 -5.1012154
12.236249 6.6279659 -5.1161237
12.233541 6.1167684 -5.1297402
12.231753 5.6062207 -5.1387329
12.230886 5.0962014 -5.143096
12.229661 4.5861206 -5.1492577
12.228282 4.0760922 -5.1561871
12.226701 3.5661221 -5.1641459
12.224711 3.0561762 -5.1741509
12.223742 2.5466113 -5.1790214
12.223998 2.0373311 -5.1777391
12.22568 1.5282072 -5.1692753
11.725086 0.97708791 -7.6870694
11.783505 0.49097842 -7.3932433
11.783126 2.6048523e-11 -7.3951516
11.782747 -0.49094802 -7.3970599
11.782368 -0.98186624 -7.3989611
11.782227 -1.4727801 -7.3996787
11.880009 -1.9800024 -6.9078751
12.780249 21.470816 -4.9512067
12.771691 20.945572 -4.9925203
12.762613 20.420181 -5.0363541
12.753548 19.895536 -5.0801225
12.745879 19.373737 -5.1171503
12.738698 18.853273 -5.1518269
12.730941 18.332554 -5.1892791
12.722769 17.811876 -5.2287383
12.714501 17.291721 -5.2686572
12.70598 16.771894 -5.3098011
12.553859 16.068937 -6.0443106
12.552826 15.565504 -6.0492964
12.686124 15.223349 -5.405674
12.679115 14.707772 -5.4395151
12.674167 14.195065 -5.4634075
12.669485 13.683043 -5.4860168
12.664597 13.17118 -5.5096216
