# .PCD v0.7 - Point Cloud Data file format
VERSION 0.7
FIELDS x y z
SIZE 4 4 4
TYPE F F F
COUNT 1 1 1
WIDTH 1491
HEIGHT 1
VIEWPOINT 0 0 0 1 0 0 0
POINTS 1491
DATA ascii
-6.8053231 17.985495 -7.982904
-6.8082771 17.506998 -7.9574289
-6.8114514 17.028631 -7.9300585
-6.8152542 16.551331 -7.8972759
-6.8190875 16.073561 -7.864223
-6.8228979 15.595196 -7.8313684
-6.8267407 15.116353 -7.7982407
-6.8305597 14.636911 -7.7653103
-6.8345742 14.157331 -7.7306938
-6.8392506 13.678499 -7.6903734
-6.8439331 13.199012 -7.6499991
-6.8486223 12.718867 -7.6095705
-6.8533177 12.238066 -7.5690851
-6.858047 11.756652 -7.5283055
-6.8628931 11.274754 -7.4865241
-6.8684916 10.793344 -7.4382577
-6.874126 10.311187 -7.3896694
-6.8797431 9.8282003 -7.3412423
-6.885396 9.3444643 -7.2924981
-6.8910313 8.8598938 -7.2439127
-6.8967867 8.37467 -7.1942906
-6.9033599 7.8895526 -7.13761
-6.9099178 7.4034815 -7.0810642
-6.9164882 6.9164858 -7.0244117
-6.9230719 6.428566 -6.9676533
-6.929667 5.9397125 -6.9107838
-6.9364724 5.4500847 -6.852108
-6.9440532 4.9600353 -6.7867503
-6.9516778 4.4689355 -6.7210073
-6.959291 3.976737 -6.6553588
-6.9669499 3.483474 -6.5893273
-6.974597 2.9891121 -6.5233908
-6.9827456 2.4938364 -6.4531322
-6.9915996 1.9975985 -6.3767896
-6.9989567 1.4997758 -6.313355
-7.0058131 1.0008286 -6.2542405
-7.0118194 0.50084227 -6.2024536
-7.0154166 -3.1494458e-06 -6.1714358
-7.0172019 -0.50122917 -6.1560411
-7.01896 -1.0027111 -6.1408849
-7.0207477 -1.5044485 -6.1254745
-7.0225067 -2.0064301 -6.1103067
-7.0213819 -2.5076392 -6.1200027
-7.0195365 -3.008374 -6.1359177
-7.0158772 -3.5079396 -6.1674647
-7.0120206 -4.0068688 -6.2007179
-7.0067892 -4.5043678 -6.245822
-7.0013652 -5.0009761 -6.2925911
-6.9949474 -5.4960308 -6.3479285
-6.9884553 -5.9901047 -6.4039035
-6.9807782 -6.482151 -6.4700985
-6.973032 -6.973033 -6.5368848
-6.9638562 -7.4612765 -6.6160007
-6.9549026 -7.9484615 -6.6932006
-6.9447579 -8.4329214 -6.7806697
-6.9345589 -8.915863 -6.8686042
-6.923492 -9.3961687 -6.9640255
-6.9120975 -9.8744268 -7.062274
-6.8994865 -10.349232 -7.1710067
-6.8868666 -10.822219 -7.2798228
-6.873435 -11.292074 -7.3956275
-6.8600016 -11.760005 -7.511456
-6.8455229 -12.224149 -7.6362948
-6.8309417 -12.686035 -7.7620153
-6.8153353 -13.143864 -7.8965721
-6.7995844 -13.599169 -8.0323887
-6.7829089 -14.050314 -8.1761589
-6.7659674 -14.498505 -8.3222342
-6.7485776 -14.94328 -8.4721756
-6.7310381 -15.385233 -8.6233997
-6.712851 -15.82315 -8.7802124
-6.694212 -16.257374 -8.9409227
-6.6750765 -16.687693 -9.105916
-6.6552725 -17.113558 -9.2766695
-6.7420292 -17.818222 -8.5286331
-8.6833334 25.382051 13.968841
-8.6250591 24.548243 13.427735
-8.5666828 23.723124 12.88569
-8.5546322 23.0317 12.773792
-8.5451441 22.348839 12.685701
-6.3375721 16.087683 -7.8125749
-6.3375721 15.600176 -7.8125758
-6.4649892 15.416512 -6.6294537
-8.5109625 19.640682 12.368301
-7.7811689 17.357994 5.591855
-7.7811689 16.759441 5.5918531
-6.4767284 13.451666 -6.5204487
-6.4587808 12.91756 -6.6871033
-6.4409318 12.386406 -6.8528333
-6.4231815 11.858182 -7.0176573
-6.4055285 11.332857 -7.1815691
-6.3868675 10.808543 -7.3548465
-6.3830914 10.311148 -7.3899093
-6.3883066 9.8281641 -7.3414817
-6.3935561 9.3444271 -7.292737
-6.3988147 8.8598938 -7.2439127
-6.4041591 8.37467 -7.1942906
-6.4102368 7.8895206 -7.1378517
-6.4163523 7.4034815 -7.0810642
-6.4224534 6.9164858 -7.0244117
-6.4285665 6.428566 -6.9676533
-6.4346914 5.9397125 -6.9107838
-6.4410105 5.4500847 -6.852108
-6.4480491 4.9600353 -6.7867503
-6.4551291 4.4689355 -6.7210073
-6.4621992 3.976737 -6.6553588
-6.4693108 3.483474 -6.5893273
-6.4764113 2.9891121 -6.5233908
-6.4840841 2.4938769 -6.452147
-6.4922528 1.9976153 -6.3762989
-6.4994307 1.499867 -6.3096485
-6.5057178 1.0008781 -6.2512684
-6.5109749 0.50084227 -6.2024536
-6.5134869 -3.8550783e-07 -6.1791339
-6.5151443 -0.50116748 -6.1637406
-6.5183282 -1.0028199 -6.1341758
-6.5206847 -1.5047741 -6.1122942
-6.521194 -2.0065219 -6.1075687
-6.5198541 -2.5076392 -6.1200027
-6.5181408 -3.008374 -6.1359177
-6.51477 -3.5079551 -6.1672158
-6.511189 -4.0068865 -6.20047
-6.506331 -4.5043855 -6.245574
-6.5012941 -5.0009961 -6.292345
-6.4953079 -5.4960308 -6.3479285
-6.4892802 -5.9901047 -6.4039035
-6.4821777 -6.4821787 -6.469851
-6.4750109 -6.9730892 -6.5363965
-6.466464 -7.461308 -6.6157556
-6.4579659 -7.9482656 -6.6946673
-6.4485207 -8.4326839 -6.7823696
-6.4390764 -8.9156446 -6.8700638
-6.4287748 -9.3959017 -6.9657187
-6.4184022 -9.8744669 -7.0620337
-6.406692 -10.349273 -7.1707673
-6.3949733 -10.822265 -7.2795801
-6.3825011 -11.292119 -7.395391
-6.3700266 -11.76005 -7.5112195
-6.3565826 -12.224199 -7.636055
-6.3430176 -12.686035 -7.7620153
-6.3285255 -13.143864 -7.8965721
-6.3138995 -13.599169 -8.0323887
-6.2984157 -14.050314 -8.1761589
-6.2826843 -14.498505 -8.3222342
-6.2665362 -14.94328 -8.4721756
-6.2502499 -15.385233 -8.6233997
-6.2333622 -15.82315 -8.7802124
-6.216054 -16.257374 -8.9409227
-6.1982851 -16.687693 -9.105916
-6.1799197 -17.113625 -9.2764463
-6.2604561 -17.818222 -8.5286331
-5.8500667 16.087683 -7.8125749
-5.8500667 15.600176 -7.8125758
-5.9676819 15.416512 -6.6294537
-7.838326 16.329844 12.187769
-7.838326 15.676652 12.187773
-7.9594297 11.939146 13.405985
-7.9392018 11.247206 13.202504
-7.9196324 10.559511 13.005654
-7.9116359 9.8895445 12.925213
-7.8960304 9.2120342 12.768228
-7.8797231 8.5363665 12.604195
-7.8735404 7.873538 12.542002
-7.8665657 7.2110186 12.471838
-7.8470163 6.5391812 12.275186
-7.829195 5.8718972 12.095918
-7.8294458 5.2196288 12.098443
-7.8304925 4.5677848 12.108967
-7.8318315 3.9159133 12.122441
-6.1485238 2.5618839 -4.8103318
-6.1244154 2.0414708 -5.0528388
-6.016572 1.5041431 -6.1376567
-6.0382943 1.0063809 -5.9191523
-6.038692 0.50322163 -5.9151459
-6.038692 -1.3700583e-06 -5.9151487
-6.038692 -0.50322729 -5.9151473
-6.0387421 -1.0064607 -5.9146457
-6.0739655 -1.5184913 -5.5603242
-6.1219072 -2.040638 -5.0780644
-6.1196828 -2.5498683 -5.1004429
-6.016449 -3.0082252 -6.1388974
-6.0133128 -3.5077672 -6.1704421
-6.0100565 -4.0067067 -6.2031965
-6.0701909 -4.5526457 -5.5982933
-6.0644374 -5.0536971 -5.6561732
-6.0586696 -5.553781 -5.7141948
-6.0529375 -6.0529385 -5.7718525
-6.0456691 -6.5494757 -5.844965
-6.0375476 -7.0438066 -5.9266615
-6.0294228 -7.536778 -6.0083914
-6.0213447 -8.0284615 -6.0896521
-6.012548 -8.5177765 -6.1781397
-6.002203 -9.0033045 -6.2822051
-5.9918685 -9.4871273 -6.386158
-5.9815698 -9.9692841 -6.4897585
-5.9713311 -10.449831 -6.592752
-5.9591384 -10.925089 -6.7153988
-5.9468751 -11.398179 -6.8387556
-5.9346623 -11.869327 -6.961607
-5.9224997 -12.338543 -7.0839548
-5.9092898 -12.803465 -7.2168322
-5.8947868 -13.26327 -7.3627243
-5.880331 -13.720774 -7.5081344
-5.8659468 -14.17604 -7.652833
-5.851655 -14.62914 -7.7965937
-5.8354807 -15.074991 -7.959301
-5.8192792 -15.518081 -8.1222706
-5.8031454 -15.958651 -8.2845697
-5.7376041 -16.256546 -8.9438639
-5.7209797 -16.686193 -9.111083
-5.7043414 -17.113026 -9.2784576
-5.7788825 -17.818222 -8.5286331
-5.3625607 16.087683 -7.8125749
-5.3625607 15.600176 -7.8125758
-5.4703755 15.416512 -6.6294537
-7.1851325 16.329844 12.187769
-7.1851325 15.676652 12.187773
-5.5151234 1.5041231 -6.138401
-5.528882 1.0052503 -5.9874172
-5.528882 0.50262398 -5.9874148
-5.528882 -2.2671043e-06 -5.9874177
-5.5288591 -0.50262487 -5.9876652
-5.5288591 -1.0052487 -5.9876676
-5.5412693 -1.5112553 -5.8514886
-5.5150781 -3.0082252 -6.1388974
-5.5122037 -3.5077672 -6.1704421
-5.5092187 -4.0067067 -6.2031965
-5.564342 -4.5526457 -5.5982933
-5.5590677 -5.0536971 -5.6561732
-5.5537806 -5.553781 -5.7141948
-5.5485263 -6.0529385 -5.7718525
-5.5418634 -6.5494757 -5.844965
-5.5344186 -7.0438066 -5.9266615
-5.5269709 -7.536778 -6.0083914
-5.5195661 -8.0284615 -6.0896521
-5.5115023 -8.5177765 -6.1781397
-5.5020189 -9.0033045 -6.2822051
-5.4925461 -9.4871273 -6.386158
-5.4831057 -9.9692841 -6.4897585
-5.4737196 -10.449831 -6.592752
-5.4625435 -10.925089 -6.7153988
-5.4513021 -11.398179 -6.8387556
-5.4401073 -11.869327 -6.961607
-5.4289579 -12.338543 -7.0839548
-5.4168491 -12.803465 -7.2168322
-5.4035549 -13.26327 -7.3627243
-5.3903041 -13.720774 -7.5081344
-5.3771176 -14.17604 -7.652833
-5.3640175 -14.62914 -7.7965937
-5.3491907 -15.074991 -7.959301
-5.3343391 -15.518081 -8.1222706
-5.3195496 -15.958651 -8.2845697
-5.2594705 -16.256546 -8.9438639
-5.2442317 -16.686193 -9.111083
-5.2289796 -17.113026 -9.2784576
-5.2973084 -17.818222 -8.5286331
-4.8750553 16.087683 -7.8125749
-4.8750553 15.600176 -7.8125758
-4.9730687 15.416512 -6.6294537
-6.5319381 16.329844 12.187769
-6.5319381 15.676652 12.187773
-5.0137486 1.5041231 -6.138401
-5.0262566 1.0052503 -5.9874172
-5.0262566 0.50262398 -5.9874148
-5.0262566 -2.2671043e-06 -5.9874177
-5.0262356 -0.50262487 -5.9876652
-5.0262356 -1.0052487 -5.9876676
-5.0381408 -1.5114449 -5.8439608
-5.546968 -2.2187889 0.29812998
-5.0137072 -3.0082252 -6.1388974
-5.0110941 -3.5077672 -6.1704421
-5.0083809 -4.0067067 -6.2031965
-5.0584927 -4.5526457 -5.5982933
-5.0536976 -5.0536971 -5.6561732
-5.0488911 -5.553781 -5.7141948
-5.0441146 -6.0529385 -5.7718525
-5.0380578 -6.5494757 -5.844965
-5.0312896 -7.0438066 -5.9266615
-5.024519 -7.536778 -6.0083914
-5.017787 -8.0284615 -6.0896521
-5.0104566 -8.5177765 -6.1781397
-5.0018353 -9.0033045 -6.2822051
-4.9932237 -9.4871273 -6.386158
-4.9846416 -9.9692841 -6.4897585
-4.976109 -10.449831 -6.592752
-4.9659486 -10.925089 -6.7153988
-4.955729 -11.398179 -6.8387556
-4.9455519 -11.869327 -6.961607
-4.9354162 -12.338543 -7.0839548
-4.9244084 -12.803465 -7.2168322
-4.9123225 -13.26327 -7.3627243
-4.9002762 -13.720774 -7.5081344
-4.888289 -14.17604 -7.652833
-4.8763795 -14.62914 -7.7965937
-4.8629003 -15.074991 -7.959301
-4.8493996 -15.518081 -8.1222706
-4.8359542 -15.958651 -8.2845697
-4.7813368 -16.256546 -8.9438639
-4.7674651 -16.686129 -9.1113081
-4.7536178 -17.113026 -9.2784576
-4.8157353 -17.818222 -8.5286331
-4.3875499 16.087683 -7.8125749
-4.3875499 15.600176 -7.8125758
-4.4757614 15.416512 -6.6294537
-5.8787446 16.329844 12.187769
-5.8787446 15.676652 12.187773
-4.5123739 1.5041231 -6.138401
-4.5236311 1.0052503 -5.9874172
-4.5236311 0.50262398 -5.9874148
-4.5236311 -2.2671043e-06 -5.9874177
-4.5236125 -0.50262487 -5.9876652
-4.5236125 -1.0052487 -5.9876676
-4.5349817 -1.5116609 -5.8351755
-4.8780708 -2.1680334 -1.2335639
-4.5123367 -3.0082252 -6.1388974
-4.5099664 -3.5077541 -6.1706929
-4.5075426 -4.0067067 -6.2031965
-4.5526433 -4.5526457 -5.5982933
-4.5483279 -5.0536971 -5.6561732
-4.5440021 -5.553781 -5.7141948
-4.5397034 -6.0529385 -5.7718525
-4.5342517 -6.5494757 -5.844965
-4.5281606 -7.0438066 -5.9266615
-4.5220671 -7.536778 -6.0083914
-4.5160084 -8.0284615 -6.0896521
-4.5094109 -8.5177765 -6.1781397
-4.5016522 -9.0033045 -6.2822051
-4.4939013 -9.4871273 -6.386158
-4.486177 -9.9692841 -6.4897585
-4.478498 -10.449831 -6.592752
-4.4693537 -10.925089 -6.7153988
-4.4601564 -11.398179 -6.8387556
-4.4509969 -11.869327 -6.961607
-4.4418745 -12.338543 -7.0839548
-4.4319677 -12.803465 -7.2168322
-4.4210901 -13.26327 -7.3627243
-4.4102488 -13.720774 -7.5081344
-4.3994598 -14.17604 -7.652833
-4.3887415 -14.62914 -7.7965937
-4.3766103 -15.074991 -7.959301
-4.3644595 -15.518081 -8.1222706
-4.3523588 -15.958651 -8.2845697
-4.3032031 -16.256546 -8.9438639
-4.2907186 -16.686129 -9.1113081
-4.2782393 -17.112959 -9.2786818
-4.3341618 -17.818222 -8.5286331
-3.9000442 16.087683 -7.8125749
-3.9000442 15.600176 -7.8125758
-3.9784548 15.416512 -6.6294537
-5.2255507 16.329844 12.187769
-5.2255507 15.676652 12.187773
-4.0109987 1.5041231 -6.138401
-4.0210052 1.0052503 -5.9874172
-4.0210052 0.50262398 -5.9874148
-4.0210052 -2.2671043e-06 -5.9874177
-4.0209889 -0.50262487 -5.9876652
-4.0209889 -1.0052487 -5.9876676
-4.0316939 -1.5118859 -5.8261371
-4.2849693 -2.1424854 -2.0045068
-4.0109658 -3.0082252 -6.1388974
-4.0088587 -3.5077541 -6.1706929
-4.0067048 -4.0067067 -6.2031965
-4.0467944 -4.5526457 -5.5982933
-4.0429583 -5.0536971 -5.6561732
-4.039113 -5.553781 -5.7141948
-4.0352917 -6.0529385 -5.7718525
-4.0304461 -6.5494757 -5.844965
-4.0250316 -7.0438066 -5.9266615
-4.0196152 -7.536778 -6.0083914
-4.0142298 -8.0284615 -6.0896521
-4.0083652 -8.5177765 -6.1781397
-4.0014682 -9.0033045 -6.2822051
-3.9945788 -9.4871273 -6.386158
-3.9877131 -9.9692841 -6.4897585
-3.9808872 -10.449831 -6.592752
-3.972759 -10.925089 -6.7153988
-3.9645834 -11.398179 -6.8387556
-3.9564414 -11.869327 -6.961607
-3.9483333 -12.338543 -7.0839548
-3.9395266 -12.803465 -7.2168322
-3.9298582 -13.26327 -7.3627243
-3.9202211 -13.720774 -7.5081344
-3.9106309 -14.17604 -7.652833
-3.9011035 -14.62914 -7.7965937
-3.8903203 -15.074991 -7.959301
-3.8795195 -15.518081 -8.1222706
-3.8687632 -15.958651 -8.2845697
-3.8250692 -16.256546 -8.9438639
-3.8139718 -16.686129 -9.1113081
-3.8028796 -17.112959 -9.2786818
-3.8525884 -17.818222 -8.5286331
-3.4125388 16.087683 -7.8125749
-3.4125388 15.600176 -7.8125758
-3.4811478 15.416512 -6.6294537
-4.5723567 16.329844 12.187769
-4.5723567 15.676652 12.187773
-3.509624 1.5041231 -6.138401
-3.5183794 1.0052503 -5.9874172
-3.5183794 0.50262398 -5.9874148
-3.5183794 -2.2671043e-06 -5.9874177
-3.5183651 -0.50262487 -5.9876652
-3.5183651 -1.0052487 -5.9876676
-3.5282419 -1.512105 -5.8173475
-3.7205403 -2.1260245 -2.5012791
-3.5095952 -3.0082252 -6.1388974
-3.5077515 -3.5077541 -6.1706929
-3.5058665 -4.0067067 -6.2031965
-3.5409448 -4.5526457 -5.5982933
-3.5375884 -5.0536971 -5.6561732
-3.5342238 -5.553781 -5.7141948
-3.53088 -6.0529385 -5.7718525
-3.5266402 -6.5494757 -5.844965
-3.5219026 -7.0438066 -5.9266615
-3.5171635 -7.536778 -6.0083914
-3.5124512 -8.0284615 -6.0896521
-3.5073195 -8.5177765 -6.1781397
-3.5012848 -9.0033045 -6.2822051
-3.4952564 -9.4871273 -6.386158
-3.489249 -9.9692841 -6.4897585
-3.4832764 -10.449831 -6.592752
-3.4761639 -10.925089 -6.7153988
-3.4690106 -11.398179 -6.8387556
-3.4618864 -11.869327 -6.961607
-3.4547913 -12.338543 -7.0839548
-3.4470859 -12.803465 -7.2168322
-3.4386256 -13.26327 -7.3627243
-3.4301934 -13.720774 -7.5081344
-3.4218023 -14.17604 -7.652833
-3.4134655 -14.62914 -7.7965937
-3.4040303 -15.074991 -7.959301
-3.3945796 -15.518081 -8.1222706
-3.3851678 -15.958651 -8.2845697
-3.3469357 -16.256546 -8.9438639
-3.3372123 -16.686064 -9.1115332
-3.3275194 -17.112959 -9.2786818
-3.3710146 -17.818222 -8.5286331
-2.9250333 16.087683 -7.8125749
-2.9250333 15.600176 -7.8125758
-2.9838409 15.416512 -6.6294537
-3.919163 16.329844 12.187769
-3.919163 15.676652 12.187773
-3.008249 1.5041231 -6.138401
-3.015754 1.0052503 -5.9874172
-3.015754 0.50262398 -5.9874148
-3.015754 -2.2671043e-06 -5.9874177
-3.015754 -0.50262856 -5.9874153
-3.0157416 -1.0052487 -5.9876676
-3.0246568 -1.5123303 -5.8083029
-3.1731901 -2.1154625 -2.820044
-3.0082245 -3.0082252 -6.1388974
-3.0066319 -3.5077388 -6.1709418
-3.0050282 -4.0067067 -6.2031965
-3.0350955 -4.5526457 -5.5982933
-3.0322187 -5.0536971 -5.6561732
-3.0293348 -5.553781 -5.7141948
-3.0264688 -6.0529385 -5.7718525
-3.0228345 -6.5494757 -5.844965
-3.0187738 -7.0438066 -5.9266615
-3.0147114 -7.536778 -6.0083914
-3.0106723 -8.0284615 -6.0896521
-3.006274 -8.5177765 -6.1781397
-3.0011015 -9.0033045 -6.2822051
-2.9959342 -9.4871273 -6.386158
-2.9907849 -9.9692841 -6.4897585
-2.9856656 -10.449831 -6.592752
-2.9795692 -10.925089 -6.7153988
-2.9734375 -11.398179 -6.8387556
-2.9673312 -11.869327 -6.961607
-2.9612498 -12.338543 -7.0839548
-2.9546449 -12.803465 -7.2168322
-2.9473934 -13.26327 -7.3627243
-2.9401655 -13.720774 -7.5081344
-2.9329734 -14.17604 -7.652833
-2.9258275 -14.62914 -7.7965937
-2.9177403 -15.074991 -7.959301
-2.9096396 -15.518081 -8.1222706
-2.9015727 -15.958651 -8.2845697
-2.8688021 -16.256546 -8.9438639
-2.8604677 -16.686064 -9.1115332
-2.8521595 -17.112959 -9.2786818
-2.8894413 -17.818222 -8.5286331
-2.4375277 16.087683 -7.8125749
-2.4375277 15.600176 -7.8125758
-2.4865344 15.416512 -6.6294537
-3.265969 16.329844 12.187769
-3.265969 15.676652 12.187773
-2.5068743 1.5041231 -6.138401
-2.5131283 1.0052503 -5.9874172
-2.5131283 0.50262398 -5.9874148
-2.5131283 -2.2671043e-06 -5.9874177
-2.5131283 -0.50262856 -5.9874153
-2.5131178 -1.0052487 -5.9876676
-2.5209115 -1.512547 -5.7995119
-2.6367869 -2.1094306 -3.0020318
-2.5068536 -3.0082252 -6.1388974
-2.5055265 -3.5077388 -6.1709418
-2.5041904 -4.0067067 -6.2031965
-2.5292463 -4.5526457 -5.5982933
-2.5268488 -5.0536971 -5.6561732
-2.5244455 -5.553781 -5.7141948
-2.5220573 -6.0529385 -5.7718525
-2.5190289 -6.5494757 -5.844965
-2.5156448 -7.0438066 -5.9266615
-2.5122595 -7.536778 -6.0083914
-2.5088935 -8.0284615 -6.0896521
-2.5052283 -8.5177765 -6.1781397
-2.5009177 -9.0033045 -6.2822051
-2.4966118 -9.4871273 -6.386158
-2.4923208 -9.9692841 -6.4897585
-2.4880545 -10.449831 -6.592752
-2.4829743 -10.925089 -6.7153988
-2.4778645 -11.398179 -6.8387556
-2.4727759 -11.869327 -6.961607
-2.4677081 -12.338543 -7.0839548
-2.4622042 -12.803465 -7.2168322
-2.4561613 -13.26327 -7.3627243
-2.4501381 -13.720774 -7.5081344
-2.4441445 -14.17604 -7.652833
-2.4381897 -14.62914 -7.7965937
-2.4314501 -15.074991 -7.959301
-2.4246998 -15.518081 -8.1222706
-2.4179771 -15.958651 -8.2845697
-2.3906684 -16.256546 -8.9438639
-2.3837137 -16.685999 -9.1117573
-2.3767998 -17.112959 -9.2786818
-2.4078677 -17.818222 -8.5286331
-1.9500221 16.087683 -7.8125749
-1.9500221 15.600176 -7.8125758
-1.9892274 15.416512 -6.6294537
-2.6127753 16.329844 12.187769
-2.6127753 15.676652 12.187773
-2.0054994 1.5041231 -6.138401
-2.0105026 1.0052503 -5.9874172
-2.0105026 0.50262398 -5.9874148
-2.0105026 -2.2671043e-06 -5.9874177
-2.0105026 -0.50262856 -5.9874153
-2.0105026 -1.0052524 -5.9874177
-2.0170209 -1.5127668 -5.79071
-2.1034243 -2.1034245 -3.1832604
-2.0054829 -3.0082252 -6.1388974
-2.0044212 -3.5077388 -6.1709418
-2.0033524 -4.0067067 -6.2031965
-2.0233972 -4.5526457 -5.5982933
-2.0214791 -5.0536971 -5.6561732
-2.0195565 -5.553781 -5.7141948
-2.0176458 -6.0529385 -5.7718525
-2.015223 -6.5494757 -5.844965
-2.0125158 -7.0438066 -5.9266615
-2.0098076 -7.536778 -6.0083914
-2.0071149 -8.0284615 -6.0896521
-2.0041826 -8.5177765 -6.1781397
-2.0007341 -9.0033045 -6.2822051
-1.9972894 -9.4871273 -6.386158
-1.9938565 -9.9692841 -6.4897585
-1.9904436 -10.449831 -6.592752
-1.9863795 -10.925089 -6.7153988
-1.9822917 -11.398179 -6.8387556
-1.9782207 -11.869327 -6.961607
-1.9741666 -12.338543 -7.0839548
-1.9697633 -12.803465 -7.2168322
-1.9649291 -13.26327 -7.3627243
-1.9601105 -13.720774 -7.5081344
-1.9553155 -14.17604 -7.652833
-1.9505517 -14.62914 -7.7965937
-1.9451602 -15.074991 -7.959301
-1.9397597 -15.518081 -8.1222706
-1.9343816 -15.958651 -8.2845697
-1.9125346 -16.256546 -8.9438639
-1.906971 -16.685999 -9.1117573
-1.9014324 -17.112892 -9.2789049
-1.9262942 -17.818222 -8.5286331
-1.4625167 16.087683 -7.8125749
-1.4625167 15.600176 -7.8125758
-1.4919205 15.416512 -6.6294537
-1.9595815 16.329844 12.187769
-1.9595815 15.676652 12.187773
-1.5041245 1.5041231 -6.138401
-1.507877 1.0052503 -5.9874172
-1.507877 0.50262398 -5.9874148
-1.507877 -2.2671043e-06 -5.9874177
-1.507877 -0.50262856 -5.9874153
-1.507877 -1.0052524 -5.9874177
-1.5129905 -1.5129927 -5.7816601
-1.5760611 -2.1014183 -3.2438929
-1.5041122 -3.0082252 -6.1388974
-1.5033097 -3.5077233 -6.1711907
-1.5025141 -4.0067067 -6.2031965
-1.5175477 -4.5526457 -5.5982933
-1.5161093 -5.0536971 -5.6561732
-1.5146674 -5.553781 -5.7141948
-1.5132344 -6.0529385 -5.7718525
-1.5114173 -6.5494757 -5.844965
-1.5093869 -7.0438066 -5.9266615
-1.5073557 -7.536778 -6.0083914
-1.5053362 -8.0284615 -6.0896521
-1.503137 -8.5177765 -6.1781397
-1.5005507 -9.0033045 -6.2822051
-1.4979671 -9.4871273 -6.386158
-1.4953924 -9.9692841 -6.4897585
-1.4928328 -10.449831 -6.592752
-1.4897846 -10.925089 -6.7153988
-1.4867188 -11.398179 -6.8387556
-1.4836656 -11.869327 -6.961607
-1.4806249 -12.338543 -7.0839548
-1.4773225 -12.803465 -7.2168322
-1.4736967 -13.26327 -7.3627243
-1.4700828 -13.720774 -7.5081344
-1.4664867 -14.17604 -7.652833
-1.4629138 -14.62914 -7.7965937
-1.4588702 -15.074991 -7.959301
-1.4548198 -15.518081 -8.1222706
-1.4507864 -15.958651 -8.2845697
-1.434401 -16.256546 -8.9438639
-1.4302282 -16.685999 -9.1117573
-1.4260741 -17.112892 -9.2789049
-1.4447206 -17.818222 -8.5286331
-0.97501105 16.087683 -7.8125749
-0.97501105 15.600176 -7.8125758
-0.99461371 15.416512 -6.6294537
-1.3063877 16.329844 12.187769
-1.3063877 15.676652 12.187773
-1.0027497 1.5041231 -6.138401
-1.0052513 1.0052503 -5.9874172
-1.0052513 0.50262398 -5.9874148
-1.0052513 -2.2671043e-06 -5.9874177
-1.0052513 -0.50262856 -5.9874153
-1.0052513 -1.0052524 -5.9874177
-1.0088062 -1.5132105 -5.7728572
-1.0498357 -2.0996733 -3.2965131
-1.0027374 -3.0082123 -6.1391478
-1.0022064 -3.5077233 -6.1711907
-1.0016762 -4.0067067 -6.2031965
-1.0116986 -4.5526457 -5.5982933
-1.0107396 -5.0536971 -5.6561732
-1.0097783 -5.553781 -5.7141948
-1.0088229 -6.0529385 -5.7718525
-1.0076115 -6.5494757 -5.844965
-1.0062579 -7.0438066 -5.9266615
-1.0049038 -7.536778 -6.0083914
-1.0035574 -8.0284615 -6.0896521
-1.0020913 -8.5177765 -6.1781397
-1.000367 -9.0033045 -6.2822051
-0.99864471 -9.4871273 -6.386158
-0.99692827 -9.9692841 -6.4897585
-0.99522179 -10.449831 -6.592752
-0.99318975 -10.925089 -6.7153988
-0.99114585 -11.398179 -6.8387556
-0.98911035 -11.869327 -6.961607
-0.98708332 -12.338543 -7.0839548
-0.98488164 -12.803465 -7.2168322
-0.98246455 -13.26327 -7.3627243
-0.98005527 -13.720774 -7.5081344
-0.97765774 -14.17604 -7.652833
-0.97527587 -14.62914 -7.7965937
-0.97258008 -15.074991 -7.959301
-0.96987987 -15.518081 -8.1222706
-0.9671908 -15.958651 -8.2845697
-0.9562673 -16.256546 -8.9438639
-0.95348185 -16.685934 -9.1119823
-0.9507162 -17.112892 -9.2789049
-0.9631471 -17.818222 -8.5286331
-0.48750553 16.087683 -7.8125749
-0.48750553 15.600176 -7.8125758
-0.49730685 15.416512 -6.6294537
-0.65319383 16.329844 12.187769
-0.65319383 15.676652 12.187773
-0.50137484 1.5041231 -6.138401
-0.50262564 1.0052503 -5.9874172
-0.50262564 0.50262398 -5.9874148
-0.50262564 -2.2671043e-06 -5.9874177
-0.50262564 -0.50262856 -5.9874153
-0.50262564 -1.0052524 -5.9874177
-0.50447816 -1.5134373 -5.7638011
-0.52448487 -2.0979395 -3.3487766
-0.5013687 -3.0082123 -6.1391478
-0.50110322 -3.5077233 -6.1711907
-0.50083601 -4.006691 -6.2034454
-0.5058493 -4.5526457 -5.5982933
-0.50536978 -5.0536971 -5.6561732
-0.50488913 -5.553781 -5.7141948
-0.50441146 -6.0529385 -5.7718525
-0.50380576 -6.5494757 -5.844965
-0.50312895 -7.0438066 -5.9266615
-0.5024519 -7.536778 -6.0083914
-0.50177872 -8.0284615 -6.0896521
-0.50104564 -8.5177765 -6.1781397
-0.50018352 -9.0033045 -6.2822051
-0.49932235 -9.4871273 -6.386158
-0.49846414 -9.9692841 -6.4897585
-0.4976109 -10.449831 -6.592752
-0.49659488 -10.925089 -6.7153988
-0.49557292 -11.398179 -6.8387556
-0.49455518 -11.869327 -6.961607
-0.49354166 -12.338543 -7.0839548
-0.49244082 -12.803465 -7.2168322
-0.49123228 -13.26327 -7.3627243
-0.49002764 -13.720774 -7.5081344
-0.48882887 -14.17604 -7.652833
-0.48763794 -14.62914 -7.7965937
-0.48629004 -15.074991 -7.959301
-0.48493993 -15.518081 -8.1222706
-0.4835954 -15.958651 -8.2845697
-0.47813365 -16.256546 -8.9438639
-0.47674093 -16.685934 -9.1119823
-0.47535625 -17.112825 -9.2791281
-0.48157355 -17.818222 -8.5286331
6.2962381e-24 16.087683 -7.8125749
1.5362713e-23 15.600176 -7.8125758
6.7546373e-24 15.416512 -6.6294537
1.1136513e-23 16.329844 12.187769
1.2434917e-23 15.676652 12.187773
1.7767697e-23 1.5041231 -6.138401
8.1510978e-24 1.0052503 -5.9874172
2.3555226e-23 0.50262398 -5.9874148
1.7460761e-23 -2.2671043e-06 -5.9874177
3.2864889e-23 -0.50262856 -5.9874153
8.2423887e-24 -1.0052524 -5.9874177
1.0663947e-23 -1.5136551 -5.754993
1.8004903e-23 -2.0983291 -3.3370762
8.1349198e-24 -3.0082123 -6.1391478
4.1649402e-24 -3.5077233 -6.1711907
2.2823958e-23 -4.006691 -6.2034454
1.5267062e-23 -4.5526457 -5.5982933
4.5891825e-25 -5.0536971 -5.6561732
3.9243377e-24 -5.553781 -5.7141948
1.1662531e-23 -6.0529385 -5.7718525
1.1662741e-23 -6.5494757 -5.844965
2.2487558e-23 -7.0438066 -5.9266615
9.1816657e-24 -7.536778 -6.0083914
3.2958881e-24 -8.0284615 -6.0896521
2.6969419e-24 -8.5177765 -6.1781397
6.2083381e-24 -9.0033045 -6.2822051
1.8649986e-23 -9.4871273 -6.386158
1.3727907e-23 -9.9692841 -6.4897585
1.6531951e-23 -10.449831 -6.592752
1.7121571e-24 -10.925089 -6.7153988
1.5255525e-23 -11.398179 -6.8387556
1.8971027e-23 -11.869327 -6.961607
1.6280046e-23 -12.338543 -7.0839548
2.5558784e-23 -12.803465 -7.2168322
1.0827969e-23 -13.26327 -7.3627243
4.9033807e-24 -13.720774 -7.5081344
2.1869116e-23 -14.17604 -7.652833
2.3557382e-24 -14.62914 -7.7965937
-4.4619618e-24 -15.074991 -7.959301
9.7661209e-24 -15.518081 -8.1222706
1.0386517e-23 -15.958651 -8.2845697
7.3951269e-24 -16.256546 -8.9438639
1.5997127e-23 -16.685934 -9.1119823
1.3763782e-23 -17.112825 -9.2791281
6.9613378e-24 -17.818222 -8.5286331
0.48750553 16.087683 -7.8125749
0.48750553 15.600176 -7.8125758
0.49730685 15.416512 -6.6294537
0.65319383 16.329844 12.187769
0.65319383 15.676652 12.187773
0.50137484 1.5041231 -6.138401
0.50262564 1.0052503 -5.9874172
0.50262564 0.50262398 -5.9874148
0.50262564 -2.2671043e-06 -5.9874177
0.50262564 -0.50262856 -5.9874153
0.50262564 -1.0052524 -5.9874177
0.50462407 -1.5138736 -5.7461843
0.52521139 -2.1008463 -3.2610819
0.5013687 -3.0082123 -6.1391478
0.50110322 -3.5077233 -6.1711907
0.5008381 -4.0067067 -6.2031965
0.5058493 -4.5526457 -5.5982933
0.50536978 -5.0536971 -5.6561732
0.50488913 -5.553781 -5.7141948
0.50441146 -6.0529385 -5.7718525
0.50380576 -6.5494757 -5.844965
0.50312895 -7.0438066 -5.9266615
0.5024519 -7.536778 -6.0083914
0.50177872 -8.0284615 -6.0896521
0.50104564 -8.5177765 -6.1781397
0.50018352 -9.0033045 -6.2822051
0.49932235 -9.4871273 -6.386158
0.49846414 -9.9692841 -6.4897585
0.4976109 -10.449831 -6.592752
0.49659488 -10.925089 -6.7153988
0.49557292 -11.398179 -6.8387556
0.49455518 -11.869327 -6.961607
0.49354166 -12.338543 -7.0839548
0.49244082 -12.803465 -7.2168322
0.49123228 -13.26327 -7.3627243
0.49002764 -13.720774 -7.5081344
0.48882887 -14.17604 -7.652833
0.48763794 -14.62914 -7.7965937
0.48629004 -15.074991 -7.959301
0.48493993 -15.518081 -8.1222706
0.4835954 -15.958651 -8.2845697
0.47813365 -16.256546 -8.9438639
0.47674093 -16.685934 -9.1119823
0.4753581 -17.112892 -9.2789049
0.48157355 -17.818222 -8.5286331
0.97501105 16.087683 -7.8125749
0.97501105 15.600176 -7.8125758
0.99461371 15.416512 -6.6294537
1.3063877 16.329844 12.187769
1.3063877 15.676652 12.187773
1.0027497 1.5041231 -6.138401
1.0052513 1.0052503 -5.9874172
1.0052513 0.50262398 -5.9874148
1.0052513 -2.2671043e-06 -5.9874177
1.0052513 -0.50262856 -5.9874153
1.0052513 -1.0052524 -5.9874177
1.0093985 -1.5140982 -5.7371211
1.051685 -2.1033704 -3.1849015
1.0027415 -3.0082252 -6.1388974
1.0022064 -3.5077233 -6.1711907
1.0016762 -4.0067067 -6.2031965
1.0116986 -4.5526457 -5.5982933
1.0107396 -5.0536971 -5.6561732
1.0097783 -5.553781 -5.7141948
1.0088229 -6.0529385 -5.7718525
1.0076115 -6.5494757 -5.844965
1.0062579 -7.0438066 -5.9266615
1.0049038 -7.536778 -6.0083914
1.0035574 -8.0284615 -6.0896521
1.0020913 -8.5177765 -6.1781397
1.000367 -9.0033045 -6.2822051
0.99864471 -9.4871273 -6.386158
0.99692827 -9.9692841 -6.4897585
0.99522179 -10.449831 -6.592752
0.99318975 -10.925089 -6.7153988
0.99114585 -11.398179 -6.8387556
0.98911035 -11.869327 -6.961607
0.98708332 -12.338543 -7.0839548
0.98488164 -12.803465 -7.2168322
0.98246455 -13.26327 -7.3627243
0.98005527 -13.720774 -7.5081344
0.97765774 -14.17604 -7.652833
0.97527587 -14.62914 -7.7965937
0.97258008 -15.074991 -7.959301
0.96987987 -15.518081 -8.1222706
0.9671908 -15.958651 -8.2845697
0.9562673 -16.256546 -8.9438639
0.95348549 -16.685999 -9.1117573
0.9507162 -17.112892 -9.2789049
0.9631471 -17.818222 -8.5286331
1.4625167 16.087683 -7.8125749
1.4625167 15.600176 -7.8125758
1.4919205 15.416512 -6.6294537
1.9595815 16.329844 12.187769
1.9595815 15.676652 12.187773
1.5041245 1.5041231 -6.138401
1.507877 1.0052503 -5.9874172
1.507877 0.50262398 -5.9874148
1.507877 -2.2671043e-06 -5.9874177
1.507877 -0.50262856 -5.9874153
1.507877 -1.0052524 -5.9874177
1.5143167 -1.5143198 -5.728302
1.5797386 -2.1063197 -3.095928
1.5041122 -3.0082252 -6.1388974
1.5033159 -3.5077388 -6.1709418
1.5025141 -4.0067067 -6.2031965
1.5175477 -4.5526457 -5.5982933
1.5161093 -5.0536971 -5.6561732
1.5146674 -5.553781 -5.7141948
1.5132344 -6.0529385 -5.7718525
1.5114173 -6.5494757 -5.844965
1.5093869 -7.0438066 -5.9266615
1.5073557 -7.536778 -6.0083914
1.5053362 -8.0284615 -6.0896521
1.503137 -8.5177765 -6.1781397
1.5005507 -9.0033045 -6.2822051
1.4979671 -9.4871273 -6.386158
1.4953924 -9.9692841 -6.4897585
1.4928328 -10.449831 -6.592752
1.4897846 -10.925089 -6.7153988
1.4867188 -11.398179 -6.8387556
1.4836656 -11.869327 -6.961607
1.4806249 -12.338543 -7.0839548
1.4773225 -12.803465 -7.2168322
1.4736967 -13.26327 -7.3627243
1.4700828 -13.720774 -7.5081344
1.4664867 -14.17604 -7.652833
1.4629138 -14.62914 -7.7965937
1.4588702 -15.074991 -7.959301
1.4548198 -15.518081 -8.1222706
1.4507864 -15.958651 -8.2845697
1.434401 -16.256546 -8.9438639
1.4302282 -16.685999 -9.1117573
1.4260741 -17.112892 -9.2789049
1.4447206 -17.818222 -8.5286331
1.9500221 16.087683 -7.8125749
1.9500221 15.600176 -7.8125758
1.9892274 15.416512 -6.6294537
2.6127753 16.329844 12.187769
2.6127753 15.676652 12.187773
2.0054994 1.5041231 -6.138401
2.0105026 1.0052503 -5.9874172
2.0105026 0.50262398 -5.9874148
2.0105026 -2.2671043e-06 -5.9874177
2.0105026 -0.50262856 -5.9874153
2.0105026 -1.0052524 -5.9874177
2.0193894 -1.5145451 -5.719233
2.1156068 -2.1156101 -2.8156171
2.0054829 -3.0082252 -6.1388974
2.0044212 -3.5077388 -6.1709418
2.0033524 -4.0067067 -6.2031965
2.0233972 -4.5526457 -5.5982933
2.0214791 -5.0536971 -5.6561732
2.0195565 -5.553781 -5.7141948
2.0176458 -6.0529385 -5.7718525
2.015223 -6.5494757 -5.844965
2.0125158 -7.0438066 -5.9266615
2.0098076 -7.536778 -6.0083914
2.0071149 -8.0284615 -6.0896521
2.0041826 -8.5177765 -6.1781397
2.0007341 -9.0033045 -6.2822051
1.9972894 -9.4871273 -6.386158
1.9938565 -9.9692841 -6.4897585
1.9904436 -10.449831 -6.592752
1.9863795 -10.925089 -6.7153988
1.9822917 -11.398179 -6.8387556
1.9782207 -11.869327 -6.961607
1.9741666 -12.338543 -7.0839548
1.9697633 -12.803465 -7.2168322
1.9649291 -13.26327 -7.3627243
1.9601105 -13.720774 -7.5081344
1.9553155 -14.17604 -7.652833
1.9505517 -14.62914 -7.7965937
1.9451602 -15.074991 -7.959301
1.9397597 -15.518081 -8.1222706
1.9343816 -15.958651 -8.2845697
1.9125346 -16.256546 -8.9438639
1.906971 -16.685999 -9.1117573
1.9014398 -17.112959 -9.2786818
1.9262942 -17.818222 -8.5286331
2.4375277 16.087683 -7.8125749
2.4375277 15.600176 -7.8125758
2.4865344 15.416512 -6.6294537
3.265969 16.329844 12.187769
3.265969 15.676652 12.187773
2.5068743 1.5041231 -6.138401
2.5131283 1.0052503 -5.9874172
2.5131283 0.50262398 -5.9874148
2.5131283 -2.2671043e-06 -5.9874177
2.5131283 -0.50262856 -5.9874153
2.5131283 -1.0052524 -5.9874177
2.5246022 -1.5147623 -5.7104111
2.6562221 -2.1249785 -2.5328248
2.5068536 -3.0082252 -6.1388974
2.5055265 -3.5077388 -6.1709418
2.5041904 -4.0067067 -6.2031965
2.5292463 -4.5526457 -5.5982933
2.5268488 -5.0536971 -5.6561732
2.5244455 -5.553781 -5.7141948
2.5220573 -6.0529385 -5.7718525
2.5190289 -6.5494757 -5.844965
2.5156448 -7.0438066 -5.9266615
2.5122595 -7.536778 -6.0083914
2.5088935 -8.0284615 -6.0896521
2.5052283 -8.5177765 -6.1781397
2.5009077 -9.0032682 -6.2824535
2.4966118 -9.4871273 -6.386158
2.4923208 -9.9692841 -6.4897585
2.4880545 -10.449831 -6.592752
2.4829743 -10.925089 -6.7153988
2.4778645 -11.398179 -6.8387556
2.4727759 -11.869327 -6.961607
2.4677081 -12.338543 -7.0839548
2.4622042 -12.803465 -7.2168322
2.4561613 -13.26327 -7.3627243
2.4501381 -13.720774 -7.5081344
2.4441445 -14.17604 -7.652833
2.4381897 -14.62914 -7.7965937
2.4314501 -15.074991 -7.959301
2.4246998 -15.518081 -8.1222706
2.4179771 -15.958651 -8.2845697
2.3906684 -16.256546 -8.9438639
2.383723 -16.686064 -9.1115332
2.3767998 -17.112959 -9.2786818
2.4078677 -17.818222 -8.5286331
2.9250333 16.087683 -7.8125749
2.9250333 15.600176 -7.8125758
2.9838409 15.416512 -6.6294537
3.919163 16.329844 12.187769
3.919163 15.676652 12.187773
3.008249 1.5041231 -6.138401
3.015754 1.0052503 -5.9874172
3.015754 0.50262398 -5.9874148
3.015754 -2.2671043e-06 -5.9874177
3.015754 -0.50262856 -5.9874153
3.015754 -1.0052524 -5.9874177
3.0288837 -1.5144449 -5.7232642
3.2016621 -2.1344421 -2.2472351
3.0082245 -3.0082252 -6.1388974
3.006644 -3.5077541 -6.1706929
3.0050282 -4.0067067 -6.2031965
3.0350955 -4.5526457 -5.5982933
3.0322187 -5.0536971 -5.6561732
3.0293348 -5.553781 -5.7141948
3.0264688 -6.0529385 -5.7718525
3.0228345 -6.5494757 -5.844965
3.0187738 -7.0438066 -5.9266615
3.0147114 -7.536778 -6.0083914
3.0106723 -8.0284615 -6.0896521
3.006274 -8.5177765 -6.1781397
3.0010889 -9.0032682 -6.2824535
2.9959342 -9.4871273 -6.386158
2.9907849 -9.9692841 -6.4897585
2.9856656 -10.449831 -6.592752
2.9795692 -10.925089 -6.7153988
2.9734375 -11.398179 -6.8387556
2.9673312 -11.869327 -6.961607
2.9612498 -12.338543 -7.0839548
2.9546449 -12.803465 -7.2168322
2.9473934 -13.26327 -7.3627243
2.9401655 -13.720774 -7.5081344
2.9329734 -14.17604 -7.652833
2.9258275 -14.62914 -7.7965937
2.9177403 -15.074991 -7.959301
2.9096396 -15.518081 -8.1222706
2.9015727 -15.958651 -8.2845697
2.8688021 -16.256546 -8.9438639
2.8604677 -16.686064 -9.1115332
2.8521595 -17.112959 -9.2786818
2.8894413 -17.818222 -8.5286331
3.4125388 16.087683 -7.8125749
3.4125388 15.600176 -7.8125758
3.4811478 15.416512 -6.6294537
4.5723567 16.329844 12.187769
4.5723567 15.676652 12.187773
3.509624 1.5041231 -6.138401
3.5183794 1.0052503 -5.9874172
3.5183794 0.50262398 -5.9874148
3.5183794 -2.2671043e-06 -5.9874177
3.5183794 -0.50262856 -5.9874153
3.5183794 -1.0052524 -5.9874177
3.5323539 -1.5138675 -5.7464328
3.7680607 -2.1531796 -1.6818231
3.5095952 -3.0082252 -6.1388974
3.5077515 -3.5077541 -6.1706929
3.5058665 -4.0067067 -6.2031965
3.5409448 -4.5526457 -5.5982933
3.5375884 -5.0536971 -5.6561732
3.5342238 -5.553781 -5.7141948
3.53088 -6.0529385 -5.7718525
3.5266402 -6.5494757 -5.844965
3.5219026 -7.0438066 -5.9266615
3.5171635 -7.536778 -6.0083914
3.5124512 -8.0284615 -6.0896521
3.5073195 -8.5177765 -6.1781397
3.5012708 -9.0032682 -6.2824535
3.4952564 -9.4871273 -6.386158
3.489249 -9.9692841 -6.4897585
3.4832764 -10.449831 -6.592752
3.4761639 -10.925089 -6.7153988
3.4690106 -11.398179 -6.8387556
3.4618864 -11.869327 -6.961607
3.4547913 -12.338543 -7.0839548
3.4470859 -12.803465 -7.2168322
3.4386256 -13.26327 -7.3627243
3.4301934 -13.720774 -7.5081344
3.4218023 -14.17604 -7.652833
3.4134655 -14.62914 -7.7965937
3.4040303 -15.074991 -7.959301
3.3945796 -15.518081 -8.1222706
3.3851678 -15.958651 -8.2845697
3.3469357 -16.256546 -8.9438639
3.3372254 -16.686129 -9.1113081
3.3275194 -17.112959 -9.2786818
3.3710146 -17.818222 -8.5286331
3.9000442 16.087683 -7.8125749
3.9000442 15.600176 -7.8125758
3.9784548 15.416512 -6.6294537
5.2255507 16.329844 12.187769
5.2255507 15.676652 12.187773
4.0109987 1.5041231 -6.138401
4.0210052 1.0052503 -5.9874172
4.0210052 0.50262398 -5.9874148
4.0210052 -2.2671043e-06 -5.9874177
4.0210052 -0.50262856 -5.9874153
4.0210052 -1.0052524 -5.9874177
4.0354414 -1.5132911 -5.7695894
4.3624783 -2.1812403 -0.83498776
4.0109658 -3.0082252 -6.1388974
4.0088587 -3.5077541 -6.1706929
4.0067048 -4.0067067 -6.2031965
4.0467944 -4.5526457 -5.5982933
4.0429583 -5.0536971 -5.6561732
4.039113 -5.553781 -5.7141948
4.0352917 -6.0529385 -5.7718525
4.0304461 -6.5494757 -5.844965
4.0250316 -7.0438066 -5.9266615
4.0196152 -7.536778 -6.0083914
4.0142298 -8.0284615 -6.0896521
4.0083652 -8.5177765 -6.1781397
4.001452 -9.0032682 -6.2824535
3.9945788 -9.4871273 -6.386158
3.9877131 -9.9692841 -6.4897585
3.9808872 -10.449831 -6.592752
3.972759 -10.925089 -6.7153988
3.9645834 -11.398179 -6.8387556
3.9564414 -11.869327 -6.961607
3.9483333 -12.338543 -7.0839548
3.9395266 -12.803465 -7.2168322
3.9298582 -13.26327 -7.3627243
3.9202211 -13.720774 -7.5081344
3.9106309 -14.17604 -7.652833
3.9011035 -14.62914 -7.7965937
3.8903203 -15.074991 -7.959301
3.8795195 -15.518081 -8.1222706
3.8687632 -15.958651 -8.2845697
3.8250692 -16.256546 -8.9438639
3.8139718 -16.686129 -9.1113081
3.8028796 -17.112959 -9.2786818
3.8525884 -17.818222 -8.5286331
4.3875499 16.087683 -7.8125749
4.3875499 15.600176 -7.8125758
4.4757614 15.416512 -6.6294537
5.8787446 16.329844 12.187769
5.8787446 15.676652 12.187773
4.5123739 1.5041231 -6.138401
4.5236311 1.0052503 -5.9874172
4.5236311 0.50262398 -5.9874148
4.5236311 -2.2671043e-06 -5.9874177
4.5236311 -0.50262856 -5.9874153
4.5236311 -1.0052524 -5.9874177
4.538147 -1.5127171 -5.7927232
5.0871458 -2.2609549 1.5706109
4.5123367 -3.0082252 -6.1388974
4.509985 -3.5077672 -6.1704421
4.5075426 -4.0067067 -6.2031965
4.5526433 -4.5526457 -5.5982933
4.5483279 -5.0536971 -5.6561732
4.5440021 -5.553781 -5.7141948
4.5397034 -6.0529385 -5.7718525
4.5342517 -6.5494757 -5.844965
4.5281606 -7.0438066 -5.9266615
4.5220671 -7.536778 -6.0083914
4.5160084 -8.0284615 -6.0896521
4.5094109 -8.5177765 -6.1781397
4.5016336 -9.0032682 -6.2824535
4.4939013 -9.4871273 -6.386158
4.486177 -9.9692841 -6.4897585
4.478498 -10.449831 -6.592752
4.4693537 -10.925089 -6.7153988
4.4601564 -11.398179 -6.8387556
4.4509969 -11.869327 -6.961607
4.4418745 -12.338543 -7.0839548
4.4319677 -12.803465 -7.2168322
4.4210901 -13.26327 -7.3627243
4.4102488 -13.720774 -7.5081344
4.3994598 -14.17604 -7.652833
4.3887415 -14.62914 -7.7965937
4.3766103 -15.074991 -7.959301
4.3644595 -15.518081 -8.1222706
4.3523588 -15.958651 -8.2845697
4.3032031 -16.256546 -8.9438639
4.2907186 -16.686129 -9.1113081
4.2782559 -17.113026 -9.2784576
4.3341618 -17.818222 -8.5286331
4.8750553 16.087683 -7.8125749
4.8750553 15.600176 -7.8125758
4.9730687 15.416512 -6.6294537
6.5319381 16.329844 12.187769
6.5319381 15.676652 12.187773
5.0137486 1.5041231 -6.138401
5.0262566 1.0052503 -5.9874172
5.0262566 0.50262398 -5.9874148
5.0262566 -2.2671043e-06 -5.9874177
5.0262566 -0.50262856 -5.9874153
5.0262566 -1.0052524 -5.9874177
5.0404701 -1.5121415 -5.8158436
5.0137072 -3.0082252 -6.1388974
5.0110941 -3.5077672 -6.1704421
5.0083809 -4.0067067 -6.2031965
5.0584927 -4.5526457 -5.5982933
5.0536976 -5.0536971 -5.6561732
5.0488911 -5.553781 -5.7141948
5.0441146 -6.0529385 -5.7718525
5.0380578 -6.5494757 -5.844965
5.0312896 -7.0438066 -5.9266615
5.024519 -7.536778 -6.0083914
5.017787 -8.0284615 -6.0896521
5.0104566 -8.5177765 -6.1781397
5.0018153 -9.0032682 -6.2824535
4.9932237 -9.4871273 -6.386158
4.9846416 -9.9692841 -6.4897585
4.976109 -10.449831 -6.592752
4.9659486 -10.925089 -6.7153988
4.955729 -11.398179 -6.8387556
4.9455519 -11.869327 -6.961607
4.9354162 -12.338543 -7.0839548
4.9244084 -12.803465 -7.2168322
4.9123225 -13.26327 -7.3627243
4.9002762 -13.720774 -7.5081344
4.888289 -14.17604 -7.652833
4.8763795 -14.62914 -7.7965937
4.8629003 -15.074991 -7.959301
4.8493996 -15.518081 -8.1222706
4.8359542 -15.958651 -8.2845697
4.7813368 -16.256546 -8.9438639
4.7674837 -16.686193 -9.111083
4.7536178 -17.113026 -9.2784576
4.8157353 -17.818222 -8.5286331
5.3625607 16.087683 -7.8125749
5.3625607 15.600176 -7.8125758
5.4703755 15.416512 -6.6294537
7.1851325 16.329844 12.187769
7.1851325 15.676652 12.187773
7.296144 11.939146 13.405985
7.2776017 11.247206 13.202504
7.2596636 10.559511 13.005654
7.2523327 9.8895445 12.925213
7.2380276 9.2120342 12.768228
7.2230792 8.5363665 12.604195
7.217412 7.873538 12.542002
7.2110186 7.2110186 12.471838
7.1930981 6.5391812 12.275186
7.1767621 5.8718972 12.095918
7.1769924 5.2196288 12.098443
7.1779513 4.5677848 12.108967
7.1791792 3.9159133 12.122441
5.636147 2.5618839 -4.8103318
5.6140475 2.0414708 -5.0528388
5.5151916 1.5041431 -6.1376567
5.5344872 1.0062687 -5.9259124
5.5354676 0.50322163 -5.9151459
5.5354676 -1.3700583e-06 -5.9151487
5.5354676 -0.50322729 -5.9151473
5.5355134 -1.0064607 -5.9146457
5.5680556 -1.5185617 -5.5575366
5.6117487 -2.040638 -5.0780644
5.6097097 -2.5498683 -5.1004429
5.5150781 -3.0082252 -6.1388974
5.5122037 -3.5077672 -6.1704421
5.5092187 -4.0067067 -6.2031965
5.564342 -4.5526457 -5.5982933
5.5590677 -5.0536971 -5.6561732
5.5537806 -5.553781 -5.7141948
5.5485263 -6.0529385 -5.7718525
5.5418634 -6.5494757 -5.844965
5.5344186 -7.0438066 -5.9266615
5.5269709 -7.536778 -6.0083914
5.5195661 -8.0284615 -6.0896521
5.5115023 -8.5177765 -6.1781397
5.501996 -9.0032682 -6.2824535
5.4925461 -9.4871273 -6.386158
5.4831057 -9.9692841 -6.4897585
5.4737196 -10.449831 -6.592752
5.4625435 -10.925089 -6.7153988
5.4513021 -11.398179 -6.8387556
5.4401073 -11.869327 -6.961607
5.4289579 -12.338543 -7.0839548
5.4168491 -12.803465 -7.2168322
5.4035549 -13.26327 -7.3627243
5.3903041 -13.720774 -7.5081344
5.3771176 -14.17604 -7.652833
5.3640175 -14.62914 -7.7965937
5.3491907 -15.074991 -7.959301
5.3343391 -15.518081 -8.1222706
5.3195496 -15.958651 -8.2845697
5.2594705 -16.256546 -8.9438639
5.2442317 -16.686193 -9.111083
5.2289796 -17.113026 -9.2784576
5.2973084 -17.818222 -8.5286331
8.0153847 25.382051 13.968841
7.9615932 24.548243 13.427735
7.9077072 23.723124 12.88569
7.8965831 23.0317 12.773792
7.8878255 22.348839 12.685701
5.8500667 16.087683 -7.8125749
5.8500667 15.600176 -7.8125758
5.9676819 15.416512 -6.6294537
7.8563156 19.640787 12.36873
7.1826177 17.357994 5.591855
7.1826177 16.759441 5.5918531
5.9785185 13.451666 -6.5204487
5.9619513 12.91756 -6.6871033
5.9454756 12.386406 -6.8528333
5.9290905 11.858182 -7.0176573
5.9127955 11.332857 -7.1815691
5.8955698 10.808543 -7.3548465
5.8920846 10.311148 -7.3899093
5.8968983 9.8281641 -7.3414817
5.9017444 9.3444271 -7.292737
5.9065981 8.8598938 -7.2439127
5.911531 8.37467 -7.1942906
5.9171419 7.8895206 -7.1378517
5.9227872 7.4034815 -7.0810642
5.9284191 6.9164858 -7.0244117
5.9340615 6.428566 -6.9676533
5.9397149 5.9397125 -6.9107838
5.9455476 5.4500847 -6.852108
5.9520454 4.9600353 -6.7867503
5.9585805 4.4689355 -6.7210073
5.9651065 3.976737 -6.6553588
5.9716711 3.483474 -6.5893273
5.9782262 2.9891121 -6.5233908
5.9853082 2.4938769 -6.452147
5.9928489 1.9976153 -6.3762989
5.999474 1.499867 -6.3096485
6.0042191 1.0007021 -6.2619143
6.0081835 0.50068063 -6.2220411
6.0133867 -2.3589225e-06 -6.1696992
6.0163503 -0.50136399 -6.1398931
6.0171652 -1.002863 -6.1316905
6.0190935 -1.5047741 -6.1122942
6.0195632 -2.0065219 -6.1075687
6.0183268 -2.5076392 -6.1200027
6.0167456 -3.008374 -6.1359177
6.0136337 -3.5079551 -6.1672158
6.0103283 -4.0068865 -6.20047
6.0058436 -4.5043855 -6.245574
6.001195 -5.0009961 -6.292345
5.9956689 -5.4960308 -6.3479285
5.9901042 -5.9901047 -6.4039035
5.9835482 -6.4821787 -6.469851
5.9769335 -6.9730892 -6.5363965
5.9691653 -7.4614592 -6.614532
5.9611993 -7.9482656 -6.6946673
5.9524808 -8.4326839 -6.7823696
5.9437628 -8.9156446 -6.8700638
5.9342537 -9.3959017 -6.9657187
5.9246793 -9.8744669 -7.0620337
5.9138694 -10.349273 -7.1707673
5.9030519 -10.822265 -7.2795801
5.8915396 -11.292119 -7.395391
5.8800249 -11.76005 -7.5112195
5.8676143 -12.224199 -7.636055
5.855093 -12.686035 -7.7620153
5.8417397 -13.143915 -7.8963394
5.8282151 -13.599169 -8.0323887
5.8139219 -14.050314 -8.1761589
5.7994008 -14.498505 -8.3222342
5.7844949 -14.94328 -8.4721756
5.7694612 -15.385233 -8.6233997
5.7538729 -15.82315 -8.7802124
5.737896 -16.257374 -8.9409227
5.7214942 -16.687693 -9.105916
5.7045417 -17.113625 -9.2764463
5.7788825 -17.818222 -8.5286331
6.3202853 24.308792 -7.9730897
6.3109117 23.787283 -8.0601254
6.3015661 23.267323 -8.1469069
6.2964416 22.764055 -8.1944904
6.2983909 22.286613 -8.1763954
6.3003154 21.808781 -8.1585197
6.3022418 21.330662 -8.1406345
6.3041692 20.852251 -8.122736
6.306098 20.373545 -8.1048288
6.3083038 19.895416 -8.0843496
6.3110118 19.418499 -8.0591946
6.3137484 18.941244 -8.0337877
6.3164873 18.463577 -8.008357
6.3192286 17.985495 -7.982904
6.3219724 17.506998 -7.9574289
6.3249192 17.028631 -7.9300585
6.3284502 16.551331 -7.8972759
6.3320103 16.073561 -7.864223
6.3355484 15.595196 -7.8313684
6.3391161 15.116353 -7.7982407
6.3426628 14.636911 -7.7653103
6.3463907 14.157331 -7.7306938
6.3507328 13.678499 -7.6903734
6.3550811 13.199012 -7.6499991
6.3594351 12.718867 -7.6095705
6.3637953 12.238066 -7.5690851
6.368187 11.756652 -7.5283055
6.3726864 11.274754 -7.4865241
6.3778849 10.793344 -7.4382577
6.3831172 10.311187 -7.3896694
6.3883328 9.8282003 -7.3412423
6.3935819 9.3444643 -7.2924981
6.3988147 8.8598938 -7.2439127
6.4041591 8.37467 -7.1942906
6.4102631 7.8895526 -7.13761
6.4163523 7.4034815 -7.0810642
6.4224534 6.9164858 -7.0244117
6.4285665 6.428566 -6.9676533
6.4346914 5.9397125 -6.9107838
6.4410105 5.4500847 -6.852108
6.4480491 4.9600353 -6.7867503
6.4551291 4.4689355 -6.7210073
6.4621992 3.976737 -6.6553588
6.4693108 3.483474 -6.5893273
6.4764113 2.9891121 -6.5233908
6.4839783 2.4938364 -6.4531322
6.4921999 1.9975985 -6.3767896
6.4983397 1.499617 -6.3197808
6.5039577 1.0006067 -6.2676058
6.5095863 0.50073546 -6.2153473
6.5148501 -1.8183252e-06 -6.1664739
6.5178461 -0.50137496 -6.1386504
6.5192385 -1.0029616 -6.1257253
6.5201488 -1.5046501 -6.1172709
6.52106 -2.0064826 -6.1088123
6.5198541 -2.5076392 -6.1200027
6.5181408 -3.008374 -6.1359177
6.5147433 -3.5079396 -6.1674647
6.5111618 -4.0068688 -6.2007179
6.5063043 -4.5043678 -6.245822
6.5012674 -5.0009761 -6.2925911
6.4953079 -5.4960308 -6.3479285
6.4892802 -5.9901047 -6.4039035
6.4821248 -6.4821272 -6.4703422
6.4749584 -6.973033 -6.5368848
6.4667277 -7.4616108 -6.6133084
6.4581237 -7.9484615 -6.6932006
6.4487042 -8.4329214 -6.7806697
6.4392338 -8.915863 -6.8686042
6.4289575 -9.3961687 -6.9640255
6.418376 -9.8744268 -7.062274
6.4066663 -10.349232 -7.1710067
6.3949471 -10.822219 -7.2798228
6.3824759 -11.292074 -7.3956275
6.3700008 -11.760005 -7.511456
6.3565569 -12.224149 -7.6362948
6.3430176 -12.686035 -7.7620153
6.3285513 -13.143915 -7.8963394
6.3138995 -13.599169 -8.0323887
6.2983909 -14.050256 -8.1763945
6.2826843 -14.498505 -8.3222342
6.2665362 -14.94328 -8.4721756
6.2502499 -15.385233 -8.6233997
6.2333622 -15.82315 -8.7802124
6.216054 -16.257374 -8.9409227
6.1982851 -16.687693 -9.105916
6.1798959 -17.113558 -9.2766695
6.2604561 -17.818222 -8.5286331
6.7769117 24.203259 -8.227869
6.7780948 23.72333 -8.2176743
6.7792773 23.243235 -8.2074766
6.7807832 22.764055 -8.1944904
6.7828822 22.286613 -8.1763954
6.784955 21.808781 -8.1585197
6.7870297 21.330662 -8.1406345
6.7891049 20.852251 -8.122736
6.7911825 20.373545 -8.1048288
6.7935576 19.895416 -8.0843496
6.7964749 19.418499 -8.0591946
6.7994218 18.941244 -8.0337877
6.802371 18.463577 -8.008357
6.8053231 17.985495 -7.982904
6.8082771 17.506998 -7.9574289
6.8114514 17.028631 -7.9300585
6.8152542 16.551331 -7.8972759
6.8190875 16.073561 -7.864223
6.8228979 15.595196 -7.8313684
6.8267407 15.116353 -7.7982407
6.8305597 14.636911 -7.7653103
6.8345742 14.157331 -7.7306938
6.8392506 13.678499 -7.6903734
6.8439331 13.199012 -7.6499991
6.8486223 12.718867 -7.6095705
6.8533454 12.238115 -7.5688477
6.8580747 11.756701 -7.5280714
6.8628931 11.274754 -7.4865241
6.8685188 10.793385 -7.4380155
6.874126 10.311187 -7.3896694
6.8797703 9.8282404 -7.3410025
6.885396 9.3444643 -7.2924981
6.8910313 8.8598938 -7.2439127
6.8968143 8.3747025 -7.1940489
6.9033599 7.8895526 -7.13761
6.9099178 7.4034815 -7.0810642
6.9164882 6.9164858 -7.0244117
6.9230719 6.428566 -6.9676533
6.929667 5.9397125 -6.9107838
6.9364724 5.4500847 -6.852108
6.9440532 4.9600353 -6.7867503
6.9516778 4.4689355 -6.7210073
6.959291 3.976737 -6.6553588
6.9669499 3.483474 -6.5893273
6.974597 2.9891121 -6.5233908
6.9827175 2.4938257 -6.4533787
6.9915714 1.9975905 -6.3770404
6.9986987 1.4997202 -6.3155808
7.0050378 1.0007191 -6.2609258
7.0111003 0.5007925 -6.208652
7.0160213 -3.0819465e-06 -6.1662221
7.0192194 -0.50137496 -6.1386504
7.0214105 -1.00306 -6.1197538
7.0223913 -1.5047981 -6.111299
7.0228529 -2.00653 -6.1073213
7.0213819 -2.5076392 -6.1200027
7.0195365 -3.008374 -6.1359177
7.0158772 -3.5079396 -6.1674647
7.0120206 -4.0068688 -6.2007179
7.0067892 -4.5043678 -6.245822
7.0013652 -5.0009761 -6.2925911
6.9949183 -5.4960084 -6.3481736
6.9884267 -5.9900823 -6.4041481
6.9807491 -6.4821272 -6.4703422
6.9730034 -6.9730039 -6.5371313
6.9641395 -7.4615803 -6.613554
