# .PCD v0.7 - Point Cloud Data file format
VERSION 0.7
FIELDS x y z
SIZE 4 4 4
TYPE F F F
COUNT 1 1 1
WIDTH 1530
HEIGHT 1
VIEWPOINT 0 0 0 1 0 0 0
POINTS 1530
DATA ascii
-401.44968 370.56906 -328.6398
-339.03604 234.71741 -908.17761
-335.86447 206.6859 -937.62732
-335.19724 180.49097 -943.82263
-335.64963 154.91534 -939.62219
-337.5394 129.82294 -922.07465
-463.63385 142.65675 248.76714
-465.673 107.4632 267.70178
-466.56253 71.778961 275.96136
-466.34152 35.872597 273.90918
-465.75021 0.00028581094 268.41861
-464.95206 -35.765335 261.00739
-463.96042 -71.378311 251.79982
-463.25827 -106.90558 245.27991
-462.69714 -142.36818 240.0696
-462.1553 -177.75198 235.03833
-461.66156 -213.07451 230.4538
-461.47641 -248.48718 228.73454
-461.12656 -283.77005 225.48631
-461.27802 -319.34616 226.89261
-461.1199 -354.70734 225.42406
-461.08871 -390.15192 225.13469
-461.15775 -425.6839 225.77567
-461.69058 -461.69052 230.72314
-462.69489 -498.28671 240.04901
-463.92438 -535.2973 251.46501
-465.30771 -572.68628 264.31
-466.7883 -610.41541 278.05771
-468.34488 -648.47736 292.51154
-470.12936 -687.11206 309.08124
-472.02081 -726.18579 326.64407
-473.92752 -765.57501 344.3486
-475.8497 -805.284 362.1969
-477.78516 -845.31207 380.16837
-479.73883 -885.67157 398.30905
-481.70853 -926.36255 416.59863
-483.69446 -967.38885 435.039
-485.69437 -1008.7497 453.60892
-487.9227 -1050.9103 474.30005
-490.23697 -1093.6056 495.78922
-492.57587 -1136.7134 517.50671
-494.9346 -1180.2286 539.40875
-497.31604 -1224.1624 561.52118
-499.72055 -1268.5212 583.84772
-502.96817 -1315.4552 614.00391
-371.29312 928.23285 -321.35516
-371.00403 896.59326 -324.26309
-370.98376 865.62878 -324.46722
-371.13525 835.05438 -322.9433
-372.98819 808.14124 -304.30417
-429.07373 893.90393 259.87262
-429.23666 858.47351 261.51193
-370.55026 370.55038 -328.828
-311.82172 233.86641 -919.59125
-309.5769 206.3848 -942.1723
-309.12857 180.32506 -946.68225
-309.69 154.84506 -941.03448
-311.6145 129.83951 -921.67572
-428.10684 142.70236 250.14714
-429.87085 107.46788 267.89133
-430.53427 71.755913 274.56491
-430.17291 35.847839 270.92993
-429.53992 0.00013794673 264.56238
-428.62308 -35.718445 255.3399
-427.71222 -71.28524 246.17717
-427.14026 -106.78484 240.4236
-426.63998 -142.21329 235.39143
-426.1409 -177.55859 230.37097
-425.82803 -212.91394 227.22353
-425.69229 -248.32037 225.85851
-425.54434 -283.69617 224.37019
-425.64911 -319.23666 225.42404
-425.72107 -354.76752 226.14796
-425.70255 -390.2272 225.96182
-425.85886 -425.8587 227.53387
-426.45834 -461.99637 233.56438
-427.39496 -498.62732 242.98579
-428.57935 -535.724 254.89966
-429.84781 -573.13031 267.65952
-431.21875 -610.89301 281.44983
-432.68546 -649.02802 296.20398
-434.3526 -687.72485 312.97424
-436.10162 -726.836 330.56833
-437.86487 -766.26331 348.30484
-439.64017 -806.0069 366.1633
-441.43216 -846.07812 384.18924
-443.23883 -886.4776 402.36292
-445.20868 -927.51788 422.17801
-447.29596 -969.14111 443.17456
-449.40289 -1011.1563 464.36847
-451.5321 -1053.5747 485.78656
-453.6792 -1096.3914 507.38519
-455.84686 -1139.6171 529.19012
-458.03537 -1183.2579 551.20447
-460.2449 -1227.3196 573.43091
-462.47592 -1271.8087 595.87323
-465.86328 -1319.9458 629.94733
-342.64374 934.48297 -296.20654
-341.94342 901.48743 -303.89157
-341.8075 870.0556 -305.38348
-341.86389 839.12054 -304.76456
-342.35196 809.1958 -299.40857
-390.20285 886.82489 225.69275
-390.3876 851.75507 227.72011
-392.81281 821.33594 254.33383
-338.41498 369.18011 -342.61139
-285.11749 233.27808 -927.48218
-283.3927 206.10391 -946.40967
-283.10776 180.15955 -949.5365
-283.75391 154.77502 -942.44562
-285.7951 129.90697 -920.04608
-392.56476 142.75096 251.61154
-394.00986 107.45738 267.4697
-394.42334 71.713547 272.00699
-394.05405 35.823135 267.9548
-393.22952 0.00014607556 258.90668
-392.39127 -35.671764 249.70787
-391.58508 -71.197144 240.86073
-391.1188 -106.66865 235.74452
-390.65936 -142.05785 230.7025
-390.21417 -177.36993 225.81705
-390.08044 -212.77106 224.34935
-389.93552 -248.14062 222.75899
-390.02206 -283.65222 223.70883
-390.09363 -319.16736 224.49393
-390.31219 -354.82913 226.89244
-390.36496 -390.3649 227.47182
-390.55362 -426.05835 229.54225
-391.16803 -462.28934 236.28468
-392.06766 -498.99515 246.15648
-393.17593 -536.14899 258.3187
-394.33289 -573.57501 271.0145
-395.5954 -611.37457 284.86868
-396.96735 -649.58276 299.92432
-398.51193 -688.33875 316.87427
-400.1181 -727.4873 334.49973
-401.73526 -766.94916 352.24637
-403.46628 -806.9325 371.24173
-405.33624 -847.52112 391.76224
-407.22363 -888.48773 412.47348
-409.12866 -929.83777 433.37888
-411.05371 -971.58136 454.50366
-412.99481 -1013.7145 475.80505
-414.95438 -1056.2472 497.30841
-416.93259 -1099.1858 519.01685
-418.92978 -1142.5356 540.93323
-420.9462 -1186.3029 563.06091
-422.98431 -1230.4995 585.42651
-425.04001 -1275.12 607.98541
-428.77933 -1325.3176 649.01904
-312.59708 906.53156 -282.8949
-312.37643 874.65417 -285.55832
-312.33127 843.29443 -286.10336
-312.49734 812.49323 -284.09857
-314.77902 786.94757 -256.55652
-352.1149 845.07581 194.1273
-352.58978 810.95679 199.85957
-307.62808 369.15387 -342.87576
-258.58463 232.72627 -934.88293
-257.32742 205.86208 -950.05878
-257.16797 180.01768 -951.98346
-257.84222 154.70551 -943.84448
-260.04276 130.02148 -917.28192
-356.98975 142.79602 252.97232
-358.15411 107.4465 267.02704
-358.35678 71.671516 269.47333
-357.79651 35.779823 262.71045
-357.03836 0.00012530871 253.55872
-356.28513 -35.628475 244.46631
-355.61935 -71.123703 236.42999
-355.20154 -106.5603 231.38646
-354.78641 -141.91438 226.37541
-354.50565 -177.25258 222.98598
-354.39447 -212.63649 221.64412
-354.35342 -248.04723 221.14899
-354.50732 -283.60577 223.00687
-354.68362 -319.21512 225.1348
-354.88239 -354.88229 227.534
-355.00073 -390.5007 228.96228
-355.23074 -426.27679 231.73901
-355.83295 -462.58273 239.00841
-356.69858 -499.37793 249.45717
-357.70938 -536.5639 261.65915
-358.77328 -574.03711 274.50137
-359.91406 -611.85382 288.27161
-361.18637 -650.13531 303.62973
-362.66275 -689.05914 321.45111
-364.32458 -728.64905 341.51147
-366.00177 -768.60345 361.75653
-367.69443 -808.92755 382.18896
-369.40283 -849.6264 402.81134
-371.12906 -890.70953 423.64871
-372.8696 -932.17383 444.65878
-374.62656 -974.02899 465.86713
-376.40015 -1016.2804 487.27618
-378.19058 -1058.9335 508.88876
-379.99817 -1101.9945 530.70813
-381.82507 -1145.4751 552.76086
-383.66763 -1189.3696 575.00281
-385.52808 -1233.6897 597.46027
-387.40665 -1278.4418 620.13623
-283.02826 911.98022 -260.21634
-282.61087 879.23401 -265.81442
-282.55292 847.65906 -266.59174
-282.61813 816.45258 -265.71698
-283.32782 787.02179 -256.19843
-314.50055 838.6684 161.89952
-314.76108 804.38965 165.39388
-276.84674 369.12921 -343.12469
-283.55142 315.05725 -253.19968
-232.28955 232.28961 -940.73907
-231.32404 205.62146 -953.68866
-231.28601 179.88924 -954.19873
-232.01891 154.67937 -944.36877
-234.35205 130.19571 -913.07605
-321.30173 142.80095 253.11868
-322.26959 107.42346 266.09985
-322.38583 71.641396 267.65961
-321.84445 35.76059 260.39792
-321.16281 9.6935648e-05 251.25583
-320.48563 -35.60928 242.17308
-319.9165 -71.092323 234.53984
-319.5408 -106.51347 229.50066
-319.16595 -141.85138 224.47331
-318.93964 -177.18852 221.43782
-318.83966 -212.55962 220.09685
-318.84274 -247.9886 220.1382
-318.98117 -283.53873 221.995
-319.16595 -319.1658 224.47343
-319.36484 -354.84967 227.14084
-319.47131 -390.46481 228.56892
-319.7355 -426.314 232.1123
-320.32571 -462.6925 240.02795
-321.14722 -499.56226 251.04651
-322.06549 -536.7757 263.36267
-323.03006 -574.27557 276.2999
-324.06079 -612.11469 290.12436
-325.22601 -650.4519 305.75284
-326.68192 -689.66168 325.2796
-328.20792 -729.35077 345.74683
-329.74823 -769.41241 366.40601
-331.30307 -809.85175 387.2598
-332.87262 -850.67444 408.31152
-334.45712 -891.88562 429.56354
-336.05685 -933.49103 451.0188
-337.67188 -975.4964 472.6803
-339.30255 -1017.9075 494.55103
-340.94901 -1060.7301 516.63403
-342.61151 -1103.9703 538.93219
-344.29034 -1147.6344 561.44928
-345.98572 -1191.7284 584.18781
-347.69788 -1236.2589 607.15155
-349.42703 -1281.2322 630.34351
-252.64597 884.26105 -244.1423
-252.48425 852.13452 -246.58237
-252.48859 820.58789 -246.51701
-252.65683 789.55267 -243.97835
-256.27606 768.82825 -189.36867
-277.70404 798.39941 133.95502
-238.73949 358.10931 -453.97461
-252.0457 315.05725 -253.19968
-206.09294 231.85472 -946.57318
-205.37993 205.38002 -957.33179
-205.44095 179.76096 -956.41089
-206.20575 154.65443 -944.87103
-283.89905 177.43695 227.43047
-285.60846 142.80438 253.22339
-286.4032 107.40137 265.21515
-286.44788 71.612045 265.88931
-285.93085 35.741573 258.08771
-285.32559 0.00016414389 248.95523
-284.7229 -35.590267 239.86159
-284.24368 -71.060799 232.63086
-283.91 -106.46607 227.59596
-283.57303 -141.78633 222.511
-283.40073 -177.12531 219.91142
-283.31876 -212.48897 218.67467
-283.35019 -247.9312 219.14853
-283.49094 -283.49084 221.27277
-283.65927 -319.11652 223.81209
-283.85379 -354.81708 226.74768
-283.95392 -390.43652 228.25829
-284.23407 -426.35089 232.4854
-284.79742 -462.79556 240.98572
-285.56128 -499.73215 252.51147
-286.38367 -536.96918 264.92038
-287.2417 -574.48334 277.86694
-288.16702 -612.35486 291.82919
-289.20221 -650.70483 307.44864
-290.51022 -689.96167 327.18561
-291.86786 -729.66956 347.6705
-293.23825 -769.75031 368.34775
-294.62152 -810.20898 389.22
-296.01794 -851.05133 410.29031
-297.42764 -892.28284 431.56125
-298.85086 -933.90875 453.0358
-300.28772 -975.93488 474.71658
-301.73849 -1018.3672 496.60709
-303.20337 -1061.2117 518.70996
-304.6825 -1104.474 541.02856
-306.17618 -1148.1605 563.56622
-307.68292 -1192.2714 586.30157
-309.20459 -1236.8181 609.26141
-310.74301 -1281.8148 632.47473
-222.35469 889.41876 -221.90617
-222.13857 856.82043 -225.63295
-222.08101 824.87256 -226.62558
-222.19328 793.54767 -224.68964
-223.52417 766.36859 -201.73946
-241.15755 792.37506 102.33769
-207.29291 384.97272 -481.63745
-206.17755 353.44739 -500.87079
-206.04454 323.78452 -503.16446
-228.34392 326.20575 -118.62563
-180.01822 231.45206 -951.9726
-179.51546 205.16061 -960.64209
-179.634 179.63416 -958.59827
-180.41167 154.63864 -945.18768
-248.4957 177.49712 228.87946
-249.91228 142.80713 253.30733
-250.56129 107.38359 264.49936
-250.54298 71.583931 264.18347
-250.05565 35.722462 255.78008
-249.52664 0.00010186984 246.6575
-248.99985 -35.571377 237.57335
-248.60262 -71.029114 230.72313
-248.3109 -106.41883 225.69301
-248.01392 -141.72221 220.57146
-247.88599 -177.06129 218.36546
-247.83104 -212.42642 217.41783
-247.87286 -247.87268 218.13881
-248.01871 -283.44974 220.65375
-248.16353 -319.06738 223.15134
-248.35048 -354.78616 226.37529
-248.47287 -390.45737 228.48613
-248.74933 -426.42715 233.25305
-249.27383 -462.93707 242.29817
-249.95236 -499.90454 253.99855
-250.67488 -537.16034 266.45813
-251.42741 -574.69104 279.43512
-252.24632 -612.59802 293.55664
-253.15033 -650.9577 309.14563
-254.30708 -690.26202 329.09326
-255.49605 -729.9884 349.59589
-256.69617 -770.08838 370.29135
-257.90762 -810.56671 391.18219
-259.13055 -851.42883 412.27103
-260.36514 -892.6803 433.5607
-261.61157 -934.32684 455.05426
-262.86996 -976.37402 476.75476
-264.14053 -1018.8277 498.66504
-265.42209 -1061.6881 520.76434
-266.71613 -1104.9666 543.07928
-268.02423 -1148.6752 565.6369
-269.34384 -1192.8082 588.39252
-270.67648 -1237.3781 611.37341
-272.0224 -1282.3912 634.58289
-191.84981 895.29913 -196.55533
-191.44817 861.51691 -204.63589
-191.36505 829.24866 -206.30797
-191.42905 797.62115 -205.02045
-191.90411 767.61633 -195.46297
-205.21765 786.66772 72.385086
-177.67891 384.97116 -481.6517
-176.72292 353.44598 -500.88498
-176.60962 323.78452 -503.16446
-155.72798 259.54675 -923.27051
-154.07048 231.10579 -956.61676
-153.72551 204.96747 -963.55707
-153.8806 179.52747 -960.43671
-154.65486 154.65494 -944.86017
-213.06737 177.5564 230.30862
-214.21468 142.81004 253.39098
-214.73125 107.3658 263.78357
-214.6664 71.555527 262.47934
-214.21884 35.703262 253.47498
-213.76587 0.00012219719 244.36205
-213.3138 -35.55225 235.26674
-212.99425 -70.997917 228.83804
-212.74136 -106.37055 223.75034
-212.48703 -141.65778 218.63319
-212.39998 -176.99985 216.88239
-212.36519 -212.36511 216.18243
-212.41328 -247.81551 217.15012
-212.5567 -283.40881 220.035
-212.7003 -319.05029 222.92415
-212.85233 -354.75372 225.98242
-212.98911 -390.47989 228.73442
-213.25395 -426.50778 234.06244
-213.73375 -463.08963 243.7153
-214.31883 -500.07724 255.4866
-214.94067 -537.35156 267.99692
-215.58826 -574.90198 281.02551
-216.29919 -612.84766 295.32858
-217.06934 -651.20782 310.82248
-218.07132 -690.55896 330.98074
-219.09131 -730.30426 351.50134
-220.12086 -770.42297 372.21451
-221.16016 -810.92041 393.1235
-222.20932 -851.80225 414.23093
-223.26846 -893.07373 435.53931
-224.33777 -934.74054 457.05188
-225.41621 -976.80347 478.7485
-226.50623 -1019.278 500.67813
-227.60567 -1062.1597 522.79688
-228.71582 -1105.4597 545.13184
-229.83687 -1149.1842 567.68549
-230.97018 -1193.3458 590.48572
-232.11349 -1237.9385 613.48743
-233.26817 -1282.9747 636.71771
-160.43628 866.35596 -183.0011
-160.33264 833.72992 -185.50319
-160.36203 801.81036 -184.79358
-160.50146 770.40723 -181.42714
-169.77531 780.96667 42.463066
-172.45271 758.79199 107.10159
-148.06577 384.97116 -481.6517
-147.26968 353.44739 -500.87079
-147.17409 323.78308 -503.17862
-129.33101 258.66217 -933.94879
-128.22444 230.80408 -960.6637
-127.99924 204.79886 -966.10046
-128.17746 179.44853 -961.79785
-128.89714 154.67665 -944.4234
-177.59991 177.60016 231.36563
-178.50616 142.80501 253.24452
-178.91133 107.34696 263.02606
-178.799 71.519768 260.314
-178.42032 35.684135 251.17213
-178.0424 0.00011564383 242.04805
-177.66693 -35.53323 232.9834
-177.41548 -70.966103 226.91331
-177.20322 -106.32183 221.78867
-176.99147 -141.59294 216.6763
-176.94797 -176.94772 215.62653
-176.91899 -212.30269 214.92697
-176.98549 -247.77962 216.53235
-177.10497 -283.36789 219.41661
-177.2417 -319.03494 222.71771
-177.36409 -354.72803 225.67238
-177.50121 -390.50256 228.98299
-177.74515 -426.58829 234.87227
-178.16934 -463.24011 245.11299
-178.66158 -500.25226 256.99649
-179.18013 -537.54028 269.51578
-179.72371 -575.11572 282.63846
-180.32278 -613.09735 297.10159
-180.96242 -651.4646 312.5437
-181.80525 -690.85992 332.89175
-182.65599 -730.62384 353.43002
-183.51471 -770.76178 374.16165
-184.38155 -811.27875 395.08902
-185.25569 -852.17603 416.19241
-186.1391 -893.46747 437.51953
-187.03001 -935.1499 459.02841
-187.92949 -977.23322 480.74393
-188.83768 -1019.7234 502.66946
-189.75566 -1062.6315 524.83142
-190.68163 -1105.9532 547.18597
-191.61665 -1149.7 569.76007
-192.56093 -1193.8777 592.55627
-193.51555 -1238.4995 615.60321
-194.47865 -1283.5591 638.85474
-129.0865 871.33417 -160.74551
-128.98792 838.42151 -163.72101
-128.98451 806.1535 -163.82343
-129.06723 774.4035 -161.32727
-130.78481 752.01257 -109.49486
-118.22339 384.22614 -488.56934
-117.67609 353.02841 -505.08514
-117.64547 323.52527 -506.0094
-103.4517 258.62933 -934.34448
-102.57991 230.80492 -960.65277
-102.39939 204.79886 -966.10046
-102.5416 179.44803 -961.80872
-103.11771 154.67665 -944.4234
-142.08405 177.60518 231.4902
-142.7751 142.77531 252.34398
-143.06912 107.30194 261.21753
-142.96263 71.481514 258.00375
-142.66002 35.665241 248.87164
-142.358 0.00012775369 239.75742
-142.05795 -35.514435 230.70251
-141.86798 -70.93383 224.96927
-141.69832 -106.27361 219.84966
-141.54065 -141.5406 215.09171
-141.51678 -176.89583 214.37161
-141.49431 -212.24136 213.69308
-141.56793 -247.74374 215.9149
-141.66347 -283.32687 218.79829
-141.78651 -319.01959 222.51131
-141.8988 -354.74683 225.89966
-142.00853 -390.52341 229.21083
-142.22365 -426.67087 235.70306
-142.5818 -463.39081 246.51128
-142.97934 -500.42758 258.50769
-143.39447 -537.72913 271.03568
-143.83525 -575.34094 284.3374
-144.31561 -613.34119 298.83337
-144.83272 -651.74707 314.43869
-145.50758 -691.16077 334.80423
-146.18803 -730.94 355.33868
-146.87561 -771.09692 376.0882
-147.56894 -811.62903 397.01135
-148.26886 -852.54578 418.13306
-148.97543 -893.8526 439.4563
-149.68956 -935.55957 461.00656
-150.40977 -977.66333 482.74103
-151.13696 -1020.1743 504.68585
-151.87122 -1063.0985 526.84393
-152.61343 -1106.4471 549.24207
-153.36214 -1150.2159 571.83624
-154.11823 -1194.4159 594.65308
-154.88261 -1239.0608 617.72089
-155.65379 -1284.1438 640.99359
-97.377823 876.40051 -138.09436
-97.283264 843.12177 -141.89948
-97.263512 810.52924 -142.69388
-97.322357 778.57898 -140.32629
-97.94606 750.91992 -115.23067
-88.458984 383.32245 -496.96091
-88.152222 352.60895 -509.3038
-88.163857 323.26758 -508.8356
-77.578934 258.59662 -934.74005
-76.935204 230.80571 -960.64209
-76.799545 204.79886 -966.10046
-76.90567 179.44672 -961.83026
-77.337738 154.67551 -944.44519
-106.54965 177.58278 230.9512
-107.05739 142.74329 251.38127
-107.26529 107.26553 259.74658
-107.17557 71.450562 256.13654
-106.94881 35.649677 247.01248
-106.72353 0.00021372768 237.94754
-106.49506 -35.49828 228.75517
-106.35477 -70.902969 223.10991
-106.22764 -106.22742 217.99457
-106.11767 -141.49007 213.56966
-106.10081 -176.8345 212.89143
-106.0865 -212.17278 212.31589
-106.15038 -247.68407 214.88591
-106.23122 -283.28308 218.13869
-106.32552 -318.9765 221.93314
-106.42153 -354.73834 225.79636
-106.50484 -390.51752 229.14856
-106.67496 -426.69974 235.9937
-106.94933 -463.44693 247.03323
-107.24807 -500.49078 259.05344
-107.56107 -537.80511 271.64792
-107.8944 -575.43665 285.06006
-108.25532 -613.44659 299.58191
-108.6449 -651.86914 315.25729
-109.15123 -691.29108 335.63074
-109.66285 -731.08551 356.21683
-110.17873 -771.25092 376.97443
-110.6995 -811.7962 397.92868
-111.22578 -852.73083 419.10422
-111.75651 -894.05194 440.45929
-112.29233 -935.76929 462.0192
-112.8339 -977.89368 483.81003
-113.38013 -1020.4211 505.78882
-113.93168 -1063.3622 527.9812
-114.48921 -1106.7289 550.41461
-115.05162 -1150.5161 573.04443
-115.61958 -1194.7357 595.89764
-116.1938 -1239.4004 619.0022
-116.77313 -1284.5043 642.31256
-65.9282 1087.8156 -77.156685
-65.869385 1053.9103 -80.706741
-65.805069 1019.9787 -84.588264
-65.771782 986.5769 -86.597298
-65.73941 953.22174 -88.551094
-65.727058 920.17908 -89.29673
-65.233879 880.65759 -119.06249
-65.201454 847.6192 -121.01949
-65.194221 814.92798 -121.45602
-65.2304 782.76495 -119.27251
-65.450081 752.67621 -106.0137
-66.32312 729.5545 -53.321144
-66.322823 696.38959 -53.339359
-66.322517 663.22546 -53.357479
-66.322517 630.06403 -53.357235
-66.322823 596.90552 -53.33926
-66.32312 563.74658 -53.321186
-60.597893 484.78329 -398.86935
-60.646915 454.85205 -395.91022
-60.697021 424.87924 -392.88599
-58.946159 383.15002 -498.55997
-58.755222 352.53149 -510.08392
-58.767208 323.2197 -509.36069
-51.712742 258.56387 -935.13562
-51.29031 230.80659 -960.63123
-51.199696 204.79886 -966.10046
-51.270267 179.44603 -961.84106
-51.558128 154.67458 -944.4671
-71.019707 177.54944 230.14284
-71.353226 142.70659 250.27269
-71.488274 107.2326 258.42371
-71.423988 71.424179 254.54326
-71.272919 35.636566 245.4259
-71.122841 5.578671e-05 236.36787
-70.966194 -35.482986 226.91322
-70.873085 -70.872864 221.29341
-70.788399 -106.18256 216.18237
-70.718552 -141.4369 211.96664
-70.706978 -176.76721 211.26825
-70.703575 -212.11058 211.06291
-70.746475 -247.61256 213.65201
-70.807167 -283.22845 217.31471
-70.870346 -318.91653 221.12839
-70.942551 -354.71268 225.48634
-71.002548 -390.51379 229.10718
-71.115959 -426.69559 235.95221
-71.298866 -463.44247 246.99155
-71.498367 -500.48849 259.03262
-71.707031 -537.80267 271.62686
-71.929604 -575.43665 285.06006
-72.169853 -613.44373 299.56073
-72.429932 -651.86914 315.25729
-72.767479 -691.29108 335.63074
-73.1082 -731.08179 356.1947
-73.452492 -771.25092 376.97443
-73.799667 -811.7962 397.92868
-74.150146 -852.7265 419.0817
-74.504341 -894.05194 440.45929
-74.861557 -935.76929 462.0192
-75.222214 -977.88873 483.78683
-75.586754 -1020.4211 505.78882
-75.954445 -1063.3622 527.9812
-76.325745 -1106.723 550.3905
-76.70108 -1150.5161 573.04443
-77.079727 -1194.7357 595.89764
-77.46254 -1239.4004 619.0022
-77.848755 -1284.5043 642.31256
-32.789017 1082.0377 -98.291267
-32.776287 1048.8412 -99.827507
-32.762402 1015.6344 -101.50375
-32.74342 982.3028 -103.79529
-32.723289 948.97565 -106.22478
-32.697945 915.54266 -109.28416
-32.670174 882.09485 -112.63667
-32.648247 848.8548 -115.28306
-32.644913 816.1228 -115.68591
-32.699696 784.79291 -109.0732
-32.769268 753.6933 -100.67455
-32.857208 722.85864 -90.059601
-32.857059 689.99835 -90.077347
-32.857208 657.14429 -90.059738
-32.857208 624.28711 -90.059563
-32.857208 591.42987 -90.059502
-32.857208 558.57275 -90.059708
-30.164955 482.63934 -415.04343
-30.189747 452.84637 -412.05063
-30.214581 423.0043 -409.05307
-29.47308 383.15002 -498.55997
-29.377611 352.53149 -510.08392
-29.383604 323.2197 -509.36069
-25.853094 258.53107 -935.53107
-25.645247 230.8073 -960.62036
-25.59976 204.79826 -966.11115
-25.635313 179.44731 -961.81958
-25.778793 154.67296 -944.49982
-35.503334 177.51685 229.3557
-35.667431 142.66986 249.16449
-35.733013 107.19924 257.08054
-35.698803 71.397682 252.9514
-35.623501 35.623726 243.86137
-35.546967 0.00024120545 234.62286
-35.467678 -35.467525 225.05209
-35.421505 -70.842873 219.4783
-35.38039 -106.14091 214.51558
-35.346004 -141.38402 210.36494
-35.340225 -176.70107 209.66699
-35.341583 -212.0493 209.83118
-35.36285 -247.53981 212.39813
-35.396931 -283.17526 216.51167
-35.430901 -318.87796 220.61263
-35.468704 -354.6868 225.17604
-35.500931 -390.51004 229.06577
-35.557804 -426.69342 235.93134
-35.649258 -463.44031 246.97067
-35.749008 -500.48602 259.01157
-35.85334 -537.80005 271.6059
-35.964626 -575.43384 285.03879
-36.084927 -613.44373 299.56073
-36.214966 -651.86914 315.25729
-36.383739 -691.29108 335.63074
-36.5541 -731.08179 356.1947
-36.726059 -771.24713 376.95236
-36.899834 -811.7962 397.92868
-37.075073 -852.7265 419.0817
-37.25198 -894.04749 440.43652
-37.430779 -935.76929 462.0192
-37.611107 -977.88873 483.78683
-37.793182 -1020.4158 505.76514
-37.977222 -1063.3622 527.9812
-38.162872 -1106.723 550.3905
-38.35054 -1150.5161 573.04443
-38.539864 -1194.7357 595.89764
-38.73127 -1239.4004 619.0022
-38.924377 -1284.5043 642.31256
-2.0040316e-21 1080.1576 -105.16898
-1.0877514e-21 1046.9028 -107.13973
-8.6954131e-22 1013.799 -108.65157
-6.3626799e-22 980.79889 -109.84607
-1.9181927e-21 947.89471 -110.72419
-1.5220161e-21 915.20862 -110.72423
-3.3657072e-22 856.69818 -226.17882
-1.1874836e-21 822.94275 -235.58499
-1.0990637e-21 792.55786 -229.46825
-8.2435788e-22 764.21942 -212.54921
-6.1618236e-22 749.16193 -124.45686
-2.89895e-22 722.29321 -93.16153
-6.1668056e-22 689.46185 -93.1614
-1.0488265e-21 656.63049 -93.161598
-1.248609e-21 623.79883 -93.161621
-1.5753946e-21 590.96729 -93.161575
-7.1638592e-22 558.13574 -93.161499
-1.3987239e-21 482.61169 -415.25275
-1.8952489e-21 452.82031 -412.26047
-1.1725764e-21 422.97995 -409.26294
-6.1618069e-22 383.15002 -498.55997
-5.1478978e-22 352.53149 -510.08392
-1.1137076e-21 323.2197 -509.36069
-3.5279667e-22 258.49829 -935.92633
-5.0405703e-22 230.80824 -960.60962
-1.4767688e-21 204.79826 -966.11115
-9.3345989e-22 179.45042 -961.76556
-6.5068277e-23 154.6718 -944.52161
-1.3412286e-21 177.48343 228.54803
-1.2486237e-21 142.63324 248.05672
-7.7310116e-22 107.16631 255.75912
-1.0090517e-21 71.371376 251.3604
-1.0698113e-21 35.610527 242.27736
-1.8433805e-21 0.00017385163 232.75513
-1.9937321e-21 -35.452057 223.19249
-4.3043694e-22 -70.81321 217.68559
-4.3379014e-22 -106.10128 212.91199
-1.9249089e-21 -141.33078 208.76421
-8.7953856e-22 -176.64146 208.23093
-1.3947911e-21 -211.98711 208.57968
-1.2036516e-21 -247.47672 211.30937
-4.5335177e-22 -283.12213 215.709
-1.6618266e-21 -318.85339 220.28259
-1.9998632e-21 -354.6611 224.866
-1.778075e-21 -390.50632 229.02437
-1.8334056e-21 -426.68939 235.88974
-7.9336183e-22 -463.43802 246.94984
-8.6461104e-22 -500.48355 258.99051
-1.3828359e-21 -537.7973 271.58463
-5.6224492e-22 -575.43109 285.01755
-5.4195254e-22 -613.44373 299.56073
-1.2538286e-21 -651.86609 315.23584
-5.3773081e-22 -691.29108 335.63074
-2.2140549e-21 -731.08179 356.1947
-1.4981806e-21 -771.24713 376.95236
-2.379047e-21 -811.79205 397.90607
-1.472439e-21 -852.7265 419.0817
-1.5091425e-21 -894.04749 440.43652
-1.4711108e-21 -935.76929 462.0192
-8.6998963e-22 -977.88873 483.78683
-1.7000157e-21 -1020.4158 505.76514
-8.7685871e-22 -1063.3622 527.9812
-2.4822002e-21 -1106.723 550.3905
-5.0755366e-22 -1150.5161 573.04443
-1.6586389e-21 -1194.7357 595.89764
-1.6225915e-21 -1239.4004 619.0022
-1.7684088e-21 -1284.5043 642.31256
32.911232 1086.0707 -83.538521
32.898407 1052.7494 -85.086304
32.85368 1018.4642 -90.485237
32.817871 984.53625 -94.808174
30.86297 895.02631 -330.78537
30.776985 861.75592 -341.16467
30.756756 830.43262 -343.60641
30.791433 800.57745 -339.42065
30.982721 774.56812 -316.33014
31.579525 757.90869 -244.28989
32.691109 751.89557 -110.10973
32.995487 725.90094 -73.367752
32.995338 692.90228 -73.385803
32.995338 659.90692 -73.38588
32.995338 626.91156 -73.385597
32.995487 593.91882 -73.367744
32.995487 560.92346 -73.367821
30.289825 484.63742 -399.97021
30.314825 454.7225 -396.95245
30.339739 424.75647 -393.94513
29.47308 383.15002 -498.55997
29.377611 352.53149 -510.08392
29.383604 323.2197 -509.36069
25.846544 258.46555 -936.32159
25.645426 230.80896 -960.59882
25.59976 204.79826 -966.11115
25.636206 179.45355 -961.71161
25.778431 154.67073 -944.54358
35.489952 177.45001 227.74074
35.649086 142.59654 246.94965
35.711124 107.13347 254.43851
35.672455 71.344963 249.7708
35.595711 35.595879 240.50688
35.516033 0.00023893414 230.88895
35.436882 -35.436749 221.33461
35.392323 -70.784561 215.95595
35.353661 -106.06088 211.28888
35.319324 -141.27724 207.14439
35.318134 -176.59053 207.00095
35.320854 -211.92497 207.32889
35.347027 -247.42911 210.48808
35.383633 -283.06888 214.90642
35.425606 -318.83032 219.97319
35.464081 -354.64059 224.61797
35.500244 -390.50256 228.98299
35.557289 -426.68741 235.86913
35.648911 -463.43585 246.92899
35.748661 -500.48108 258.96942
35.852993 -537.7948 271.56357
35.964447 -575.43109 285.01755
36.084751 -613.44067 299.53931
36.214783 -651.86609 315.23584
36.38356 -691.28754 335.60883
36.5541 -731.08179 356.1947
36.726059 -771.24713 376.95236
36.899651 -811.79205 397.90607
37.075073 -852.7265 419.0817
37.25198 -894.04749 440.43652
37.430779 -935.76929 462.0192
37.611107 -977.88873 483.78683
37.793182 -1020.4158 505.76514
37.977222 -1063.3622 527.9812
38.162872 -1106.723 550.3905
38.35054 -1150.5161 573.04443
38.539864 -1194.7357 595.89764
38.73127 -1239.4004 619.0022
38.924377 -1284.5043 642.31256
59.834354 897.51556 -444.95258
59.809998 867.24506 -446.42279
59.796856 837.15613 -447.21606
59.905834 808.729 -440.63858
60.596642 787.75653 -398.94467
61.693024 771.16302 -332.77222
63.285275 759.42358 -236.6713
65.964897 758.59662 -74.941322
68.978172 758.76013 106.92556
58.946159 383.15002 -498.55997
58.755222 352.53149 -510.08392
58.767208 323.2197 -509.36069
51.686543 258.43292 -936.71674
51.291031 230.80968 -960.58795
51.199696 204.79886 -966.10046
51.273308 179.45673 -961.65741
51.556503 154.6696 -944.56537
70.965164 177.41293 226.8512
71.278458 142.55714 245.75978
71.399689 107.09963 253.0769
71.318939 71.319122 248.20303
71.160385 35.580296 238.63399
71.001175 0.00016072553 229.02452
70.84301 -35.421303 219.4783
70.757713 -70.757538 214.33051
70.680786 -106.02104 209.68764
70.612175 -141.22421 205.54611
70.615562 -176.53864 205.75085
70.621338 -211.86389 206.09926
70.680786 -247.38268 209.68755
70.753624 -283.01437 214.08383
70.846085 -318.80725 219.66409
70.927483 -354.6373 224.57666
70.999802 -390.49884 228.94159
71.113892 -426.68323 235.82765
71.297478 -463.43338 246.90791
71.497322 -500.48108 258.96942
71.705986 -537.7948 271.56357
71.928543 -575.42834 284.99628
72.169502 -613.44067 299.53931
72.429565 -651.86609 315.23584
72.76712 -691.28754 335.60883
73.107841 -731.07825 356.17279
73.452118 -771.24713 376.95236
73.799301 -811.79205 397.90607
74.150146 -852.7265 419.0817
74.50396 -894.04749 440.43652
74.861557 -935.76929 462.0192
75.222214 -977.88873 483.78683
75.586365 -1020.4158 505.76514
75.954445 -1063.3622 527.9812
76.325745 -1106.723 550.3905
76.70108 -1150.5161 573.04443
77.079727 -1194.7357 595.89764
77.46254 -1239.4004 619.0022
77.848755 -1284.5043 642.31256
87.284996 931.04016 -544.19855
87.209351 901.16351 -547.24207
87.280846 872.80859 -544.36554
87.398186 844.84918 -539.64417
88.106056 822.32336 -511.1615
89.283577 803.55237 -463.78159
90.823044 787.13318 -401.83835
92.901146 774.17645 -318.2222
98.847504 790.78009 -78.959152
99.015816 759.12146 -72.186676
105.637 774.67145 194.22923
88.583069 383.8602 -491.96796
88.211143 352.84476 -506.93301
88.203377 323.41266 -507.24561
77.519997 258.40021 -937.11169
76.936813 230.81061 -960.57721
76.799545 204.79886 -966.10046
76.911041 179.45914 -961.61426
77.334213 154.66858 -944.5871
106.40612 177.34358 225.17616
106.88501 142.5134 244.44539
107.07664 107.07674 252.15575
106.95452 71.303207 247.24211
106.71526 35.571892 237.61478
106.47655 0.00010149594 228.01009
106.24043 -35.413307 218.50958
106.11664 -70.74437 213.52867
106.0013 -106.00122 208.88734
105.90096 -141.20103 204.84973
105.90961 -176.51581 205.19795
105.91825 -211.83635 205.54594
106.01353 -247.36482 209.37971
106.12328 -282.99533 213.79596
106.2681 -318.80408 219.62273
106.39328 -354.6442 224.65942
106.50227 -390.50818 229.04506
106.66671 -426.66666 235.66121
106.93843 -463.39963 246.59473
107.23607 -500.43481 258.57065
107.54743 -537.73706 271.09888
107.8812 -575.36627 284.52875
108.24043 -613.36218 298.983
108.62668 -651.75995 314.52481
109.13231 -691.1712 334.86963
109.64321 -730.95453 355.42633
110.15836 -771.1084 376.15479
110.67893 -811.64532 397.10089
111.20389 -852.56299 418.22351
111.73385 -893.87054 439.54736
112.26945 -935.57861 461.09857
112.80964 -977.68341 482.83414
113.35563 -1020.2007 504.80328
113.90636 -1063.126 526.9624
114.46245 -1106.4702 549.33789
115.0246 -1150.2458 571.95697
115.59169 -1194.4473 594.77521
116.16502 -1239.0935 617.84406
116.74345 -1284.1779 641.11798
113.54248 965.11133 -629.828
113.35152 935.15021 -635.59064
113.34191 906.73541 -635.88098
113.5416 879.94769 -629.85449
114.37243 857.7934 -604.78229
115.7255 839.01007 -563.94977
117.31435 821.20062 -516.00189
119.25493 804.97095 -457.43951
131.81085 856.77069 -78.530983
131.77066 823.56683 -79.743927
131.79666 790.78009 -78.959152
132.05135 759.29535 -71.273712
145.4003 799.70197 331.56677
118.36434 384.68427 -484.31561
117.75768 353.2731 -502.62323
117.69824 323.67038 -504.41681
103.34691 258.3674 -937.50659
102.58313 230.81218 -960.55548
102.39939 204.79886 -966.10046
102.54984 179.46228 -961.5603
103.11156 154.66751 -944.60907
141.7701 177.21277 222.01582
142.47189 142.47202 243.19431
142.77162 107.07896 252.23935
142.65657 71.328369 248.76724
142.33733 35.584499 239.13324
142.01881 5.0602008e-05 229.52147
141.72087 -35.430134 220.5302
141.54271 -70.771332 215.15343
141.38878 -106.04146 210.5087
141.25557 -141.25545 206.48863
141.2644 -176.58037 206.75502
141.27527 -211.91267 207.08278
141.38878 -247.43025 210.5085
141.52634 -283.0524 214.65955
141.71608 -318.86099 220.38567
141.87344 -354.6835 225.13474
142.01059 -390.52902 229.27293
142.20575 -426.61722 235.16292
142.55069 -463.28955 245.57202
142.94109 -500.29364 257.35315
143.349 -537.55853 269.66339
143.79091 -575.16351 282.9993
144.26318 -613.11835 297.25119
144.77422 -651.48389 312.67291
145.44853 -690.88037 333.02203
146.12842 -730.64197 353.53961
146.8147 -770.77692 374.25009
147.50819 -811.29498 395.17822
148.20753 -852.19318 416.28253
148.91429 -893.4856 437.61096
149.62706 -935.16901 459.12036
150.34668 -977.25323 480.83676
151.07402 -1019.7495 502.78665
151.80766 -1062.6534 524.92609
152.54926 -1105.9819 547.3056
153.29732 -1149.7297 569.88055
154.05357 -1193.9152 592.70276
154.81651 -1238.532 615.72632
155.58786 -1283.5997 639.00391
132.26874 1269.78 -863.0257
131.11296 1232.4619 -890.92853
132.0899 1215.2273 -867.3432
138.34081 996.05396 -716.43286
138.23253 967.62781 -719.04724
138.38042 940.987 -715.47668
138.66722 915.2038 -708.55267
139.73865 894.32751 -682.68604
141.14278 875.08545 -648.78741
142.83488 857.00946 -607.93634
144.77318 839.68463 -561.14166
165.10277 891.55511 -70.342056
164.75766 856.73993 -78.67366
164.71333 823.56683 -79.743927
164.75174 790.80853 -78.816406
165.20746 759.95441 -67.814613
148.06636 384.97272 -481.63745
147.26909 353.44598 -500.88498
147.17468 323.78452 -503.16446
129.70045 259.40103 -925.02954
128.37367 231.07269 -957.06091
128.09163 204.94685 -963.86981
128.24414 179.54196 -960.18811
128.87543 154.65056 -944.94745
176.99913 176.99921 216.8618
177.97252 142.37808 240.36116
178.41425 107.04879 251.02556
178.37267 71.349228 250.02158
177.98459 35.597183 240.65251
177.58618 0.00017080779 231.03407
177.2357 -35.446987 222.57303
176.99487 -70.797829 216.75883
176.80232 -106.0812 212.11037
176.65184 -141.3213 208.47711
176.6442 -176.64418 208.29256
176.65778 -211.98924 208.62059
176.78276 -247.49573 211.63797
176.94797 -283.11655 215.62654
177.17671 -318.91794 221.14896
177.36151 -354.72299 225.61031
177.51408 -390.53088 229.29364
177.7357 -426.56558 234.64372
178.14427 -463.17511 244.50801
178.62422 -500.14758 256.09454
179.12683 -537.38025 268.22882
179.67534 -574.96094 281.47122
180.25818 -612.87762 295.5419
180.89735 -651.23035 310.97305
181.73329 -690.58636 331.15454
182.58244 -730.32965 351.65457
183.44048 -770.44977 372.36942
184.30568 -810.94501 393.25763
185.17909 -851.82367 414.34357
186.06177 -893.09631 435.65308
186.95195 -934.75958 457.14377
187.85165 -976.82849 478.8645
188.75908 -1019.2988 500.77158
189.67529 -1062.1815 522.89148
190.60147 -1105.4884 545.25116
191.53673 -1149.2202 567.83026
192.48019 -1193.3771 590.6076
193.43402 -1237.9777 613.63501
194.39633 -1283.0156 636.86682
155.30603 1242.4485 -931.7594
155.92299 1221.3971 -919.34717
157.37038 1206.5065 -890.22778
159.93074 1199.4807 -838.71753
162.62257 1057.0469 -784.56207
162.1786 1027.1312 -793.49408
162.11955 999.73737 -794.68213
162.15532 972.93213 -793.96222
162.98335 950.73645 -777.30359
164.25639 930.78638 -751.69232
165.821 912.01562 -720.21478
167.68956 894.34454 -682.62201
169.72546 876.91504 -641.66272
238.74538 1193.7273 746.91071
238.66006 1153.5238 745.19415
236.83528 1105.2316 708.4826
197.97737 890.89838 -73.278244
197.70122 856.70544 -78.834198
197.65866 823.57782 -79.690453
197.71718 790.8689 -78.513191
198.52217 761.00171 -62.317535
177.67963 384.97272 -481.63745
176.72362 353.44739 -500.87079
176.60962 323.78452 -503.16446
154.28026 231.42046 -952.39636
153.85751 205.14345 -960.90137
153.96823 179.62967 -958.67401
154.6223 154.62245 -945.51501
212.12503 176.77087 211.35052
213.41087 142.27399 237.21992
214.03786 107.01905 249.83353
214.0732 71.357971 250.54436
213.65709 35.6096 242.1731
213.19308 0.00018803957 232.83809
212.78448 -35.463902 224.61807
212.47473 -70.824883 218.38612
212.2527 -106.12618 213.91917
212.08113 -141.38716 210.46744
212.05052 -176.70851 209.85164
212.06584 -212.06563 210.15961
212.1965 -247.56242 212.78857
212.38567 -283.18088 216.59416
212.64899 -318.97333 221.89175
212.85747 -354.76218 226.08571
213.01794 -390.53275 229.31433
213.25806 -426.51599 234.14552
213.72026 -463.06055 243.44441
214.28236 -499.9921 254.75294
214.88095 -537.20221 266.7952
215.5345 -574.75848 279.94388
216.22493 -612.63721 293.83426
216.99347 -650.98035 309.29608
217.9872 -690.29266 329.28842
219.00529 -730.0177 349.77118
220.03407 -770.1192 370.46823
221.07144 -810.59509 391.33835
222.11862 -851.45465 412.40619
223.17691 -892.70752 433.6972
224.24419 -934.35071 455.16919
225.32286 -976.39905 476.87076
226.41083 -1018.8486 498.75876
227.51051 -1061.7156 520.88251
228.62093 -1105.001 543.22247
229.74104 -1148.705 565.75739
230.8734 -1192.8458 588.53864
232.01575 -1237.4171 611.52081
233.17068 -1282.4386 634.75653
181.89922 1273.2946 -919.53589
181.90886 1247.3754 -919.36938
181.99127 1221.9414 -917.94849
182.75966 1200.9923 -904.69794
185.26564 1190.9935 -861.48389
185.27097 1164.5607 -861.39185
185.24493 1137.9332 -861.84082
185.1409 1110.8456 -863.63495
184.97974 1083.4529 -866.41412
184.97974 1057.0272 -866.41412
185.02367 1030.8462 -865.65668
185.56381 1007.3464 -856.34235
186.75934 987.15668 -835.72607
188.26767 968.23383 -809.71588
190.02429 950.12158 -779.42389
191.86696 931.92542 -747.64807
193.99277 914.53741 -710.98999
275.80695 1260.8318 699.84479
279.6785 1238.5763 766.60736
277.25528 1188.2373 724.82104
277.02826 1147.6888 720.90613
275.7818 1103.1274 699.41138
230.84503 890.4024 -75.495422
230.64417 856.67871 -78.959274
230.6059 823.59265 -79.619095
230.6897 790.93634 -78.174095
232.13196 762.71948 -53.303249
207.29291 384.97272 -481.63745
206.17755 353.44739 -500.87079
206.04372 323.78308 -503.17862
207.35141 296.21643 -480.62842
180.28328 231.79292 -947.40173
179.68483 205.35426 -957.72156
179.75394 179.75406 -956.53009
180.4256 154.65056 -944.94745
247.15923 176.5424 205.83287
248.79868 142.17073 234.104
249.64172 106.98943 248.64194
249.7836 71.366913 251.08839
249.35483 35.622353 243.69461
248.84441 0.00022632105 234.89285
248.36607 -35.480663 226.64429
247.98042 -70.851303 219.9938
247.74388 -106.17583 215.9147
247.54352 -141.45337 212.45978
247.48157 -176.77255 211.39163
247.49945 -212.14226 211.6996
247.62817 -247.62801 213.9191
247.8394 -283.24493 217.56192
248.11922 -319.01038 222.38734
248.36127 -354.8017 226.56161
248.52213 -390.53461 229.33504
248.77219 -426.4664 233.64729
249.27869 -462.94601 242.38153
249.91956 -499.83884 253.43289
250.61136 -537.02417 265.36267
251.36842 -574.55621 278.41782
252.16469 -612.39978 292.14883
253.06313 -650.73358 307.64197
254.2103 -689.99921 327.42395
255.39706 -729.70581 347.88919
256.59625 -769.78864 368.56854
257.80548 -810.24561 389.42075
259.02744 -851.08997 410.49274
260.25974 -892.31891 431.74301
261.50513 -933.94684 453.21927
262.76117 -975.96985 474.87866
264.0307 -1018.404 496.77075
265.31253 -1061.2499 518.87518
266.6055 -1104.5084 541.17175
267.91251 -1148.1964 563.71063
269.23102 -1192.3086 586.44727
270.564 -1236.8638 609.43329
271.90875 -1281.8556 632.62335
208.93947 1279.7544 -903.62231
208.95284 1253.717 -903.42065
208.93947 1227.5195 -903.6225
209.12756 1202.4836 -900.78418
210.31827 1183.0403 -882.81799
210.34009 1156.8706 -882.48859
210.35892 1130.6793 -882.20465
210.38226 1104.507 -881.85236
210.41541 1078.379 -881.35229
210.4689 1052.3447 -880.5451
210.7731 1027.5189 -875.95508
211.93983 1006.7144 -858.35028
213.58507 987.83112 -833.5257
215.63593 970.36182 -802.58051
263.78735 890.28253 -76.031364
263.5827 856.64374 -79.119713
263.56024 823.62598 -79.458473
263.67493 791.02496 -77.727844
252.0457 315.05725 -253.19968
206.41939 232.22192 -941.64734
205.59547 205.59558 -954.07941
205.57533 179.87851 -954.3833
206.23976 154.67989 -944.35791
208.42448 130.26541 -911.39288
284.13513 142.06763 230.99263
285.22589 106.95987 247.45111
285.50165 71.375618 251.61153
285.07785 35.63488 245.21712
284.52853 0.00010792278 236.92899
283.98273 -35.49762 228.69298
283.51419 -70.878441 221.62363
283.26822 -106.22536 217.91214
283.03903 -141.51945 214.45406
282.9382 -176.83624 212.93259
282.95865 -212.21883 213.24074
283.07721 -247.6924 215.03001
283.30783 -283.30777 218.5097
283.59766 -319.04712 222.88278
283.87299 -354.84106 227.03729
284.02802 -390.53833 229.37642
284.27808 -426.41699 233.14935
284.81952 -462.83151 241.319
285.53354 -499.68362 252.09294
286.31808 -536.84625 263.93085
287.17853 -574.35693 276.914
288.07944 -612.16864 290.50769
289.10403 -650.48401 305.96744
290.40256 -689.70605 325.5611
291.75775 -729.39423 346.00885
293.12708 -769.4585 366.67047
294.50931 -809.90045 387.5271
295.90317 -850.7215 408.55869
297.3118 -891.9353 429.81317
298.73236 -933.53857 451.24792
300.16812 -975.54626 472.91171
301.61618 -1017.9545 494.7612
303.07983 -1060.7793 516.84619
304.5578 -1104.0219 539.14673
306.04861 -1147.6821 561.6416
307.55573 -1191.7784 584.3822
309.07611 -1236.3043 607.32312
310.61328 -1281.2797 630.51703
236.39146 1260.7546 -885.7226
236.39401 1234.5021 -885.6886
296.70752 890.1228 -76.745956
296.52124 856.617 -79.244797
296.52255 823.67377 -79.226715
296.67822 791.14203 -77.138847
232.65492 232.65508 -935.83856
231.56709 205.83759 -950.42871
231.43739 180.00705 -952.16821
232.06697 154.71146 -943.72437
234.00119 130.00075 -917.78174
319.42038 141.96471 227.88579
320.79037 106.93026 246.26065
321.22836 71.384315 252.13466
320.86511 35.651836 247.26306
320.24811 0.00023144296 238.98752
319.63193 -35.514465 230.72325
319.08588 -70.907829 223.39911
318.82581 -106.27506 219.91135
318.56775 -141.5854 216.44987
318.42044 -176.90015 214.47449
318.44348 -212.29549 214.7829
318.534 -247.74846 215.99715
318.79355 -283.37192 219.47855
319.08432 -319.08417 223.37839
319.39261 -354.88058 227.51321
319.53308 -390.54019 229.39711
319.77417 -426.36542 232.63086
320.34277 -462.71725 240.25708
321.12537 -499.5282 250.75351
321.99963 -536.66583 262.47906
322.95432 -574.14093 275.28421
323.96234 -611.92871 288.80386
325.10928 -650.21851 304.18713
326.54959 -689.38226 323.50497
328.06622 -729.03583 343.84634
329.59698 -769.05945 364.37753
331.14377 -809.46246 385.12347
332.70343 -850.24194 406.04227
334.27792 -891.40771 427.15933
335.86734 -932.96466 448.4772
337.47195 -974.91895 469.99881
339.09372 -1017.281 491.75015
340.72937 -1060.0469 513.68829
342.38086 -1103.2272 535.83868
344.04846 -1146.8282 558.20538
345.73422 -1190.8622 580.81494
347.36719 -1235.0833 602.71698
348.81866 -1279.0017 622.18427
331.091 927.05505 -59.653687
329.62177 889.979 -77.388885
329.45917 856.59381 -79.351692
329.49167 823.72913 -78.959167
329.866 791.67853 -74.440735
259.06247 233.1564 -929.11505
257.59631 206.07712 -946.81305
257.33734 180.13622 -949.93921
257.95721 154.77441 -942.45667
259.83487 129.91762 -919.79102
354.32266 141.72928 220.7776
356.09857 106.82983 242.21465
356.90131 71.380463 251.9045
356.70551 35.6707 249.54056
356.0192 4.9356731e-05 241.25656
355.33386 -35.53323 232.9834
354.8515 -70.970238 227.1615
354.56381 -106.36906 223.68829
354.27484 -141.70981 220.20023
354.08359 -177.04176 217.89163
354.10919 -212.46547 218.20068
354.10919 -247.87628 218.20067
354.39789 -283.51816 221.6855
354.61172 -319.15042 224.26666
354.92697 -354.92685 228.07201
355.02817 -390.53088 229.29364
355.18436 -426.22107 231.17903
355.75198 -462.47748 238.03091
356.58603 -499.22034 248.09869
357.53708 -536.30548 259.57858
358.57541 -573.72046 272.11273
359.69379 -611.47943 285.61273
360.95563 -649.71997 300.84473
362.50885 -688.76672 319.59338
364.19095 -728.38177 339.89816
365.88876 -768.36627 360.3924
367.60242 -808.72528 381.07849
369.33411 -849.46826 401.98169
371.08032 -890.59259 423.06033
372.84311 -932.1076 444.33896
374.62274 -974.01904 465.82104
376.41943 -1016.3323 487.50891
378.23538 -1059.059 509.42938
380.06696 -1102.1942 531.53882
381.81717 -1145.4513 552.6651
383.39532 -1188.5253 571.71552
384.9866 -1231.9569 590.92401
386.59116 -1275.7507 610.29285
390.0477 -1326.1621 652.01697
363.20648 924.5257 -70.557327
362.52377 889.83118 -78.049141
362.42618 856.64374 -79.119713
362.50912 823.88452 -78.209846
363.45969 793.00311 -67.778595
285.63651 233.70271 -921.78662
283.71008 206.33475 -942.9267
283.34103 180.30811 -946.97656
283.89447 154.85168 -940.9032
285.69409 129.86115 -921.15491
389.08685 141.48639 213.44629
391.24002 106.702 237.07437
392.42746 71.350578 250.10536
392.56091 35.687477 251.56973
391.82999 4.7906193e-05 243.54869
391.07718 -35.552273 235.28746
390.69147 -71.034691 231.05484
390.40268 -106.4734 227.88586
390.0842 -141.84859 224.39058
389.84708 -177.20319 221.78877
389.87152 -212.65701 222.05696
389.80762 -248.05917 221.35529
390.06723 -283.68518 224.20474
390.15955 -319.22128 225.21727
390.47061 -354.97318 228.63113
390.51965 -390.51953 229.16953
390.56119 -426.0665 229.62497
391.1188 -462.23111 235.74438
391.99918 -498.90787 245.40492
393.02487 -535.94287 256.66095
394.15591 -573.31757 269.07257
395.37473 -611.03357 282.4473
396.7471 -649.22241 297.50754
398.40192 -688.14874 315.66696
400.25092 -727.72876 335.95712
402.11508 -767.67413 356.4144
403.99677 -807.99341 377.0632
405.89612 -848.69183 397.90622
407.81345 -889.7746 418.94604
409.75101 -931.2522 440.20853
411.70499 -973.12079 461.65082
413.6777 -1015.3906 483.29886
415.5369 -1057.7301 503.7009
417.23611 -1099.9858 522.34772
418.94934 -1142.5891 541.14801
420.67447 -1185.5369 560.07898
422.41608 -1228.8466 579.19092
424.17215 -1272.5164 598.46161
427.18359 -1320.3855 631.50818
395.8143 923.56671 -74.691299
395.47693 889.82324 -78.084778
395.41306 856.72839 -78.727463
395.55499 824.07306 -77.299637
399.25433 798.50885 -40.086819
312.56134 234.4211 -912.15112
309.96005 206.64026 -938.31805
309.38785 180.47636 -944.07404
309.84567 154.92294 -939.46881
311.59576 129.83167 -921.86401
423.43085 141.14381 203.11014
426.0647 106.51633 229.60434
427.63962 71.273407 245.44673
428.16092 35.68029 250.69087
427.68112 5.7096866e-05 245.86418
426.85687 -35.571377 237.57335
426.59662 -71.099213 234.95518
426.30988 -106.5773 232.07076
425.96381 -141.98785 228.58955
425.72726 -177.38625 226.20987
425.69846 -212.84906 225.92035
425.60391 -248.26877 224.96933
425.77658 -283.85092 226.7063
425.72519 -319.29364 226.18918
426.02554 -355.02118 229.21069
426.01114 -390.51004 229.06577
425.91238 -425.91217 228.0719
426.44803 -461.98514 233.46056
427.36804 -498.59586 242.7149
428.46683 -535.58331 253.76813
429.69064 -572.92072 266.0787
431.00369 -610.58844 279.28662
432.47531 -648.71295 294.09033
434.23279 -687.5351 311.76898
436.24408 -727.07343 332.00119
438.27631 -766.98322 352.44345
440.32532 -807.26294 373.05521
442.39362 -847.92084 393.86026
444.48138 -888.96265 414.86206
446.58896 -930.39362 436.06271
448.54541 -971.84833 455.74307
450.36026 -1013.3105 473.99896
452.18988 -1055.1096 492.4035
454.03439 -1097.2496 510.95789
455.89404 -1139.735 529.66431
457.76895 -1182.5697 548.52472
459.65695 -1225.7518 567.51678
461.56305 -1269.2982 586.69037
464.43976 -1315.9125 615.62775
428.68716 923.32623 -75.727707
428.42178 889.79926 -78.192238
428.41409 856.82825 -78.263481
428.62949 824.28766 -76.263725
339.95206 235.35161 -899.67212
336.27835 206.94061 -933.78387
335.47986 180.64313 -941.19867
335.81958 154.99379 -938.04395
337.45233 129.78944 -922.88306
457.60242 140.80086 192.76265
460.7706 106.33182 222.18097
462.77338 71.196045 240.77762
463.74643 35.672894 249.81264
463.57083 0.00011328968 248.18225
462.81149 -35.600655 241.13142
462.56717 -71.163963 238.86278
462.28952 -106.68211 236.28467
461.92728 -142.13129 232.9211
461.68164 -177.56975 230.6404
461.59015 -213.0416 229.79082
461.46078 -248.47862 228.58945
461.52768 -284.01691 229.21065
461.42511 -319.44812 228.25845
461.58792 -355.06754 229.77017
461.49872 -390.49884 228.94159
461.31146 -425.82574 227.20277
461.73969 -461.73953 231.17914
462.69043 -498.2818 240.00723
463.86804 -535.23218 250.94194
465.17401 -572.52167 263.06805
466.58075 -610.14398 276.13071
468.14514 -648.20093 290.65692
469.99982 -686.92267 307.87799
472.17484 -726.42267 328.07428
474.37009 -766.28998 348.45798
476.58823 -806.53369 369.05426
478.8248 -847.15143 389.8219
480.86929 -887.75873 408.80609
482.79462 -928.45105 426.68329
484.73294 -969.46576 444.68167
486.68939 -1010.8162 462.84802
488.66168 -1052.502 481.16193
490.65005 -1094.5269 499.62448
492.65463 -1136.8951 518.23798
494.67566 -1179.6112 537.00452
496.71338 -1222.679 555.92529
498.76791 -1266.103 575.00262
501.44702 -1311.4767 599.87915
462.89316 958.8504 -65.121696
461.55539 923.11102 -76.65657
461.37729 889.79926 -78.192238
461.43939 856.95905 -77.656448
462.16309 825.29126 -71.416946
362.86789 207.35312 -927.55939
361.79181 180.89606 -936.83734
362.08347 155.17874 -934.32257
363.60034 129.85741 -921.24353
491.61066 140.46043 182.48563
495.35413 106.14744 214.7625
