# .PCD v0.7 - Point Cloud Data file format
VERSION 0.7
FIELDS x y z
SIZE 4 4 4
TYPE F F F
COUNT 1 1 1
WIDTH 1493
HEIGHT 1
VIEWPOINT 0 0 0 1 0 0 0
POINTS 1493
DATA ascii
-14.518778 -5.9150591 -1.7496458
-14.544785 -6.4643502 -1.6333739
-14.57108 -7.0157065 -1.5158175
-14.600766 -7.5707703 -1.38309
-14.634212 -8.1301184 -1.2335658
-14.668529 -8.6924629 -1.0801445
-14.702483 -9.2571201 -0.92834359
-14.735868 -9.8239126 -0.77908152
-14.770731 -10.394219 -0.62321961
-14.807487 -10.968513 -0.45888963
-14.84757 -11.548111 -0.27969298
-14.887937 -12.130913 -0.099220052
-14.925754 -12.714533 0.069846593
-14.96315 -13.300578 0.23703806
-15.002646 -13.89134 0.4136197
-15.039744 -14.48272 0.57947838
-15.136354 -15.136355 1.0113969
-14.294376 1.6493491 -0.29493445
-13.887769 1.0682888 -2.1827042
-13.834326 0.53208858 -2.4308197
-13.842651 -2.1975268e-08 -2.3921697
-13.850986 -0.53272992 -2.3534729
-13.860299 -1.0661775 -2.3102338
-13.870776 -1.6004741 -2.2615921
-13.881938 -2.1356852 -2.2097731
-13.895914 -2.6722934 -2.1448822
-13.9112 -3.2102764 -2.0739224
-13.926701 -3.7494981 -2.0019493
-13.942237 -4.2899218 -1.9298201
-13.961061 -4.8326759 -1.8424262
-13.984678 -5.3787251 -1.732774
-14.008809 -5.9268064 -1.620746
-14.033581 -6.477037 -1.5057379
-14.058938 -7.0294724 -1.3880048
-14.085513 -7.5845084 -1.2646288
-14.114887 -8.1432066 -1.1282567
-14.148039 -8.7064886 -0.974338
-14.181285 -9.2723799 -0.81998783
-14.213541 -9.840147 -0.67023206
-14.249845 -10.413351 -0.50168347
-14.285628 -10.988944 -0.33555362
-14.319846 -11.56603 -0.17668569
-14.356956 -12.148195 -0.0043944805
-14.393867 -12.733038 0.16696984
-14.431822 -13.321681 0.34318021
-14.469975 -13.913439 0.52032161
-14.505747 -14.505749 0.6863988
-14.56545 -15.125661 0.96357685
-13.511449 1.6213712 -1.420656
-13.337694 1.0670143 -2.25962
-13.334197 0.53336632 -2.2765
-13.341774 -8.5701765e-07 -2.2399142
-13.34936 -0.53397548 -2.2032917
-13.357422 -1.0685953 -2.1643655
-13.365609 -1.6038746 -2.1248252
-13.37715 -2.140347 -2.0691078
-13.391881 -2.6783779 -1.9979807
-13.406645 -3.2175968 -1.9266951
-13.421559 -3.7580373 -1.8546814
-13.436565 -4.2997041 -1.7822187
-13.453326 -4.8431983 -1.7012959
-13.473517 -5.3894091 -1.6038077
-13.496811 -5.9385977 -1.4913317
-13.520366 -6.4897766 -1.3775986
-13.544844 -7.0433202 -1.2594062
-13.572671 -7.6006985 -1.1250498
-13.600732 -8.1604404 -0.98955739
-13.62818 -8.7220345 -0.85703069
-13.65806 -9.2874823 -0.71275443
-13.690835 -9.8574018 -0.55450487
-13.727037 -10.43255 -0.37969798
-13.762751 -11.010201 -0.20726258
-13.795719 -11.588406 -0.048076738
-13.829158 -12.169661 0.11337854
-13.864964 -12.755769 0.28626841
-13.900513 -13.344494 0.45790991
-13.936244 -13.936245 0.6304391
-13.972544 -14.531446 0.80570585
-13.07914 2.1798556 -0.87670994
-12.854739 1.6068403 -2.0053546
-12.826941 1.0689104 -2.1451669
-12.833852 0.534742 -2.1104121
-12.840882 -2.7694139e-06 -2.0750532
-12.848201 -0.53534186 -2.03824
-12.855528 -1.0712962 -2.0013819
-12.862865 -1.6078581 -1.9644872
-12.873489 -2.1455822 -1.9110515
-12.885546 -2.6844902 -1.850407
-12.899785 -3.2249494 -1.7787924
-12.914111 -3.7666166 -1.7067364
-12.928699 -4.309566 -1.6333739
-12.94692 -4.8550973 -1.5417199
-12.965596 -5.4023342 -1.4477895
-12.984613 -5.9512825 -1.352141
-13.005301 -6.5026512 -1.2480848
-13.030053 -7.0579457 -1.1235938
-13.057634 -7.6169534 -0.98487759
-13.085155 -8.1782236 -0.84645092
-13.111621 -8.7410793 -0.71334481
-13.138192 -9.3062201 -0.57969868
-13.168067 -9.8760519 -0.42944008
-13.2023 -10.451821 -0.25726369
-13.237369 -11.03114 -0.080879688
-13.269558 -11.610868 0.081027679
-13.3039 -12.195244 0.25374436
-13.340178 -12.784339 0.43621835
-13.373543 -13.373544 0.60402429
-13.407197 -13.96583 0.77329218
-13.464738 -14.586803 1.0627036
-12.817775 2.7864709 0.61170083
-12.409 2.1580863 -1.5336641
-12.322584 1.6072935 -1.9871999
-12.325342 1.0717678 -1.9727223
-12.331134 0.53613275 -1.9423269
-12.337635 -1.4247973e-07 -1.9082078
-12.34447 -0.53671598 -1.8723437
-12.351527 -1.0740486 -1.8352973
-12.36039 -1.6122252 -1.7887888
-12.37117 -2.1515076 -1.7322044
-12.381535 -2.6916385 -1.6778125
-12.391807 -3.2326479 -1.6239018
-12.404342 -3.7752359 -1.5581146
-12.420471 -4.3201642 -1.4734617
-12.438021 -4.8670511 -1.3813586
-12.455729 -5.4155345 -1.2884142
-12.474044 -5.9658484 -1.1922989
-12.492412 -6.5177803 -1.0958966
-12.514736 -7.0735493 -0.97872871
-12.540333 -7.6332464 -0.84439582
-12.56699 -8.1958647 -0.70448881
-12.592799 -8.76021 -0.56902808
-12.620021 -9.3278446 -0.42616376
-12.650266 -9.9002104 -0.26743215
-12.679052 -10.474 -0.1163511
-12.709293 -11.05156 0.042364363
-12.741702 -11.633728 0.2124518
-12.776427 -12.220931 0.39469814
-12.811342 -12.811342 0.57794076
-12.845978 -13.404499 0.75972009
-12.877493 -13.997277 0.92512685
-12.052367 2.7391737 -0.53018308
-11.82751 2.150456 -1.7639389
-11.816584 1.6113509 -1.8238926
-11.82194 1.0747203 -1.7945006
-11.827407 0.53760749 -1.7645078
-11.832981 -7.0533929e-07 -1.7339224
-11.83851 -0.53811526 -1.7035885
-11.845297 -1.0768478 -1.6663486
-11.855596 -1.6166741 -1.6098356
-11.865966 -2.1574519 -1.5529381
-11.87609 -2.6991127 -1.4973805
-11.886024 -3.2416441 -1.4428841
-11.896657 -3.7853036 -1.3845361
-11.910056 -4.3309298 -1.3110245
-11.926608 -4.8790693 -1.2202004
-11.943525 -5.4288745 -1.1273835
-11.961023 -5.980514 -1.0313734
-11.980601 -6.5348744 -0.92394608
-12.002443 -7.0923543 -0.80410528
-12.024311 -7.6518364 -0.68411684
-12.046422 -8.2134695 -0.56280512
-12.07165 -8.7793827 -0.42438003
-12.100308 -9.3502398 -0.26713446
-12.129542 -9.9241705 -0.10673598
-12.157652 -10.499792 0.047496982
-12.185448 -11.077682 0.20001411
-12.21615 -11.660872 0.36847195
-12.248461 -12.248461 0.54574656
-12.281333 -12.839577 0.72612196
-12.314384 -13.433876 0.90746635
-12.371156 -14.058134 1.2189697
-11.561336 3.303237 -0.203664
-11.342587 2.7006166 -1.4610617
-11.307222 2.1537552 -1.6643451
-11.31271 1.6161003 -1.6327978
-11.318204 1.0779232 -1.6012222
-11.323302 0.53920299 -1.571915
-11.328455 -1.3532035e-06 -1.5422976
-11.333613 -0.53969777 -1.512646
-11.341333 -1.0801295 -1.4682698
-11.348209 -1.6211748 -1.4287416
-11.357964 -2.1634216 -1.3726842
-11.367833 -2.7066278 -1.315946
-11.377366 -3.2506776 -1.2611445
-11.389598 -3.7965341 -1.1908405
-11.402462 -4.3437986 -1.1168889
-11.415358 -4.8922963 -1.0427698
-11.428841 -5.4423079 -0.96525949
-11.445575 -5.9953041 -0.86907202
-11.46646 -6.5522642 -0.74902678
-11.48742 -7.1112595 -0.62854695
-11.508406 -7.6722708 -0.5079217
-11.529467 -8.2353354 -0.38684848
-11.552586 -8.8019705 -0.25397196
-11.578147 -9.3727865 -0.10703626
-11.606133 -9.9481153 0.053834461
-11.633622 -10.525659 0.21184655
-11.660977 -11.105694 0.36908296
-11.692138 -11.69214 0.5482021
-11.723198 -12.281445 0.72673637
-11.753884 -12.873302 0.90312713
-11.785491 -13.469134 1.0848043
-11.289142 3.9511976 1.4762944
-10.913507 3.274051 -0.79085863
-10.80232 2.7005792 -1.4619278
-10.802799 2.1605597 -1.4590418
-10.805954 1.6208911 -1.439997
-10.811073 1.0811059 -1.4091012
-10.81634 0.54081696 -1.3773106
-10.821278 -2.6719654e-06 -1.3475097
-10.827228 -0.54136109 -1.3116034
-10.835684 -1.0835714 -1.2605648
-10.843045 -1.6264576 -1.216136
-10.849597 -2.1699216 -1.1765885
-10.85664 -2.7141604 -1.1340851
-10.867221 -3.2601674 -1.0702202
-10.879519 -3.807833 -0.99599326
-10.891796 -4.3567214 -0.92189431
-10.90415 -4.9068699 -0.84733045
-10.916533 -5.4582667 -0.77260298
-10.931437 -6.012291 -0.68263972
-10.949525 -6.569716 -0.57347506
-10.969593 -7.1302366 -0.45234969
-10.989737 -7.6928148 -0.33077848
-11.010052 -8.2575417 -0.2081598
-11.034331 -8.827466 -0.061626278
-11.057966 -9.3992729 0.081028074
-11.081349 -9.973217 0.22216527
-11.107006 -10.551656 0.37700832
-11.135471 -11.135473 0.54881489
-11.165309 -11.723575 0.72889352
-11.195305 -12.314836 0.90994275
-11.224999 -12.908752 1.0891664
-11.292325 -13.550792 1.4955119
-10.523462 3.8770647 0.19789018
-10.305285 3.2542992 -1.1882242
-10.290703 2.7080772 -1.2808723
-10.296824 2.167753 -1.2419881
-10.30167 1.626578 -1.211194
-10.304691 1.0847027 -1.1920049
-10.307758 0.54251373 -1.1725172
-10.311011 -1.6704583e-07 -1.1518514
-10.318717 -0.54309237 -1.1028966
-10.326801 -1.0870316 -1.0515354
-10.334576 -1.6317767 -1.0021372
-10.340841 -2.1770201 -0.96233517
-10.347253 -2.7229636 -0.92159939
-10.356445 -3.2704577 -0.86319631
-10.366349 -3.8191819 -0.80027819
-10.378129 -4.369741 -0.72543877
-10.389935 -4.9215512 -0.65043104
-10.402608 -5.4750595 -0.56991738
-10.418305 -6.0316496 -0.47019005
-10.434097 -6.5899563 -0.36986145
-10.449937 -7.1499581 -0.26922598
-10.468281 -7.7134719 -0.15268368
-10.489819 -8.2814379 -0.01584723
-10.513065 -8.8531094 0.13184059
-10.535936 -9.4268932 0.27714542
-10.558331 -10.002629 0.41942126
-10.581738 -10.581738 0.56812614
-10.608789 -11.167148 0.7399891
-10.636906 -11.756579 0.91861683
-10.665122 -12.349089 1.0978851
-10.693637 -12.944932 1.279045
-10.128153 4.5014014 1.2611977
-9.823781 3.820359 -0.77996689
-9.7785406 3.2595139 -1.0833536
-9.7823706 2.7173254 -1.0576673
-9.787468 2.1749916 -1.023484
-9.7933121 1.6322178 -0.98429167
-9.7967176 1.0885231 -0.96145654
-9.7996445 0.54442388 -0.94182605
-9.8042784 3.113783e-07 -0.91075027
-9.8093987 -0.5449664 -0.87641543
-9.8146553 -1.0905168 -0.84116113
-9.8223314 -1.6370552 -0.78968275
-9.8287449 -2.1841676 -0.74667186
-9.8368397 -2.7324569 -0.69238549
-9.8460064 -3.2820053 -0.63091254
-9.8541307 -3.8321619 -0.57643831
-9.8622665 -4.3832316 -0.5218702
-9.8725901 -4.936296 -0.45264766
-9.8868914 -5.4927187 -0.35673741
-9.9018583 -6.0511346 -0.25636584
-9.9169159 -6.6112781 -0.15538706
-9.9320192 -7.1731243 -0.054100893
-9.9477091 -7.7371087 0.051121049
-9.9666119 -8.3055124 0.17788121
-9.988718 -8.8788614 0.32612607
-10.010877 -9.4547167 0.47472382
-10.032171 -10.032174 0.61753678
-10.056548 -10.615247 0.78100783
-10.081645 -11.201828 0.94930941
-10.107936 -11.792594 1.125623
-10.134691 -12.386847 1.3050505
-9.7182007 5.1449285 2.3456225
-9.3987179 4.4229245 0.077096902
-9.2728758 3.8182418 -0.81645864
-9.2677412 3.2709663 -0.85291415
-9.2710943 2.7267914 -0.82910782
-9.2756519 2.1825058 -0.79674655
-9.2803793 1.6377113 -0.76317322
-9.2851543 1.09237 -0.72927308
-9.2885618 0.54638278 -0.70507884
-9.294343 -4.1060306e-07 -0.66403008
-9.299798 -0.54704732 -0.62529349
-9.3040504 -1.0945934 -0.59510112
-9.3082647 -1.642635 -0.56517798
-9.3141127 -2.1915555 -0.52365381
-9.3228559 -2.7420173 -0.46156964
-9.3315744 -3.2934971 -0.39966539
-9.3397198 -3.845768 -0.34181997
-9.3474178 -4.398788 -0.28716445
-9.3565187 -4.9534521 -0.22253785
-9.3680058 -5.5105939 -0.14097656
-9.3820639 -6.0707474 -0.041155372
-9.3963346 -6.6327066 0.060178008
-9.4106922 -7.196414 0.16212393
-9.4273615 -7.7637105 0.28048944
-9.4450359 -8.3338566 0.40598881
-9.4633379 -8.9066725 0.53594333
-9.4824467 -9.4824505 0.67163229
-9.5043316 -10.063411 0.82702154
-9.5280218 -10.648967 0.9952426
-9.5518751 -11.237502 1.1646136
-9.5758924 -11.829045 1.3351536
-9.6026506 -12.426961 1.5251514
-9.0025949 5.0639572 1.2596337
-8.7688198 4.384408 -0.50405872
-8.7500849 3.8281603 -0.64540499
-8.7565956 3.2837224 -0.59628487
-8.761034 2.7378218 -0.5628041
-8.7642174 2.1910534 -0.53878492
-8.7674427 1.6438947 -0.51445299
-8.77071 1.0963379 -0.48980078
-8.7750835 0.54844069 -0.45680937
-8.7805653 -2.2653396e-06 -0.41544557
-8.7860546 -0.54912877 -0.37403637
-8.7903252 -1.0987921 -0.34182256
-8.794322 -1.6489376 -0.31166711
-8.8005419 -2.2001343 -0.26474199
-8.8061352 -2.7519186 -0.22253796
-8.8135252 -3.3050723 -0.16678944
-8.8216047 -3.859453 -0.10583447
-8.8292599 -4.4146309 -0.048080757
-8.8393278 -4.9721246 0.027876874
-8.8498592 -5.5311637 0.10732999
-8.8609791 -6.0919242 0.19122165
-8.8724079 -6.6543055 0.27744791
-8.8870192 -7.2207046 0.38768309
-8.9034233 -7.7904963 0.51144391
-8.9199295 -8.3624363 0.6359691
-8.937232 -8.937233 0.76650894
-8.9546432 -9.5143089 0.89786315
-8.975296 -10.097208 1.0536795
-8.9971628 -10.684134 1.2186536
-9.0195541 -11.274445 1.3875792
-9.0420561 -11.867699 1.5573453
-8.5493431 5.6995606 2.1401074
-8.4805002 5.0882998 1.5860906
-8.4849005 4.5252781 1.6215034
-8.2459383 3.8481019 -0.3015098
-8.2412262 3.2964892 -0.33943322
-8.24683 2.7489421 -0.29433984
-8.2498388 2.199955 -0.27012217
-8.2538176 1.6507635 -0.23810908
-8.2585068 1.1011336 -0.20037194
-8.2612638 0.5507499 -0.17818698
-8.2639103 -6.2998674e-07 -0.15688738
-8.2680511 -0.55120575 -0.12355826
-8.272645 -1.1030209 -0.086592928
-8.2777309 -1.6555455 -0.045671247
-8.2837582 -2.2090037 0.0028414754
-8.2893457 -2.7631168 0.047797874
-8.2946005 -3.3178413 0.09009292
-8.2998638 -3.8732715 0.13244435
-8.308712 -4.4313154 0.20365462
-8.3182602 -4.9909577 0.28048828
-8.3278303 -5.5518875 0.3574985
-8.3383331 -6.114778 0.44201857
-8.3488626 -6.6790919 0.52675503
-8.3616314 -7.2467494 0.62951559
-8.3758574 -7.8174672 0.74399412
-8.3914003 -8.3914032 0.86907768
-8.4075413 -8.9680452 0.99896955
-8.4256439 -9.5490665 1.1446457
-8.4449539 -10.133945 1.3000332
-8.4648209 -10.722106 1.459916
-8.4852543 -11.313672 1.6243483
-8.5106869 -11.914964 1.8290205
-8.1311808 6.3887844 3.4488928
-7.9504018 5.6788573 1.8901814
-7.9533982 5.1128974 1.9160228
-7.9565082 4.5465746 1.9428338
-7.9597316 3.9798651 1.9706246
-7.7361617 2.7629135 0.042966619
-7.7329769 2.2094193 0.015507442
-7.7373524 1.6580037 0.053230613
-7.7416277 1.1059459 0.090095282
-7.7441177 0.55315107 0.11156555
-7.7465749 -1.0134553e-06 0.13274735
-7.7490678 -0.5535062 0.15424645
-7.7520204 -1.1074339 0.17970078
-7.7571564 -1.6622481 0.22398382
-7.7628279 -2.2179518 0.27288765
-7.7683315 -2.7744062 0.32034266
-7.7732778 -3.3314049 0.36298621
-7.7790437 -3.8895237 0.41270575
-7.7860246 -4.4491601 0.47289291
-7.7931952 -5.009913 0.53471684
-7.8021593 -5.5729728 0.6120109
-7.8117146 -6.1377773 0.69440031
-7.8227262 -6.7051959 0.78934371
-7.8344507 -7.2748499 0.89043373
-7.8471465 -7.8471494 0.99990308
-7.8599205 -8.4213448 1.1100348
-7.8746943 -8.9996538 1.237419
-7.8927655 -9.584075 1.3932371
-7.9109201 -10.171185 1.5497682
-7.9291954 -10.761052 1.7073414
-7.9481835 -11.35455 1.8710599
-7.4164939 6.2754941 2.2056863
-7.3331275 5.6408663 1.4315935
-7.3576365 5.0937452 1.6591704
-7.4241261 4.5686922 2.276551
-7.4978089 4.0372791 2.9607313
-7.221065 1.6664002 0.39103696
-7.2201118 1.1107855 0.38219187
-7.2229047 0.55560595 0.40812817
-7.2258968 -1.1165616e-06 0.43591148
-7.2288918 -0.55606878 0.46371791
-7.2317901 -1.1125849 0.49063164
-7.2347903 -1.6695693 0.51848698
-7.2377591 -2.227005 0.54605728
-7.2429447 -2.7857482 0.59420276
-7.2478061 -3.3451428 0.63934827
-7.2542663 -3.9061449 0.69932514
-7.2607698 -4.4681678 0.7597239
-7.2673192 -5.0312223 0.82053167
-7.2739134 -5.5953212 0.88176471
-7.2815552 -6.1613169 0.95271993
-7.2924953 -6.7315369 1.0543033
-7.3034678 -7.3034701 1.1561881
-7.3150129 -7.877707 1.263389
-7.3269668 -8.454195 1.3743873
-7.3402491 -9.0341539 1.4977177
-7.3561363 -9.6195641 1.6452365
-7.373085 -10.208888 1.8026154
-7.3901124 -10.800933 1.9607198
-7.4207592 -11.416553 2.2452893
-6.9718385 6.9718361 3.4715805
-6.7963591 6.2299938 1.706388
-6.6433234 5.5360994 0.16697165
-6.6959696 5.0219765 0.6965571
-6.7522264 4.5014839 1.2624488
-6.8113351 3.9732778 1.8570395
-6.8787146 3.439357 2.5348256
-6.9566441 2.8985989 3.318737
-6.7005639 0.55838031 0.74276149
-6.7012987 -1.5936339e-06 0.75016099
-6.7040896 -0.55867428 0.77822858
-6.7067285 -1.1177887 0.80477989
-6.7094932 -1.6773734 0.83258545
-6.7122598 -2.237421 0.8604126
-6.7150283 -2.797929 0.88826299
-6.7189693 -3.3594875 0.92791647
-6.7250142 -3.9229269 0.98871994
-6.731039 -4.4873595 1.0493221
-6.7371364 -5.0528526 1.11066
-6.7432451 -5.6193733 1.1721073
-6.7501111 -6.1876016 1.241172
-6.7588301 -6.7588325 1.3288784
-6.76829 -7.3323154 1.424044
-6.7787185 -7.9085078 1.5289409
-6.7904687 -8.4880877 1.6471379
-6.8031435 -9.070858 1.77464
-6.8163738 -9.6565323 1.9077271
-6.8315983 -10.247398 2.0608664
-6.8476262 -10.842076 2.2221019
-6.5085101 7.691874 4.7627249
-6.350029 6.9273014 3.0236044
-5.9794464 5.9794445 -1.0430617
-6.0053005 5.459363 -0.75934279
-6.0447359 4.9456892 -0.32659712
-6.0933046 4.4314933 0.20638373
-6.1465125 3.9114165 0.79026586
-6.2034922 3.3837202 1.4155537
-6.2598176 2.845371 2.0336423
-6.3336191 2.3031344 2.8435199
-6.4153962 1.749653 3.7409189
-6.209085 -1.5577116e-06 1.4769229
-6.1745725 -0.56132507 1.0981957
-6.1767025 -1.1230401 1.12157
-6.1792603 -1.6852533 1.1496346
-6.1822467 -2.248091 1.1824098
-6.1852651 -2.8114865 1.2155296
-6.1887994 -3.37571 1.2543112
-6.1925659 -3.940726 1.2956502
-6.1967378 -4.5067201 1.3414255
-6.2023468 -5.0746474 1.4029764
-6.2084532 -5.6440496 1.4699922
-6.21486 -6.2148609 1.5402982
-6.2222886 -6.7879529 1.6218194
-6.2305155 -7.363337 1.7120982
-6.2388511 -7.9403572 1.8035694
-6.2499418 -8.5226488 1.9252734
-6.2616262 -9.1078224 2.0535002
-6.2733846 -9.6952324 2.1825294
-6.2865691 -10.287113 2.3272123
-5.8181438 7.5635843 3.5715055
-5.4528298 6.5433936 -0.83822191
-5.3480473 5.8828502 -2.1030605
-5.382659 5.3826585 -1.6852616
-5.4189239 4.8770328 -1.2475057
-5.4557538 4.3646007 -0.80292547
-5.499125 3.8493876 -0.27939361
-5.5496659 3.3298001 0.33069208
-5.6011453 2.8005698 0.95210207
-5.6528025 2.2611182 1.5756645
-5.7163472 1.7149023 2.3427169
-5.7884636 1.1576922 3.2132335
-5.8645625 0.5864532 4.1318307
-5.6760068 -1.1352026 1.8557662
-5.6447797 -1.6934346 1.4788141
-5.6476517 -2.2590623 1.5134841
-5.650291 -2.8251469 1.5453482
-5.6536403 -3.3921852 1.585776
-5.6570716 -3.9599524 1.6271994
-5.6605077 -4.5284081 1.6686713
-5.6637368 -5.0973639 1.7076554
-5.6689968 -5.6689968 1.7711445
-5.6748724 -6.2423635 1.8420748
-5.681078 -6.8172941 1.916975
-5.6886482 -7.3952446 2.0083578
-5.6969299 -7.9757037 2.1083279
-5.7054753 -8.5582132 2.2114801
-5.7153573 -9.1445713 2.3307638
-5.7262402 -9.7346096 2.4621329
-5.7415624 -10.334811 2.6470859
-5.3242931 8.2822342 4.7513051
-5.1033769 7.3715444 1.7883049
-4.7361112 6.3148122 -3.1375709
-4.7495604 5.805016 -2.9571815
-4.7786841 5.3096457 -2.5665698
-4.8093243 4.8093238 -2.1556165
-4.8414688 4.3035254 -1.7244788
-4.8761659 3.7925725 -1.2591155
-4.9143949 3.2762609 -0.74637538
-4.9569592 2.7538645 -0.17548665
-5.001884 2.2230582 0.42705604
-5.0545259 1.6848398 1.1331038
-5.1088099 1.1352893 1.8611822
-5.1667743 0.574085 2.6386125
-5.2412996 -7.8036402e-07 3.638165
-5.3175688 -0.59084332 4.6611104
-5.1341362 -2.2818384 2.2008593
-5.1100931 -2.838943 1.8783885
-5.1129465 -3.4086337 1.9166598
-5.1156602 -3.9788487 1.9530557
-5.1188054 -4.5500517 1.9952426
-5.1216445 -5.1216459 2.0333221
-5.1260409 -5.6956029 2.0922852
-5.1305165 -6.2706342 2.1523139
-5.1354318 -6.8472428 2.2182367
-5.1424012 -7.4279137 2.311717
-5.1501379 -8.0113258 2.4154823
-5.1578979 -8.5964975 2.5195622
-5.1656814 -9.1834364 2.6239545
-5.1743894 -9.7738485 2.7407503
-4.8285346 9.053504 6.1972609
-4.734632 8.2856054 4.7803798
-4.2729726 6.9435787 -2.1855264
-4.1436009 6.2154012 -4.1375923
-4.166419 5.7288265 -3.7932918
-4.1918273 5.2397833 -3.4099107
-4.2175474 4.7447395 -3.0218239
-4.2442307 4.2442312 -2.6192088
-4.2753477 3.7409267 -2.1496844
-4.3084064 3.2313044 -1.6508698
-4.3416715 2.7135434 -1.1489357
-4.3751211 2.1875594 -0.64422333
-4.4167662 1.6562884 -0.015851054
-4.4627566 1.1156863 0.67809343
-4.5097146 0.56371492 1.3866346
-4.5644655 1.5685241e-07 2.2127647
-4.6234493 -0.57793278 3.1027641
-4.6915822 -1.1728957 4.1308079
-4.7612195 -1.7854577 5.181551
-4.5847335 -3.4385521 2.5185871
-4.5691419 -3.9979999 2.2833223
-4.5722218 -4.5722227 2.329798
-4.5744271 -5.1462307 2.3630741
-4.5782652 -5.7228322 2.4209874
-4.5822816 -6.3006396 2.4815898
-4.5859175 -6.8788772 2.5364485
-4.5906377 -7.4597869 2.607672
-4.5973358 -8.0453396 2.7087414
-4.604249 -8.6329679 2.8130512
-4.6111608 -9.2223234 2.9173467
-4.6368599 -9.8533287 3.3051162
-4.3111753 9.8541136 7.6838531
-4.1805148 8.9582453 5.4306951
-3.8359284 7.671855 -0.5114817
-3.5792487 6.6471739 -4.9377661
-3.5780499 6.1337981 -4.9584408
-3.5988722 5.6553688 -4.5993738
-3.620214 5.1717329 -4.2313447
-3.6420903 4.6826844 -3.854104
-3.6642478 4.1877098 -3.4720061
-3.6893346 3.6893315 -3.0394037
-3.7160754 3.1852069 -2.5782776
-3.7438791 2.674196 -2.0988178
-3.7729177 2.155951 -1.5980626
-3.8070853 1.6316075 -1.0088651
-3.8418946 1.0976845 -0.40859956
-3.8774166 0.55391401 0.20395947
-3.923105 -2.7098226e-06 0.99182749
-3.9705102 -0.56721765 1.8092946
-4.0198307 -1.1485227 2.6597981
-4.0756526 -1.7467103 3.6224127
-4.1357064 -2.3632622 4.6580048
-4.1992478 -2.9994626 5.7537336
-4.0302377 -4.6059871 2.8392603
-4.0219307 -5.1710534 2.6960092
-4.0250559 -5.7500811 2.7499056
-4.0280533 -6.3298001 2.8015893
-4.0310931 -6.9104457 2.8540111
-4.0352993 -7.4941282 2.9265437
-4.0397053 -8.0794115 3.0025239
-4.0456142 -8.6691761 3.1044185
-4.0532503 -9.264575 3.2361
-3.622153 9.6590738 6.2123899
-3.6120801 9.0301962 6.0097399
-3.1568766 7.3660431 -3.1482453
-3.0160644 6.5348029 -5.9811716
-3.0287335 6.0574665 -5.7262902
-3.0460498 5.584424 -5.3779106
-3.0635779 5.1059632 -5.0252709
-3.0815556 4.6223311 -4.6635919
-3.1004403 4.1339188 -4.2836556
-3.121592 3.641855 -3.858119
-3.1430342 3.1430314 -3.4267333
-3.1647596 2.6372998 -2.9896579
-3.1877301 2.1251519 -2.5275257
-3.2158008 1.6078991 -1.9627833
-3.2444568 1.0814831 -1.3862722
-3.2736278 0.54560524 -0.7993961
-3.3073549 -2.7234262e-06 -0.12085589
-3.3425162 -0.55708724 0.58653188
-3.3825824 -1.1275281 1.3926061
-3.4266 -1.7133014 2.2781663
-3.4717615 -2.3145089 3.1867423
-3.5236795 -2.9364007 4.2312584
-3.5773141 -3.5773151 5.3102984
-3.6282525 -4.2329612 6.3351035
-3.4705772 -5.784296 3.162919
-3.4685066 -6.3589301 3.1212621
-3.4713664 -6.9427342 3.1787987
-3.4749892 -7.5291448 3.2516823
-3.478636 -8.1168165 3.325048
-3.482456 -8.7061424 3.4019027
-3.0799859 10.471951 7.6977305
-3.0362961 9.7161446 6.6429758
-2.6665716 7.9997139 -2.2829692
-2.5091205 7.0255356 -6.0841708
-2.4792132 6.4459529 -6.8062034
-2.4931247 5.9834971 -6.4703426
-2.5073068 5.5160737 -6.1279631
-2.5214634 5.0429254 -5.7861857
-2.5357704 4.564384 -5.4407859
-2.551008 4.0816116 -5.0729184
-2.5680926 3.5953288 -4.6604648
-2.5854073 3.1024883 -4.2424498
-2.6029572 2.6029541 -3.8187537
-2.6219964 2.0975974 -3.3591094
-2.6432147 1.5859263 -2.8468561
-2.6647789 1.0659097 -2.3262436
-2.6876445 0.53752643 -1.7742215
-2.7148118 -1.9424391e-09 -1.1183484
-2.7429528 -0.54859257 -0.43896288
-2.7715573 -1.1086237 0.2516157
-2.8033888 -1.6820346 1.0200986
-2.8393235 -2.2714584 1.8876328
-2.8778727 -2.8778732 2.8182888
-2.92033 -3.5043991 3.8433027
-2.9635408 -4.1489563 4.8865027
-3.0087612 -4.8140173 5.9782195
-3.0485322 -5.4873571 6.9383793
-3.0182967 -6.0365953 6.2084303
-2.993829 -6.5864248 5.6177235
-2.9078801 -6.9789152 3.5427351
-2.9088361 -7.5629764 3.5658154
-2.9117775 -8.152977 3.6368244
-2.9217834 -8.7653513 3.8783925
-2.5142984 11.314341 9.2159672
-2.450377 10.414101 7.2869697
-2.4480066 9.7920265 7.2154326
-2.0672052 7.7520175 -4.2762628
-1.960252 6.8608828 -7.5038624
-1.9593241 6.3678017 -7.5318632
-1.9702958 5.9108849 -7.200767
-1.9815357 5.4492221 -6.8615727
-1.9928396 4.9820971 -6.5204482
-2.00401 4.5090213 -6.1833539
-2.0162132 4.032424 -5.8150854
-2.0291305 3.5509756 -5.4252687
-2.0422144 3.0633204 -5.0304241
-2.0555809 2.5694759 -4.6270633
-2.0707376 2.0707359 -4.1696696
-2.0871804 1.5653828 -3.6734605
-2.1038139 1.0519056 -3.1715009
-2.1207147 0.53017741 -2.6614745
-2.13995 -3.8013309e-07 -2.0809977
-2.1605024 -0.54012692 -1.4607701
-2.182682 -1.0913436 -0.79144531
-2.2070258 -1.65527 -0.056808185
-2.2325819 -2.232584 0.71441448
-2.2589457 -2.8236847 1.5100162
-2.2920227 -3.4380338 2.5081973
-2.3262043 -4.0708604 3.539726
-2.3611927 -4.7223883 4.5955935
-2.3963792 -5.3918562 5.6574426
-2.4064159 -6.0160413 5.9603238
-2.4073293 -6.6201549 5.9878883
-2.4083502 -7.2250533 6.0186992
-2.4095504 -7.8310409 6.0549178
-2.3406084 -8.1921329 3.974406
-1.8538746 11.123248 7.9344568
-1.8522621 10.496152 7.8695726
-1.5552622 8.2947321 -4.0807805
-1.4960827 7.4804115 -6.4619856
-1.4473753 6.7544155 -8.4218197
-1.4526619 6.294867 -8.209095
-1.460528 5.842113 -7.892592
-1.4684798 5.3844256 -7.572639
-1.4766673 4.922224 -7.2431951
-1.484995 4.4549847 -6.9081192
-1.4941663 3.9844437 -6.5390935
-1.5038837 3.5090623 -6.1480932
-1.5137347 3.0274673 -5.75172
-1.5237154 2.5395231 -5.3501229
-1.5342914 2.045722 -4.9245834
-1.5452564 1.5452541 -4.4833865
-1.5570869 1.0380553 -4.0073566
-1.5694298 0.52313983 -3.5107236
-1.5834743 5.4144948e-08 -2.9456184
-1.598128 -0.53271151 -2.3559976
-1.6131406 -1.0754292 -1.7519345
-1.6295393 -1.6295396 -1.0921046
-1.6482379 -2.197654 -0.33973101
-1.6673704 -2.7789526 0.43010607
-1.6891465 -3.3782938 1.3063021
-1.7122747 -3.9953079 2.2369134
-1.7376099 -4.6336274 3.2563252
-1.7642413 -5.2927232 4.3278894
-1.7918156 -5.9727192 5.437398
-1.8146116 -6.6535769 6.3546314
-1.815286 -7.2611465 6.381772
-1.256884 11.940394 9.199955
-1.2453713 11.208343 8.5051041
-1.2442734 10.576322 8.4388447
-1.019879 8.1590319 -5.1045589
-0.96387702 7.2290778 -8.48458
-0.95223248 6.6656265 -9.1873846
-0.95756108 6.2241449 -8.8657799
-0.96339023 5.7803397 -8.5139551
-0.96872175 5.3279676 -8.1921692
-0.97396886 4.8698411 -7.8754787
-0.97930455 4.4068685 -7.553442
-0.98538244 3.9415288 -7.1866126
-0.99153626 3.4703751 -6.8151956
-0.99793458 2.9938021 -6.4290199
-1.0044409 2.5111001 -6.0363331
-1.0113884 2.0227757 -5.6170106
-1.0185348 1.5277997 -5.1856909
-1.025787 1.0257859 -4.7479734
-1.033174 0.51658601 -4.302134
-1.0419292 -1.7898602e-06 -3.7737091
-1.0515898 -0.52579576 -3.19064
-1.0614266 -1.0614263 -2.5969386
-1.0718913 -1.6078402 -1.9653379
-1.0829532 -2.1659071 -1.2976923
-1.0943292 -2.7358236 -0.61108738
-1.1080295 -3.3240902 0.21579267
-1.122856 -3.9299984 1.1106613
-1.1385838 -4.5543356 2.0599089
-1.15595 -5.2017746 3.1080494
-1.1741815 -5.8709092 4.2084203
-1.1932364 -6.5628018 5.3584819
-0.6414606 12.829211 10.771451
-0.62812191 11.934317 9.1613178
-0.62748271 11.294688 9.0841637
-0.62692213 10.657674 9.0164919
-0.49498829 7.9198112 -6.9093294
-0.47150487 7.0725718 -9.74403
-0.47060162 6.5884218 -9.8530607
-0.47341722 6.1544218 -9.5131865
-0.47628343 5.7153997 -9.1672087
-0.47917321 5.270905 -8.8183756
-0.48190427 4.8190408 -8.4887114
-0.48458776 4.3612866 -8.1647863
-0.48756394 3.900511 -7.8055253
-0.49057892 3.4340518 -7.4415851
-0.49362943 2.9617746 -7.0733552
-0.49673429 2.4836709 -6.6985707
-0.50012207 2.000488 -6.2896242
-0.50363952 1.5109172 -5.8650336
-0.50720888 1.0144169 -5.4341755
-0.51082706 0.51082557 -4.9974208
-0.51504201 -1.7123979e-06 -4.4886346
-0.51940876 -0.5194084 -3.9615145
-0.52389079 -1.0477827 -3.4204922
-0.52895898 -1.5868775 -2.8087058
-0.53436464 -2.1374588 -2.1561799
-0.53989393 -2.699471 -1.4887384
-0.54589248 -3.2753561 -0.76464981
-0.55257303 -3.868012 0.041759659
-0.55997062 -4.4797659 0.93473291
-0.568322 -5.1148973 1.942832
-0.57692623 -5.7692647 2.9814582
-0.58639991 -6.4503989 4.1250277
1.302737e-23 12.670711 9.814805
3.7752075e-24 12.02694 9.7497778
-2.4735511e-24 11.382435 9.6726074
1.6795638e-25 8.4615231 -6.5775738
1.4369857e-23 7.6751142 -8.7554255
1.1841976e-23 6.9681616 -10.584256
2.0025556e-23 6.5177011 -10.462805
2.6882808e-23 6.0891151 -10.119585
1.84775e-23 5.6538434 -9.786417
1.2681747e-23 5.2134299 -9.4490786
4.6197967e-24 4.7677441 -9.1079388
2.0087078e-23 4.3168602 -8.7606544
2.0106692e-23 3.8607171 -8.4059372
9.4397699e-24 3.3989527 -8.0468445
1.731369e-23 2.9314678 -7.6830568
6.1212593e-24 2.458168 -7.3142533
1.7080634e-23 1.9797196 -6.9163532
-6.9175449e-25 1.4948068 -6.5133319
1.2036496e-23 1.0033095 -6.1045818
1.9297317e-23 0.50519204 -5.6773763
1.1596247e-23 -2.4277192e-06 -5.1764588
-2.7664326e-25 -0.51360494 -4.6622906
1.4994204e-23 -1.0358497 -4.1407719
2.996177e-23 -1.5675781 -3.585314
4.3346783e-25 -2.1099861 -2.9852576
2.1584886e-23 -2.6644208 -2.3349471
1.0896253e-23 -3.2317047 -1.6428372
9.9318708e-24 -3.8150399 -0.87171644
1.0519963e-23 -4.412456 -0.080879949
2.2602736e-23 -5.0340352 0.85824811
-1.9933434e-24 -5.6788321 1.8898637
1.0245341e-23 -6.3472109 2.9926467
2.1965242e-23 -7.038085 4.1379523
0.64084113 13.457664 10.696669
0.63832831 12.766566 10.393347
0.63778812 12.117971 10.328138
0.63721561 11.469879 10.25903
0.49044293 8.3375301 -7.4580011
0.46749154 7.4798632 -10.228478
0.45877171 6.8815746 -11.281054
0.46075928 6.4506278 -11.041138
0.46372378 6.0284085 -10.68329
0.46659288 5.5991135 -10.336957
0.46933171 5.1626458 -10.006351
0.47210467 4.7210455 -9.6716232
0.4749254 4.2743273 -9.3311338
0.47778937 3.8223155 -8.9854212
0.4806881 3.364814 -8.6355114
0.4836356 2.9018116 -8.2797136
0.48665833 2.4332912 -7.9148436
0.48988605 1.9595437 -7.5252223
0.49315891 1.4794748 -7.1301579
0.49654639 0.99309319 -6.7212496
0.49998078 0.49998036 -6.3066835
0.50379747 -1.6480881e-06 -5.8459702
0.50787348 -0.50787616 -5.3539481
0.51209974 -1.0242012 -4.8437953
0.51658481 -1.549755 -4.3023963
0.52144301 -2.0857739 -3.7159643
0.52639109 -2.6319578 -3.1186724
0.53155893 -3.1893544 -2.4948566
0.53779882 -3.7645931 -1.7416419
0.54419661 -4.3535724 -0.9693622
0.55136025 -4.9622431 -0.10463214
0.55922425 -5.5922441 0.84464198
0.56783038 -6.2461352 1.8834889
0.57721263 -6.9265528 3.0160282
1.3088033 14.396835 12.333569
1.2871614 13.515191 11.02736
1.2863952 12.86395 10.981116
1.2853118 12.210463 10.91573
0.95527971 8.1198778 -9.0034714
0.91290575 7.3032455 -11.560967
0.90717411 6.8038058 -11.906901
0.91195798 6.3837032 -11.618172
0.91788149 5.9662275 -11.260655
0.923823 5.5429354 -10.902049
0.9296084 5.1128435 -10.552873
0.93504751 4.6752357 -10.224589
0.94059056 4.2326574 -9.8900414
0.94620705 3.7848253 -9.5510521
0.95189101 3.3316193 -9.2079983
0.9577601 2.8732791 -8.8537636
0.96386939 2.4096727 -8.4850378
0.97025371 1.9405041 -8.0997076
0.97681302 1.4652182 -7.7038174
0.98345762 0.98345637 -7.3027821
0.99024147 0.49511996 -6.8933401
0.99773479 -2.3350958e-06 -6.4410777
1.0053465 -0.50267637 -5.9816713
1.0130752 -1.0130758 -5.5152025
1.0215344 -1.5323007 -5.0046449
1.0309103 -2.0618231 -4.4387631
1.0404598 -2.6011496 -3.862402
1.0502962 -3.1508899 -3.2687173
1.0620267 -3.7170928 -2.5607176
1.07406 -4.2962408 -1.8344417
1.0875546 -4.8939967 -1.0199754
1.1027702 -5.5138526 -0.10162711
1.1182437 -6.1503415 0.83227444
1.1366386 -6.8198323 1.9425138
1.1558515 -7.5130363 3.1021066
1.9464916 14.27427 11.661075
1.9454887 13.61842 11.620725
1.944425 12.962835 11.577923
1.4386376 8.6318235 -8.7733917
1.4002496 7.9347472 -10.318007
1.3503417 7.2018204 -12.326149
1.3459603 6.7297993 -12.502445
1.3545665 6.3213077 -12.156158
1.3630399 5.9065051 -11.815212
1.3716251 5.4865007 -11.469769
1.3803192 5.0611701 -11.119945
1.3890978 4.6303248 -10.766721
1.3975356 4.1926055 -10.427212
1.4061304 3.7496805 -10.081388
1.414826 3.3012586 -9.7314987
1.42363 2.8472602 -9.3772583
1.432673 2.3877883 -9.0133944
1.4419848 1.9226457 -8.6387119
1.4514185 1.4514154 -8.2591238
1.4610174 0.97401071 -7.8729024
1.4710748 0.49035689 -7.4682231
1.4821048 8.2954256e-07 -7.024415
1.4931613 -0.49772161 -6.5795331
1.504384 -1.0029244 -6.1279612
1.5162599 -1.5162615 -5.6501117
1.5291288 -2.0388412 -5.132308
1.5425491 -2.5709171 -4.5923181
1.556796 -3.1135924 -4.0190725
1.5738468 -3.6723123 -3.3329957
1.5913583 -4.2436242 -2.6283872
1.6095608 -4.8286843 -1.895972
1.6306345 -5.4354515 -1.0480263
1.6531849 -6.0616794 -0.14067651
1.678503 -6.7140155 0.87805015
1.706038 -7.3928332 1.9859718
2.6183505 15.055515 12.356014
2.6148736 14.381805 12.251094
2.6135023 13.720887 12.20971
2.6567228 13.283613 13.514003
1.889968 8.5048552 -9.6248693
1.8221194 7.7440066 -11.672387
1.7750133 7.1000509 -13.093936
1.7774941 6.6656022 -13.019073
1.789314 6.2625971 -12.662372
1.8009269 5.8530107 -12.311924
1.8121669 5.4365001 -11.972726
1.8238614 5.0156178 -11.619817
1.836032 4.5900769 -11.252531
1.8471849 4.1561637 -10.91597
1.8582193 3.7164385 -10.582976
1.8696082 3.2718153 -10.239284
1.8811448 2.8217163 -9.8911333
1.8930303 2.3662858 -9.5324593
1.9052229 1.9052207 -9.1645136
1.9175811 1.4381831 -8.7915754
1.9303447 0.96517235 -8.4063978
1.9433954 0.4858461 -8.0125551
1.9567571 -1.8162131e-06 -7.6093307
1.9711307 -0.49278596 -7.1755667
1.985806 -0.99290568 -6.7327023
2.0013163 -1.5009899 -6.264636
2.0181293 -2.0181298 -5.7572584
2.0352359 -2.5440476 -5.2410254
2.0527554 -3.0791354 -4.7123208
2.0732429 -3.628176 -4.0940628
2.0959318 -4.1918664 -3.4093652
2.1191225 -4.7680254 -2.7095189
2.1460435 -5.365108 -1.8971113
2.1737344 -5.9777703 -1.0614635
2.2045648 -6.6136961 -0.13106667
2.2399647 -7.2798858 0.93721515
3.3447022 16.054571 14.088555
3.2954826 15.159222 12.900291
3.293385 14.490893 12.849644
3.2955005 13.841102 12.90072
3.295625 13.182498 12.903724
3.3137109 12.592104 13.340358
2.3263676 8.3749228 -10.496214
2.2292917 7.5795889 -12.839839
2.2156582 7.090106 -13.168978
2.2161329 6.6483979 -13.157522
2.2215683 6.2203908 -13.026294
2.2309453 5.8004565 -12.799912
2.2455444 5.3893061 -12.447462
2.2603273 4.9727192 -12.090572
2.2752552 4.5505075 -11.730179
2.2894282 4.1209702 -11.388014
2.3029706 3.6847527 -11.061069
2.3166742 3.2433441 -10.730237
2.3305507 2.7966611 -10.395227
2.3454053 2.3454041 -10.036609
2.36077 1.8886169 -9.6656752
2.3763371 1.4258019 -9.2898493
2.3921204 0.9568463 -8.9088078
2.4081812 0.48163411 -8.5210638
2.4245842 -1.0076168e-06 -8.1250591
2.441222 -0.48824552 -7.7233896
2.4580798 -0.98323298 -7.3164024
2.4767187 -1.4860324 -6.8664231
2.4975617 -1.9980503 -6.3632293
2.5187585 -2.5187597 -5.85149
2.5403183 -3.048382 -5.3309913
2.5646293 -3.5904825 -4.7440705
2.5899484 -4.1439214 -4.1328149
2.6166468 -4.7099662 -3.4882581
2.6487999 -5.2976003 -2.7120142
2.6826251 -5.9017773 -1.8954046
2.7180147 -6.5232391 -1.0410169
2.7592683 -7.1740985 -0.045069877
2.8059661 -7.8567057 1.082312
3.9343388 15.737356 12.493086
3.9207361 15.029486 12.219419
3.9477386 14.475039 12.762665
3.9792612 13.264205 13.396852
2.7825646 8.8114529 -10.678824
2.7265565 8.1796684 -11.805618
2.6761858 7.5825248 -12.818998
2.6723883 7.1263685 -12.895401
2.668786 6.6719637 -12.967871
2.6668332 6.2226095 -13.00716
2.6694667 5.7838426 -12.954178
2.6772423 5.3544822 -12.797748
2.6893806 4.9305301 -12.553542
2.7069705 4.5116177 -12.199663
2.7242346 4.0863523 -11.852334
2.7402129 3.6536157 -11.530877
2.756525 3.2159424 -11.202703
2.7740717 2.7740707 -10.849689
2.7916412 2.3263648 -10.496213
2.809155 1.8727703 -10.14387
2.8273804 1.4136889 -9.7771978
2.8459988 0.94866461 -9.402627
2.864965 0.47749352 -9.021059
2.8843102 -1.2198032e-06 -8.6318579
2.9039767 -0.48399755 -8.2362051
2.9240174 -0.97467464 -7.8330102
2.9453907 -1.4726985 -7.4030137
2.9685338 -1.9790221 -6.9374175
2.992862 -2.4940541 -6.4479656
3.0182266 -3.0182281 -5.9376726
3.0466957 -3.5544786 -5.3649125
3.0764308 -4.1019101 -4.7666931
3.1061852 -4.6592798 -4.1680784
3.1404068 -5.2340117 -3.4795928
3.178808 -5.8278155 -2.7070208
3.2194047 -6.4388103 -1.8902789
3.265893 -7.0761046 -0.95500964
3.3151226 -7.7352862 0.035418946
4.6859722 16.735611 14.146997
4.5016479 15.43422 10.968437
4.5335503 14.895949 11.518577
3.2027972 8.693306 -11.42944
3.1461 8.0899687 -12.407152
3.1389472 7.6231561 -12.530491
3.1342967 7.1641073 -12.610689
3.1305997 6.708427 -12.674437
3.1266944 6.253387 -12.741785
3.1227987 5.7994823 -12.808964
3.1213048 5.3508058 -12.834729
3.1248426 4.9104657 -12.773723
3.1342278 4.4774652 -12.611876
3.1517966 4.0523109 -12.308918
3.1708922 3.6238751 -11.979626
3.1907921 3.1907895 -11.63646
3.2109919 2.7522767 -11.288129
3.2313147 2.3080807 -10.937678
3.251426 1.8579569 -10.590867
3.2717893 1.4021959 -10.239716
3.2924094 0.94068706 -9.8841333
3.3140361 0.47343272 -9.5111933
3.3364177 -4.1640831e-07 -9.1252375
3.3591034 -0.47987217 -8.7340326
3.3821001 -0.96631551 -8.3374739
3.4067442 -1.4600327 -7.9125032
3.43328 -1.9618757 -7.4549093
3.4602466 -2.4716063 -6.9898863
3.4876258 -2.9893956 -6.5177488
3.5185533 -3.5185552 -5.9844193
3.5519083 -4.0593243 -5.4092393
3.5859165 -4.610465 -4.8227849
3.6242363 -5.1774817 -4.1619816
3.6663859 -5.7614651 -3.4351423
3.7095268 -6.3591909 -2.6911967
3.7603183 -6.9834495 -1.8153324
3.8148682 -7.6297374 -0.8746531
5.4713411 17.781858 15.896461
5.3951535 16.859852 14.746879
5.0993485 15.298045 10.283525
5.1348686 14.762748 10.81948
3.7532108 9.3830252 -10.028121
3.622828 8.6042166 -11.995443
3.6116028 8.1261053 -12.164824
3.6071746 7.6652451 -12.231638
3.6026645 7.205328 -12.299695
3.5982182 6.7466564 -12.366779
3.5937831 6.2891207 -12.433701
3.5893593 5.8327065 -12.500453
3.5849459 5.3774176 -12.567045
3.5810423 4.9239311 -12.625947
3.5807798 4.4759727 -12.629909
3.5861437 4.034411 -12.548973
3.5982981 3.5982962 -12.365581
3.6183324 3.1660409 -12.063283
3.6410868 2.7308159 -11.719942
3.6641436 2.2900879 -11.372046
3.6867697 1.8433832 -11.030642
3.7096634 1.3911213 -10.685202
3.7333996 0.93334669 -10.327052
3.7577591 0.46971881 -9.9594908
3.7816777 3.1721547e-07 -9.5985937
3.80654 -0.47582078 -9.223444
3.8323781 -0.95809644 -8.8335781
3.8602161 -1.4475821 -8.4135332
3.8900416 -1.9450203 -7.9635086
3.9199061 -2.4499426 -7.5128841
3.9501855 -2.9626391 -7.0560088
3.983696 -3.4857347 -6.5503731
4.0187883 -4.0187907 -6.0208678
4.0556998 -4.5626631 -5.4639168
4.097743 -5.122179 -4.8295312
4.1441813 -5.6982517 -4.1288376
4.1904607 -6.2856903 -3.4305334
4.2412267 -6.8919945 -2.6645358
4.3013482 -7.5273614 -1.7573621
6.1149087 17.665289 15.355277
5.6500163 15.694489 9.1199932
5.6870356 15.165425 9.6165113
5.7255573 14.631978 10.133182
4.2955995 10.023065 -9.0458441
4.1497149 9.2215872 -11.002491
4.0936136 8.6420717 -11.75494
4.0720873 8.1441736 -12.043656
4.0791159 7.7049956 -11.949379
4.0767856 7.2476172 -11.98064
4.0717249 6.7862067 -12.048512
4.0666766 6.3259406 -12.116219
4.0616412 5.8668151 -12.183759
4.0566182 5.408823 -12.25113
4.0518913 4.952311 -12.314528
4.0477571 4.4975076 -12.36998
4.0440626 4.0440612 -12.419529
4.0444942 3.5951059 -12.413741
4.0518465 3.1514356 -12.315127
4.0666766 2.7111161 -12.116218
4.0900631 2.2722576 -11.802557
4.1153221 1.8290311 -11.463774
4.1414723 1.3804883 -11.113037
4.1679735 0.92621487 -10.7576
4.1954718 0.46616253 -10.388783
4.2220216 -3.2353503e-07 -10.032693
4.2488766 -0.47209764 -9.6725073
4.2760749 -0.95024186 -9.3077068
4.3056312 -1.435212 -8.9112949
4.3381143 -1.9280512 -8.4756203
4.3710742 -2.4283762 -8.0335531
4.4045563 -2.9363728 -7.5844774
4.4414978 -3.4545002 -7.0890112
4.4802876 -3.9824789 -6.5687523
4.5196676 -4.5196681 -6.0405707
4.5606928 -5.0674381 -5.4903307
4.6086268 -5.6327677 -4.8474245
4.6594954 -6.2126613 -4.1651635
4.7138033 -6.8088293 -3.43677
4.7747178 -7.427341 -2.6197619
4.8423009 -8.0705023 -1.7133183
6.8452349 18.482134 15.969591
6.8436232 17.793419 15.950139
6.2236819 15.559207 8.4667902
6.2647176 15.03532 8.9621315
4.6898017 9.8485832 -10.048787
4.5827236 9.1654444 -11.341334
4.5811243 8.7041349 -11.360638
4.5793033 8.2427435 -11.382623
4.5382981 7.715106 -11.877593
4.5427732 7.2684355 -11.823578
4.5508327 6.8262482 -11.726288
4.5451574 6.3632193 -11.794798
4.5394964 5.9013438 -11.863132
4.5338492 5.4406171 -11.931298
4.5282159 4.9810357 -11.999296
4.5235519 4.523551 -12.055597
4.5194497 4.0675025 -12.105115
4.5154552 3.6123629 -12.153339
4.512301 3.1586113 -12.19141
4.5138693 2.7083201 -12.172481
4.5236192 2.2618079 -12.054788
4.5405598 1.8162224 -11.850294
4.5669699 1.3700913 -11.531495
4.596128 0.91922283 -11.17953
4.6262207 0.4626199 -10.816276
4.6557341 -4.9777356e-07 -10.46002
4.6851048 -0.46851069 -10.105484
4.7152853 -0.94305849 -9.7411699
4.7466874 -1.4240093 -9.362112
4.7801199 -1.9120486 -8.9585485
4.8143678 -2.4071851 -8.5451355
4.8509216 -2.910553 -8.1038971
4.8911872 -3.4238322 -7.6178493
4.9326448 -3.9461157 -7.1174116
4.9742842 -4.4768572 -6.6147776
5.0185294 -5.0185318 -6.080689
5.0685935 -5.5754542 -5.4763632
5.1196661 -6.1435986 -4.8598666
5.1751103 -6.727644 -4.1905928
5.241179 -7.3376532 -3.393074
5.3089795 -7.9634709 -2.5746539
7.697021 19.592419 17.805086
7.5839705 18.615198 16.564507
6.7987447 16.069757 7.9476705
6.7875776 15.426313 7.8251271
6.8322239 14.906672 8.3150663
5.2483306 10.49666 -9.0661049
5.0791049 9.6964712 -10.923137
5.0770698 9.2310333 -10.945472
5.0748825 8.7657051 -10.969471
5.0736942 8.3024073 -10.982515
5.0722952 7.8389993 -10.997865
5.0702658 7.3749299 -11.020138
5.0051699 6.8252316 -11.734478
5.016818 6.3850384 -11.606658
5.0229907 5.9362617 -11.538917
5.016705 5.4727688 -11.607891
5.0104356 5.0104351 -11.676694
5.0049086 4.5499167 -11.737345
5.0003805 4.0912204 -11.787034
4.9965487 3.6338522 -11.829088
4.9931674 3.1774693 -11.866188
4.9897728 2.721693 -11.903443
4.9868269 2.2667389 -11.935769
4.9897909 1.8144701 -11.903241
5.0005298 1.3637781 -11.785398
5.0199871 0.9127236 -11.571881
5.0504551 0.45913109 -11.23753
5.0829306 -1.8088894e-06 -10.881156
5.1151242 -0.46501097 -10.527873
5.1481824 -0.93603683 -10.165099
5.1819105 -1.4132499 -9.7949772
5.2177658 -1.8973713 -9.4015131
5.2545114 -2.3884161 -8.9982815
5.2917571 -2.8864138 -8.5895596
5.3312058 -3.3925869 -8.1566591
5.3754172 -3.9093957 -7.6714945
5.4203687 -4.4348478 -7.1782098
5.4676361 -4.9705806 -6.6595116
5.5216541 -5.521656 -6.0667386
5.5763097 -6.0832472 -5.4669662
5.6300039 -6.6536412 -4.8777428
5.6943345 -7.2473369 -4.1717896
5.7666335 -7.8635917 -3.3784077
8.3332796 19.444319 17.166618
8.3316212 18.746147 17.149933
7.2961831 15.808395 6.7342329
7.3419218 15.295672 7.1943355
5.8334131 11.180707 -7.9801011
5.6261201 10.314552 -10.065308
5.5802841 9.7654963 -10.526375
5.5779686 9.2966146 -10.549669
5.5766525 8.8296995 -10.562911
5.5753365 8.3630056 -10.576146
5.5739155 7.8963785 -10.590442
5.4823327 5.9391928 -11.511691
5.4987316 5.4987292 -11.346732
5.4984016 5.0402012 -11.350055
5.491889 4.5765715 -11.415565
5.4872813 4.1154599 -11.461915
5.4835229 3.6556795 -11.499718
5.4801183 3.1967359 -11.533969
5.4768 2.7383981 -11.567352
5.4737306 2.2807198 -11.598224
5.4711962 1.8237301 -11.62372
5.4686432 1.3671596 -11.649402
5.4715843 0.91192985 -11.619817
5.48457 0.45704523 -11.48919
5.5065436 -1.177344e-06 -11.268149
5.5391445 -0.46159527 -10.940207
5.5746794 -0.92911381 -10.582763
5.6109729 -1.4027441 -10.217677
5.6487441 -1.8829174 -9.8377275
5.6881967 -2.3700821 -9.4408627
5.7277122 -2.8638563 -9.0433674
5.7678485 -3.364579 -8.6396227
5.8128843 -3.8752565 -8.1866026
5.8586044 -4.3939567 -7.7266865
5.9082179 -4.9235177 -7.2276196
5.9643297 -5.4673014 -6.6631775
6.020627 -6.0206294 -6.0968671
6.078023 -6.5845251 -5.5195141
6.1429296 -7.1667514 -4.8666029
6.2137141 -7.7671442 -4.1545591
6.2960367 -8.3947182 -3.3264649
9.0937176 20.285984 17.77944
9.0916338 19.58198 17.76009
7.8382316 15.676462 6.121706
7.8869171 15.167147 6.5737705
6.2032995 10.975068 -9.0593538
6.0908465 10.307585 -10.103533
6.0887203 9.8356247 -10.123275
6.0872726 9.3650331 -10.136718
6.0858259 8.8946657 -10.150155
6.0843558 8.4244928 -10.163801
5.9638081 5.0462966 -11.283135
5.9767885 4.597528 -11.162608
5.9809551 4.1406598 -11.123923
5.9772835 3.6783271 -11.15801
5.9736395 3.2165718 -11.19185
5.9699769 2.7553725 -11.225858
5.9666781 2.2948747 -11.256489
5.9638977 1.8350434 -11.282302
5.9615684 1.3757472 -11.303937
5.9593744 0.91682601 -11.324306
5.9571829 0.45824391 -11.344657
5.9621954 -1.1166337e-06 -11.298112
5.9754386 -0.45964941 -11.175145
5.998631 -0.92286736 -10.959789
6.03368 -1.3923895 -10.634346
6.0731807 -1.8686714 -10.267564
6.1150398 -2.3519402 -9.8788843
6.1567874 -2.8415959 -9.4912405
6.1986241 -3.3377206 -9.1027699
6.2453308 -3.8432817 -8.6690722
6.2940698 -4.3574347 -8.2165136
6.3425102 -4.8788543 -7.7667227
6.3971386 -5.4129643 -7.25948
6.4559174 -5.9593101 -6.7136908
6.5168028 -6.5168037 -6.1483421
6.584415 -7.090909 -5.5205293
6.6564865 -7.680563 -4.8513112
6.7333803 -8.2872372 -4.1373262
8.3202915 16.046274 5.0794382
8.3712664 15.546635 5.5189619
8.4228706 15.040839 5.963901
6.8019919 11.660558 -8.0116234
6.609159 10.857903 -9.6742668
6.6072688 10.382849 -9.690567
6.6056852 9.9085264 -9.7042179
6.6041031 9.4344311 -9.7178631
6.6025214 8.9605646 -9.7314987
6.4522614 4.1478806 -11.02707
6.4672995 3.6955967 -10.897409
6.4733 3.2366483 -10.845674
6.4693313 2.7725692 -10.879891
6.4658065 2.3092139 -10.910276
6.4631424 1.8466108 -10.933253
6.4607482 1.384444 -10.953893
6.4588685 0.92269301 -10.970102
6.4570875 0.46122041 -10.985461
6.4567943 -2.0157017e-06 -10.98798
6.456892 -0.461209 -10.987142
6.4596491 -0.92280871 -10.963365
6.4745011 -1.3873944 -10.835311
6.4989457 -1.8568424 -10.624552
6.5349727 -2.3339205 -10.313916
6.579268 -2.8196864 -9.9319935
6.6236033 -3.3118031 -9.5497246
6.6706996 -3.8118315 -9.1436491
6.72225 -4.3214459 -8.6991796
6.7723742 -4.8374109 -8.2669945
6.8266854 -5.3638244 -7.7987099
6.8868937 -5.9030542 -7.279582
6.9482017 -6.4519043 -6.7509747
7.0161653 -7.0161638 -6.1649833
7.0911441 -7.5976558 -5.5184994
7.1677427 -8.1917086 -4.8580513
8.8421612 15.915887 4.4965129
8.8957186 15.419243 4.9275103
7.4207926 12.367988 -6.9417729
7.1571503 11.451439 -9.063405
7.1328712 10.937068 -9.25879
7.1309819 10.458772 -9.2739878
7.1290946 9.9807301 -9.2891788
7.1272078 9.502944 -9.3043613
7.12535 9.0254421 -9.3193111
6.9473863 3.242111 -10.751452
6.9656715 2.7862656 -10.604301
6.9715581 2.3238506 -10.556931
6.9696217 1.8585639 -10.572518
6.9677124 1.3935418 -10.587881
6.9657779 0.92877072 -10.603451
6.9638705 0.4642567 -10.618794
6.9637384 -2.2552604e-06 -10.619861
6.9638443 -0.46425796 -10.61901
6.9639235 -0.92852473 -10.61837
6.9640036 -1.3928039 -10.61773
6.9685078 -1.8582715 -10.58148
6.9833879 -2.3277977 -10.461737
7.0078115 -2.8031254 -10.26519
7.0430083 -3.286741 -9.9819489
7.089273 -3.7809453 -9.6096363
7.1422172 -4.2853336 -9.1835737
7.1949968 -4.7966676 -8.7588367
7.2492509 -5.3161201 -8.3222322
7.3118534 -5.849483 -7.8184495
7.3763485 -6.3928361 -7.2994318
7.4360995 -6.940361 -6.8185949
7.5088129 -7.5088162 -6.2334361
7.5887446 -8.0946617 -5.5901971
9.3762741 16.40848 4.0788245
9.3556175 15.787602 3.9229875
9.4118719 15.294292 4.3473845
7.7708292 12.14192 -8.0333214
7.6636438 11.495465 -8.8419733
7.6619606 11.014067 -8.8546715
7.6602483 10.532839 -8.8675919
7.6585665 10.051866 -8.8802805
7.6566153 9.5707684 -8.8950005
11.5397 5.7698517 20.400614
11.366734 4.9729438 19.095686
11.361644 4.2606163 19.057281
7.4496861 2.3280241 -10.456162
7.4743695 1.8685896 -10.269935
7.4814973 1.4027786 -10.216163
7.479435 0.93492877 -10.231721
7.477345 0.46733069 -10.247487
7.4774594 -8.4863717e-07 -10.246625
7.4775171 -0.46734568 -10.246194
7.4779463 -0.93474644 -10.242953
7.4789195 -1.4022982 -10.235609
7.4808097 -1.8702031 -10.221349
7.4839907 -2.3387489 -10.197348
7.4879208 -2.8079708 -10.167701
7.5014348 -3.2818797 -10.06574
7.5272756 -3.7636395 -9.8707876
7.5615401 -4.253366 -9.6122866
7.610589 -4.7566199 -9.2422438
7.6674643 -5.2713838 -8.8131514
7.7291694 -5.7968798 -8.3476229
7.7930875 -6.3318863 -7.8653951
7.8552914 -6.8733816 -7.3961029
7.9244065 -7.429131 -6.874671
8.0004787 -8.0004797 -6.3007488
8.0943928 -8.6002951 -5.5922194
9.8013544 16.143406 2.9360712
9.8608646 15.661371 3.3586276
8.4112539 12.864269 -6.9345126
8.2015657 12.061127 -8.4234304
8.2004642 11.577125 -8.4312534
8.1986504 11.09229 -8.4441347
8.1968374 10.607672 -8.4570103
8.1950245 10.123265 -8.4698763
12.411006 6.5705318 21.46623
12.172988 5.7284632 19.776161
12.169134 5.0108175 19.748793
11.46027 3.3706679 14.715413
11.466411 2.6979771 14.75902
7.9617758 1.405018 -10.126094
7.9839487 0.9392848 -9.9686508
7.9979157 0.47046614 -9.8694773
7.9985628 -4.6377656e-07 -9.8648815
7.9996109 -0.47056839 -9.8574381
8.0006285 -0.94125295 -9.850214
8.0016766 -1.4120631 -9.8427658
8.0040216 -1.8833016 -9.8261156
8.0075121 -2.3551524 -9.8013372
8.0116529 -2.8276417 -9.7719316
8.0157681 -3.3006105 -9.7427111
8.0206928 -3.7744462 -9.7077408
8.0323019 -4.252398 -9.6253099
8.0548391 -4.738142 -9.4652834
8.0911369 -5.2354426 -9.20755
8.1390457 -5.7452106 -8.8673658
8.2019224 -6.2720604 -8.4208994
8.2664366 -6.8076539 -7.9628067
8.3346844 -7.3541365 -7.4782043
8.4117651 -7.916955 -6.9308825
8.4910841 -8.491087 -6.3676667
10.296946 16.017473 2.3931496
9.0726213 13.608932 -5.817349
8.7468805 12.634382 -8.0018196
8.7439575 12.144384 -8.0214233
