# .PCD v0.7 - Point Cloud Data file format
VERSION 0.7
FIELDS x y z
SIZE 4 4 4
TYPE F F F
COUNT 1 1 1
WIDTH 1508
HEIGHT 1
VIEWPOINT 0 0 0 1 0 0 0
POINTS 1508
DATA ascii
-272.24924 574.74854 -404.7879
-273.21225 546.42462 -391.87164
-274.10931 517.76227 -379.83975
-274.96658 488.82965 -368.34186
-275.71075 459.51819 -358.36105
-276.27875 429.76706 -350.74298
-276.21869 398.98267 -351.548
-276.18179 368.24249 -352.04312
-276.10336 337.45987 -353.09521
-276.05954 306.73294 -353.68253
-276.04227 276.0423 -353.91443
-276.0365 245.36586 -353.99167
-276.06302 214.7159 -353.63623
-276.10681 184.07132 -353.04861
-276.14255 153.41273 -352.56927
-276.17947 122.74665 -352.07419
-276.21869 92.072937 -351.54788
-276.27182 61.393967 -350.836
-276.34222 30.704851 -349.89108
-276.44159 0.00017694676 -348.55841
-276.54221 -30.72681 -347.20914
-276.72507 -61.494289 -344.75644
-277.37402 -92.457787 -336.05255
-278.1348 -123.61537 -325.84866
-279.68552 -155.38071 -305.05008
-281.3793 -187.586 -282.33276
-284.0704 -220.94344 -246.23878
-287.69833 -255.73178 -197.57968
-294.18726 -294.1871 -110.54849
-299.29303 -764.85986 -42.068359
-299.15216 -797.73907 -43.957314
-299.1752 -831.04218 -43.648754
-299.39059 -864.90601 -40.759785
-361.15405 -1083.4622 787.63037
-361.23099 -1123.8297 788.66229
-361.27246 -1164.1 789.21838
-356.04495 -1186.8164 719.10522
-356.01233 -1226.2645 718.66797
-219.15959 1342.3528 -749.41241
-218.32185 1309.9312 -762.05322
-218.65895 1284.6215 -756.96674
-219.36082 1261.325 -746.37616
-220.06723 1237.8784 -735.71741
-220.77737 1214.2756 -725.00214
-221.49295 1190.5248 -714.20502
-222.21317 1166.6194 -703.33752
-222.93811 1142.558 -692.39929
-223.66437 1118.3219 -681.44092
-224.38853 1093.8943 -670.51404
-225.11824 1069.3118 -659.50336
-225.85187 1044.5649 -648.43396
-226.59117 1019.6603 -637.27881
-227.33444 994.58826 -626.06378
-228.0826 969.35114 -614.7749
-228.83659 943.95099 -603.39807
-229.59468 918.37885 -591.95935
-230.35782 892.63666 -580.4444
-231.19423 866.97852 -567.82385
-232.04224 841.15332 -555.02844
-232.8965 815.13788 -542.13873
-233.75705 788.93024 -529.15375
-234.62402 762.52826 -516.07263
-235.49648 735.92664 -502.90817
-236.3745 709.1236 -489.65967
-237.25909 682.12 -476.31223
-238.15034 654.91364 -462.86453
-239.03955 627.47894 -449.44724
-239.92073 599.80206 -436.15146
-240.79265 571.88269 -422.99512
-241.6282 543.66357 -410.38745
-242.41956 515.14172 -398.44684
-243.17587 486.35181 -387.03485
-243.8175 457.15799 -377.35349
-244.27049 427.47354 -370.51862
-244.21059 396.84247 -371.42221
-244.17813 366.2673 -371.91202
-244.11931 335.66425 -372.79977
-244.08484 305.10623 -373.3197
-244.06963 274.57846 -373.5491
-244.06558 244.06569 -373.61041
-244.07774 213.56815 -373.4267
-244.11525 183.08667 -372.86087
-244.14668 152.59192 -372.38654
-244.17813 122.08924 -371.91196
-244.21262 91.579872 -371.39151
-244.26033 61.065262 -370.67169
-244.32025 30.540121 -369.76767
-244.39035 0.00014141032 -368.70987
-244.47777 -30.559622 -367.39059
-244.62941 -61.157185 -365.10287
-245.20811 -91.952927 -356.37048
-245.85333 -122.92653 -346.63507
-247.21844 -154.51137 -326.03714
-248.67667 -186.50722 -304.03442
-250.98117 -219.6084 -269.26202
-254.02629 -254.02618 -223.31488
-258.6969 -291.03381 -152.84053
-267.69717 -736.16699 -17.036987
-266.30948 -765.63971 -37.975685
-266.21417 -798.6424 -39.413624
-266.26483 -832.07745 -38.649185
-266.54257 -866.26324 -34.458549
-319.37549 -1077.8921 762.72833
-320.69125 -1122.4192 782.58173
-320.89438 -1163.2419 785.64667
-319.00104 -1196.2538 757.07867
-319.00104 -1236.129 757.07861
-218.77126 -1175.8955 -755.27179
-218.56462 -1202.1052 -758.39008
-218.49962 -1229.0602 -759.37091
-218.56462 -1256.7465 -758.39001
-190.80763 1335.6537 -765.91553
-190.34291 1305.2087 -773.92944
-190.71706 1280.5291 -767.4776
-191.32658 1257.2892 -756.96674
-191.94072 1233.9049 -746.37622
-192.55884 1210.3699 -735.71735
-193.18092 1186.6831 -724.98969
-193.80705 1162.8425 -714.19232
-194.43726 1138.847 -703.32483
-195.07158 1114.6949 -692.38654
-195.71004 1090.3848 -681.37659
-196.34822 1065.8904 -670.37183
-196.98602 1041.2122 -659.37311
-197.62875 1016.3766 -648.28979
-198.27492 991.37482 -637.14703
-198.92534 966.20886 -625.93109
-199.58078 940.8811 -614.62799
-200.23981 915.38214 -603.26361
-200.90398 889.71771 -591.81042
-201.57178 863.87927 -580.29462
-202.24403 837.86829 -568.7019
-202.92159 811.68646 -557.01794
-203.60291 785.32562 -545.26935
-204.30745 758.85638 -533.11945
-205.06433 732.37274 -520.06775
-205.82767 705.69495 -506.90475
-206.59421 678.80963 -493.68607
-207.36647 651.72345 -480.3689
-208.13525 624.40594 -467.11139
-208.89705 596.849 -453.97482
-209.64734 569.04291 -441.03629
-210.36172 540.9303 -428.71716
-211.04636 512.54144 -416.91141
-211.70583 483.89923 -405.53955
-212.2502 454.82205 -396.15204
-212.60207 425.20435 -390.08408
-212.54407 394.72485 -391.08395
-212.51685 364.31464 -391.55362
-212.4747 333.88889 -392.28036
-212.44836 303.4978 -392.73453
-212.43521 273.13113 -392.96179
-212.43169 242.77924 -393.02213
-212.43695 212.43707 -392.9313
-212.46417 182.11241 -392.46222
-212.49138 151.77982 -391.99289
-212.5186 121.43927 -391.52325
-212.54671 91.091591 -391.03882
-212.58888 60.73983 -390.31134
-212.64075 30.377409 -389.41711
-212.69353 0.00010132475 -388.5069
-212.76128 -30.394409 -387.33844
-212.88371 -60.823669 -385.22742
-213.38901 -91.452202 -376.51392
-213.93053 -122.24583 -367.17578
-215.11266 -153.65181 -346.79028
-216.34891 -185.4418 -325.47214
-218.28944 -218.28929 -292.00879
-220.88385 -252.43854 -247.26974
-224.60588 -288.77884 -183.08562
-233.9005 -735.11566 -22.805838
-233.26602 -766.44519 -33.747059
-233.20255 -799.55139 -34.841522
-233.26285 -833.08142 -33.801743
-233.75058 -868.21643 -25.390867
-190.87491 -1172.5172 -764.75531
-188.95807 -1187.7363 -797.81024
-188.24078 -1210.1193 -810.17926
-188.78465 -1240.5847 -800.8006
-162.80637 1329.5856 -780.86414
-162.5632 1300.5057 -785.75659
-162.95203 1276.4578 -777.93396
-163.47176 1253.2838 -767.47754
-163.99483 1229.9612 -756.95453
-164.52124 1206.4891 -746.36389
-165.05104 1182.8658 -735.70502
-165.58427 1159.0901 -724.97711
-166.12097 1135.1603 -714.17981
-166.66113 1111.0743 -703.31219
-167.20483 1086.8318 -692.37372
-167.75211 1062.4302 -681.36377
-168.30296 1037.8685 -670.28131
-168.85228 1013.1136 -659.23004
-169.40259 988.18182 -648.15887
-169.9565 963.08679 -637.0152
-170.51466 937.83087 -625.78516
-171.07588 912.40485 -614.49445
-171.64148 886.81439 -603.11566
-172.21013 861.05078 -591.67511
-172.78259 835.11597 -580.15833
-173.35953 809.01123 -568.55121
-173.93967 782.72858 -556.87994
-174.52437 756.2724 -545.11639
-175.11234 729.63489 -533.28748
-175.70425 702.81732 -521.37866
-176.30092 675.82037 -509.37485
-176.90094 648.63702 -497.30362
-177.53293 621.36536 -484.58884
-178.1781 593.92706 -471.60892
-178.81201 566.23816 -458.85574
-179.40881 538.22668 -446.84894
-179.9883 509.96692 -435.19034
-180.55157 481.47092 -423.85815
-181.00385 452.50977 -414.75934
-181.26811 422.95898 -409.44293
-181.21593 392.63458 -410.49249
-181.19061 362.38135 -411.00189
-181.16304 332.13242 -411.55634
-181.14296 301.90506 -411.96078
-181.13177 271.69785 -412.18539
-181.13029 241.50719 -412.21536
-181.13402 211.3232 -412.14047
-181.14891 181.14908 -411.84097
-181.17198 150.97679 -411.37662
-181.19432 120.79649 -410.92719
-181.21742 90.608742 -410.46243
-181.25319 60.417824 -409.74292
-181.29716 30.216385 -408.85809
-181.34192 0.00010631837 -407.95761
-181.38596 -30.230846 -407.07175
-181.4823 -60.494019 -405.13364
-181.91072 -90.95517 -396.51447
-182.35927 -121.57266 -387.49039
-183.36137 -152.8011 -367.32922
-184.3877 -184.3876 -346.68158
-185.98888 -216.98685 -314.46811
-188.11778 -250.8235 -271.638
-191.1385 -286.70767 -210.86554
-206.41028 -344.017 96.378586
-206.49538 -378.57471 98.090599
-200.47337 -735.06897 -23.062567
-200.15749 -767.2702 -29.417856
-200.13022 -800.52075 -29.966383
-200.21567 -834.23175 -28.24737
-167.61623 -921.88916 -684.09723
-165.5992 -938.39532 -724.6767
-163.98262 -956.56525 -757.19989
-162.63518 -975.81085 -784.30853
-161.62732 -996.7016 -804.58496
-161.29965 -1021.5643 -811.17725
-161.24831 -1048.1139 -812.20978
-161.22118 -1074.8077 -812.75586
-161.20349 -1101.5571 -813.11151
-161.18817 -1128.3171 -813.41992
-161.17049 -1155.0552 -813.77563
-161.85522 -1186.9381 -799.99982
-161.72575 -1212.943 -802.60449
-163.24533 -1251.5475 -772.0329
-135.06236 1323.6113 -795.58173
-135.00676 1296.0649 -796.92395
-135.36349 1272.4169 -788.31183
-135.79385 1249.3036 -777.92188
-136.22697 1226.043 -767.46545
-136.66286 1202.6333 -756.94232
-137.10155 1179.0736 -746.35138
-137.54305 1155.3618 -735.69238
-137.98741 1131.4971 -724.96448
-138.43466 1107.4772 -714.16718
-138.88481 1083.3018 -703.29956
-139.33791 1058.9683 -692.36096
-139.79343 1034.4714 -681.36359
-140.25247 1009.8181 -670.28137
-140.71454 985.00195 -659.12604
-141.17424 959.98505 -648.02777
-141.63641 934.80048 -636.87012
-142.10106 909.44696 -625.65234
-142.56932 883.92993 -614.34747
-143.04013 858.24103 -602.98132
-143.51405 832.38171 -591.53967
-143.9917 806.3537 -580.00842
-144.47195 780.14868 -568.414
-144.95601 753.7713 -556.72791
-145.44273 727.21381 -544.97723
-145.93274 700.47729 -533.14746
-146.42664 673.56268 -521.22382
-146.92213 646.45746 -509.26132
-147.4133 619.13611 -497.40359
-147.90121 591.60504 -485.6243
-148.38217 563.85242 -474.013
-148.82225 535.76019 -463.38864
-149.25826 507.47818 -452.86227
-149.70599 479.05939 -442.05316
-150.0742 450.22272 -433.1636
-150.26329 420.7374 -428.59851
-150.22028 390.57288 -429.63708
-150.1951 360.46829 -430.24496
-150.17668 330.38889 -430.68985
-150.1644 300.32904 -430.98633
-150.15518 270.27948 -431.20868
-150.15457 240.24742 -431.22321
-150.15765 210.22081 -431.1492
-150.16255 180.19528 -431.03079
-150.18159 150.18173 -430.57132
-150.20062 120.16067 -430.11166
-150.21906 90.131577 -429.66656
-150.24794 60.099277 -428.96942
-150.28482 30.057186 -428.07904
-150.32111 0.00013327179 -427.20312
-150.35803 -30.071455 -426.31177
-150.4196 -60.167694 -424.82529
-150.77277 -90.463631 -416.29877
-151.13382 -120.90697 -407.58224
-151.95976 -151.95961 -387.64206
-152.79416 -183.35284 -367.49826
-154.10638 -215.74881 -335.81839
-155.76895 -249.23009 -295.68039
-158.1478 -284.66589 -238.24995
-171.11829 -342.23642 74.88549
-171.18768 -376.61282 76.560654
-183.72124 -771.62909 379.14764
-167.10675 -735.26953 -21.961725
-166.99126 -768.15967 -24.749609
-166.97836 -801.49597 -25.06118
-167.07558 -835.37787 -22.714077
-143.67798 -862.06775 -587.58234
-141.80646 -879.20001 -632.76447
-140.28676 -897.83514 -669.45361
-138.9447 -917.03485 -701.8537
-137.6611 -936.09534 -732.84259
-136.50439 -955.5307 -760.76776
-135.53632 -975.86139 -784.13947
-134.8531 -997.91284 -800.63342
-134.68944 -1023.6395 -804.58496
-134.71216 -1050.7548 -804.03632
-134.7868 -1078.2943 -802.23413
-134.85162 -1105.7833 -800.66919
-134.8046 -1132.3586 -801.80426
-134.815 -1159.4088 -801.55359
-135.45285 -1191.9849 -786.15472
-135.36549 -1218.2893 -788.26349
-136.70203 -1257.6584 -755.99677
-107.62289 1318.3806 -808.46753
-107.64655 1291.7588 -807.75348
-107.94907 1268.4017 -798.62415
-108.29119 1245.349 -788.29974
-108.63549 1222.1493 -777.90967
-108.98198 1198.802 -767.45319
-109.3307 1175.3052 -756.92987
-109.68164 1151.6575 -746.33911
-110.03486 1127.8575 -735.68011
-110.39034 1103.9034 -724.95215
-110.74815 1079.7946 -714.15448
-111.10785 1055.5247 -703.29956
-111.47032 1031.1006 -692.36102
-111.83517 1006.5165 -681.35083
-112.20241 981.77106 -670.26837
-112.57206 956.86273 -659.11292
-112.94417 931.78949 -647.88373
-113.31349 906.50812 -636.73834
-113.68569 881.06415 -625.50641
-114.05989 855.44928 -614.21393
-114.43655 829.66522 -602.84668
-114.81618 803.71338 -591.39075
-115.19787 777.58582 -579.87219
-115.58257 751.28687 -568.263
-115.96938 724.80878 -556.58978
-116.3588 698.15295 -544.8382
-116.75129 671.32013 -532.99347
-117.14272 644.28503 -521.18134
-117.53207 617.04352 -509.43161
-117.91834 589.59186 -497.77475
-118.29858 561.91846 -486.30005
-118.64296 533.89337 -475.9075
-118.98356 505.68027 -465.62894
-119.32127 477.28534 -455.43762
-119.58495 448.44366 -447.48041
-119.68578 418.90024 -444.43784
-119.65701 388.88556 -445.30566
-119.63704 358.91135 -445.90845
-119.62195 328.96048 -446.36392
-119.6088 299.02219 -446.76086
-119.60198 269.10464 -446.96643
-119.60003 239.2002 -447.02502
-119.60247 209.30437 -446.95166
-119.60588 179.40897 -446.84879
-119.61903 149.52386 -446.45209
-119.63412 119.63416 -445.99643
-119.64874 89.73671 -445.55557
-119.6692 59.834663 -444.9379
-119.69601 29.924109 -444.12881
-119.72332 0.00017877358 -443.30469
-119.75064 -29.937515 -442.48019
-119.80923 -59.904541 -440.71201
-120.0628 -90.047058 -433.05988
-120.33174 -120.33155 -424.94409
-120.9185 -151.14801 -407.23706
-121.56278 -182.34396 -387.79395
-122.58616 -214.52563 -356.91083
-123.82853 -247.65683 -319.41931
-125.73059 -282.89371 -262.01926
-136.16577 -340.41437 52.890263
-136.22574 -374.6207 54.699818
-143.99808 -755.98975 289.25089
-133.82542 -736.03961 -17.736017
-133.7505 -769.06519 -19.996895
-133.75172 -802.51013 -19.96006
-133.83762 -836.48486 -17.368118
-119.35277 -805.63116 -454.48682
-117.38792 -821.71533 -513.78137
-115.87289 -840.07837 -559.50159
-114.50702 -858.80261 -600.72046
-113.2768 -877.89514 -637.84558
-112.22598 -897.80774 -669.55701
-111.31872 -918.37927 -696.93591
-110.74773 -941.35559 -714.16705
-110.67307 -968.38934 -716.42023
-110.74982 -996.74823 -714.10406
-80.877716 1347.9623 -802.00732
-80.446991 1313.9675 -819.33868
-80.502823 1288.0453 -817.0921
-80.727226 1264.7267 -808.06281
-80.963585 1241.4418 -798.55237
-81.218689 1218.2804 -788.28778
-81.476913 1194.9951 -777.89752
-81.736794 1171.5608 -767.44116
-81.998329 1147.9768 -756.9176
-82.261543 1124.2412 -746.32672
-82.526146 1100.3486 -735.68011
-82.792755 1076.306 -724.95209
-83.061104 1052.1075 -714.1546
-83.3312 1027.7516 -703.28674
-83.603058 1003.2369 -692.34827
-83.876694 978.56152 -681.33795
-84.152122 953.72424 -670.25555
-84.429367 928.72321 -659.09998
-84.70845 903.55695 -647.87067
-84.988731 878.21698 -636.59326
-85.267563 852.67584 -625.37366
-85.548241 826.96649 -614.08032
-85.8311 801.09039 -602.69891
-86.115501 775.03961 -591.25543
-86.40213 748.81848 -579.72217
-86.690338 722.41956 -568.12579
-86.980461 695.84381 -556.45172
-87.272896 669.09235 -544.6853
-87.563118 642.1297 -533.00745
-87.852486 614.96759 -521.36456
-88.138832 587.59229 -509.84308
-88.417465 559.97748 -498.63144
-88.67289 532.03766 -488.354
-88.922623 503.8949 -478.3056
-89.169426 475.5704 -468.37482
-89.361053 446.8053 -460.66434
-89.406731 417.23145 -458.82648
-89.385696 387.33804 -459.67267
-89.369026 357.47638 -460.34372
-89.356697 327.64145 -460.83936
-89.3433 297.81116 -461.37872
-89.337868 268.01367 -461.5972
-89.335335 238.22771 -461.69922
-89.337151 208.45343 -461.62628
-89.340042 178.68016 -461.50977
-89.348732 148.91457 -461.15994
-89.35997 119.14672 -460.70822
-89.370834 89.370964 -460.27066
-89.385696 59.590504 -459.67267
-89.404556 29.801628 -458.91397
-89.424866 0.00013101274 -458.09677
-89.444832 -29.814861 -457.29343
-89.5084 -59.67215 -454.7356
-89.696014 -89.695877 -447.18677
-89.925117 -119.90016 -437.96805
-90.364258 -150.60684 -420.29877
-90.809944 -181.61981 -402.36542
-91.492676 -213.48277 -374.89447
-92.288429 -246.10236 -342.87579
-93.71492 -281.14465 -285.47806
-101.43806 -338.1268 25.27705
-101.48151 -372.09866 27.024841
-101.52451 -406.09796 28.755291
-105.95695 -741.69849 207.10329
-100.49173 -736.93927 -12.800735
-100.4386 -770.02905 -14.938372
-100.42944 -803.43549 -15.306616
-92.020233 -766.83527 -353.66708
-90.431366 -783.7384 -417.59836
-89.09481 -801.85321 -471.37711
-87.921875 -820.60394 -518.57245
-86.920776 -840.23407 -558.85339
-86.149834 -861.49823 -589.87396
-85.736603 -885.94489 -606.50092
-85.699593 -914.12903 -607.98993
-85.686264 -942.54889 -608.52612
-53.728016 1343.2004 -813.50305
-53.499897 1310.7477 -827.27094
-53.553135 1285.2755 -824.05798
-53.707584 1262.1284 -814.73584
-53.867081 1238.943 -805.10938
-54.02673 1215.6014 -795.47375
-54.185532 1192.082 -785.88934
-54.345268 1168.4235 -776.24829
-54.505951 1144.6251 -766.55054
-54.667583 1120.6858 -756.79492
-54.84103 1096.8208 -746.32672
-55.017635 1072.8441 -735.6676
-55.195377 1048.7124 -724.93958
-55.374279 1024.4243 -714.14197
-55.554348 999.97839 -703.27417
-55.735584 975.37286 -692.33551
-55.918007 950.60626 -681.32526
-56.101631 925.67712 -670.24249
-56.286465 900.5835 -659.08691
-56.472515 875.32422 -647.85754
-56.659805 849.89722 -636.55359
-56.84724 824.2851 -625.24097
-57.034592 798.4845 -613.93329
-57.222961 772.51013 -602.56427
-57.4128 746.36658 -591.10651
-57.60368 720.04614 -579.58594
-57.795834 693.55011 -567.98865
-57.989494 666.87939 -556.2998
-58.18055 639.98621 -544.7688
-58.3717 612.90308 -533.23157
-58.560619 585.60632 -521.82965
-58.742302 558.05206 -510.86398
-58.910469 530.1944 -500.7142
-59.073189 502.12225 -490.89294
-59.232513 473.86029 -481.27719
-59.350471 445.12863 -474.1575
-59.367977 415.57602 -473.10095
-59.354073 385.80167 -473.94055
-59.342323 356.05417 -474.64954
-59.332977 326.33151 -475.21353
-59.321957 296.60992 -475.87875
-59.318363 266.93277 -476.09543
-59.315487 237.26205 -476.26883
-59.316925 207.60933 -476.18225
-59.319324 177.95815 -476.03766
-59.324112 148.3105 -475.74866
-59.331299 118.66284 -475.31488
-59.33873 89.008316 -474.86642
-59.349037 59.349155 -474.2442
-59.360062 29.680166 -473.5788
-59.373497 0.00020520559 -472.76801
-59.3867 -29.69322 -471.97137
-59.441719 -59.44149 -468.65063
-59.565338 -89.347816 -461.18924
-59.735832 -119.47162 -450.89899
-60.02821 -150.07045 -433.25229
-60.341801 -181.02518 -414.32559
-60.796234 -212.78671 -386.89825
-61.316868 -245.26733 -355.47513
-62.090347 -279.40649 -308.79138
-67.244377 -336.22177 2.2816503
-67.270546 -369.98792 3.8610528
-67.297043 -403.78217 5.4604783
-69.424042 -728.95221 133.83626
-67.082268 -737.90479 -7.5025301
-63.84129 -734.17468 -203.11279
-62.354118 -748.24927 -292.87149
-61.236366 -765.45441 -360.33374
-60.290051 -783.77051 -417.44897
-59.577419 -804.29492 -460.46033
-59.192902 -828.7005 -483.66794
-59.087448 -856.76776 -490.03268
-59.038773 -885.58148 -492.97037
-59.349995 -919.9248 -474.18652
-26.783693 1339.1849 -823.19769
-26.685915 1307.61 -835.00067
-26.719496 1282.5359 -830.9469
-26.798447 1259.5271 -821.41681
-26.877865 1236.3821 -811.83008
-26.957853 1213.1035 -802.17468
-27.038221 1189.6819 -792.47345
-27.118368 1166.09 -782.79889
-27.198389 1142.3324 -773.13959
-27.278883 1118.4343 -763.42316
-27.359854 1094.3943 -753.64911
-27.441305 1070.2109 -743.81689
-27.523245 1045.8835 -733.92584
-27.605677 1021.4102 -723.97552
-27.688602 996.78979 -713.96564
-27.777277 972.20477 -703.26154
-27.867895 947.50867 -692.32281
-27.95911 922.65088 -681.31232
-28.05092 897.6297 -670.22961
-28.143232 872.44031 -659.08698
-28.236258 847.08795 -647.8576
-28.329903 821.56726 -636.55365
-28.424171 795.87695 -625.17444
-28.518404 769.99713 -613.79962
-28.612705 743.93054 -602.41626
-28.707521 717.68823 -590.97095
-28.802967 691.27142 -579.44971
-28.899166 664.68091 -567.83759
-28.99349 637.85687 -556.45184
-29.0882 610.85229 -545.01892
-29.181795 583.63605 -533.72137
-29.270393 556.1377 -523.02661
-29.353666 528.36615 -512.97479
-29.43305 500.36203 -503.39218
-29.510136 472.16226 -494.08685
-29.564768 443.47177 -487.49249
-29.56679 413.93527 -487.24817
-29.559771 384.27719 -488.09555
-29.553589 354.64313 -488.84186
-29.548357 325.03207 -489.47321
-29.541702 295.41714 -490.27649
-29.540039 265.8605 -490.47723
-29.538496 236.30821 -490.6637
-29.538734 206.77118 -490.63489
-29.540277 177.24188 -490.44867
-29.542416 147.71217 -490.19049
-29.545742 118.18312 -489.78897
-29.549547 88.64888 -489.3299
-29.554777 59.109703 -488.69833
-29.559889 29.559917 -488.08109
-29.566195 0.00015362873 -487.32004
-29.572742 -29.572575 -486.52997
-29.60635 -59.212685 -482.47275
-29.667568 -89.002495 -475.08337
-29.761557 -119.046 -463.73801
-29.907434 -149.53703 -446.12878
-30.07259 -180.43536 -426.19281
-30.29932 -212.09505 -398.82401
-30.571932 -244.57533 -365.91702
-30.956348 -278.60699 -319.51385
-33.451027 -334.51013 -18.379625
-33.46413 -368.10532 -16.797552
-33.477089 -401.72495 -15.233168
-33.782524 -439.17267 21.635721
-33.678757 -505.1813 9.1101446
-33.677521 -538.84021 8.9610519
-33.677521 -572.5177 8.9608746
-33.677521 -606.19531 8.9609566
-33.677521 -639.8728 8.9611349
-33.677521 -673.55029 8.9609146
-33.677521 -707.22784 8.9610128
-32.750862 -720.51886 -102.89658
-31.846613 -732.47192 -212.04927
-31.215876 -749.18085 -288.18597
-30.79195 -769.79871 -339.35809
-30.658562 -797.1225 -355.45963
-30.634144 -827.12177 -358.4071
-30.657667 -858.41455 -355.5676
-33.526287 -972.26215 -9.2948151
-33.546036 -1006.3809 -6.9108586
-33.568413 -1040.6207 -4.2094293
-8.8206796e-22 1335.198 -832.82269
-8.4443811e-22 1304.6479 -842.29767
-1.087008e-21 1279.9058 -837.56146
-7.7562844e-22 1256.9364 -828.07031
-1.272538e-21 1233.8359 -818.51129
-2.6730232e-22 1210.5936 -808.90729
-6.5352721e-22 1187.2131 -799.2464
-1.3462534e-21 1163.6974 -789.51569
-6.2651722e-22 1140.0363 -779.73865
-4.1640244e-22 1116.196 -770.01276
-8.6887387e-22 1092.1976 -760.27789
-8.5493539e-22 1068.0568 -750.48492
-1.4771822e-21 1043.7719 -740.63397
-1.2981481e-21 1019.3417 -730.72394
-9.1241596e-22 994.76514 -720.75439
1.696003e-23 970.04083 -710.72491
-1.1376896e-21 945.16736 -700.63507
-1.3293285e-21 920.14343 -690.48413
-1.3651509e-22 894.96759 -680.27155
-6.9493107e-22 869.63843 -669.99695
-1.182402e-21 844.30042 -659.07391
-7.6926575e-22 818.8548 -647.84436
-6.9894015e-22 793.24048 -636.54053
-9.7453741e-22 767.45575 -625.16138
-6.6712227e-22 741.49872 -613.70605
-1.2524391e-21 715.34558 -602.2818
-6.7929966e-22 689.00757 -590.83563
-1.1101808e-21 662.49701 -579.29968
-3.3674763e-22 635.7442 -568.0434
-9.386952e-22 608.80817 -556.76929
-8.3544899e-22 581.67664 -545.54718
-1.6334024e-21 554.23846 -535.09222
-7.5017234e-22 526.54822 -525.16498
-7.6236235e-22 498.61984 -515.76147
-1.5057022e-21 470.47659 -506.8053
-7.7482893e-22 441.83395 -500.67126
-1.3236955e-21 412.31061 -501.2558
-1.2258966e-21 382.7663 -502.12479
-7.4636349e-22 353.24335 -502.92239
-9.2238757e-22 323.7417 -503.63422
-6.4620739e-22 294.23505 -504.54474
-1.2523965e-21 264.79681 -504.74408
-9.8642197e-22 235.36278 -504.92896
-7.6671817e-22 205.94067 -504.95724
-7.8048439e-22 176.53046 -504.75815
-3.4695324e-22 147.1199 -504.48785
-1.2037353e-21 117.70732 -504.14651
-8.0848797e-22 88.292221 -503.67679
-1.6181002e-21 58.871937 -503.05066
-2.7799675e-22 29.441118 -502.42395
-1.6351856e-21 0.0001135844 -501.76874
-6.4748895e-22 -29.452942 -500.97064
-6.6172223e-22 -58.985558 -496.17477
-1.2741677e-21 -88.659561 -488.88495
-8.0875908e-22 -118.62365 -476.48575
-1.1035559e-21 -149.00807 -458.89951
-1.6019595e-21 -179.84851 -437.99777
-4.6744257e-22 -211.40714 -410.68726
-4.2698368e-22 -243.8943 -376.19312
-7.8856727e-22 -277.82968 -329.94009
-2.7504238e-22 -319.20355 -203.14612
-3.4359204e-22 -366.21365 -37.556839
-3.9480565e-22 -399.6615 -35.989983
-1.931538e-21 -435.86536 -9.0730553
-1.1605112e-21 -470.41559 -0.26152402
-1.4015816e-21 -502.49963 -12.46899
-1.7084065e-21 -535.84326 -13.64872
-1.7555055e-21 -569.33356 -13.648781
-1.8237281e-21 -602.82373 -13.648787
-1.764948e-21 -636.3139 -13.648783
-1.7061677e-21 -669.80408 -13.648747
-1.6473873e-21 -703.29443 -13.64884
-1.2354645e-21 -720.09515 -105.22166
-9.7570023e-22 -737.56873 -185.30042
-1.2551224e-21 -765.06482 -208.29596
-1.7093764e-21 -796.30316 -211.38255
-1.5352226e-21 -829.21234 -206.47513
-1.9419943e-21 -900.36908 -30.93507
-1.6753309e-21 -933.84753 -30.368584
-1.6449224e-21 -967.48474 -29.180252
-4.1440789e-22 -1001.1874 -27.807928
-8.8758186e-22 -1034.9176 -26.416649
-9.605341e-22 -1069.6388 -21.37434
26.625561 1331.2782 -842.28595
26.565386 1301.7041 -849.54993
26.610128 1277.2864 -844.14874
26.68853 1254.361 -834.68481
26.7673 1231.2958 -825.17676
26.846533 1208.0942 -815.61249
26.926334 1184.7588 -805.97955
27.006514 1161.2803 -796.30078
27.087172 1137.6615 -786.56445
27.168413 1113.905 -776.75793
27.250044 1090.0018 -766.90436
27.330944 1065.907 -757.13855
27.412226 1041.6648 -747.32703
27.493992 1017.2778 -737.45728
27.576246 992.74487 -727.52808
27.658995 968.06488 -717.53937
27.742243 943.23633 -707.49072
27.825991 918.25793 -697.38123
27.910248 893.12805 -687.21063
27.995016 867.84564 -676.97809
28.080301 842.40918 -666.68341
28.166107 816.81726 -656.32556
28.252438 791.06842 -645.90448
28.339302 765.16125 -635.41913
28.426699 739.09442 -624.86926
28.519291 712.9823 -613.69269
28.614824 686.75592 -602.16077
28.709877 660.32739 -590.68671
28.801952 633.64313 -579.57227
28.894165 606.77759 -568.44128
28.986397 579.72815 -557.30798
29.071165 552.35223 -547.07532
29.15238 524.74304 -537.27203
29.228817 496.89014 -528.04529
29.300163 468.80264 -519.43304
29.345339 440.18024 -513.97955
29.335497 410.69705 -515.16772
29.328117 381.26569 -516.05835
29.321096 351.85324 -516.90619
29.314777 322.46271 -517.66901
29.306591 293.06604 -518.65704
29.304604 263.74149 -518.89685
29.303083 234.42477 -519.08038
29.302383 205.11684 -519.16516
29.304253 175.82558 -518.93921
29.306473 146.53246 -518.67108
29.308811 117.23528 -518.38885
29.312904 87.938789 -517.89471
29.318054 58.636215 -517.27356
29.323202 29.323267 -516.65179
29.328236 1.8923593e-05 -516.04419
29.334444 -29.334347 -515.29492
29.380196 -58.760204 -509.772
29.43989 -88.319496 -502.5665
29.55109 -118.20419 -489.1434
29.69647 -148.48213 -471.59467
29.877756 -179.26648 -449.7113
30.103521 -210.72452 -422.45895
30.402269 -243.21796 -386.39728
30.807446 -277.26682 -337.48782
33.108353 -331.08334 -59.743767
33.121189 -364.33301 -58.194054
33.133888 -397.60645 -56.661251
33.566422 -436.36343 -4.4499698
33.637272 -470.92175 4.1028843
33.529499 -502.94232 -8.9068184
33.520321 -536.32495 -10.014751
33.520321 -569.84528 -10.014846
33.520321 -603.36554 -10.014924
33.520321 -636.88605 -10.014749
33.520321 -670.40637 -10.014826
33.520321 -703.92664 -10.014904
33.335812 -733.38776 -32.286785
33.236126 -764.43073 -44.320465
33.205475 -796.93134 -48.019821
33.230713 -830.76764 -44.97382
33.323414 -866.40857 -33.783558
33.342018 -900.23419 -31.538021
33.388844 -934.88745 -25.88558
33.412838 -968.97211 -22.989388
33.432606 -1002.978 -20.60301
33.449348 -1036.9298 -18.581684
53.105419 1327.6356 -851.07983
53.01096 1298.7687 -856.78113
53.111755 1274.6821 -850.69751
53.267727 1251.7915 -841.28387
53.424614 1228.7664 -831.81482
53.582626 1205.6093 -822.27808
53.741379 1182.3104 -812.69653
53.901073 1158.8732 -803.05817
54.061916 1135.3005 -793.34998
54.22353 1111.5823 -783.59619
54.386105 1087.7223 -773.78369
54.549866 1063.7224 -763.89996
54.714203 1039.5701 -753.98114
54.877075 1015.2261 -744.15094
55.040924 990.73676 -734.26202
55.20575 966.10077 -724.31372
55.371567 941.31677 -714.30566
55.538383 916.38348 -704.23743
55.706207 891.29944 -694.10828
55.87505 866.06342 -683.91779
56.044918 840.67389 -673.66528
56.215824 815.12964 -663.35034
56.387775 789.42896 -652.97217
56.560783 763.57074 -642.5304
56.734848 737.55322 -632.02429
56.91 711.37506 -621.45337
57.086227 685.03485 -610.81683
57.26355 658.53107 -600.1145
57.434124 631.77551 -589.81952
57.604355 604.84595 -579.5451
57.779465 577.79468 -568.97626
57.944901 550.47681 -558.99139
58.104393 522.9397 -549.36542
58.255287 495.17014 -540.25781
58.392582 467.14087 -531.97144
58.462055 438.46548 -527.77844
58.442516 409.09787 -528.9574
58.427177 379.77679 -529.88324
58.413242 350.47961 -530.72424
58.398849 321.19385 -531.59308
58.382374 291.91202 -532.58752
58.376575 262.69476 -532.93768
58.373558 233.49446 -533.11957
58.371239 204.29942 -533.2594
58.375412 175.12634 -533.00745
58.379818 145.94957 -532.74152
58.383999 116.76818 -532.48962
58.39212 87.588303 -531.99927
58.4021 58.402157 -531.39691
58.412312 29.206402 -530.78052
58.422531 0.00011653414 -530.16357
58.433456 -29.216608 -529.50458
58.536819 -58.536671 -523.26593
58.654831 -87.981979 -516.14325
58.894176 -117.78829 -501.69736
59.184319 -147.96071 -484.186
59.562683 -178.68787 -461.34952
60.013008 -210.04539 -434.16989
60.636154 -242.54446 -396.55988
61.490341 -276.70642 -345.00485
65.939438 -329.69705 -76.478149
65.959274 -362.77585 -75.280975
65.983269 -395.89938 -73.832916
68.120766 -715.26782 55.176357
66.650154 -733.15167 -33.58268
66.588226 -765.76447 -37.320244
66.576164 -798.91394 -38.048542
66.592461 -832.4057 -37.065056
67.090538 -872.17688 -7.0030932
67.084412 -905.6394 -7.3729906
67.119041 -939.66644 -5.2830296
67.152786 -973.71533 -3.2461793
67.185951 -1007.7891 -1.2447041
67.232986 -1042.1112 1.5943373
79.441063 1324.0178 -859.81415
79.337532 1295.8464 -863.97974
79.505249 1272.0842 -857.23126
79.738251 1249.2328 -847.85596
79.972916 1226.2513 -838.41394
80.208672 1203.1301 -828.92798
80.445816 1179.8721 -819.38599
80.684662 1156.4803 -809.77521
80.924637 1132.9452 -800.11926
81.166046 1109.2694 -790.40594
81.409203 1085.4561 -780.62231
81.653511 1061.4958 -770.79199
81.899292 1037.3912 -760.90247
82.146866 1013.1448 -750.94092
82.394402 988.73291 -740.98096
82.64064 964.14093 -731.07306
82.888351 939.40149 -721.10571
83.137566 914.51337 -711.07837
83.388268 889.47504 -700.9906
83.640503 864.28534 -690.8418
83.894249 838.94275 -680.63147
84.149551 813.44586 -670.35895
84.40641 787.79333 -660.02368
84.664848 761.98376 -649.62518
84.924866 736.01562 -639.16278
85.186485 709.88751 -628.63599
85.44973 683.5979 -618.04413
85.7146 657.14545 -607.38654
85.96669 630.42249 -597.24292
86.218246 603.52777 -587.12091
86.472641 576.4845 -576.88495
86.698174 549.08862 -567.81012
86.917351 521.50421 -558.99146
87.129021 493.73135 -550.47449
87.31369 465.67316 -543.04376
87.380852 436.90439 -540.34131
87.355232 407.65784 -541.3725
87.330643 378.43286 -542.36151
87.309891 349.23969 -543.19678
87.286026 320.04886 -544.15686
87.264259 290.88086 -545.03284
87.253204 261.75974 -545.47772
87.249062 232.66429 -545.64447
87.244911 203.57155 -545.8114
87.250435 174.50102 -545.58905
87.257004 145.42856 -545.32495
87.263573 116.35154 -545.06067
87.274284 87.274506 -544.62976
87.288101 58.192085 -544.0733
87.302284 29.100903 -543.50299
87.31646 0.00010097389 -542.93231
87.334801 -29.111561 -542.19434
87.495682 -58.330242 -535.72119
87.657158 -87.657097 -529.22382
88.031097 -117.37466 -514.17749
88.463249 -147.43867 -496.78915
89.05629 -178.11243 -472.92709
89.730705 -209.37157 -445.79074
90.703056 -241.87466 -406.66626
92.049446 -276.14816 -352.49176
98.524033 -328.41333 -91.97451
98.551353 -361.35486 -90.875435
98.578682 -394.31454 -89.775749
107.80626 -467.16034 281.51343
102.96262 -720.73816 86.620079
99.515671 -729.78137 -52.074097
99.376572 -761.88696 -57.671093
99.360435 -794.8833 -58.320271
99.42543 -828.5451 -55.704933
105.63393 1320.4243 -868.48962
105.5478 1292.9607 -871.08875
105.79176 1269.5012 -863.72693
106.10117 1246.689 -854.38977
106.41238 1223.7426 -844.99786
106.72543 1200.6611 -835.5506
107.04073 1177.4481 -826.03583
107.35749 1154.0931 -816.47668
107.67614 1130.5997 -806.86078
107.99708 1106.9702 -797.1756
108.31953 1083.1954 -787.44452
108.64392 1059.2784 -777.65515
108.97067 1035.2214 -767.79474
109.29897 1011.0157 -757.88721
109.62926 986.66351 -747.91962
109.96198 962.16742 -737.87946
110.2938 937.49738 -727.86536
110.62474 912.65424 -717.87878
110.95765 887.66132 -707.83209
111.29258 862.51758 -697.72473
111.62954 837.22174 -687.55615
111.96854 811.77203 -677.32574
112.30961 786.16748 -667.03308
112.65277 760.40631 -656.67761
112.99802 734.4873 -646.25842
113.34541 708.40881 -635.77539
113.69492 682.16968 -625.22772
114.04395 655.75281 -614.69476
114.37688 629.07306 -604.64795
114.70816 602.21796 -594.65039
115.04543 575.22729 -584.47241
115.33759 547.85364 -575.65576
115.6244 520.31 -567.00037
115.90534 492.5979 -558.52246
116.14081 464.56339 -551.41675
116.1734 435.65051 -550.43292
116.13943 406.48819 -551.45831
116.09721 377.31604 -552.73212
116.06695 348.20093 -553.64545
116.0312 319.08591 -554.72424
116.00234 290.00598 -555.59503
115.98448 260.96515 -556.13391
115.97899 231.95807 -556.2998
115.97396 202.9545 -556.4516
115.97945 173.96945 -556.28607
115.98814 144.98541 -556.02362
115.99685 115.99695 -555.76086
116.00967 87.007484 -555.37396
116.02845 58.014378 -554.80713
116.04723 29.011936 -554.24017
116.06557 0.00011638773 -553.68707
116.13896 -29.034647 -551.47198
116.35235 -58.176003 -545.0329
116.58685 -87.440086 -537.95599
117.10117 -117.10101 -522.43506
117.62334 -147.02902 -506.6774
118.38055 -177.5706 -483.82623
119.25735 -208.70027 -457.36649
120.60484 -241.20963 -416.70224
122.48499 -275.59113 -359.96384
130.70103 -326.75241 -112.02273
130.75105 -359.56528 -110.51343
130.7877 -392.36301 -109.40697
142.51611 -463.17728 244.5289
138.23671 -725.74249 115.38632
132.19391 -727.06647 -66.971107
131.84694 -758.11975 -77.442314
131.82208 -790.93231 -78.191971
131.90196 -824.38721 -75.781372
132.25757 -859.67413 -65.050041
131.69588 1316.959 -876.85583
131.65622 1290.231 -877.81317
131.97125 1266.9242 -870.20758
132.35645 1244.1506 -860.90851
132.74435 1221.2483 -851.54303
133.13408 1198.2068 -842.13458
133.52609 1175.0298 -832.67041
133.9209 1151.72 -823.13873
134.31758 1128.2677 -813.56232
134.71661 1104.6761 -803.92908
135.1185 1080.9482 -794.22638
135.52231 1057.0742 -784.47754
135.92853 1033.057 -774.67035
136.3372 1008.8954 -764.80438
136.74884 984.59186 -754.86633
137.16246 960.13739 -744.88062
137.5786 935.53467 -734.83429
137.99779 910.78552 -724.71423
138.41431 885.85175 -714.65839
138.83127 860.75403 -704.59222
139.25075 835.50458 -694.46515
139.67276 810.10211 -684.27686
140.09734 784.54523 -674.02655
140.52452 758.83252 -663.71375
140.95428 732.96246 -653.33777
141.3867 706.93372 -642.89825
141.82179 680.74475 -632.39447
142.2524 654.36127 -621.99878
142.66568 627.72919 -612.02142
143.07413 600.9115 -602.16071
143.48659 573.94659 -592.20294
143.84903 546.6264 -583.45276
144.20085 519.12329 -574.95911
144.53905 491.43292 -566.79443
144.80742 463.38397 -560.315
144.80058 434.40201 -560.48047
144.7515 405.30444 -561.66516
144.69505 376.20734 -563.02802
144.65004 347.16022 -564.11487
144.6039 318.12881 -565.22833
144.56749 289.1351 -566.10767
144.54189 260.17557 -566.72565
144.53505 231.25623 -566.89056
144.52937 202.34119 -567.02771
144.53336 173.44016 -566.93164
144.54416 144.54427 -566.67065
144.55554 115.64456 -566.39606
144.57204 86.7435 -565.99786
144.59309 57.837406 -565.48944
144.61644 28.923405 -564.9259
144.63979 5.9133363e-05 -564.36224
144.79144 -28.958029 -560.70093
145.05676 -58.022652 -554.29553
145.43524 -87.261055 -545.15802
146.07492 -116.85979 -529.71497
146.75073 -146.75069 -513.39917
147.74118 -177.28929 -489.4877
148.77644 -208.28683 -464.49478
150.34203 -240.54713 -426.69794
152.79861 -275.03745 -367.39062
162.19032 -324.38046 -140.65486
162.60963 -357.74115 -130.53152
162.67445 -390.41867 -128.96671
177.8777 -462.4819 238.07227
174.1171 -731.29175 147.28311
164.84785 -725.33051 -76.495949
164.01608 -754.47388 -96.576729
163.97655 -787.08734 -97.531494
164.00803 -820.03998 -96.771523
164.24417 -854.06958 -91.070267
157.6535 1313.7793 -884.53198
157.67944 1287.7156 -884.01007
158.1059 1264.8474 -875.43042
158.53467 1241.855 -866.80426
158.96864 1218.7598 -858.07349
159.4344 1195.7581 -848.70312
159.90347 1172.6256 -839.26605
160.37473 1149.3524 -829.78516
160.84877 1125.9414 -820.24811
161.32622 1102.396 -810.6427
161.80591 1078.7061 -800.99194
162.28847 1054.8751 -791.28369
162.77451 1030.9054 -781.50525
163.26286 1006.7878 -771.6803
163.75417 982.52515 -761.79614
164.24904 958.11957 -751.84009
164.74631 933.56256 -741.83594
165.24657 908.85632 -731.77106
165.74991 883.99969 -721.6449
166.25693 858.99426 -711.44434
166.75951 833.79773 -701.33331
167.26385 808.44214 -691.18665
167.77127 782.93274 -680.97833
168.28175 757.26807 -670.70801
168.79538 731.44672 -660.37494
169.31213 705.46735 -649.97858
169.83206 679.32831 -639.51831
170.34137 652.97528 -629.27179
170.83453 626.39337 -619.35004
171.31792 599.61292 -609.62506
171.80002 572.66693 -599.92596
172.23235 545.40253 -591.22821
172.64655 517.93982 -582.89502
173.03354 490.26187 -575.10938
173.32339 462.19583 -569.27783
173.2648 433.1622 -570.45667
173.194 404.11951 -571.88116
173.12529 375.10495 -573.26343
173.06276 346.12576 -574.52161
173.00569 317.17722 -575.66937
172.96158 288.26941 -576.55713
172.92697 259.39066 -577.25366
172.91882 230.5585 -577.4173
172.91341 201.73244 -577.52643
172.91475 172.9149 -577.49921
172.92697 144.10593 -577.25336
172.94257 115.29523 -576.9397
172.96227 86.481186 -576.54364
172.98465 57.661663 -576.09283
173.0125 28.835539 -575.53278
173.04033 6.9235677e-05 -574.9726
173.29274 -28.882036 -569.89471
173.61012 -57.869843 -563.50958
174.16577 -87.082825 -552.33057
174.92955 -116.61958 -536.96472
175.82411 -146.51993 -518.96747
177.00821 -177.008 -495.14551
178.33885 -208.06187 -468.37485
180.21495 -240.28647 -430.63037
183.00662 -274.50989 -374.46652
197.46474 -329.10782 -83.591835
197.75533 -362.55133 -77.745811
197.75533 -395.51047 -77.745728
214.21675 -464.13617 253.43291
210.68826 -737.40869 182.44516
198.07077 -726.25934 -71.399109
195.91214 -750.99634 -114.82783
195.81465 -783.25848 -116.78874
195.80684 -815.86163 -116.9464
195.95132 -849.12238 -114.03914
183.90935 1313.6384 -884.87213
184.24342 1289.7041 -879.11139
184.6198 1265.9645 -872.62122
185.01035 1242.2124 -865.88623
185.40659 1218.3862 -859.05353
185.86427 1194.8418 -851.16107
186.32828 1171.2064 -843.15942
186.81564 1147.5819 -834.75507
187.33218 1123.9932 -825.84772
187.84814 1100.2535 -816.95007
188.38283 1076.4735 -807.72968
188.94418 1052.6892 -798.04962
189.50819 1028.7588 -788.32391
190.07556 1004.6853 -778.53986
190.64705 980.47076 -768.68469
191.22128 956.10657 -758.78253
191.799 931.59521 -748.8205
192.38089 906.93866 -738.78558
192.96564 882.12872 -728.70215
193.55394 857.16766 -718.55737
194.14658 832.05695 -708.33771
194.74138 806.78577 -698.08081
195.33092 781.32391 -687.91443
195.92406 755.70721 -677.68634
196.52078 729.93451 -667.39569
197.12117 704.00439 -657.04248
197.72525 677.91522 -646.62567
198.31161 651.5954 -636.5141
198.88301 625.06097 -626.66083
199.43915 598.3175 -617.07062
199.98827 571.39514 -607.60107
200.48962 544.18628 -598.95557
200.96364 516.76385 -590.78156
201.39336 489.09833 -583.37109
201.69434 461.01575 -578.18127
201.56624 431.92789 -580.38995
201.4715 402.94312 -582.02417
201.38864 374.00757 -583.45276
201.30586 345.09601 -584.88025
201.23811 316.23135 -586.0484
201.18614 287.40891 -586.94452
201.1413 258.61038 -587.71814
201.13185 229.86496 -587.88068
201.12634 201.12646 -587.97571
201.12398 172.39203 -588.01642
201.13893 143.67065 -587.75861
201.1586 114.94791 -587.41949
201.18065 86.220383 -587.03961
201.20425 57.486942 -586.63226
201.23575 28.748205 -586.08929
201.26961 0.00014996091 -585.50507
201.64528 -28.806377 -579.02686
202.01443 -57.718269 -572.6615
202.77916 -86.905106 -559.47412
203.66579 -116.38035 -544.18475
204.80624 -146.29002 -524.51813
206.18335 -176.72849 -500.77106
207.8383 -207.83815 -472.23196
210.02753 -240.03125 -434.48065
213.49442 -274.49274 -374.69589
233.82498 -334.03558 -24.107973
234.2233 -368.06506 -17.239317
247.91826 -743.7547 218.92195
247.25667 -777.09229 207.5134
227.55074 -747.66675 -132.3033
227.3194 -779.38055 -136.29301
227.29427 -811.7652 -136.72603
227.40182 -844.63519 -134.87163
212.81628 1330.1019 -845.12579
212.10275 1299.1295 -855.89203
212.03772 1272.2263 -856.87347
212.37946 1247.7295 -851.71686
212.68228 1222.9231 -847.14771
213.01453 1198.2068 -842.13458
213.40359 1173.7198 -836.26404
213.79642 1149.1559 -830.33679
214.26096 1124.8701 -823.32739
214.72125 1100.4464 -816.38196
215.20085 1076.0044 -809.14508
215.73329 1051.7 -801.11145
216.28029 1027.3317 -792.85767
216.8685 1003.0169 -783.98267
217.48404 978.67828 -774.6947
218.09258 954.15515 -765.5127
218.73869 929.63953 -755.76337
219.40015 905.02576 -745.78296
220.06558 880.26239 -735.74219
220.73592 855.35181 -725.62769
221.40952 830.28583 -715.46411
222.08722 805.06628 -705.2381
222.76993 779.69489 -694.93671
223.45348 754.15552 -684.62305
224.13266 728.43121 -674.37482
224.81598 702.55005 -664.06421
225.50351 676.51056 -653.69037
226.16389 650.22131 -643.72589
226.81065 623.72943 -633.96686
227.44089 597.03253 -624.45746
228.05074 570.12695 -615.25574
228.62115 542.97528 -606.6485
229.15155 515.59119 -598.64563
229.6189 487.94037 -591.59387
229.86139 459.72293 -587.93512
229.70775 430.70206 -590.25305
229.58391 401.77197 -592.12164
229.48801 372.91806 -593.56903
229.38231 344.07361 -595.16394
229.30266 315.29123 -596.36572
229.24272 286.55353 -597.26984
229.1864 257.83475 -598.11969
229.17657 229.17661 -598.26801
229.1712 200.52496 -598.34894
229.16496 171.87387 -598.4433
229.18015 143.2377 -598.21399
229.20428 114.60226 -597.8501
229.23019 85.961525 -597.4588
229.25525 57.313961 -597.08099
229.28923 28.661259 -596.56818
229.42259 0.00014570724 -594.55585
229.84969 -28.731035 -588.11139
230.29553 -57.573856 -581.38416
231.27521 -86.728043 -566.60223
232.28345 -116.14154 -551.3891
233.69757 -146.06088 -530.05145
235.26645 -176.44975 -506.37891
237.27921 -207.61926 -476.00873
239.88156 -239.88133 -436.74234
243.97742 -274.47437 -374.94046
271.69449 -339.6181 43.277977
271.76108 -373.67133 44.282524
286.23581 -751.36896 262.68973
285.01425 -783.78912 244.25766
259.31329 -745.52563 -143.5399
258.59445 -775.78326 -154.38641
258.5137 -807.85516 -155.60495
258.54895 -840.284 -155.07304
259.01501 -874.17566 -148.0407
241.08752 1178.6504 -822.73785
241.56671 1154.1521 -816.31091
242.20561 1130.293 -807.74158
242.62871 1105.3087 -802.06714
242.97198 1079.8757 -797.46289
243.36908 1054.5994 -792.13702
243.81602 1029.4454 -786.14264
244.27994 1004.2621 -779.92041
244.82809 979.3125 -772.56818
245.36871 954.21185 -765.31732
245.94006 929.10706 -757.65405
246.55547 904.03674 -749.40015
247.18596 878.88354 -740.9436
247.88474 853.82532 -731.57172
248.60242 828.67487 -721.9458
249.31676 803.35413 -712.36493
250.0806 778.02863 -702.12018
250.84914 752.54755 -691.81213
251.62337 726.91199 -681.42792
252.39566 701.0993 -671.06982
253.16591 675.10925 -660.73895
253.89896 648.85297 -650.90723
254.6176 622.3988 -641.26825
255.32359 595.75519 -631.79944
255.98987 568.86652 -622.86304
256.6218 541.75726 -614.3877
257.21182 514.42383 -606.47418
257.71008 486.78589 -599.79114
257.86185 458.42126 -597.75555
257.689 429.48178 -600.07391
257.53342 400.60773 -602.16083
257.41409 371.8205 -603.76105
257.29291 343.05737 -605.38684
257.20081 314.35675 -606.62177
257.13278 285.70331 -607.53418
257.0658 257.06598 -608.43256
257.05481 228.49332 -608.5799
257.04782 199.92619 -608.67383
257.04181 171.36136 -608.75409
257.0538 142.80779 -608.59338
257.08279 114.25908 -608.20447
257.11179 85.70401 -607.81573
257.13977 57.142208 -607.44006
257.17279 28.574936 -606.99744
257.42914 0.00016111856 -603.55957
257.9071 -28.656151 -597.1485
258.55865 -57.457417 -588.40967
259.65634 -86.55191 -573.6875
260.78601 -115.90478 -558.53619
262.4985 -145.83241 -535.56744
264.25797 -176.17189 -511.96918
266.65921 -207.40137 -479.76318
269.80066 -239.82265 -437.62863
276.35956 -276.35947 -349.65878
310.38138 -344.8681 106.65215
310.42365 -379.40659 107.21907
323.44254 -790.63708 281.83191
291.76349 -745.61774 -143.0565
289.58975 -772.23907 -172.2115
289.44778 -804.02136 -174.11583
289.47311 -836.25562 -173.77586
289.67731 -869.03174 -171.03723
271.53854 1059.0004 -778.51556
271.93152 1033.3401 -773.77161
272.51865 1008.319 -766.68463
273.31454 983.93243 -757.07727
273.82901 958.40161 -750.867
274.21436 932.32898 -746.21564
274.68289 906.45374 -740.55945
275.19019 880.60876 -734.43622
275.74072 854.79639 -727.79053
276.36935 829.10815 -720.20227
276.99771 803.29358 -712.61719
277.66989 777.47583 -704.5036
278.37592 751.61505 -695.98108
279.09082 725.63623 -687.35132
279.90964 699.77417 -677.46747
280.73434 673.76257 -667.51239
281.51752 647.49042 -658.05835
282.30508 621.07141 -648.55176
283.08615 594.48102 -639.12329
283.80469 567.60956 -630.45013
284.4938 540.53833 -622.13165
285.14639 513.26367 -614.25391
285.672 485.64255 -607.90973
285.70532 457.12854 -607.50708
285.50656 428.26004 -609.90649
285.32138 399.45013 -612.14185
285.17297 370.72501 -613.93335
285.03906 342.04703 -615.54944
284.93295 313.42636 -616.83044
284.85782 284.858 -617.73737
284.78381 256.30563 -618.63062
284.76617 227.81305 -618.84363
284.75845 199.33119 -618.93707
284.7518 170.8512 -619.01678
284.76285 142.38158 -618.88379
284.79486 113.91811 -618.49738
284.82578 85.447899 -618.12396
284.85782 56.97168 -617.73724
284.88986 28.489113 -617.35077
285.29034 0.00017023506 -612.51624
285.8176 -28.581604 -606.15204
286.70773 -57.341385 -595.40692
287.92245 -86.37664 -580.74408
289.31259 -115.72494 -563.96338
291.20947 -145.60468 -541.0661
293.28937 -175.9735 -515.95941
295.97882 -207.18497 -483.49521
299.70514 -239.76402 -438.51422
349.58643 -314.62759 163.60587
349.71121 -349.71112 165.11252
362.54642 -797.60199 320.04684
362.33359 -833.36731 317.47821
320.42749 -769.02594 -188.37344
320.07986 -800.19952 -192.56966
320.00317 -832.00812 -193.49545
320.13007 -864.35107 -191.9635
321.46649 -900.10602 -175.83165
303.23511 909.70551 -728.66479
303.75946 883.66406 -722.91095
304.50461 858.14948 -714.73389
305.40915 832.93433 -704.80756
306.02795 806.80115 -698.01727
306.45386 780.06451 -693.34332
307.00339 753.55396 -687.31293
307.57831 727.00336 -681.00403
308.21884 700.49762 -673.97498
308.93289 674.03558 -666.13898
309.60046 647.3465 -658.8136
310.31259 620.62531 -650.99884
311.00647 593.73987 -643.3844
311.66739 566.66809 -636.13159
312.36371 539.53741 -628.49017
313.01587 512.20789 -621.33362
313.51379 484.52142 -615.86969
313.45908 455.94055 -616.47021
313.26584 427.18085 -618.59058
313.07288 398.45657 -620.70819
312.9068 369.79916 -622.53082
312.76874 341.20245 -624.0459
312.65863 312.65869 -625.25421
312.58484 284.16812 -626.06372
312.50989 255.69002 -626.88629
312.48816 227.26425 -627.12506
312.47968 198.8508 -627.21777
312.47122 170.43887 -627.31055
312.4809 142.03693 -627.20459
312.51352 113.64152 -626.8465
312.54736 85.240211 -626.47498
312.58121 56.833149 -626.1037
312.61386 28.419628 -625.7453
313.08987 0.00011923967 -620.52185
313.64035 -28.512716 -614.48102
314.74344 -57.225937 -602.37604
316.07422 -86.201958 -587.77216
317.75082 -115.54575 -569.37384
319.8309 -145.37747 -546.54767
322.27606 -175.78691 -519.71503
325.23599 -206.96825 -487.23373
329.595 -239.70525 -439.39969
390.62537 -319.60233 230.32935
390.67261 -355.15677 230.84758
402.66412 -805.32819 362.43921
402.06311 -840.67731 355.84351
351.97131 -767.93738 -193.84862
350.50116 -796.59344 -209.98164
350.33707 -828.06921 -211.7825
350.40845 -860.09338 -210.99902
350.77805 -892.88959 -206.94286
335.91074 755.79926 -677.27429
336.58923 729.27673 -670.4494
337.51837 703.16339 -661.10303
338.62946 677.25909 -649.92627
339.2641 650.25635 -643.54205
339.68375 622.75366 -639.32086
340.20157 595.35297 -634.11224
340.6814 567.80249 -629.28497
341.17453 540.19312 -624.32477
341.7247 512.58716 -618.79041
342.14117 484.70004 -614.60126
342.0867 456.11566 -615.1488
341.897 427.37137 -617.05731
341.72205 398.6759 -618.81714
341.58304 370.04843 -620.2157
341.48907 341.48917 -621.16064
341.41632 312.96509 -621.89233
341.38065 284.48398 -622.25128
341.34494 256.00897 -622.61053
341.3291 227.55284 -622.7699
341.31851 199.10257 -622.8764
341.30661 170.65347 -622.99591
341.30795 142.21176 -622.9826
341.32513 113.77522 -622.80994
341.34363 85.336029 -622.62366
341.36215 56.893715 -622.4375
341.3833 28.448769 -622.22479
341.78165 0.00013078019 -618.21747
342.2421 -28.520006 -613.58588
343.26822 -57.211254 -603.26361
344.50238 -86.125389 -590.84912
346.26828 -115.42254 -573.08569
348.36319 -145.15128 -552.01208
351.19992 -175.59978 -523.47699
354.43344 -206.75266 -490.95032
