# .PCD v0.7 - Point Cloud Data file format
VERSION 0.7
FIELDS x y z
SIZE 4 4 4
TYPE F F F
COUNT 1 1 1
WIDTH 922
HEIGHT 1
VIEWPOINT 0 0 0 1 0 0 0
POINTS 922
DATA ascii
-12.845345 -15.781426 -7.8698773
-12.818793 -16.115057 -7.9614501
-12.816395 -16.478224 -7.9697237
-12.820066 -16.849234 -7.9570575
-12.848297 -17.253428 -7.8597016
-12.484836 -15.055244 -7.8467989
-12.450164 -15.379617 -7.9698954
-12.45554 -15.752598 -7.9508071
-12.481394 -16.152393 -7.8590212
-12.490194 -16.531139 -7.8277745
-12.476329 -16.879742 -7.8770018
-12.454255 -17.216179 -7.9553676
-12.45064 -17.577375 -7.9682069
-12.166477 -14.378566 -7.6681399
-12.088785 -14.653075 -7.9523263
-12.084951 -15.014639 -7.9663506
-12.119724 -15.425104 -7.8391576
-12.160677 -17.319756 -7.6893559
-12.092898 -17.589674 -7.9372816
-12.085598 -17.945284 -7.9639859
-11.733758 -13.933842 -7.9097018
-11.713819 -14.276217 -7.9849181
-11.736048 -14.670062 -7.9010673
-11.77913 -17.668697 -7.7385478
-11.719099 -17.944874 -7.9649982
-11.386155 -13.222633 -7.8354201
-11.352227 -13.549434 -7.9675331
-11.356913 -13.921377 -7.9492865
-11.417302 -14.363705 -7.7141347
-11.360865 -17.957497 -7.9339008
-10.990394 -12.822126 -7.9499636
-10.985355 -13.182427 -7.9702339
-11.015357 -13.585609 -7.8495154
-11.004987 -17.974813 -7.8912401
-10.636566 -12.103681 -7.8978472
-10.616216 -12.446599 -7.9825568
-10.633311 -12.83331 -7.9113951
-10.638154 -17.974813 -7.8912401
-10.286594 -11.388732 -7.8253956
-10.254173 -11.719057 -7.9651661
-10.256955 -12.088557 -7.9531717
-10.30302 -12.510814 -7.75458
-10.271321 -17.974813 -7.8912401
-9.8920336 -10.991152 -7.9469185
-9.8860636 -11.350668 -7.9736099
-9.9114676 -11.746925 -7.8600407
-9.9044886 -17.974813 -7.8912401
-9.5388241 -10.27258 -7.8858175
-9.5184965 -10.616787 -7.9801912
-9.5307617 -10.997034 -7.9232445
-9.5376549 -17.974813 -7.8912401
-9.1901655 -9.5577745 -7.7978444
-9.1560011 -9.8884821 -7.9628034
-9.1571913 -10.256055 -7.9570594
-9.1924562 -10.663251 -7.7867827
-12.720874 -15.26505 9.2499266
-12.696007 -15.74305 9.1298552
-12.701524 -16.257954 9.1564989
-12.69964 -16.763527 9.1473989
-12.701389 -17.273893 9.1558485
-9.1708221 -17.974813 -7.8912401
-8.7935238 -9.1599236 -7.9438758
-8.7871428 -9.5194063 -7.9759741
-8.8081007 -9.9091177 -7.8705564
-12.191072 -14.730882 9.144475
-12.202841 -15.253551 9.2036638
-12.219823 -17.311419 9.2890759
-12.188683 -17.775164 9.1324539
-8.8039894 -17.974813 -7.8912401
-8.4402571 -8.440259 -7.8749666
-8.4206581 -8.7867765 -7.977829
-8.4287376 -9.1616735 -7.9354229
-11.690049 -13.723103 9.1808834
-11.685154 -14.225409 9.1551981
-11.695133 -17.796944 9.207572
-8.4371567 -17.974813 -7.8912401
-8.3104277 15.109869 -6.5738239
-8.4896078 15.04976 -5.5906916
-8.7876797 15.17872 -3.9552121
-9.1297607 15.354596 -2.0782673
-8.0933037 -7.7254286 -7.7651491
-8.0578356 -8.0578365 -7.9597631
-8.0576506 -8.4239092 -7.9607759
-8.0846167 -8.8195839 -7.8128152
-11.19746 -12.724387 9.2668858
-11.172723 -13.204128 9.1311541
-11.199125 -13.744381 9.2760201
-11.19978 -17.817833 9.2796106
-11.188133 -18.307858 9.2157125
-8.0703239 -17.974813 -7.8912401
-7.8810658 15.38684 -6.8705168
-7.7929554 14.843723 -7.3769855
-7.9347134 14.735896 -6.5621424
-8.2221098 14.878103 -4.9101486
-8.5666142 15.093556 -2.9298973
-8.8894472 15.239052 -1.0742103
-9.263752 15.439583 1.0773391
-7.695569 -7.3291144 -7.9367766
-7.6883388 -7.6883397 -7.9783378
-7.7051716 -8.0720854 -7.8815808
-10.668036 -12.192042 9.1493464
-10.674429 -12.707655 9.1860924
-10.692287 -17.820482 9.2887497
-10.678506 -18.306011 9.2095261
-7.7034907 -17.974813 -7.8912401
-7.3571258 14.714251 -7.7677069
-7.3472857 14.327206 -7.8270965
-8.1203232 15.428614 -3.1614032
-8.2803183 15.318588 -2.1957467
-8.4388628 15.189951 -1.2388475
-8.6626472 15.159633 0.11181173
-9.0056715 15.309642 2.182152
-7.3410125 -6.6069136 -7.8649611
-7.3227029 -6.9565701 -7.9754663
-7.3279366 -7.3279376 -7.9438787
-7.3727431 -7.7413836 -7.6734457
-10.167848 -11.184633 9.1965017
-10.160357 -11.684413 9.1512976
-10.183131 -17.820482 9.2887497
-10.170005 -18.306011 9.2095261
-7.336658 -17.974813 -7.8912401
-6.9898596 14.715494 -7.763957
-6.9469361 14.2595 -8.0366583
-6.9351912 13.870382 -8.1112747
-6.9340034 13.503057 -8.1188231
-6.9746556 13.215136 -7.8605499
-8.3744755 15.426665 1.032777
-8.4912519 15.19487 1.77468
-8.7365294 15.17397 3.3329778
-6.9955778 -5.8910146 -7.7276282
-6.9595184 -6.2269378 -7.9567213
-6.9584813 -6.5922475 -7.9633083
-6.979547 -6.9795485 -7.8294735
-9.6731529 -10.182269 9.2835264
-9.6485558 -10.664195 9.1272583
-9.669302 -11.196035 9.2590561
-9.673975 -17.820482 9.2887497
-9.6615057 -18.306011 9.2095261
-6.9698248 -17.974813 -7.8912401
-6.5779462 13.886774 -8.0592041
-6.5602145 13.484882 -8.1781139
-6.5548811 13.109761 -8.2138796
-6.5539598 12.74381 -8.2200556
-6.5548067 12.381301 -8.2143803
-6.5566001 12.020432 -8.2023544
-6.5607381 11.663534 -8.1746016
-6.5671053 11.310014 -8.1319008
-6.5880671 10.980112 -7.9913287
-6.5979671 -5.4983087 -7.9249344
-6.5896525 -5.8574705 -7.9806976
-6.6026382 -6.235826 -7.8936143
-9.1447096 -9.652751 9.1538992
-9.1470852 -10.16343 9.1698294
-9.1648178 -17.820482 9.2887497
-9.1530046 -18.306011 9.2095261
-6.6029921 -17.974813 -7.8912401
-6.5140262 13.794406 -5.9182115
-6.2307229 12.827957 -7.9298415
-6.2080078 12.416015 -8.0911341
-6.1991053 12.033554 -8.1543493
-6.1951456 11.661448 -8.1824627
-6.1917801 11.29089 -8.2063637
-6.1902275 10.923929 -8.2173853
-6.1896396 10.558796 -8.2215586
-6.1896634 10.194738 -8.2213917
-6.1902037 9.8314991 -8.2175531
-6.1917324 9.4697075 -8.2066965
-6.1936383 9.1082907 -8.1931639
-6.1960406 8.7473507 -8.1761074
-6.2003784 8.3887453 -8.1453066
-6.2108707 8.0375957 -8.0708046
-6.2412705 -4.7727361 -7.854949
-6.2246776 -5.1262069 -7.972765
-6.2282224 -5.495492 -7.9475937
-6.2616544 -5.8933234 -7.7102075
-8.6448717 -8.6448736 9.2121305
-8.6357555 -9.1437435 9.1473989
-8.6556616 -17.820482 9.2887497
-8.6445045 -18.306011 9.2095261
-6.2361588 -17.974813 -7.8912401
-6.6108923 14.048143 -2.2965598
-6.3141093 13.022848 -4.535614
-6.195034 12.390068 -5.4339643
-6.1260486 11.869217 -5.9544206
-6.0419478 11.328651 -6.5889139
-5.919136 10.728433 -7.5154557
-5.8655334 10.264681 -7.9198594
-5.8451242 9.8636456 -8.0738306
-5.8368273 9.4848423 -8.136426
-5.8316345 9.111928 -8.1756058
-5.826539 8.7398062 -8.2140455
-5.8252778 8.3738356 -8.2235622
-5.8248796 8.0092077 -8.2265663
-5.8248129 7.6450653 -8.2270679
-5.8248796 7.2810979 -8.2265673
-5.8249679 6.9171476 -8.2258978
-5.8254766 6.5536594 -8.2220592
-5.8259854 6.1901083 -8.2182198
-5.8273139 5.827311 -8.2082005
-5.8289304 5.464622 -8.1960049
-5.8309917 5.1021166 -8.1804552
-5.8345623 4.740581 -8.1535139
-5.841229 4.3809199 -8.103219
-5.8960629 -4.0535455 -7.6895285
-5.8610501 -4.3957901 -7.95368
-5.8594604 -4.7608137 -7.9656725
-5.8761396 -5.1416249 -7.8398361
-8.1527405 -7.6431952 9.3357935
-8.1254444 -8.1254473 9.1298561
-8.1403217 -8.6490955 9.2421036
-8.1465054 -17.820482 9.2887497
-8.1360044 -18.306011 9.2095261
-5.8693266 -17.974813 -7.8912401
-6.3141394 13.049219 -1.3596195
-6.217247 12.434493 -2.1393492
-6.1252398 11.842128 -2.8797631
-6.0517941 11.29668 -3.4708109
-5.9721398 10.749849 -4.1118155
-5.8997073 10.226158 -4.6947093
-5.8364158 9.7273588 -5.2040381
-5.7715249 9.2344379 -5.7262435
-5.4589791 8.3704348 -8.241416
-5.459456 8.0072012 -8.2375784
-5.4596634 7.6435275 -8.2359104
-5.4597459 7.2796607 -8.2352438
-5.4598083 6.9157557 -8.2347422
-5.4599118 6.5518923 -8.2339087
-5.4601402 6.1881566 -8.2320738
-5.4608035 5.8248568 -8.2267332
-5.4615092 5.4615073 -8.2210588
-5.4621315 5.0979862 -8.2160482
-5.4626498 4.7342954 -8.211874
-5.4624219 4.3699355 -8.2137127
-5.4618201 4.0053329 -8.2185526
-5.4614673 3.6409786 -8.2213936
-5.4612393 3.2767417 -8.2232285
-5.4617372 2.9129252 -8.219223
-5.4638124 2.549777 -8.2025194
-5.4685502 2.1874177 -8.1643934
-5.4747753 1.824924 -8.1142969
-5.4813914 1.461702 -8.0610552
-5.4905386 1.0981055 -7.9874477
-5.5008721 0.73344833 -7.904285
-5.5078049 0.36718529 -7.8484964
-5.925869 -1.9752896 -4.4841785
-5.925869 -2.3703492 -4.4841766
-5.9219885 -2.7635968 -4.5154047
-5.925869 -3.1604657 -4.4841757
-5.4996314 -3.6664226 -7.9142747
-5.4910831 -4.0267963 -7.9830627
-5.5007043 -4.4005666 -7.9056382
-7.6211572 -7.113081 9.1584492
-7.6220055 -7.6220069 9.1652756
-7.6373487 -17.820482 9.2887497
-7.6275039 -18.306011 9.2095261
-5.5024934 -17.974813 -7.8912401
-6.3859205 13.22798 2.8887415
-6.2147293 12.429456 1.4126972
-6.1218858 11.806493 0.61217976
-6.0462866 11.228816 -0.039648168
-5.9751377 10.669888 -0.65310484
-5.8993101 10.113101 -1.3069071
-5.8235626 9.5672798 -1.9600164
-5.0881705 7.9956951 -8.3007097
-5.103456 7.6551828 -8.1689119
-5.1042519 7.2917867 -8.1620512
-5.1051254 6.9283829 -8.1545172
-5.1056113 6.5643559 -8.1503296
-5.0924764 6.1837192 -8.2635851
-5.0955114 5.8234396 -8.2374125
-5.1232696 5.4892159 -7.9980755
-5.3937926 5.3937907 -5.665575
-5.3593292 4.9765182 -5.9627247
-5.3189716 4.5591173 -6.3106966
-5.271234 4.1416817 -6.7222977
-5.1664834 3.6903439 -7.6254835
-5.1313796 3.2987435 -7.9281511
-5.1186776 2.9249582 -8.0376692
-5.1126328 2.5563161 -8.0897913
-5.1101799 2.1900754 -8.110939
-5.1099272 1.8249732 -8.113121
-5.1098881 1.4599663 -8.1134558
-5.1106858 1.0951452 -8.1065769
-5.1104326 0.73005939 -8.108758
-5.1095963 0.36496961 -8.1159725
-5.1086044 -1.4076963e-06 -8.1245251
-5.1073403 -0.36481312 -8.1354198
-5.106019 -0.72943366 -8.1468143
-5.1044269 -1.0938063 -8.1605453
-5.1029325 -1.4579827 -8.1734295
-5.1011281 -1.8218333 -8.188983
-5.1003528 -2.1858668 -8.1956711
-5.1002173 -2.5501101 -8.1968384
-5.1001978 -2.9144006 -8.1970062
-5.1265578 -3.2956471 -7.9697251
-5.1287913 -3.6634228 -7.950469
-5.1536269 -4.0492806 -7.7363315
-7.121119 -6.1038175 9.2277622
-7.1113081 -6.6033602 9.1431742
-7.1412401 -7.1412411 9.4012518
-7.1281919 -17.820482 9.2887497
-7.1190038 -18.306011 9.2095261
-5.1356606 -17.974813 -7.8912401
-6.4177818 13.329236 7.4200201
-6.2530007 12.506 5.8899584
-6.140388 11.808437 4.8442969
-6.0666137 11.199901 4.1592708
-5.9770236 10.574734 3.3273902
-4.7174501 7.9833765 -8.3683014
-4.7120986 7.6118498 -8.4179916
-4.7282615 7.2742457 -8.2679176
-4.7293019 6.912056 -8.2582541
-4.7175035 6.5319281 -8.3678045
-4.722527 6.175612 -8.3211584
-5.5502205 6.831039 -0.63566571
-5.5113144 6.3592072 -0.99692237
-5.467308 5.8878698 -1.4055436
-5.4165254 5.4165258 -1.8770851
-5.3756824 4.9621687 -2.2563257
-5.3246002 4.5054312 -2.7306511
-5.2591867 4.0455265 -3.3380406
-5.2073236 3.6050687 -3.8196154
-5.178371 3.1866882 -4.0884485
-4.778904 0.7352137 -7.7976766
-4.7635775 0.36642697 -7.9399886
-4.7563052 -2.6921628e-06 -8.0075169
-4.7509198 -0.3654575 -8.0575237
-4.7462335 -0.73019052 -8.101038
-4.7418628 -1.094278 -8.1416216
-4.736834 -1.4574897 -8.1883135
-4.7335234 -1.8205873 -8.2190552
-4.732409 -2.1841888 -8.2294054
-4.7322831 -2.5481553 -8.2305708
-4.7322655 -2.9121656 -8.2307396
-4.7730832 -3.3044429 -7.8517246
-6.6314692 -5.1011319 9.4042025
-6.6024485 -5.5866885 9.1347265
-6.6121869 -6.103559 9.2251587
-6.6190352 -17.820482 9.2887497
-6.6105037 -18.306011 9.2095261
-4.7688274 -17.974813 -7.8912401
-6.1165066 11.723304 9.3554153
-6.0604672 11.110857 8.7917089
-4.3314662 7.5800648 -8.6007004
-4.3454399 7.2423983 -8.4601393
-4.3479199 6.8842053 -8.4351892
-4.3373461 6.5060172 -8.5415564
-5.7049589 8.0820217 5.2155709
-5.6392632 7.5190158 4.5547209
-5.57131 6.9641371 3.8711646
-5.5370646 6.459909 3.5266771
-5.4823856 5.939249 2.9766531
-5.4369869 5.436986 2.5199761
-5.3815622 4.9330988 1.9624472
-5.3263187 4.4385982 1.4067419
-5.2645731 3.9484279 0.78563011
-5.2089558 3.4726372 0.22616376
-4.4109073 -1.1027285 -7.8015871
-4.4002433 -1.4667504 -7.9088554
-4.3864341 -1.8276813 -8.0477667
-4.3859825 -2.192992 -8.05231
-4.3859158 -2.5584519 -8.0529823
-4.3859158 -2.9239466 -8.0529814
-6.0974102 -4.5730581 9.1633234
-6.0971842 -5.0809898 9.1610498
-6.1098785 -17.820482 9.2887497
-6.1020031 -18.306011 9.2095261
-4.4019947 -17.974813 -7.8912401
-3.9512141 7.1840224 -8.812458
-3.9534509 6.8286858 -8.7879114
-3.9691658 6.494997 -8.6154623
-5.5773196 8.6194916 9.0319328
-5.5749021 8.1089468 9.0054026
-5.5738997 7.600771 8.9944057
-5.5723386 7.0920672 8.977273
-5.5677781 6.5801015 8.9272289
-5.5239391 6.0261154 8.4461536
-5.447516 5.4475164 7.6075087
-5.4023314 4.9112096 7.111659
-5.3371973 4.366797 6.3969054
-5.2608285 3.826056 5.5588574
-5.2291827 3.3276613 5.211586
-5.5689836 3.0376265 8.9404602
-5.5709548 2.5322523 8.9620905
-5.5746369 2.027138 9.002491
-5.5801826 1.5218663 9.0633526
-5.5896482 1.0162975 9.1672258
-5.3881969 -1.9593453 6.9565582
-4.0204997 -1.8275012 -8.0521402
-4.0201316 -2.1927996 -8.0561781
-4.0200706 -2.5582285 -8.0568504
-4.0200706 -2.9236903 -8.0568485
-5.6056352 -4.5864305 9.342659
-5.6007223 -17.820482 9.2887497
-5.593503 -18.306011 9.2095261
-4.035162 -17.974813 -7.8912401
-3.576 7.1519995 -9.0057487
-3.5758398 6.7940941 -9.0076818
-5.0774345 8.1238947 9.1181669
-5.0756598 7.6134887 9.0967493
-5.074182 7.1038537 9.0789108
-5.0737257 6.5958414 9.0733986
-5.0737791 6.0885344 9.074049
-5.1133204 2.5566592 9.5513468
-5.0749612 2.0299842 9.0883141
-5.0730276 1.5219069 9.0649729
-5.0729737 1.0145949 9.0643244
-5.0718465 0.50718284 9.0507164
-5.0696206 -4.0399729e-07 9.0238428
-5.0667529 -0.50667566 8.9892321
-5.0639963 -1.0127991 8.9559536
-5.0622845 -1.5186874 8.9352942
-4.9925494 -1.9970206 8.0935106
-3.6549857 -1.8274933 -8.052309
-3.6546652 -2.1927996 -8.0561781
-3.6545956 -2.5582185 -8.0570192
-3.6545956 -2.923677 -8.0570192
-5.0915656 -17.820482 9.2887497
-5.0850024 -18.306011 9.2095261
-3.668329 -17.974813 -7.8912401
-3.2132576 7.1405725 -9.0747204
-3.2109017 6.7785692 -9.1063175
-4.5771093 7.6285162 9.2176676
-4.5757499 7.1178308 9.1994314
-4.5758471 6.6095548 9.2007341
-4.5899911 -0.51000065 9.3904419
-4.5747309 -1.016609 9.1857672
-4.5659423 -1.5219803 9.0678883
-4.5631895 -2.0280855 9.0309629
-3.2894871 -1.8274933 -8.052309
-3.2891986 -2.1927996 -8.0561781
-3.2891359 -2.5582185 -8.0570192
-3.2891359 -2.923677 -8.0570192
-4.5824089 -17.820482 9.2887497
-4.5765023 -18.306011 9.2095261
-3.301496 -17.974813 -7.8912401
-2.8532109 6.7763743 -9.1202583
-4.073339 7.1283402 9.2900543
-4.0765004 6.6243124 9.3377571
-3.9282031 -1.9641036 7.1001201
-2.9239883 -1.8274933 -8.052309
-2.923732 -2.1927996 -8.0561781
-2.9236763 -2.5582185 -8.0570192
-2.9236763 -2.923677 -8.0570192
-4.0732527 -17.820482 9.2887497
-4.0680022 -18.306011 9.2095261
-2.9346633 -17.974813 -7.8912401
-2.4964111 6.7759709 -9.1228189
-3.5677154 7.1354303 9.351162
-3.6170826 6.7174368 10.202467
-3.4371779 -1.9641036 7.1001201
-2.55849 -1.8274933 -8.052309
-2.5582657 -2.1927996 -8.0561781
-2.5582168 -2.5582185 -8.0570192
-2.5582168 -2.923677 -8.0570192
-3.564096 -17.820482 9.2887497
-3.5595019 -18.306011 9.2095261
-2.5678303 -17.974813 -7.8912401
-2.1397889 6.7759962 -9.1226606
-3.0583832 7.1362252 9.3580322
-3.1195261 6.7589717 10.588134
-2.9461522 -1.9641036 7.1001201
-2.1929913 -1.8274933 -8.052309
-2.1927991 -2.1927996 -8.0561781
-2.1927571 -2.5582185 -8.0570192
-2.1927571 -2.923677 -8.0570192
-3.0549393 -17.820482 9.2887497
-3.0510015 -18.306011 9.2095261
-2.2009974 -17.974813 -7.8912401
-1.7831641 6.7760229 -9.1225004
-2.5486798 7.1363025 9.3586893
-2.5999577 6.7598872 10.596644
-2.455127 -1.9641036 7.1001201
-1.8274928 -1.8274933 -8.052309
-1.8273326 -2.1927996 -8.0561781
-1.8272978 -2.5582185 -8.0570192
-1.8272978 -2.923677 -8.0570192
-2.5457828 -17.820482 9.2887497
-2.5425012 -18.306011 9.2095261
-1.8341645 -17.974813 -7.8912401
-1.4265312 6.7760229 -9.1225004
-2.038933 7.1362643 9.3583612
-2.0799549 6.7598515 10.596304
-1.9641016 -1.9641036 7.1001201
-1.4619942 -1.8274933 -8.052309
-1.461866 -2.1927996 -8.0561781
-1.4618381 -2.5582185 -8.0570192
-1.4618381 -2.923677 -8.0570192
-2.0366263 -17.820482 9.2887497
-2.0340011 -18.306011 9.2095261
-1.4673316 -17.974813 -7.8912401
-1.0699024 6.7760472 -9.1223402
-1.5291997 7.1362643 9.3583612
-1.5599661 6.7598515 10.596304
-1.4730761 -1.9641036 7.1001201
-1.0964916 -1.8274894 -8.0524759
-1.0963995 -2.1927996 -8.0561781
-1.0963786 -2.5582185 -8.0570192
-1.0963786 -2.923677 -8.0570192
-1.5274696 -17.820482 9.2887497
-1.5255008 -18.306011 9.2095261
-1.1004987 -17.974813 -7.8912401
-0.71327358 6.7760973 -9.1220188
-1.0194612 7.1362252 9.3580322
-1.0399718 6.7598166 10.595963
-0.98205078 -1.9641036 7.1001201
-0.73099434 -1.8274894 -8.0524759
-0.73093301 -2.1927996 -8.0561781
-0.73091906 -2.5582185 -8.0570192
-0.73091906 -2.923677 -8.0570192
-1.0183132 -17.820482 9.2887497
-1.0170006 -18.306011 9.2095261
-0.73366582 -17.974813 -7.8912401
-0.3566381 6.7761221 -9.1218596
-0.50972784 7.1361899 9.3577061
-0.51998305 6.7597809 10.595622
-0.49102539 -1.9641036 7.1001201
-0.36549717 -1.8274894 -8.0524759
-0.36546651 -2.1927996 -8.0561781
-0.36545953 -2.5582185 -8.0570192
-0.36545953 -2.923677 -8.0570192
-0.50915658 -17.820482 9.2887497
-0.50850028 -18.306011 9.2095261
-0.36683291 -17.974813 -7.8912401
8.6544194e-24 6.7761493 -9.1217003
7.8277682e-24 7.1361508 9.357378
5.7342599e-24 6.7597809 10.595622
1.8285764e-24 -1.9641036 7.1001201
2.0576782e-23 -1.8274894 -8.0524759
3.5670823e-24 -2.1927996 -8.0561781
1.9055882e-25 -2.5582185 -8.0570192
8.4666784e-24 -2.923677 -8.0570192
-3.0918299e-24 -17.820482 9.2887497
3.1720034e-24 -18.306011 9.2095261
9.3844108e-24 -17.974813 -7.8912401
0.35664079 6.7761731 -9.1215391
0.50972241 7.1361127 9.357049
0.51998025 6.7597446 10.595281
0.49102539 -1.9641036 7.1001201
0.36549717 -1.8274894 -8.0524759
0.36546651 -2.1927996 -8.0561781
0.36545953 -2.5582185 -8.0570192
0.36545953 -2.923677 -8.0570192
0.50915658 -17.820482 9.2887497
0.50850028 -18.306011 9.2095261
0.36683291 -17.974813 -7.8912401
0.71328419 6.7761979 -9.1213799
1.0194448 7.1361127 9.357049
1.0399605 6.7597446 10.595281
0.98205078 -1.9641036 7.1001201
0.73099434 -1.8274894 -8.0524759
0.73093301 -2.1927996 -8.0561781
0.73091906 -2.5582185 -8.0570192
0.73091906 -2.923677 -8.0570192
1.0183132 -17.820482 9.2887497
1.0170006 -18.306011 9.2095261
0.73366582 -17.974813 -7.8912401
1.0699303 6.7762241 -9.1212187
1.5291592 7.1360755 9.3567266
1.5599324 6.7597036 10.594941
1.4730761 -1.9641036 7.1001201
1.0964916 -1.8274894 -8.0524759
1.0963995 -2.1927996 -8.0561781
1.0963786 -2.5582185 -8.0570192
1.0963786 -2.923677 -8.0570192
1.5274696 -17.820482 9.2887497
1.5255008 -18.306011 9.2095261
1.1004987 -17.974813 -7.8912401
1.426579 6.776248 -9.1210585
2.0388787 7.1360755 9.3567266
2.0799098 6.7597036 10.594941
1.9641016 -1.9641036 7.1001201
1.4619887 -1.8274894 -8.0524759
1.461866 -2.1927996 -8.0561781
1.4618381 -2.5582185 -8.0570192
1.4618381 -2.923677 -8.0570192
2.0366263 -17.820482 9.2887497
2.0340011 -18.306011 9.2095261
1.4673316 -17.974813 -7.8912401
1.7832304 6.7762742 -9.1208973
2.5485849 7.1360364 9.3563986
2.5998728 6.7596679 10.5946
2.455127 -1.9641036 7.1001201
1.8274859 -1.8274894 -8.0524759
1.8273326 -2.1927996 -8.0561781
1.8272978 -2.5582185 -8.0570192
1.8272978 -2.923677 -8.0570192
2.5457828 -17.820482 9.2887497
2.5425012 -18.306011 9.2095261
1.8341645 -17.974813 -7.8912401
2.1398845 6.7762995 -9.120739
3.0582857 7.1359982 9.3560705
3.1198308 6.7596321 10.594259
2.9461522 -1.9641036 7.1001201
2.1929832 -1.8274894 -8.0524759
2.1927991 -2.1927996 -8.0561781
2.1927571 -2.5582185 -8.0570192
2.1927571 -2.923677 -8.0570192
3.0549393 -17.820482 9.2887497
3.0510015 -18.306011 9.2095261
2.2009974 -17.974813 -7.8912401
2.496541 6.7763243 -9.1205797
3.567981 7.1359625 9.3557434
3.6397829 6.7595963 10.593918
3.4371779 -1.9641036 7.1001201
2.5584803 -1.8274894 -8.0524759
2.5582657 -2.1927996 -8.0561781
2.5582168 -2.5582185 -8.0570192
2.5582168 -2.923677 -8.0570192
3.564096 -17.820482 9.2887497
3.5595019 -18.306011 9.2095261
2.5678303 -17.974813 -7.8912401
2.8532004 6.77635 -9.1204176
4.0776711 7.1359243 9.3554153
4.1597519 6.7595963 10.593918
3.9282031 -1.9641036 7.1001201
2.9239774 -1.8274894 -8.0524759
2.923732 -2.1927996 -8.0561781
2.9236763 -2.5582185 -8.0570192
2.9236763 -2.923677 -8.0570192
4.0732527 -17.820482 9.2887497
4.0680022 -18.306011 9.2095261
2.9346633 -17.974813 -7.8912401
3.2098625 6.7763743 -9.1202583
4.5873799 7.1359243 9.3554153
4.6796951 6.7595582 10.59358
4.4192286 -1.9641036 7.1001201
3.2894745 -1.8274894 -8.0524759
3.2891986 -2.1927996 -8.0561781
3.2891359 -2.5582185 -8.0570192
3.2891359 -2.923677 -8.0570192
4.5824089 -17.820482 9.2887497
4.5765023 -18.306011 9.2095261
3.301496 -17.974813 -7.8912401
3.566514 6.7763743 -9.1202583
5.0970616 7.1358852 9.3550863
5.1996331 6.7595224 10.593239
4.910254 -1.9641036 7.1001201
3.6549718 -1.8274894 -8.0524759
3.6546652 -2.1927996 -8.0561781
3.6545956 -2.5582185 -8.0570192
3.6545956 -2.923677 -8.0570192
5.0915656 -17.820482 9.2887497
5.0850024 -18.306011 9.2095261
3.668329 -17.974813 -7.8912401
3.9231799 6.7764006 -9.1200972
5.6067677 7.1358852 9.3550863
5.7195659 6.7594872 10.592898
5.4012794 -1.9641036 7.1001201
4.0204687 -1.8274894 -8.0524759
4.0201316 -2.1927996 -8.0561781
4.0200548 -2.5582185 -8.0570192
4.0200548 -2.923677 -8.0570192
5.6007223 -17.820482 9.2887497
5.593503 -18.306011 9.2095261
4.035162 -17.974813 -7.8912401
4.2798486 6.7764244 -9.1199369
6.1164412 7.1358466 9.3547583
6.2395263 6.7594872 10.592898
5.8923044 -1.9641036 7.1001201
4.3859663 -1.8274894 -8.0524759
4.3855982 -2.1927996 -8.0561781
4.3855143 -2.5582185 -8.0570192
4.3855143 -2.923677 -8.0570192
6.1098785 -17.820482 9.2887497
6.1020031 -18.306011 9.2095261
4.4019947 -17.974813 -7.8912401
4.6365199 6.7764492 -9.1197767
6.6261096 7.1358094 9.3544359
6.7594862 6.7594872 10.592898
6.3833303 -1.9641036 7.1001201
4.7514629 -1.8274894 -8.0524759
4.7510648 -2.1927996 -8.0561781
4.7509742 -2.5582185 -8.0570192
4.7509742 -2.923677 -8.0570192
6.6190352 -17.820482 9.2887497
6.6105037 -18.306011 9.2095261
4.7688274 -17.974813 -7.8912401
4.9931936 6.7764764 -9.1196175
7.1358104 7.1358094 9.3544359
7.2794075 6.7594514 10.592558
6.8743558 -1.9641036 7.1001201
5.1169605 -1.8274894 -8.0524759
5.1165314 -2.1927996 -8.0561781
5.1164336 -2.5582185 -8.0570192
5.1164336 -2.923677 -8.0570192
7.1281919 -17.820482 9.2887497
7.1190038 -18.306011 9.2095261
5.1356606 -17.974813 -7.8912401
5.3498902 6.7765265 -9.1192961
7.6462026 7.136456 9.3599968
7.8083444 6.7672291 10.664814
7.3653808 -1.9641036 7.1001201
5.4824572 -1.8274894 -8.0524759
5.4819975 -2.1927996 -8.0561781
5.4818931 -2.5582185 -8.0570192
5.4818931 -2.923677 -8.0570192
7.6373487 -17.820482 9.2887497
7.6275039 -18.306011 9.2095261
5.5024934 -17.974813 -7.8912401
5.7065706 6.7765512 -9.1191368
7.8564062 -1.9641036 7.1001201
5.8479548 -1.8274894 -8.0524759
5.8474641 -2.1927996 -8.0561781
5.8473525 -2.5582185 -8.0570192
5.8473525 -2.923677 -8.0570192
8.1465054 -17.820482 9.2887497
8.1360044 -18.306011 9.2095261
5.8693266 -17.974813 -7.8912401
6.0632539 6.7765751 -9.1189756
8.4049931 -1.9776464 7.5088458
6.2134519 -1.8274894 -8.0524759
6.2129307 -2.1927996 -8.0561781
6.2128124 -2.5582185 -8.0570192
6.2128124 -2.923677 -8.0570192
8.6556616 -17.820482 9.2887497
8.6445045 -18.306011 9.2095261
6.2361588 -17.974813 -7.8912401
6.41994 6.7766013 -9.1188154
9.1372042 -2.0304909 9.1035604
6.578949 -1.8274894 -8.0524759
6.5783973 -2.1927996 -8.0561781
6.5782719 -2.5582185 -8.0570192
6.5782719 -2.923677 -8.0570192
9.1648178 -17.820482 9.2887497
9.1530046 -18.306011 9.2095261
6.6029921 -17.974813 -7.8912401
6.7766285 6.7766271 -9.1186571
9.6461544 -2.030772 9.1119995
6.9444461 -1.8274894 -8.0524759
6.9438639 -2.1927996 -8.0561781
6.9437313 -2.5582185 -8.0570192
6.9437313 -2.923677 -8.0570192
9.673975 -17.820482 9.2887497
9.6615057 -18.306011 9.2095261
6.9698248 -17.974813 -7.8912401
7.1333199 6.7766533 -9.1184959
7.3099437 -1.8274894 -8.0524759
7.3093305 -2.1927996 -8.0561781
7.3091912 -2.5582185 -8.0570192
7.3091912 -2.923677 -8.0570192
10.182754 -17.81982 9.2864637
10.170005 -18.306011 9.2095261
7.336658 -17.974813 -7.8912401
7.4901805 6.7768297 -9.1173744
7.6754699 -1.8274933 -8.052309
7.6747966 -2.1927996 -8.0561781
7.6746798 -2.5582285 -8.0568504
7.6746507 -2.923677 -8.0570192
10.659619 -4.568408 9.1009655
10.685137 -17.808563 9.2476454
7.7034907 -17.974813 -7.8912401
7.847878 6.7777109 -9.1117668
8.0409679 -1.8274933 -8.052309
8.0402937 -2.1928093 -8.0560102
8.0401707 -2.558238 -8.0566826
8.0401411 -2.9236903 -8.0568485
11.167339 -4.568459 9.101614
11.179119 -5.081418 9.1662502
11.189915 -5.5949569 9.2254829
11.201742 -6.1100421 9.2903805
11.22398 -6.6323538 9.4123936
11.176987 -17.78157 9.1545486
8.0703239 -17.974813 -7.8912401
8.4066591 -1.827536 -8.051301
8.4058905 -2.1928427 -8.055335
8.4057293 -2.5582669 -8.056179
8.4057941 -2.9237571 -8.0558405
11.257658 -4.4051719 6.9115748
11.735971 -5.6128583 9.4219017
11.700161 -6.1044335 9.2339544
11.686951 -6.605669 9.1646242
11.683111 -7.1114607 9.1444731
11.679893 -7.6173234 9.1275845
11.683606 -8.1277266 9.1470718
11.687385 -8.6385021 9.1669006
11.698795 -9.1555796 9.2267876
11.709606 -9.6731539 9.2835255
11.735847 -10.205085 9.4212446
11.702272 -17.299013 9.2450371
11.686889 -17.784397 9.1642981
8.4371567 -17.974813 -7.8912401
8.772769 -1.8276616 -8.0482712
8.7717648 -2.1929429 -8.053319
8.7717314 -2.558423 -8.0534868
8.7718315 -2.9239466 -8.0529814
11.166145 -4.1873059 3.9894879
12.208475 -9.6650448 9.2319994
12.195015 -10.162514 9.1643009
12.191072 -10.667191 9.1444731
12.187715 -11.172075 9.1275845
12.191589 -11.683608 9.1470737
12.195597 -12.195598 9.1672249
12.206661 -12.715273 9.2228775
12.217552 -13.235682 9.2776508
12.248644 -13.779726 9.4340334
12.203165 -16.779354 9.2052937
12.192366 -17.272516 9.1509724
8.8039894 -17.974813 -7.8912401
9.1418905 -1.8283795 -8.0309353
9.1380215 -2.1931255 -8.0496187
9.1380215 -2.5586481 -8.0496149
9.1383009 -2.9242566 -8.0482721
9.1401472 -3.2904563 -8.0393505
11.33252 -4.5330086 2.5463562
12.716824 -13.225497 9.2303696
12.703073 -13.71932 9.1639729
12.699034 -14.222919 9.1444721
12.695536 -14.726825 9.1275835
12.699168 -15.239003 9.1451244
12.699775 -15.747722 9.1480484
12.69688 -16.25201 9.134079
12.727089 -16.799761 9.2799358
9.1708221 -17.974813 -7.8912401
9.5045567 -2.1933603 -8.0449066
9.5045214 -2.5589099 -8.0450745
9.5048113 -2.9245591 -8.0437288
9.5051737 -3.2902541 -8.0420427
11.24229 -4.3239594 0.022900797
9.5376549 -17.974813 -7.8912401
9.8712845 -2.1936204 -8.0396891
9.8708696 -2.5591164 -8.0415382
9.8710957 -2.9247701 -8.0405293
9.8713589 -3.2904563 -8.0393505
9.8721495 -3.6563528 -8.0358181
11.392666 -4.641458 -1.2379469
9.9044886 -17.974813 -7.8912401
10.2372 -2.5593011 -8.0383425
10.237122 -2.9248948 -8.0386782
10.2372 -3.2905307 -8.0383425
10.237161 -3.6561303 -8.0385122
10.236848 -4.0216203 -8.039856
10.2703 -17.973024 -7.8956451
10.60427 -2.5596519 -8.0322819
10.603097 -2.9249947 -8.0371637
10.602855 -3.2905443 -8.0381727
10.60249 -3.6560314 -8.0396881
10.601803 -4.0213752 -8.042552
10.600712 -4.3865032 -8.0470924
10.600024 -4.7517362 -8.0499554
10.627823 -17.957361 -7.9342375
10.969767 -2.9252744 -8.0329533
10.968554 -3.2905669 -8.037838
10.967884 -3.6559632 -8.0405312
10.966964 -4.0212216 -8.0442305
10.965752 -4.3863006 -8.0491133
10.965584 -4.7517548 -8.0497828
11.061583 -17.698532 -7.663518
10.988335 -17.947615 -7.95824
11.335988 -3.2910955 -8.0307665
11.333481 -3.6559632 -8.0405312
11.33227 -4.021131 -8.0452423
11.33106 -4.386219 -8.0499525
11.347979 -4.758832 -7.9840732
11.3511 -5.1263051 -7.9719219
11.354222 -5.4939804 -7.9597611
11.357347 -5.8618584 -7.9475946
11.365166 -6.232513 -7.917151
11.376783 -6.6058741 -7.8719158
11.388424 -6.9800034 -7.8265848
11.412391 -7.362834 -7.7332592
11.383974 -17.626799 -7.8439136
11.348672 -17.938225 -7.9813752
11.698362 -4.0213127 -8.0432234
11.696846 -4.3863177 -8.0489454
11.745259 -5.872632 -7.8663173
11.727747 -6.2303681 -7.9323778
11.721831 -6.5935316 -7.9546928
11.717577 -6.9573135 -7.9707403
11.713908 -7.3211961 -7.9845791
11.717175 -7.6893978 -7.9722595
11.720398 -8.0577774 -7.9600987
11.723623 -8.4263554 -7.9479346
11.731469 -8.798604 -7.9183364
11.743596 -9.1746864 -7.8725934
11.755612 -9.5514374 -7.8272638
11.781257 -9.9404383 -7.7305269
11.773841 -17.292831 -7.758502
11.721025 -17.581541 -7.9577336
11.750929 -17.99361 -7.8449335
12.111232 -8.441164 -7.8702192
12.093129 -8.7950048 -7.9364386
12.088046 -9.1576118 -7.9550319
12.083937 -9.5206804 -7.9700632
12.079783 -9.883462 -7.9852557
12.083152 -10.252373 -7.9729347
12.086569 -10.621531 -7.9604383
12.089848 -10.990774 -7.9484391
12.097708 -11.364514 -7.9196906
12.110305 -11.743328 -7.8736105
12.122788 -12.12279 -7.8279462
12.149374 -12.51754 -7.7306976
12.131622 -16.910748 -7.7956352
12.088508 -17.216969 -7.9533415
12.087676 -17.582077 -7.9563832
12.478669 -11.010592 -7.8686929
12.458493 -11.359215 -7.9403272
12.454113 -11.721519 -7.9558773
12.450164 -12.083985 -7.9698939
12.44579 -12.445793 -7.9854221
12.449165 -12.81532 -7.9734387
12.452638 -13.185147 -7.9611144
12.456112 -13.555183 -7.9487782
12.463876 -13.930217 -7.9212108
12.476902 -14.311742 -7.8749657
12.489955 -14.694066 -7.8286247
12.517056 -15.0941 -7.7324047
12.525764 -15.473003 -7.7014918
12.523212 -15.838181 -7.7105494
12.488279 -16.161304 -7.8345709
12.467309 -16.500853 -7.9090242
12.449831 -16.843891 -7.9710755
12.457207 -17.220257 -7.9448924
12.846427 -13.58051 -7.8661489
12.824282 -13.923508 -7.942523
12.820214 -14.285383 -7.9565511
12.816101 -14.646975 -7.9707375
12.812038 -15.00839 -7.9847479
12.8138 -15.376562 -7.978673
12.81468 -15.743752 -7.9756365
12.813604 -16.108532 -7.9793491
12.821536 -16.484835 -7.9519897
