# .PCD v0.7 - Point Cloud Data file format
VERSION 0.7
FIELDS x y z
SIZE 4 4 4
TYPE F F F
COUNT 1 1 1
WIDTH 1517
HEIGHT 1
VIEWPOINT 0 0 0 1 0 0 0
POINTS 1517
DATA ascii
-8.5538702 -7.6984835 3.7536967
-8.549304 -8.1218376 3.7261336
-8.5448256 -8.5448265 3.6991024
-8.5390263 -8.9659767 3.6641006
-8.5326576 -9.3859205 3.6256566
-8.5262547 -9.8051929 3.5870199
-8.5185452 -10.222252 3.5404842
-8.5079708 -10.634962 3.4766674
-8.4974241 -11.046649 3.4130049
-8.4877195 -11.458421 3.3544393
-8.480855 -11.873196 3.3130059
-7.7306981 7.7306991 1.2411413
-7.7129545 7.3070087 1.1284093
-7.6972737 6.8870349 1.0287864
-7.7216735 6.5024629 1.183804
-7.7595901 6.1259933 1.424696
-7.7941041 5.7430253 1.6439699
-7.8287797 5.3565354 1.8642689
-7.8607364 4.9646764 2.0672979
-7.8928804 4.5695639 2.2715135
-7.9211245 4.1690159 2.4509542
-7.9473815 3.76455 2.617774
-7.9716868 3.3565016 2.7721848
-7.9939632 2.9451454 2.913717
-8.0145226 2.5309033 3.0443275
-8.0339918 2.1142106 3.1680193
-8.0519657 1.6951529 3.2822173
-8.068038 1.2739023 3.3843231
-8.0829239 0.85083538 3.478899
-8.0961018 0.42611352 3.5626214
-8.10783 -6.2691463e-08 3.637136
-8.1184111 -0.42728415 3.7043552
-8.1281118 -0.85559052 3.7659829
-8.1353035 -1.2845203 3.8116713
-8.1424675 -1.7142034 3.8571916
-8.1490889 -2.1444955 3.8992574
-8.1543703 -2.5750635 3.9328103
-8.1573515 -3.0053401 3.9517527
-8.1596975 -3.4356616 3.9666617
-8.163559 -3.8669491 3.9911911
-8.1640768 -4.2968826 3.9944799
-8.1640368 -4.7265477 3.9942272
-8.1645947 -5.1565857 3.9977713
-8.1643953 -5.5861645 3.9965062
-8.1616888 -6.0138736 3.9793015
-8.1602554 -6.4423046 3.9701977
-8.1589031 -6.8706551 3.9616063
-8.1550455 -7.2966185 3.9371011
-8.1497641 -7.7208266 3.9035442
-8.1453209 -8.145318 3.8753181
-8.1407642 -8.5692244 3.84637
-8.133049 -8.9891586 3.7973554
-8.1259403 -9.4089842 3.7521918
-8.1194754 -9.8288364 3.7111135
-8.1101093 -10.244349 3.6516142
-8.1000204 -10.657921 3.5875173
-8.0899572 -11.070468 3.5235839
-8.082963 -11.486316 3.4791474
-7.3382945 8.1536646 1.3382124
-7.3197951 7.72645 1.2141557
-7.3040805 7.3040819 1.1087683
-7.3100414 6.9039288 1.148743
-7.3474431 6.5310616 1.3995655
-7.3840599 6.1533828 1.6451225
-7.4201403 5.7712221 1.8870839
-7.4542265 5.3836102 2.1156676
-7.4859395 4.9906287 2.3283403
-7.5135055 4.591588 2.5132015
-7.5407729 4.1893206 2.696064
-7.5662169 3.7831082 2.8666935
-7.5916142 3.374053 3.0370131
-7.6127577 2.9605196 3.1788027
-7.6322546 2.5440855 3.3095546
-7.6498952 2.1249735 3.4278529
-7.6667647 1.7037262 3.5409818
-7.6816978 1.2802844 3.6411293
-7.6957932 0.85509038 3.735652
-7.7082534 0.42823765 3.8192117
-7.7186484 1.2223695e-06 3.8889239
-7.7279792 -0.42933187 3.951498
-7.7355967 -0.85950929 4.0025783
-7.742434 -1.2904046 4.0484324
-7.7486405 -1.7219182 4.0900502
-7.7532253 -2.153672 4.1208014
-7.7588792 -2.5862916 4.1587157
-7.7605124 -3.0179746 4.1696668
-7.7621078 -3.4498248 4.1803679
-7.7639327 -3.8819661 4.1926069
-7.7636285 -4.3131251 4.1905646
-7.7635145 -4.744369 4.1898022
-7.7640467 -5.1760292 4.1933699
-7.7614241 -5.6054707 4.1757822
-7.7587271 -6.034564 4.1576953
-7.7562599 -6.4635487 4.14115
-7.7534151 -6.8919239 4.1220727
-7.7483373 -7.317873 4.0880213
-7.7433038 -7.7433023 4.0542641
-7.7389951 -8.1689386 4.0253706
-7.7325783 -8.5917521 3.9823377
-7.7251554 -9.0126791 3.932559
-7.7184234 -9.4336271 3.8874121
-7.7104273 -9.852212 3.8337922
-7.7004285 -10.267235 3.7667346
-7.6907907 -10.681651 3.7021036
-7.6812139 -11.095086 3.6378846
-7.6784244 -11.517633 3.6191716
-6.9188905 8.1398735 1.2549852
-6.9041824 7.7164407 1.150552
-6.893312 7.2988029 1.0733621
-6.9300666 6.9300675 1.3343397
-6.9682522 6.5583563 1.6054847
-7.0033545 6.1794329 1.8547308
-7.0369263 5.7951183 2.0931141
-7.0707884 5.4070749 2.3335576
-7.1026187 5.0136147 2.5595706
-7.1310673 4.6142206 2.761575
-7.1561852 4.2095218 2.939929
-7.1815848 3.8020158 3.1202822
-7.2033858 3.3898301 3.27508
-7.2249012 2.9749601 3.4278545
-7.2444415 2.5568619 3.5666053
-7.2626786 2.1360841 3.6960981
-7.2773986 1.7123311 3.8006182
-7.2917166 1.2867749 3.902283
-7.3037381 0.85926557 3.9876485
-7.3149066 0.43028972 4.0669522
-7.3245325 3.4815059e-07 4.1352983
-7.3328543 -0.431344 4.1943913
-7.3394322 -0.86346257 4.241097
-7.3452287 -1.2962155 4.2822556
-7.3506017 -1.7295519 4.3204064
-7.354826 -2.1631825 4.3504009
-7.3588023 -2.5972245 4.3786364
-7.360322 -3.030719 4.3894224
-7.361516 -3.4642415 4.3979044
-7.3605385 -3.8967552 4.3909664
-7.3601403 -4.329494 4.3881392
-7.3599958 -4.7623491 4.3871136
-7.3590193 -5.1946015 4.3801775
-7.3556571 -5.6249132 4.3563023
-7.3529844 -6.0553985 4.3373241
-7.3506742 -6.485888 4.3209186
-7.3451929 -6.9131217 4.2820015
-7.339468 -7.3394666 4.2413511
-7.3344707 -7.7659087 4.2058673
-7.3295879 -8.1918907 4.1711965
-7.3222399 -8.614397 4.1190205
-7.3151212 -9.0363255 4.0684719
-7.3087296 -9.4583559 4.0230904
-7.2992163 -9.8754091 3.9555411
-7.2894092 -10.29093 3.8858995
-7.2801938 -10.706166 3.8204682
-7.2748175 -11.12619 3.7822907
-6.5082579 8.5420914 1.2275295
-6.4964366 8.1205473 1.1383477
-6.4839425 7.6996827 1.0440845
-6.5024319 7.315238 1.1835777
-6.5429778 6.9519167 1.4894711
-6.5824327 6.5824327 1.787138
-6.6176715 6.2040691 2.0529904
-6.6504316 5.8191295 2.300148
-6.6808882 5.4282236 2.5299239
-6.7102504 5.0326881 2.7514484
-6.7388406 4.6329532 2.9671447
-6.7667656 4.229229 3.1778226
-6.7920084 3.8205061 3.3682668
-6.8125958 3.4062994 3.5235827
-6.8322477 2.9891102 3.6718471
-6.8505149 2.568944 3.8096616
-6.8676744 2.1461494 3.9391243
-6.8835754 1.7208955 4.0590839
-6.8961067 1.2930205 4.1536231
-6.9072604 0.86340922 4.2377739
-6.9167194 0.43229505 4.3091359
-6.926578 1.4336885e-06 4.3835163
-6.9330525 -0.43331444 4.4323635
-6.9394717 -0.86743289 4.4807858
-6.9447379 -1.3021364 4.5205169
-6.9494638 -1.7373649 4.5561757
-6.9533391 -2.1729181 4.5854087
-6.9552951 -2.6082344 4.6001658
-6.9561872 -3.0433309 4.6068978
-6.956634 -3.4783156 4.6102662
-6.9554663 -3.9124503 4.6014609
-6.9542651 -4.3464141 4.5923972
-6.953373 -4.7804422 4.5856647
-6.9502525 -5.2126884 4.5621214
-6.9470658 -5.6444893 4.5380807
-6.9444642 -6.076405 4.5184536
-6.9407358 -6.5069385 4.490325
-6.9347587 -6.9347587 4.4452333
-6.9293032 -7.3623834 4.4040718
-6.9238896 -7.7893744 4.3632312
-6.9166856 -8.213562 4.3088794
-6.9097333 -8.637166 4.2564287
-6.9029636 -9.0601397 4.205358
-6.8954988 -9.4813099 4.1490393
-6.8860645 -9.8987169 4.0778627
-6.8766561 -10.314982 4.0068803
-6.867775 -10.730897 3.9398806
-6.8680096 -11.160514 3.9416473
-6.085556 8.9254856 1.0992918
-6.077857 8.5090008 1.0373348
-6.0694528 8.0926065 0.96970069
-6.0745597 7.6944427 1.0107986
-6.1118507 7.3342209 1.310895
-6.1499176 6.9699063 1.6172316
-6.1867514 6.5992017 1.9136468
-6.221684 6.2216864 2.1947656
-6.2551179 5.8381119 2.4638224
-6.2879558 5.4495635 2.7280736
-6.3157907 5.0526333 2.952075
-6.3420463 4.6508346 3.1633656
-6.3684592 4.2456403 3.3759232
-6.3952489 3.8371503 3.591506
-6.4165874 3.4221818 3.7632246
-6.4357791 3.0033655 3.9176674
-6.4532261 2.5812905 4.0580721
-6.4683604 2.156121 4.1798596
-6.48207 1.7285538 4.2901883
-6.494082 1.2988181 4.3868546
-6.5057864 0.86743987 4.4810452
-6.5162148 0.43441653 4.5649652
-6.5233898 4.9493173e-07 4.6227059
-6.5297093 -0.43531257 4.6735606
-6.535459 -0.87139279 4.7198291
-6.5404415 -1.3080863 4.7599239
-6.5439725 -1.7450585 4.7883425
-6.5469561 -2.1823182 4.8123507
-6.5476046 -2.6190405 4.8175716
-6.5481892 -3.0558195 4.8222733
-6.548254 -3.4923999 4.8227959
-6.5471187 -3.928268 4.8136559
-6.5457883 -4.3638568 4.8029532
-6.5427413 -4.7980089 4.7784314
-6.5389204 -5.2311354 4.7476835
-6.5356202 -5.6642041 4.7211318
-6.5330997 -6.0975575 4.7008429
-6.5274186 -6.5274177 4.6551294
-6.5217481 -6.9565301 4.6094918
-6.5166006 -7.3854804 4.5680709
-6.5102425 -7.8122897 4.5169034
-6.5023603 -8.2363224 4.453474
-6.4952312 -8.660306 4.3961043
-6.4885964 -9.084033 4.3427076
-6.4798446 -9.5037708 4.2722793
-6.4709263 -9.9220858 4.2005095
-6.4619374 -10.3391 4.1281767
-6.45821 -10.763683 4.0981803
-5.8234148 10.814915 2.3371131
-5.7570744 10.280489 1.765112
-5.7284036 9.8201218 1.5179063
-5.6490178 8.8770304 0.83343148
-5.6428137 8.4642229 0.77993673
-5.6385818 8.0551176 0.74344969
-5.6714406 7.6969571 1.0267613
-5.708117 7.3390107 1.3429971
-5.7460747 6.9773788 1.6702759
-5.7838349 6.6101003 1.9958498
-5.8183312 6.2339277 2.2932816
-5.8538809 5.8538823 2.5997934
-5.8837681 5.4634991 2.8574936
-5.9141612 5.0692821 3.1195471
-5.9424634 4.6690807 3.3635726
-5.9658952 4.2613544 3.5656097
-5.9921618 3.8521054 3.7920814
-6.0137577 3.4364352 3.9782901
-6.0325875 3.0162957 4.1406403
-6.049665 2.5927148 4.2878847
-6.064661 2.1659508 4.4171858
-6.0765557 1.7361599 4.5197458
-6.0882268 1.3046219 4.6203737
-6.0987959 0.8712588 4.7115035
-6.1085849 0.43632978 4.7959065
-6.1160388 6.5876469e-07 4.8601737
-6.1223855 -0.43731141 4.9148946
-6.1276789 -0.87538242 4.9605412
-6.1312442 -1.3138355 4.9912763
-6.1340499 -1.7525842 5.0154705
-6.1355152 -2.1912537 5.0281019
-6.1363397 -2.6298573 5.0352101
-6.1367674 -3.0683818 5.0388961
-6.1365228 -3.5065837 5.0367904
-6.1349964 -3.9439247 5.0236282
-6.1326771 -4.3804832 5.0036354
-6.1292024 -4.8158002 4.97367
-6.1256399 -5.2505474 4.942955
-6.1220512 -5.6847601 4.9120111
-6.116858 -6.1168575 4.8672376
-6.1115217 -6.548058 4.821228
-6.1061654 -6.9784732 4.7750435
-6.1013007 -7.4087205 4.7331004
-6.0933714 -7.8343353 4.6647325
-6.0858831 -8.2594118 4.6001649
-6.0791922 -8.6845589 4.5424752
-6.0708718 -9.1063061 4.4707346
-6.0617394 -9.5255899 4.391994
-6.0531693 -9.9444904 4.3181009
-6.0450382 -10.362923 4.2479944
-6.0481515 -10.800268 4.274837
-5.4697366 11.360223 2.9154139
-5.4190755 10.838152 2.4450006
-5.3854818 10.356695 2.1330667
-5.2898159 9.7658138 1.2447698
-5.2110677 9.2195835 0.51355708
-5.2086496 8.8146372 0.49110496
-5.2079387 8.4128265 0.48450726
-5.2222857 8.0342875 0.61772126
-5.2605062 7.6884322 0.97261804
-5.2972312 7.3346291 1.3136249
-5.3361135 6.9779944 1.6746613
-5.371057 6.6105328 1.9991233
-5.407814 6.2397847 2.3404341
-5.4403696 5.858861 2.6427221
-5.4735022 5.4735041 2.9503739
-5.5040755 5.0806861 3.234268
-5.53125 4.6802897 3.4865875
-5.5574794 4.2749853 3.7301416
-5.5811825 3.8638954 3.9502363
-5.6023188 3.4475825 4.1464953
-5.6216002 3.0270169 4.325531
-5.6387095 2.6024816 4.4843965
-5.6533813 2.1743796 4.6206322
-5.66712 1.7437314 4.7482033
-5.6784463 1.3104116 4.8533735
-5.6874723 0.87499672 4.9371834
-5.6961303 0.4381648 5.0175772
-5.7029109 1.2563423e-06 5.0805373
-5.7081704 -0.43909028 5.1293764
-5.7130122 -0.87892419 5.1743331
-5.7172914 -1.3193738 5.2140646
-5.7193475 -1.759798 5.23316
-5.7205477 -2.2002094 5.2443027
-5.7209764 -2.640449 5.248282
-5.7217197 -3.0809236 5.2551842
-5.7207479 -3.5204592 5.2461586
-5.7189479 -3.9592705 5.229445
-5.7159214 -4.3968625 5.2013459
-5.7126136 -4.8337483 5.1706281
-5.709167 -5.269999 5.1386242
-5.7042179 -5.704217 5.0926728
-5.698597 -6.1369491 5.0404778
-5.6931849 -6.5690579 4.9902267
-5.6879807 -7.0005913 4.9419074
-5.6817994 -7.4300442 4.8845096
-5.6741409 -7.8565016 4.8133969
-5.6670361 -8.2825899 4.7474222
-5.6605644 -8.70856 4.6873288
-5.6513443 -9.1290941 4.6017203
-5.6422105 -9.5483561 4.5169058
-5.6340199 -9.9678812 4.4408584
-5.6337428 -10.400754 4.4382815
-5.1267214 11.962351 3.6973498
-5.0710077 11.409769 3.1369193
-4.7714105 9.1452055 0.12320338
-4.7707 8.7462835 0.11605509
-4.7710447 8.3493271 0.11952179
-4.8037667 8.006279 0.44868135
-4.8418379 7.6662455 0.83164686
-4.8798413 7.3197603 1.2139289
-4.916204 6.9646211 1.5797083
-4.9529266 6.6039042 1.9491096
-4.987494 6.2343688 2.2968357
-5.0221181 5.8591399 2.6451237
-5.0551944 5.4764614 2.9778442
-5.0845714 5.0845733 3.2733605
-5.114491 4.6882844 3.5743225
-5.1399603 4.2833014 3.8305211
-5.1631103 3.8723328 4.0633993
-5.185936 3.4572921 4.2930055
-5.2048602 3.0361683 4.4833655
-5.2217026 2.6108522 4.652791
-5.237617 2.1823421 4.8128719
-5.2508616 1.7502896 4.9461021
-5.261631 1.3154088 5.0544376
-5.272182 0.87869829 5.1605716
-5.2801099 0.44001144 5.2403207
-5.2858138 7.2215886e-07 5.2976985
-5.291954 -0.44099584 5.3594627
-5.2946844 -0.88244635 5.386929
-5.29848 -1.3246202 5.4251113
-5.300951 -1.7669837 5.4499702
-5.3020148 -2.209173 5.4606709
-5.302228 -2.6511126 5.4628096
-5.3019352 -3.0927942 5.459868
-5.3006053 -3.5337372 5.4464951
-5.2987189 -3.9740388 5.4275155
-5.2960105 -4.413341 5.4002728
-5.2924309 -4.8513942 5.3642597
-5.2880087 -5.2880077 5.319777
-5.2827492 -5.7229767 5.2668695
-5.2776313 -6.1572361 5.2153916
-5.2726026 -6.5907531 5.1648073
-5.2668753 -7.0224977 5.1071882
-5.2596412 -7.4511566 5.034421
-5.2525315 -7.8787956 4.9629016
-5.2458577 -8.3059387 4.8957686
-5.2382398 -8.7303982 4.8191414
-5.229712 -9.1519966 4.7333627
-5.2211866 -9.5721741 4.6476011
-5.2141037 -9.9936972 4.5763488
-5.2202072 -10.440412 4.6377449
-4.7109885 11.991609 3.8234823
-4.722631 11.591915 3.951246
-4.3306456 9.4486828 -0.35028791
-4.3321753 9.0581856 -0.33350006
-4.3323884 8.6647778 -0.33116168
-4.3428559 8.2909079 -0.21629491
-4.381052 7.9655504 0.20285775
-4.4189377 7.6327133 0.61860883
-4.4569516 7.2931943 1.035759
-4.4937282 6.9448524 1.4393301
-4.5301204 6.5892668 1.8386865
-4.5636859 6.2232099 2.2070296
-4.5978189 5.8517699 2.5815926
-4.62888 5.4704962 2.9224505
-4.6599159 5.0835457 3.2630277
-4.689168 4.6891713 3.5840309
-4.7144961 4.2859082 3.8619711
-4.740099 3.8782635 4.1429315
-4.7615776 3.4629679 4.3786368
-4.7813873 3.0427024 4.5960221
-4.7994604 2.6178901 4.7943416
-4.8146291 2.1884685 4.960804
-4.8281131 1.7556787 5.1087732
-4.8400521 1.3200166 5.2397904
-4.8493795 0.88170677 5.3421431
-4.857378 0.44158214 5.4299197
-4.8636937 5.7994072e-07 5.4992261
-4.8696346 -0.4426921 5.5644135
-4.8725977 -0.88592607 5.5969315
-4.8751478 -1.3295856 5.6249156
-4.8772826 -1.7735569 5.6483459
-4.8787069 -2.2175915 5.6639757
-4.8799357 -2.661782 5.6774578
-4.8783636 -3.1044116 5.6602011
-4.8768897 -3.5468276 5.6440353
-4.8742895 -3.9880531 5.6154933
-4.8717403 -4.428853 5.5875201
-4.8680439 -4.8680434 5.5469594
-4.863596 -5.3057399 5.4981523
-4.8585229 -5.7418885 5.4424829
-4.8538499 -6.1776252 5.3911967
-4.8483601 -6.6113977 5.3309569
-4.8417454 -7.0425377 5.2583704
-4.835125 -7.4724636 5.1857171
-4.828546 -7.9012556 5.1135244
-4.8217216 -8.3284273 5.0386348
-4.8136482 -8.7520876 4.9500418
-4.8056021 -9.1743298 4.861743
-4.7975588 -9.5951157 4.7734785
-4.7988181 -10.033892 4.7873001
-4.3353548 12.572532 4.4588809
-4.3220587 12.101766 4.2983789
-3.8937693 9.345047 -0.8715297
-3.8941309 8.956502 -0.86716729
-3.8969908 8.5733814 -0.8326416
-3.9196754 8.2313175 -0.55881667
-3.9550891 7.9101787 -0.13133742
-3.9933381 7.5873423 0.33037105
-4.0305629 7.2550139 0.77971226
-4.0668912 6.9137154 1.2182349
-4.1011286 6.5618062 1.631519
-4.1348209 6.2022338 2.0382245
-4.1670799 5.8339119 2.4276223
-4.1982241 5.4576931 2.80357
-4.2293506 5.0752211 3.1792941
-4.2568641 4.6825509 3.5114121
-4.2846336 4.2846346 3.8466198
-4.3088226 3.8779409 4.138607
-4.3312192 3.4649761 4.408957
-4.3531399 3.0472002 4.6735592
-4.3697476 2.6218503 4.8740373
-4.38585 2.1929259 5.068408
-4.401125 1.7604516 5.2527962
-4.4117284 1.3235182 5.380794
-4.421207 0.88424313 5.4952049
-4.4301691 0.44301793 5.6033888
-4.4353447 1.8663336e-06 5.6658626
-4.4420104 -0.44419914 5.7463293
-4.4463158 -0.88926148 5.7982979
-4.4484496 -1.3345329 5.8240514
-4.4498205 -1.7799259 5.8406005
-4.4509897 -2.225493 5.8547149
-4.4510798 -2.6706467 5.8558035
-4.4507875 -3.1155505 5.8522739
-4.4492583 -3.5594068 5.8338189
-4.4468551 -4.0021682 5.8048024
-4.4435124 -4.443511 5.764452
-4.4401522 -4.8841648 5.7238922
-4.4357915 -5.322948 5.6712565
-4.4315286 -5.7609863 5.619801
-4.4262285 -6.1967177 5.555819
-4.42063 -6.6309447 5.4882426
-4.414227 -7.0627627 5.4109521
-4.4081736 -7.4938941 5.337882
-4.4018292 -7.9232907 5.2612934
-4.3940768 -8.3487453 5.1677189
-4.3865485 -8.7730961 5.0768437
-4.3790679 -9.1960421 4.9865456
-4.3737621 -9.6222754 4.9224977
-4.3815079 -10.077468 5.0159974
-3.9495854 13.165287 5.0995326
-3.9328902 12.672647 4.8756075
-3.4662967 9.628603 -1.3824779
-3.4620578 9.2321568 -1.4393326
-3.4631317 8.8502274 -1.424927
-3.4661756 8.4728756 -1.3841054
-3.4964163 8.158308 -0.97850555
-3.5319674 7.8488164 -0.50168449
-3.5668356 7.5299888 -0.03402213
-3.6009102 7.2018223 0.42299777
-3.6365094 6.8689623 0.90046406
-3.6688755 6.5224471 1.3345678
-3.702878 6.1714659 1.7906177
-3.7331338 5.8070974 2.1964192
-3.7659445 5.4396982 2.636483
-3.7936091 5.0581479 3.0075326
-3.8219416 4.6712632 3.3875363
-3.8481767 4.275754 3.7394085
-3.8727679 3.8727701 4.0692329
-3.8970239 3.4640234 4.3945637
-3.9165287 3.0461905 4.6561637
-3.9351158 2.6234112 4.9054623
-3.9520073 2.1955602 5.1320181
-3.9655104 1.7624506 5.3131227
-3.9776285 1.3258768 5.4756579
-3.9887168 0.88638306 5.6243773
-3.9970033 0.44411084 5.7355151
-4.0040693 3.9432931e-07 5.8302908
-4.0104103 -0.44560018 5.9153318
-4.0136995 -0.89193267 5.9594555
-4.0166082 -1.3388687 5.9984603
-4.0190721 -1.7862536 6.0315123
-4.0194592 -2.2330325 6.0367031
-4.0192966 -2.6795294 6.0345154
-4.0181351 -3.1252141 6.0189404
-4.0169544 -3.5706241 6.0030999
-4.015245 -4.0152431 5.9801774
-4.0124402 -4.4582648 5.9425588
-4.008585 -4.8993807 5.8908525
-4.0045953 -5.3394594 5.8373456
-4.0000286 -5.7778182 5.7760916
-3.9956129 -6.2153969 5.7168694
-3.9899817 -6.6499681 5.6413403
-3.984246 -7.0831032 5.5644131
-3.9783273 -7.514617 5.4850283
-3.9715903 -7.9431782 5.3946662
-3.9643602 -8.3692045 5.297698
-3.9575715 -8.7946033 5.2066445
-3.9503729 -9.217535 5.110095
-3.9535449 -9.6642189 5.1526389
-3.5673358 13.823427 5.9534554
-3.5426562 13.284962 5.5810714
-3.0373101 9.4915962 -2.0440102
-3.0384498 9.1153507 -2.0268159
-3.0418205 8.7452364 -1.9759527
-3.0474777 8.3805656 -1.8905947
-3.0798464 8.0845976 -1.4021882
-3.1121674 7.7804208 -0.91450328
-3.1432238 7.4651594 -0.44589755
-3.1755073 7.1448927 0.041225329
-3.2061398 6.8130479 0.50342739
-3.2375324 6.4750667 0.97710699
-3.2689543 6.1292901 1.4512259
-3.2993071 5.773788 1.9092194
-3.3287029 5.4091434 2.3527703
-3.35602 5.03403 2.7649505
-3.3831878 4.651886 3.1748807
-3.4091985 4.2614994 3.5673509
-3.4347076 3.8640473 3.9522574
-3.4549174 3.4549193 4.2571931
-3.4762235 3.041697 4.5786786
-3.4953127 2.6214864 4.8667121
-3.51104 2.194401 5.1040206
-3.5262566 1.7631296 5.333622
-3.5395417 1.3273283 5.5340791
-3.5495985 0.88740116 5.6858211
-3.5582025 0.44477543 5.8156471
-3.5665412 6.5804608e-07 5.9414716
-3.5719652 -0.44649523 6.0233126
-3.5764616 -0.89411336 6.091157
-3.5804234 -1.3426564 6.1509347
-3.5822074 -1.7911025 6.1778517
-3.5835738 -2.2397323 6.1984696
-3.5836649 -2.6877477 6.1998458
-3.5826626 -3.1348286 6.1847224
-3.5813334 -3.5813324 6.1646671
-3.5794051 -4.0268288 6.1355677
-3.5770245 -4.4712801 6.0996504
-3.5742483 -4.9145904 6.0577598
-3.5703545 -5.3555307 5.9990082
-3.5657651 -5.7943678 5.9297595
-3.5613315 -6.2323298 5.8628631
-3.5564783 -6.6683955 5.7896295
-3.5512621 -7.1025233 5.7109251
-3.5456154 -7.5344319 5.6257238
-3.538902 -7.9625292 5.5244241
-3.5325501 -8.3898048 5.4285827
-3.5260978 -8.8152447 5.3312259
-3.5223961 -9.2462902 5.2753711
-3.5310986 -9.7105188 5.4066796
-3.1378133 13.896032 6.2361727
-2.6222887 9.3653173 -2.6537325
-2.6256614 9.0022697 -2.5955753
-2.6277764 8.6341228 -2.5591004
-2.641557 8.3020391 -2.3214633
-2.6679854 8.0039568 -1.865721
-2.6952779 7.7007966 -1.3950804
-2.7234833 7.392314 -0.90869355
-2.7517571 7.0759482 -0.42113072
-2.7806742 6.753067 0.077528618
-2.8077102 6.4176245 0.54374552
-2.8353159 6.0756779 1.0197921
-2.8648672 5.7297349 1.5293843
-2.8917549 5.3704038 1.9930434
-2.9189723 5.003953 2.4623911
-2.9432464 4.6251016 2.880986
-2.9687994 4.2411427 3.3216319
-2.9905727 3.8450234 3.6971002
-3.0128593 3.4432693 4.0814171
-3.033181 3.0331814 4.43185
-3.0506656 2.6148572 4.7333627
-3.0673149 2.1909411 5.0204692
-3.0823739 1.7613581 5.2801533
-3.0950158 1.3264366 5.4981523
-3.1063681 0.8875342 5.6939178
-3.1163385 0.44519278 5.8658495
-3.1235695 4.9640141e-07 5.9905457
-3.1299601 -0.44713601 6.1007466
-3.1354036 -0.8958295 6.1946216
-3.1386597 -1.3451393 6.250772
-3.1413305 -1.7950443 6.2968221
-3.1433966 -2.2452836 6.3324528
-3.143573 -2.694489 6.3354917
-3.1435087 -3.1435072 6.3343878
-3.1427236 -3.5916839 6.320847
-3.1407864 -4.0381541 6.2874427
-3.1379092 -4.4827266 6.2378225
-3.1354356 -4.9271111 6.1951699
-3.1323454 -5.3697348 6.1418796
-3.1290069 -5.8110123 6.0843101
-3.1243768 -6.2487512 6.0044656
-3.1198552 -6.6854024 5.9264932
-3.1148901 -7.1197476 5.8408728
-3.1100032 -7.552865 5.7566075
-3.1041005 -7.9819713 5.6548128
-3.0983131 -8.4097061 5.555016
-3.0920045 -8.8342981 5.4462252
-3.0966792 -9.2900362 5.5268383
-2.7229385 14.52234 6.9078088
-2.7262816 14.085793 6.975071
-2.2186775 9.6142702 -3.2371385
-2.2188823 9.2453451 -3.233017
-2.2216341 8.8865376 -3.1776531
-2.2242804 8.5264082 -3.1244154
-2.2410326 8.2171202 -2.7873919
-2.2634935 7.9222302 -2.3355107
-2.2864094 7.621366 -1.8744808
-2.3099957 7.3149872 -1.3999547
-2.3345587 7.0036778 -0.90579039
-2.359165 6.6843009 -0.41075072
-2.3828976 6.3543963 0.066716753
-2.4072883 6.0182228 0.55741882
-2.4313219 5.6730862 1.0409337
-2.4555888 5.3204441 1.5291529
-2.4814169 4.9628344 2.0487714
-2.5042288 4.5910878 2.5077105
-2.5276091 4.2126822 2.9780884
-2.5488088 3.8232138 3.404597
-2.5688808 3.425175 3.8084073
-2.5877621 3.0190563 4.1882725
-2.6056893 2.6056902 4.5489349
-2.6210554 2.1842134 4.8580809
-2.6348424 1.7565615 5.1354547
-2.648669 1.3243351 5.4136243
-2.6599076 0.88663739 5.6397247
-2.6689351 0.4448235 5.821342
-2.6775758 1.0704053e-06 5.9951863
-2.6843355 -0.44738853 6.1311793
-2.6891847 -0.89639401 6.2287383
-2.6936808 -1.3468393 6.31919
-2.6970212 -1.7980126 6.3863959
-2.6986465 -2.2488694 6.4190922
-2.6998737 -2.6998723 6.4437799
-2.700398 -3.1504638 6.4543281
-2.6995978 -3.5994632 6.4382315
-2.6986189 -4.0479259 6.4185371
-2.6965399 -4.4942303 6.3767056
-2.6939828 -4.9389672 6.3252654
-2.6911156 -5.3822293 6.2675843
-2.6880221 -5.8240476 6.2053461
-2.6848264 -6.2645936 6.1410537
-2.6805503 -6.7013745 6.0550251
-2.6762335 -7.136622 5.9681778
-2.6713631 -7.568862 5.8701968
-2.6666992 -8.0000973 5.7763624
-2.661247 -8.4272804 5.6666708
-2.6596799 -8.8655996 5.6351476
-2.6694608 -9.3431091 5.8319178
-2.2976351 15.164392 7.596333
-2.2910249 14.66256 7.4367509
-1.8235943 9.4826918 -3.8480179
-1.8253026 9.1265125 -3.8067791
-1.8277041 8.7729807 -3.7488034
-1.8308041 8.4217005 -3.6739607
-1.848316 8.1325922 -3.2511914
-1.867052 7.84162 -2.7988603
-1.8858892 7.5435576 -2.3440917
-1.9050857 7.2393265 -1.8806485
-1.9248366 6.9294119 -1.4038143
-1.9443747 6.6108756 -0.93212605
-1.9655144 6.2896481 -0.42176598
-1.9855512 5.9566545 0.061963078
-2.0056076 5.6157041 0.54616922
-2.0264931 5.2688837 1.0503879
-2.0471232 4.9130974 1.5484437
-2.0678279 4.5492229 2.0483031
-2.0884607 4.1769218 2.5464182
-2.1075203 3.7935374 3.006561
-2.1258428 3.4013507 3.4489024
-2.1433907 3.0007482 3.8725481
-2.159461 2.5913546 4.2605176
-2.1735296 2.1735301 4.6001663
-2.1877937 1.7502363 4.9445286
-2.199749 1.3198516 5.2331567
-2.2103372 0.88413781 5.4887767
-2.2200761 0.4440158 5.7238936
-2.2280734 2.8866859e-07 5.9169655
-2.234812 -0.44696259 6.0796556
-2.2408276 -0.89632958 6.224884
-2.2453635 -1.3472176 6.3343868
-2.2484474 -1.7987555 6.4088354
-2.2510793 -2.2510774 6.4723783
-2.2528987 -2.7034779 6.5163045
-2.2533829 -3.1547351 6.5279946
-2.2535903 -3.6057446 6.5330043
-2.2524838 -4.0544682 6.5062885
-2.2511599 -4.5023184 6.4743223
-2.2499521 -4.9498944 6.445168
-2.2478161 -5.3947573 6.3935971
-2.2447109 -5.8362474 6.3186364
-2.2417746 -6.2769675 6.2477393
-2.2384472 -6.7153397 6.1674104
-2.2349823 -7.1519423 6.0837617
-2.2308612 -7.5849266 5.9842687
-2.2266202 -8.015831 5.8818817
-2.2221596 -8.4442062 5.7741981
-2.2281408 -8.9125624 5.9186001
-1.865368 15.855629 8.4189768
-1.856081 15.31267 8.1387177
-1.4404149 9.3626976 -4.4051147
-1.4424497 9.0153103 -4.3437138
-1.4439631 8.6637812 -4.2980433
-1.4491006 8.3323288 -4.1430049
-1.4627277 8.0450039 -3.7317657
-1.4774374 7.7565465 -3.2878678
-1.4924774 7.4623876 -2.8339939
-1.50773 7.1617198 -2.3737085
-1.5228958 6.8530326 -1.9160346
-1.5381885 6.537303 -1.4545385
-1.5543331 6.2173333 -0.96733356
-1.5706171 5.8898139 -0.47591904
-1.5868168 5.5538597 0.012951571
-1.6036463 5.2118526 0.52082407
-1.6208067 4.8624215 1.0386862
-1.6373712 4.5027714 1.5385678
-1.6537654 4.1344151 2.0333037
-1.6703091 3.7581959 2.5325539
-1.6860001 3.3720024 3.0060711
-1.7013149 2.9773028 3.4682348
-1.714746 2.5721214 3.8735542
-1.7282213 2.1602781 4.2802091
-1.7403957 1.7403958 4.6476026
-1.7511398 1.3133563 4.9718313
-1.761656 0.88083041 5.2891884
-1.7695309 0.44238344 5.5268364
-1.7770014 1.2721451e-06 5.7522793
-1.784255 -0.44606134 5.9711761
-1.7898661 -0.89493203 6.1405067
-1.7942142 -1.3456595 6.2717199
-1.798106 -1.7981049 6.3891673
-1.8011028 -2.2513759 6.4796004
-1.8028539 -2.7042787 6.5324473
-1.8041925 -3.157336 6.5728459
-1.8049506 -3.6099005 6.5957212
-1.804202 -4.0594521 6.5731254
-1.8032691 -4.508172 6.5449772
-1.8023006 -4.9563246 6.5157461
-1.8010014 -5.4030032 6.4765429
-1.7995204 -5.8484402 6.43185
-1.7967488 -6.2886205 6.3482108
-1.7940223 -6.7275815 6.2659287
-1.7909671 -7.1638675 6.1737318
-1.788131 -7.5995555 6.0881438
-1.7846166 -8.0307732 5.9820881
-1.7846346 -8.4770136 5.9826331
-1.794662 -8.9733095 6.2852349
-1.4099551 15.979494 8.8587332
-1.0669109 9.6021996 -4.9443021
-1.0668764 9.2462645 -4.9456887
-1.0685852 8.9048767 -4.8769407
-1.06987 8.55896 -4.8252339
-1.0754744 8.2453041 -4.5997334
-1.0857269 7.9619989 -4.1872091
-1.096113 7.672792 -3.7693052
-1.1070613 7.3804092 -3.3287785
-1.1181928 7.0818882 -2.8808823
-1.1294152 6.7764902 -2.429328
-1.1408601 6.4648762 -1.9688184
-1.1524942 6.146636 -1.5006992
-1.164255 5.8212752 -1.0274744
-1.1760858 5.4884014 -0.55144656
-1.1885549 5.1504054 -0.049731039
-1.2013184 4.8052745 0.46383929
-1.2142755 4.4523454 0.98518753
-1.2270135 4.090045 1.4977245
-1.2388935 3.7166817 1.9757433
-1.2514029 3.3370748 2.4790807
-1.2635326 2.9482448 2.9671445
-1.2747612 2.5495234 3.4189456
-1.2856466 2.1427443 3.8569393
-1.2953463 1.7271292 4.2472272
-1.3051871 1.3051883 4.6431918
-1.3133613 0.87557483 4.972095
-1.3204232 0.44014066 5.256248
-1.3273481 2.6476903e-06 5.534883
-1.3331612 -0.44438532 5.768784
-1.3381574 -0.89210516 5.9698148
-1.3428226 -1.3428215 6.1575241
-1.346408 -1.7952092 6.3017912
-1.3490201 -2.2483649 6.4068952
-1.3514004 -2.7028 6.5026746
-1.3531098 -3.1572545 6.5714531
-1.3537962 -3.6101224 6.5990696
-1.3542957 -4.0628862 6.6191711
-1.3542193 -4.5140624 6.6160979
-1.3533247 -4.9621902 6.5800982
-1.3522512 -5.4090037 6.5369034
-1.3509859 -5.8542705 6.4859929
-1.3495507 -6.2979012 6.4282436
-1.3477541 -6.7387691 6.3559546
-1.3454139 -7.1755395 6.2617936
-1.3430889 -7.610836 6.1682372
-1.3406152 -8.0436897 6.0687051
-1.3463188 -8.5266848 6.2982035
-0.95220524 16.663595 9.597187
-0.7016331 9.4720478 -5.5261798
-0.70274991 9.1357489 -5.4587731
-0.70381403 8.797678 -5.394546
-0.70460796 8.4552984 -5.3466301
-0.70950633 8.1593227 -5.0509863
-0.7160911 7.8770027 -4.6535625
-0.72301275 7.5916343 -4.2357998
-0.7300666 7.3006678 -3.8100672
-0.73723161 7.0037022 -3.3776207
-0.74450713 6.7005653 -2.9385009
-0.75192451 6.3913612 -2.4908218
-0.75947809 6.0758257 -2.0349207
-0.76705807 5.7529373 -1.5774318
-0.77476358 5.423346 -1.1123627
-0.78269845 5.0875406 -0.63344884
-0.79102492 4.7461495 -0.13090578
-0.79944688 4.3969588 0.37740707
-0.80783159 4.0391588 0.88346297
-0.81641281 3.6738584 1.4013926
-0.82497746 3.2999113 1.9183117
-0.83278954 2.9147646 2.3898118
-0.84086329 2.5225897 2.8771093
-0.8487311 2.1218295 3.35197
-0.85589415 1.7117894 3.7842982
-0.86239308 1.2935909 4.1765461
-0.86908156 0.86908299 4.5802312
-0.87468296 0.43734199 4.918303
-0.87960529 2.3974874e-06 5.2153897
-0.88415706 -0.44207639 5.4901166
-0.88838869 -0.88838816 5.7455192
-0.89186555 -1.3377986 5.9553671
-0.89466035 -1.789319 6.1240449
-0.89719391 -2.2429833 6.2769589
-0.89943397 -2.698302 6.4121633
-0.9007678 -3.1526856 6.4926639
-0.90187925 -3.6075163 6.5597453
-0.90270185 -4.0621562 6.6093965
-0.90283144 -4.5141568 6.6172171
-0.90279442 -4.9653697 6.6149831
-0.90245217 -5.4147105 6.5943246
-0.90151459 -5.8598437 6.5377374
-0.90053296 -6.3037295 6.4784894
-0.89936972 -6.7452712 6.4082828
-0.89817744 -7.1854172 6.3363199
-0.8966276 -7.6213336 6.2427812
-0.89761907 -8.0785704 6.3026199
-0.48238418 17.365831 10.355442
-0.48224947 16.878731 10.339181
-0.34678328 9.3631477 -6.0130405
-0.34726864 9.028986 -5.9544492
-0.3479065 8.6976652 -5.8774533
-0.34837022 8.3608866 -5.821476
-0.35095772 8.0720282 -5.5091372
-0.35426375 7.7938051 -5.1100664
-0.35765153 7.5106835 -4.7011228
-0.36109734 7.2219477 -4.2851787
-0.36448643 6.9252439 -3.8760779
-0.36804587 6.6248269 -3.4464173
-0.37167236 6.3184309 -3.0086589
-0.37535185 6.0056305 -2.5645077
-0.37905431 5.6858163 -2.1175787
-0.38283056 5.3596287 -1.6617465
-0.38668111 5.0268545 -1.1969444
-0.39064974 4.6877966 -0.7178871
-0.39464763 4.3411241 -0.23529917
-0.39885098 3.9885108 0.27208856
-0.40318912 3.6287029 0.79574817
-0.40730599 3.2584491 1.2926996
-0.41147318 2.880312 1.7957243
-0.41550097 2.4930072 2.2819245
-0.41928083 2.096405 2.7381923
-0.42325819 1.693033 3.2183032
-0.42711073 1.2813332 3.6833479
-0.43064418 0.86128908 4.1098709
-0.43372336 0.43372306 4.4815607
-0.4364962 1.1153604e-06 4.816268
-0.43919513 -0.43919286 5.1420612
-0.44160861 -0.88321686 5.4333959
-0.44354784 -1.3306422 5.66748
-0.44539833 -1.7815922 5.890851
-0.446942 -2.234709 6.0771923
-0.4481678 -2.6890061 6.2251596
-0.44925135 -3.1447582 6.3559537
-0.45014682 -3.6011732 6.4640431
-0.45067427 -4.0560679 6.5277143
-0.45102969 -4.5102954 6.5706177
-0.45127925 -4.9640698 6.6007419
-0.45119143 -5.4142962 6.5901399
-0.45099968 -5.8629937 6.5669923
-0.45064428 -6.3090186 6.5240946
-0.4500502 -6.7507524 6.4523845
-0.44943243 -7.1909175 6.3778124
-0.44875923 -7.6289053 6.2965488
-0.4516356 -8.1294394 6.6437588
-9.1447935e-24 18.086849 11.133967
2.2791791e-24 17.542324 10.947235
5.8749233e-24 9.2575912 -6.4849658
7.0277267e-24 8.9303265 -6.4124961
2.2810702e-25 8.603426 -6.3324699
3.3752155e-24 8.2668152 -6.2946172
3.0610359e-24 7.9901094 -5.9390726
2.3167693e-24 7.7124653 -5.5563493
-3.0811377e-24 7.4312906 -5.1574855
3.5346585e-24 7.1448507 -4.750505
-6.6862509e-25 6.8489723 -4.3606396
-4.9056909e-24 6.5506468 -3.9438865
1.7263905e-25 6.2470446 -3.5155554
3.2235373e-24 5.9361138 -3.0889781
-5.7394616e-24 5.6187377 -2.6573887
7.6190726e-24 5.2955031 -2.2146506
-6.2611496e-24 4.965899 -1.7629598
2.3980437e-24 4.6295028 -1.3042812
-1.3006423e-25 4.2863107 -0.83680183
-3.1289742e-24 3.936424 -0.35665759
-6.1558394e-24 3.5806129 0.15073852
5.897889e-24 3.2154174 0.64339197
8.3338776e-25 2.8420599 1.1360897
9.1669227e-25 2.4606438 1.630827
1.7847341e-24 2.0708716 2.1217809
-1.2409679e-24 1.6725143 2.5990765
-7.8166026e-24 1.265955 3.0645761
-3.9247053e-24 0.85184389 3.5397372
-7.5017217e-24 0.42941749 3.9616044
-1.2853255e-23 2.7948383e-06 4.3429637
1.005602e-24 -0.43555397 4.7026639
8.309277e-25 -0.8764357 5.0241542
-2.9608166e-24 -1.3217565 5.3099322
4.2553287e-25 -1.7713631 5.5821471
-5.0523938e-24 -2.2228878 5.7917981
3.7131399e-24 -2.6769109 5.9818153
1.9522667e-24 -3.1336501 6.1643906
-4.6100771e-24 -3.588903 6.2788906
6.7977178e-24 -4.0455732 6.386951
-3.0046623e-24 -4.5019283 6.4695992
-9.8931725e-24 -4.9566793 6.5196433
-4.6829055e-24 -5.4095016 6.5419154
3.4130856e-25 -5.8608336 6.5469298
-4.1859594e-24 -6.3085995 6.5204778
-1.4688748e-24 -6.753479 6.4743228
-9.130314e-24 -7.1958389 6.4149337
-6.2809011e-24 -7.6539025 6.4740448
7.7734985e-24 -8.1845446 7.013299
0.49751788 18.905684 12.18224
0.49378315 18.269979 11.731416
0.33928898 9.1608038 -6.9176788
0.33988604 8.837038 -6.8456082
0.34057602 8.5144024 -6.7623186
0.34093595 8.1824627 -6.7188735
0.34372336 7.9056387 -6.3824024
0.34679553 7.6295033 -6.0115571
0.35007611 7.3515992 -5.6155567
0.35340235 7.0680485 -5.2140446
0.35660025 6.7754068 -4.828023
0.35989186 6.4780545 -4.4306903
0.36329123 6.1759534 -4.0203505
0.36673254 5.8677216 -3.6049473
0.37021321 5.5531998 -3.1847947
0.37375742 5.2326045 -2.7569704
0.37737501 4.9058766 -2.3202906
0.38108143 4.5729785 -1.8728865
0.38485631 4.2334204 -1.4172144
0.38870332 3.8870335 -0.95284164
0.39260176 3.5334172 -0.48225802
0.39654884 3.1723928 -0.0058045727
0.40057608 2.8040321 0.48032796
0.40464878 2.4278939 0.97194642
0.40867993 2.0433998 1.4585516
0.41269362 1.650776 1.943041
0.41669616 1.2500911 2.4261935
0.42064652 0.84129578 2.9030414
0.42423064 0.42423236 3.3356872
0.42781818 2.3332399e-07 3.7687423
0.43131691 -0.43131462 4.1910748
0.43414024 -0.86827844 4.5318818
0.43697262 -1.310917 4.8737779
0.43946469 -1.7578571 5.1745977
0.44163299 -2.2081642 5.436336
0.44363275 -2.6617961 5.6777287
0.44524074 -3.1166825 5.8718262
0.44659755 -3.5727806 6.0356112
0.44783968 -4.0305557 6.1855488
0.44878438 -4.4878426 6.2995825
0.44946456 -4.9441094 6.38169
0.44997433 -5.3996902 6.443224
0.45025498 -5.8533139 6.4770994
0.45026189 -6.3036656 6.4779339
0.4499996 -6.7499938 6.4462781
0.44956091 -7.1929741 6.393321
0.45297351 -7.7005486 6.8052578
1.0009159 19.017401 12.537129
0.67191052 9.0707932 -7.3200974
0.67295778 8.7484522 -7.2568884
0.67420954 8.4276209 -7.1813364
0.67545044 8.1054068 -7.1064425
0.68026829 7.8230858 -6.8156614
0.68628436 7.5491285 -6.4525552
0.69259298 7.2722273 -6.0717955
0.69906861 6.9906878 -5.6809592
0.70540363 6.7013359 -5.298605
0.71187758 6.4069004 -4.9078703
0.7184509 6.1068335 -4.5111318
0.72511095 5.8008881 -4.1091628
0.73191696 5.4893789 -3.6983867
0.73883951 5.1718779 -3.2805727
0.74575216 4.8473902 -2.8633595
0.75282758 4.5169663 -2.436322
0.76004171 4.1802301 -2.0009029
0.76751256 3.8375642 -1.5499979
0.77508062 3.4878633 -1.0932281
0.78268808 3.1307535 -0.63407928
0.79046053 2.7666123 -0.1649695
0.79842871 2.3952868 0.3159517
0.80636716 2.0159192 0.79508185
0.81434453 1.6286906 1.2765603
0.82236618 1.2335498 1.7607106
0.83032042 0.83032179 2.2407863
0.83796728 0.41898453 2.7023203
0.84528154 2.6338162e-06 3.1437712
0.85230374 -0.42615211 3.567601
0.85876065 -0.85876018 3.9573104
0.86502719 -1.2975388 4.3355289
0.87084311 -1.7416855 4.6865501
0.87587458 -2.1896853 4.9902277
0.88066506 -2.6419942 5.279355
0.88462329 -3.0961816 5.5182562
0.88808858 -3.5523539 5.7274055
0.89129698 -4.0108356 5.9210482
0.89373434 -4.4686713 6.0681601
0.89577502 -4.9267607 6.1913199
0.89748645 -5.3849177 6.2946153
0.89840192 -5.8396115 6.3498688
0.89903462 -6.293241 6.3880572
0.89932382 -6.7449284 6.4055114
0.89932382 -7.1945887 6.4055109
0.91071975 -7.7411175 7.0933189
1.5219381 19.785198 13.364573
0.99876451 8.9888821 -7.6863008
1.0005231 8.6712017 -7.6155419
1.0026188 8.3551569 -7.5312204
1.0043795 8.035038 -7.4603739
1.0099113 7.7426534 -7.2377934
1.0188835 7.4718137 -6.8767738
1.0280688 7.1964817 -6.5071893
1.0374455 6.9163041 -6.1298976
1.0468042 6.6297607 -5.7533379
1.0561937 6.3371644 -5.3755298
1.0656974 6.0389528 -4.9931269
1.0754175 5.7355609 -4.6020222
1.0850492 5.4252462 -4.2144766
1.0951043 5.1104894 -3.8098855
1.1053848 4.7900019 -3.396235
1.1157422 4.4629693 -2.9794846
1.1261802 4.1293287 -2.5594881
1.1368157 3.789387 -2.131556
1.1476586 3.4429762 -1.6952654
1.1587461 3.0899899 -1.2491403
1.1700705 2.7301672 -0.79347986
1.1815869 2.3631742 -0.33009762
1.1929497 1.9882514 0.12710485
1.2045386 1.6060531 0.59340692
1.2164837 1.2164855 1.0740393
1.2289709 0.8193152 1.5764859
1.2404172 0.41347378 2.0370519
1.2513614 9.6846293e-07 2.4774094
1.2625847 -0.42086053 2.9290032
1.2734463 -0.84896278 3.3660426
1.2829872 -1.2829868 3.7499352
1.2919768 -1.7226346 4.111649
1.3003696 -2.1672814 4.4493513
1.3088464 -2.6176922 4.790431
1.3159711 -3.0705976 5.0771074
1.3227103 -3.5272257 5.3482685
1.3279352 -3.9838047 5.5585036
1.3331478 -4.4438238 5.7682414
1.3371891 -4.9030266 5.9308491
1.3406764 -5.3627043 6.0711703
1.3431844 -5.8204646 6.1720829
1.3451331 -6.2772875 6.2504945
1.346408 -6.732038 6.3017912
1.3526943 -7.2143664 6.5547285
2.0545158 20.03153 14.127015
1.3199661 8.9097719 -8.0399818
1.3227513 8.5978851 -7.9559307
1.3256429 8.2852697 -7.8686662
1.328252 7.9695129 -7.7899346
1.3329507 7.6644673 -7.6481376
1.344734 7.3960376 -7.2925448
1.3564715 7.1214762 -6.9383354
1.3687187 6.843595 -6.5687399
1.3807508 6.5585675 -6.2056465
1.3929299 6.2681851 -5.8381023
1.405354 5.9727564 -5.463172
1.4176995 5.6707978 -5.0906205
1.4299152 5.3621821 -4.7219753
1.4426386 5.0492358 -4.3380094
1.4560176 4.732058 -3.934262
1.4692366 4.4077115 -3.5353496
1.4826291 4.0772309 -3.1311963
1.4963568 3.7408934 -2.7169199
1.5104448 3.3985016 -2.2917771
1.5248139 3.0496292 -1.858153
1.5394589 2.6940548 -1.4162029
1.5543673 2.3315523 -0.96629697
1.5690781 1.9613501 -0.52236199
1.5840985 1.5840995 -0.069080308
1.5995035 1.1996287 0.39580846
1.6156853 0.80784446 0.88413346
1.631389 0.40784726 1.3580402
1.6461773 1.4405315e-06 1.8043084
1.6609619 -0.41523841 2.250474
1.6757354 -0.83786654 2.696305
1.6900522 -1.2675369 3.1283524
1.703256 -1.7032545 3.5268145
1.7150799 -2.1438482 3.8836324
1.7265528 -2.5898283 4.2298574
1.7371947 -3.0400887 4.5510044
1.7476302 -3.4952595 4.8659282
1.7571573 -3.9536021 5.1534314
1.764824 -4.4120593 5.3847961
1.7717022 -4.8721809 5.5923619
1.7780328 -5.3340964 5.7834024
1.7828466 -5.7942491 5.9286695
1.7869519 -6.2543316 6.0525641
1.7897934 -6.7117238 6.13831
1.8079981 -7.2319913 6.6876836
1.6375033 8.8425198 -8.3406544
1.6416053 8.5363474 -8.2416258
1.6448857 8.2244291 -8.1624298
1.6484692 7.912653 -8.0759163
1.6512692 7.59584 -8.008317
1.6640478 7.3218107 -7.6998153
1.6780736 7.0479102 -7.3612022
1.6926371 6.7705493 -7.0096087
1.7073101 6.4877791 -6.6553731
1.7221249 6.1996508 -6.2977052
1.7373981 5.907156 -5.9289808
1.7528051 5.6089773 -5.5570235
1.7680403 5.3041224 -5.1892114
1.7834489 4.9936581 -4.817215
1.7990403 4.6775055 -4.4408078
1.8148842 4.3557239 -4.0583019
1.8312 4.0286427 -3.6644051
1.847804 3.6956096 -3.2635477
1.8642936 3.3557281 -2.8654532
1.8813372 3.0101407 -2.4539855
1.8990966 2.6587348 -2.0252352
1.9172277 2.3006732 -1.5875086
1.9351811 1.9351817 -1.1540763
1.9534392 1.5627515 -0.71328562
1.9720982 1.1832597 -0.26281878
1.9913062 0.79652327 0.20090063
2.0103686 0.40207419 0.66110998
2.0294631 8.2965038e-08 1.1220862
2.0477514 -0.40954992 1.5636114
2.0666053 -0.82663989 2.018784
2.0850196 -1.2510109 2.463347
2.1019878 -1.6815902 2.8729906
2.1179297 -2.1179295 3.2578633
2.1339293 -2.5607152 3.6441245
2.1487138 -3.0081983 4.0010581
2.1618142 -3.4589014 4.3173318
2.1745384 -3.9141667 4.6245198
2.1863925 -4.3727837 4.9107032
2.1970165 -4.8334365 5.1671886
2.2064059 -5.2953734 5.393867
2.21504 -5.7591023 5.6023116
2.2228327 -6.2239289 5.7904429
2.2280622 -6.6841846 5.9166946
2.258595 -7.2275033 6.6538248
1.955544 8.7999487 -8.5309772
1.9563547 8.4775381 -8.5146646
1.9606807 8.1695042 -8.4276323
1.9652452 7.8609815 -8.335804
1.9693537 7.54919 -8.2531452
1.9761361 7.2458334 -8.1166935
1.9930843 6.9757957 -7.7757239
2.0099277 6.69976 -7.4368567
2.0269964 6.4188237 -7.0934629
2.0442626 6.1327891 -6.746098
2.0618575 5.8419318 -6.3921146
2.0800116 5.5466986 -6.0268807
2.097672 5.2441812 -5.6715794
2.1154571 4.9360676 -5.3137732
2.134063 4.6238041 -4.9394474
2.1528943 4.3057895 -4.5605946
2.1718643 3.9817514 -4.1789503
2.191108 3.6518471 -3.7917981
2.2104735 3.3157105 -3.4021881
2.229893 2.9731929 -3.0114996
2.2502122 2.6252487 -2.6027093
2.2708955 2.2708962 -2.1865926
2.2917736 1.9098133 -1.7665584
2.3130999 1.5420675 -1.3375076
2.334837 1.1674197 -0.90018755
2.3566608 0.78555566 -0.46112436
2.3789716 0.39649594 -0.012268256
2.4017198 1.2932043e-06 0.44538477
2.4240837 -0.40401292 0.89531779
2.4461775 -0.81539065 1.3398074
2.4683084 -1.2341532 1.7850522
2.4889903 -1.6593243 2.2011335
2.5095565 -2.091296 2.6148942
2.5280685 -2.5280693 2.9873323
2.5481944 -2.9728916 3.3922315
2.5656133 -3.4208167 3.7426672
2.5818706 -3.8728037 4.0697403
2.5975308 -4.329216 4.384798
2.6114192 -4.7875996 4.6642127
2.6247656 -5.2495298 4.932723
2.6380913 -5.7158647 5.2008157
2.6491206 -6.1812806 5.4227061
2.6582751 -6.6456861 5.6068835
2.7029531 -7.2078729 6.5057335
2.2935793 8.8466644 -8.3221245
2.2675724 8.4224129 -8.7705984
2.2736771 8.1202755 -8.665328
2.2786095 7.812377 -8.5802679
2.2839613 7.5044446 -8.4879827
2.2894144 7.1953034 -8.3939428
2.3012068 6.9036222 -8.1905909
2.3207486 6.6307106 -7.8536072
2.3402519 6.3521128 -7.5172839
2.3600223 6.0686307 -7.1763515
2.3797901 5.77949 -6.8354707
2.4004054 5.4866424 -6.47997
2.4212766 5.1884513 -6.1200628
2.4414308 4.8828611 -5.7725167
2.4623263 4.5728922 -5.4121895
2.483242 4.2569876 -5.0515037
2.5051477 3.9366629 -4.673759
2.5267696 3.6096718 -4.3008976
2.5483046 3.2763939 -3.9295421
2.5703063 2.9374933 -3.5501344
2.5930948 2.5930958 -3.1571627
2.6165905 2.2427933 -2.751992
2.6402223 1.8858755 -2.3444808
2.6642845 1.5224499 -1.9295399
2.6889887 1.152426 -1.5035312
2.7134745 0.77528089 -1.0812887
2.7383497 0.39119399 -0.65233332
2.7638462 1.3302343e-06 -0.21266371
2.7895315 -0.39850357 0.23026615
2.8151844 -0.80433702 0.67263186
2.8409469 -1.217548 1.1168942
2.8654795 -1.6374147 1.5399436
2.8896539 -2.0640361 1.9568157
2.9125876 -2.4965031 2.3522961
2.9350917 -2.9350908 2.7403615
2.9581022 -3.3806872 3.1371627
2.9783797 -3.8293426 3.486836
2.9965031 -4.2807188 3.7993631
3.0156446 -4.7388697 4.1294475
3.0335987 -5.2004533 4.439054
3.0499563 -5.6642041 4.7211318
3.0642052 -6.1284099 4.9668422
3.078603 -6.5970068 5.2151275
3.1375098 -7.1714492 6.2309394
2.6109378 9.1382828 -8.4774752
2.6189926 8.8391008 -8.355937
2.5833592 8.3959188 -8.8936033
2.5830278 8.0719633 -8.8986053
2.590168 7.770505 -8.7908649
2.5967834 7.4657531 -8.6910496
2.6036344 7.1599951 -8.5876722
2.6099319 6.8510728 -8.492651
2.6257854 6.564465 -8.2534418
2.6478291 6.2885942 -7.9208302
2.6698105 6.0070753 -7.5891523
2.6917386 5.719945 -7.2582846
2.714469 5.428937 -6.9153094
2.7384162 5.134532 -6.5539732
2.7611766 4.8320603 -6.2105432
2.7844288 4.5246987 -5.8596964
2.8067782 4.2101679 -5.5224676
2.8306031 3.8920805 -5.1629748
2.8548479 3.5685623 -4.7971549
2.8788643 3.238724 -4.4347739
2.9029891 2.9029903 -4.0707569
2.9278867 2.5619011 -3.6950827
2.9539456 2.2154598 -3.3018858
2.9802709 1.862669 -2.9046698
3.0070434 1.5035229 -2.5006979
3.034302 1.1378634 -2.0894024
3.0615001 0.76537591 -1.6790141
3.0890007 0.38612691 -1.2640617
3.1171513 1.4589599e-06 -0.83930141
3.1456797 -0.39320821 -0.40884423
3.1736336 -0.79340637 0.012951211
3.2027295 -1.2010212 0.45197368
3.2318449 -1.6159217 0.89129317
3.2594879 -2.0371785 1.3083905
3.2867796 -2.4650846 1.7201926
3.3124442 -2.8983886 2.1074429
3.3381333 -3.3381317 2.4950607
3.3629074 -3.7832699 2.8688738
3.3852522 -4.231565 3.2060306
3.4067919 -4.6843376 3.5310373
3.4301932 -5.1452894 3.8841364
3.4498765 -5.6060486 4.1811357
3.4691379 -6.0709891 4.4717631
3.4874759 -6.5390158 4.7484632
3.5595324 -7.1190643 5.8357186
2.9345648 9.4558201 -8.5142279
2.9382849 9.1413317 -8.4643316
2.8913007 8.0313902 -9.0944986
2.8985531 7.729476 -8.9972267
2.906002 7.4264503 -8.8973188
2.9144428 7.1241941 -8.784112
2.9230402 6.8204274 -8.6687975
2.9310384 6.5134192 -8.5615263
2.9497325 6.2272148 -8.310792
2.9737339 5.9474692 -7.9888768
2.9978576 5.6626191 -7.6653275
3.0228131 5.3738914 -7.3306136
3.048739 5.081233 -6.9828916
3.0725625 4.779542 -6.6633601
3.0987465 4.4759674 -6.3121715
3.1246171 4.1661577 -5.9651909
3.1503847 3.850471 -5.6195869
3.176568 3.529521 -5.2684083
3.2029314 3.2029328 -4.914814
3.2299466 2.8710651 -4.5524793
3.2573144 2.5334675 -4.1854143
3.283952 2.1893039 -3.82814
3.3122051 1.8401166 -3.4492018
3.3415966 1.485155 -3.0549967
3.3715141 1.1238397 -2.6537335
3.40133 0.755853 -2.2538354
3.4313064 0.38125741 -1.8517793
3.4618161 -3.2727323e-07 -1.4425755
3.4926729 -0.38807395 -1.0287122
3.5241318 -0.78313899 -0.60677707
3.5553014 -1.1850996 -0.18872175
3.586735 -1.5941027 0.23287581
3.6191263 -2.0106239 0.66731304
3.6499214 -2.4332783 1.0803494
3.6797757 -2.862045 1.4807632
3.7082825 -3.2962499 1.8631052
3.7368999 -3.7368991 2.2469301
3.762548 -4.1806078 2.5909312
3.7877362 -4.6294537 2.9287598
3.8139794 -5.0853047 3.2807438
3.8385241 -5.5445347 3.6099479
3.8618059 -6.0072522 3.9222107
3.8839064 -6.4731755 4.2186246
3.9611313 -7.0420103 5.2543888
3.267874 9.8036232 -8.426754
3.2635028 9.4641609 -8.4795179
3.2038853 7.6893249 -9.1991673
3.2137401 7.3916016 -9.0802078
3.223125 7.0908766 -8.9669228
3.233609 6.7905812 -8.8403673
3.2429316 6.4858637 -8.7278357
3.2523677 6.1794996 -8.6139307
3.2719288 5.889472 -8.3778095
3.2992108 5.6086578 -8.0484867
3.3254316 5.3206921 -7.7319717
3.352468 5.0287023 -7.4056106
3.3802204 4.7323098 -7.070612
3.4065113 4.4284663 -6.7532554
3.4354105 4.1224928 -6.4044104
3.4634962 3.8098469 -6.0653858
3.4915464 3.4915476 -5.7267871
3.5201957 3.1681771 -5.3809638
3.5493331 2.839468 -5.0292435
3.5790441 2.5053313 -4.6705985
3.6079113 2.1647491 -4.3221402
3.636137 1.8180689 -3.9814243
3.6680129 1.4672076 -3.596652
3.7004991 1.1101525 -3.204509
3.7329171 0.74658579 -2.813189
3.765393 0.37654161 -2.4211698
3.7984552 1.2883352e-06 -2.022074
3.8315697 -0.38315669 -1.6223434
3.8650293 -0.77300411 -1.2184526
3.8994582 -1.1698362 -0.802858
3.9337504 -1.5735004 -0.38891485
3.9680789 -1.9840372 0.025465179
4.0028481 -2.4017074 0.44516528
4.0364552 -2.8255179 0.85084015
4.0683374 -3.2546694 1.2356968
4.0997925 -3.6898103 1.6153867
4.1314464 -4.1314459 1.9974879
4.1598372 -4.5758214 2.3401973
4.1884818 -5.0261769 2.6859648
4.2158074 -5.4805479 3.0158138
4.241775 -5.9384837 3.3292735
4.270155 -6.4052315 3.67185
4.3430939 -6.9489493 4.5522971
3.6108181 10.175943 -8.2494545
3.5959556 9.8071527 -8.4125528
3.6120703 9.5227308 -8.235714
3.5179775 7.3557725 -9.268259
3.5293322 7.0586648 -9.1436605
3.5398803 6.7579546 -9.0279064
3.5519497 6.4580917 -8.895462
3.5639181 6.1558595 -8.7641239
3.5755186 5.8508496 -8.6368227
3.5925553 5.5521321 -8.4498644
3.6239731 5.271235 -8.105094
3.651206 4.9789176 -7.8062496
3.680738 4.684576 -7.4821749
3.7106946 4.385366 -7.1534381
3.7395115 4.0794673 -6.837214
3.7697468 3.7697477 -6.5054169
3.798985 3.4536238 -6.184567
3.8296187 3.1333256 -5.848403
3.8617198 2.8085258 -5.4961357
3.8936124 2.4777551 -5.1461558
3.925384 2.1411207 -4.7975039
3.9565794 1.7984453 -4.4551749
3.9874868 1.449995 -4.1160064
4.0222178 1.0969692 -3.7348807
4.0571675 0.73766792 -3.351346
4.0908818 0.37190044 -2.9813809
4.1251783 -1.4002346e-07 -2.6050198
4.1626821 -0.37842378 -2.193465
4.197762 -0.76322943 -1.8085089
4.2344923 -1.1548598 -1.4054403
4.2720976 -1.5534889 -0.99277228
4.3088431 -1.9585632 -0.58954048
4.3462453 -2.3706789 -0.1790935
4.3838868 -2.7897468 0.23396608
4.4183536 -3.2133482 0.61219561
4.4530802 -3.6434278 0.99327308
4.4873171 -4.0793786 1.3689857
4.5211148 -4.5211129 1.7398629
4.5532837 -4.967217 2.09288
4.5846987 -5.4182801 2.4376194
4.6131434 -5.871273 2.7497599
4.641943 -6.3299212 3.0657983
4.705246 -6.8439922 3.7604654
3.9373722 10.171547 -8.2665777
3.9447494 9.8618736 -8.1923685
3.8323529 7.0259805 -9.3229914
3.8457253 6.7300196 -9.1884727
3.8582196 6.4303679 -9.0627899
3.8721144 6.1308494 -8.9230213
3.8852663 5.8279004 -8.79072
3.8993711 5.5241113 -8.6488371
3.9148545 5.2198071 -8.4930887
3.945677 4.9320979 -8.1830349
3.9764504 4.6391935 -7.8734818
4.0087714 4.3428359 -7.548357
4.0391507 4.0391521 -7.2427616
4.0708876 3.7316477 -6.923512
4.1033025 3.4194188 -6.5974441
4.1353316 3.1014986 -6.2752576
4.1690154 2.779345 -5.9364252
4.2027006 2.4515779 -5.5975771
4.2361369 2.1180685 -5.2612348
4.2701263 1.7792219 -4.9193277
4.3032813 1.434429 -4.585815
4.336813 1.0842053 -4.2485151
4.3737469 0.72895807 -3.876986
4.4110942 0.36759144 -3.5012991
4.4488606 3.4993428e-07 -3.1214004
4.4826546 -0.37355298 -2.7814636
4.5244098 -0.75406688 -2.3614361
4.561707 -1.1404251 -1.9862535
4.6018276 -1.5339419 -1.5826725
4.6414165 -1.9339218 -1.18444
4.6807799 -2.3403881 -0.78847581
4.7211962 -2.7540307 -0.38191634
4.7602358 -3.1734889 0.01079617
4.7968121 -3.5976079 0.37871966
4.834043 -4.0283675 0.75323153
4.8705535 -4.4646735 1.1205055
4.9067774 -4.9067769 1.4848891
4.9415102 -5.3533015 1.8342723
