# .PCD v0.7 - Point Cloud Data file format
VERSION 0.7
FIELDS x y z
SIZE 4 4 4
TYPE F F F
COUNT 1 1 1
WIDTH 1492
HEIGHT 1
VIEWPOINT 0 0 0 1 0 0 0
POINTS 1492
DATA ascii
-14.51727 -14.517269 -0.51160312
-14.49841 -14.89026 -0.57313031
-14.492995 -15.276399 -0.59080142
-14.505509 -15.681632 -0.54996967
-14.313005 -12.325087 0.11908834
-14.250863 -12.667433 -0.089278258
-14.223566 -13.038267 -0.18080832
-14.198091 -13.409307 -0.26623058
-14.192751 -13.798509 -0.28412899
-14.188813 -14.188813 -0.2973325
-14.026606 -10.820525 0.50254864
-13.95296 -11.162367 0.24855411
-13.925668 -11.538409 0.15442662
-13.898544 -11.913036 0.060881574
-13.888588 -12.301319 0.026544137
-13.884335 -12.694248 0.011875071
-13.919442 -13.124044 0.13295633
-13.665017 -9.6458941 0.64162189
-13.623303 -10.017134 0.49352539
-13.596891 -10.397622 0.39975414
-13.580427 -10.784457 0.34130406
-13.576056 -11.180281 0.3257826
-13.594978 -11.595716 0.39295873
-13.371163 -8.1037331 1.0368855
-13.316579 -8.474185 0.83722204
-13.290882 -8.8605881 0.74322814
-13.26819 -9.2475271 0.66022533
-13.26371 -9.6463327 0.64383286
-13.266979 -10.05074 0.65579307
-13.071814 -6.5359073 1.4361285
-13.005524 -6.909184 1.1860671
-12.980187 -7.3013554 1.090497
-12.954712 -7.6918588 0.99439478
-12.947214 -8.0920076 0.96611184
-12.944003 -8.4945011 0.95399863
-12.988382 -8.9295111 1.1214072
-12.701079 -5.3262591 1.5831591
-12.665082 -5.7197127 1.4429891
-12.640339 -6.116293 1.3466436
-12.626427 -6.5168633 1.2924703
-12.623333 -6.9224734 1.280425
-12.649768 -7.3450251 1.3833562
-12.395269 -3.7185793 2.0012302
-12.345348 -4.1151147 1.8003656
-12.321055 -4.5177207 1.7026182
-12.301381 -4.9205518 1.6234519
-12.298347 -5.3292813 1.6112412
-12.307569 -5.7435317 1.6483517
-12.051746 -2.4934645 2.2911527
-11.998247 -2.8961275 2.068469
-11.973389 -3.3030031 1.9649925
-11.968956 -3.7145011 1.9465418
-11.965984 -4.1262012 1.9341732
-10.708504 13.003185 -1.7080978
-10.744568 12.663243 -1.5526234
-11.644794 -2.0794261 2.3283401
-11.620378 -2.4900806 2.2230785
-11.645289 -2.9113216 2.3304744
-10.197776 12.841646 -2.2816126
-10.229668 12.502931 -2.1390347
-10.267608 12.169019 -1.9694118
-10.305875 11.832671 -1.7983283
-10.344383 11.493761 -1.6261646
-10.382501 11.151578 -1.4557527
-10.420626 10.806577 -1.2853017
-10.458755 10.458756 -1.1148303
-10.488509 10.100047 -0.98181546
-10.518432 9.7392893 -0.84803784
-10.548478 9.3764257 -0.71370542
-10.577992 9.0108833 -0.58175629
-10.605731 8.6417074 -0.45774195
-10.630337 8.2680407 -0.34773654
-10.655056 7.8926339 -0.23722085
-10.679939 7.5155144 -0.12597491
-10.705132 7.1367569 -0.013347453
-10.727489 6.7543473 0.086614318
-10.749942 6.3703384 0.18699117
-10.77366 5.9853673 0.29302979
-10.802681 5.6013913 0.42277691
-10.82969 5.2142968 0.54352397
-10.852869 4.8234987 0.64715528
-10.876099 4.431004 0.75100845
-11.270205 -1.6696591 2.512965
-11.25234 -2.083765 2.4330959
-9.7162914 12.705922 -2.7634792
-9.7345877 12.355441 -2.6785295
-9.7703066 12.024994 -2.5127022
-9.8062878 11.692113 -2.3456483
-9.8425779 11.35682 -2.1771679
-9.8790503 11.018942 -2.0078301
-9.9148512 10.677533 -1.8416188
-9.9484921 10.331129 -1.6854362
-9.9817085 9.9817085 -1.5312197
-10.01414 9.6289816 -1.3806492
-10.046299 9.2735081 -1.2313458
-10.077512 8.9147234 -1.0864339
-10.109007 8.5537758 -0.94020724
-10.140656 8.1905327 -0.79326826
-10.16889 7.8222246 -0.6621893
-10.200734 7.4543848 -0.51434797
-10.232778 7.0842304 -0.36557475
-10.262862 6.7103353 -0.22590725
-10.295622 6.3357682 -0.073808923
-10.328591 5.9588041 0.079258978
-10.352966 5.5746746 0.19242464
-10.377268 5.1886358 0.30524963
-10.401684 4.8007774 0.41861072
-10.423796 4.4100685 0.52126741
-10.444571 4.0171442 0.61772346
-10.469258 3.6239748 0.73233581
-10.494446 3.2290626 0.84927654
-10.522367 2.832947 0.97890109
-10.549755 2.4345589 1.10606
-10.574942 2.0336447 1.2229947
-10.60565 1.6316388 1.3655633
-10.639452 1.22763 1.5224973
-10.670586 0.82081562 1.6670407
-10.713017 0.41203946 1.864037
-10.866746 -1.6718057 2.5777586
-9.2322407 12.555849 -3.2962792
-9.2634296 12.227728 -3.1456895
-9.2985582 11.902155 -2.9760735
-9.329999 11.569202 -2.8242631
-9.3618526 11.234223 -2.6704583
-9.3939638 10.896999 -2.5154088
-9.4237957 10.554652 -2.3713717
-9.4524784 10.208679 -2.2328787
-9.4812956 9.860549 -2.0937393
-9.5116844 9.5116854 -1.9470063
-9.540864 9.1592312 -1.8061163
-9.5701399 8.8045301 -1.6647586
-9.599638 8.4476824 -1.5223304
-9.6275082 8.0871077 -1.387764
-9.6524076 7.7219276 -1.2675363
-9.6781168 7.35537 -1.1433991
-9.7071304 6.9891357 -1.0033133
-9.732358 6.6180053 -0.88150078
-9.7576742 6.2449131 -0.75926244
-9.7864275 5.8718562 -0.62043107
-9.8161812 5.4970641 -0.47676617
-9.8429918 5.1183572 -0.34731025
-9.8699493 4.7375779 -0.21714999
-9.8970556 4.3547058 -0.086271822
-9.9274874 3.9709961 0.06066449
-9.9604034 3.5857468 0.21960132
-9.9993486 3.1997926 0.407644
-10.051063 2.8142982 0.6573447
-10.101461 2.4243512 0.90068811
-10.161972 2.0323968 1.1928595
-10.197315 1.6315711 1.36351
-10.234283 1.228116 1.5420109
-10.269463 0.82155818 1.7118671
-10.314681 0.41258737 1.9302076
-10.366984 5.0470311e-07 2.1827459
-10.434237 -0.41736737 2.5074728
-10.497313 -1.2596767 2.8120255
-10.488262 -1.6781212 2.7683277
-8.7566614 12.770134 -3.8308749
-8.7762938 12.433085 -3.7321334
-8.8093214 12.112817 -3.566021
-8.8425598 11.79008 -3.3988407
-8.8718414 11.459463 -3.2515631
-8.9012804 11.126601 -3.1034975
-8.9314814 10.792207 -2.9516017
-8.9597988 10.453097 -2.8091772
-8.9864225 10.109729 -2.6752644
-9.0135145 9.7646399 -2.5390053
-9.0408077 9.41751 -2.4017293
-9.0647678 9.0647707 -2.2812233
-9.0897923 8.7110519 -2.1553588
-9.1157417 8.3560991 -2.0248401
-9.1390343 7.9966559 -1.9076918
-9.1601028 7.6334195 -1.8017231
-9.1823864 7.2693901 -1.6896515
-9.2037354 6.902802 -1.5822692
-9.2253046 6.5345931 -1.4737835
-9.2475414 6.165029 -1.3619353
-9.269928 5.7937055 -1.2493445
-9.291728 5.420177 -1.1397022
-9.3146563 5.0454392 -1.0243776
-9.3388538 4.6694288 -0.902677
-9.3636742 4.2916856 -0.77783835
-9.3893366 3.9122245 -0.64876837
-9.4184113 3.5319057 -0.50252974
-9.4491873 3.14973 -0.34773633
-9.4857817 2.7666864 -0.16368489
-9.5270796 2.3817706 0.04403067
-9.5794077 1.9957097 0.30721724
-9.6448822 1.6074817 0.63653052
-9.7118387 1.213981 0.97329056
-9.8140106 0.81783623 1.4871787
-9.9171925 0.41321799 2.0061448
-9.9747534 1.3031128e-06 2.2956502
-10.045191 -0.41854861 2.649925
-10.134722 -0.84455866 3.1002328
-10.095757 -1.2619686 2.9042549
-10.136714 -1.6894518 3.1102571
-8.3084059 12.643228 -4.2685542
-8.3392229 12.327548 -4.1068215
-8.3673983 12.005398 -3.9589465
-8.3963566 11.68189 -3.806963
-8.4223299 11.351836 -3.6706545
-8.4500132 11.021758 -3.5253615
-8.4779148 10.689546 -3.3789234
-8.5046797 10.353525 -3.2384491
-8.5297108 10.013141 -3.1070795
-8.5548906 9.6707449 -2.9749358
-8.5803995 9.3265228 -2.841054
-8.6036863 8.9777613 -2.7188401
-8.6256294 8.6256323 -2.6036716
-8.6483507 8.272336 -2.4844282
-8.6721191 7.9180222 -2.3596828
-8.6900129 7.5565348 -2.2657721
-8.70858 7.1940465 -2.1683292
-8.729557 6.8318295 -2.0582314
-8.7482557 6.4661026 -1.9600942
-8.7668829 6.0987015 -1.862335
-8.7876463 5.7310758 -1.7533602
-8.8087015 5.3618197 -1.6428576
-8.8280878 4.989789 -1.5411171
-8.8471327 4.6158972 -1.4411569
-8.8662615 4.2403889 -1.3407662
-8.8862143 3.8635714 -1.2360512
-8.9091539 3.4861915 -1.1156547
-8.9322929 3.1068864 -0.99421918
-8.962841 2.7278221 -0.83388835
-9.0020332 2.3483586 -0.62820238
-9.0372925 1.9646293 -0.44314513
-9.0928259 1.5813621 -0.15169217
-9.1554136 1.1941851 0.17678307
-9.223485 0.80204302 0.53404444
-9.336132 0.40591952 1.125247
-9.5181761 4.4767035e-08 2.080672
-9.6528797 -0.41969025 2.7876322
-9.7558479 -0.848333 3.3280411
-9.6970997 -1.264837 3.0197105
-9.7397127 -1.6938622 3.2433603
-7.8845663 12.543629 -4.6120582
-7.9131589 12.229427 -4.4551744
-7.9414062 11.912112 -4.3001852
-7.9691682 11.591519 -4.1478601
-7.9934297 11.263469 -4.0147429
-8.0180044 10.933645 -3.8799002
-8.0427322 10.601785 -3.7442241
-8.0662689 10.266161 -3.6150842
-8.0882549 9.9264946 -3.4944465
-8.1105318 9.5851755 -3.37222
-8.1329308 9.2419691 -3.2493169
-8.153636 8.8948774 -3.135715
-8.1733093 8.5448227 -3.0277719
-8.1930761 8.1930771 -2.9193108
-8.2134266 7.8400903 -2.8076472
-8.231081 7.4828019 -2.7107821
-8.2479343 7.1232171 -2.6183162
-8.2648554 6.762156 -2.5254703
-8.2827311 6.4002934 -2.4273863
-8.3001871 6.0365019 -2.3316097
-8.3176813 5.6711483 -2.2356222
-8.335392 5.3043423 -2.1384451
-8.354476 4.9367366 -2.0337338
-8.3723078 4.5667143 -1.9358938
-8.3899984 4.1950002 -1.8388286
-8.406889 3.8213158 -1.7461556
-8.4238472 3.44612 -1.6531067
-8.4448462 3.0708554 -1.5378855
-8.4665794 2.6939113 -1.4186361
-8.4970236 2.3173711 -1.2515947
-8.5320053 1.9390947 -1.0596548
-8.572773 1.5586869 -0.83597004
-8.6304293 1.1768789 -0.51961994
-8.6898403 0.78998792 -0.19364086
-8.7665043 0.39847741 0.227001
-8.891284 1.2885865e-06 0.91165209
-9.1538906 -0.41608435 2.352531
-9.3797894 -0.85270792 3.5920041
-9.3009977 -1.2683172 3.1596894
-9.3239574 -1.6952631 3.2856631
-7.4729629 12.454941 -4.9179382
-7.4974999 12.138809 -4.7768984
-7.5227485 11.821463 -4.6317658
-7.5485377 11.502533 -4.4835267
-7.5713415 11.176744 -4.3524446
-7.5942836 10.848978 -4.2205715
-7.6175218 10.519435 -4.0869937
-7.6397672 10.186357 -3.9591267
-7.6601434 9.8487577 -3.8420022
-7.6807876 9.5095472 -3.723335
-7.7018328 9.168849 -3.6023669
-7.7217031 8.8248053 -3.4881473
-7.7386971 8.4757185 -3.3904667
-7.7571316 8.1265202 -3.2845032
-7.775785 7.7757854 -3.177278
-7.7920656 7.4210167 -3.0836957
-7.8069973 7.0634747 -2.9978659
-7.8222184 6.704761 -2.9103763
-7.8371658 6.3443747 -2.8244524
-7.8497386 5.9807544 -2.7521839
-7.8655615 5.6182599 -2.6612318
-7.8814149 5.2542772 -2.5701065
-7.8973651 4.8888464 -2.4784203
-7.9111471 4.5206575 -2.3992016
-7.9255543 4.1514816 -2.3163881
-7.9408321 3.7813489 -2.2285671
-7.956203 3.4098008 -2.140213
-7.9721484 3.0370102 -2.0485551
-7.9931293 2.6643775 -1.927951
-8.0164795 2.2904241 -1.7937365
-8.0480471 1.9162039 -1.6122824
-8.0808525 1.5392113 -1.4237095
-8.1298685 1.1614102 -1.1419597
-8.1849127 0.77951837 -0.82556367
-8.2435341 0.39255053 -0.48859361
-8.3361959 1.1928869e-06 0.04403013
-8.5062609 -0.40505797 1.021589
-9.003293 -0.85745621 3.8785949
-8.9042549 -1.2720356 3.3093073
-8.9078999 -1.6967423 3.3302622
-7.056891 12.702405 -5.2813802
-7.0655241 12.364669 -5.2292733
-7.0885825 12.050591 -5.0901041
-7.1118493 11.734552 -4.9496756
-7.1344895 11.415183 -4.8130317
-7.155704 11.091344 -4.6849895
-7.1772203 10.765832 -4.5551257
-7.1988959 10.438399 -4.4243016
-7.2198153 10.107742 -4.2980418
-7.2389522 9.7725878 -4.1825418
-7.2581606 9.4356098 -4.0666065
-7.2775321 9.0969152 -3.9496932
-7.2967949 8.756156 -3.8334301
-7.3127279 8.4096394 -3.7372649
-7.3287311 8.0616055 -3.6406789
-7.3456926 7.7129779 -3.5383062
-7.3618708 7.3618727 -3.4406612
-7.3756189 7.0068388 -3.357686
-7.3894801 6.6505342 -3.2740269
-7.4037976 6.2932296 -3.1876111
-7.4159222 5.9327407 -3.1144323
-7.4273043 5.5704789 -3.045737
-7.4403858 5.2082701 -2.9667792
-7.4553123 4.8459539 -2.876694
-7.4691577 4.4814959 -2.7931266
-7.4818792 4.1150351 -2.7163441
-7.4946756 3.747339 -2.6391122
-7.5075169 3.3783824 -2.5616112
-7.5207543 3.0083027 -2.4817142
-7.5382948 2.6384051 -2.375849
-7.5573759 2.2672141 -2.2606854
-7.5842524 1.8960633 -2.09847
-7.6141829 1.5228367 -1.9178226
-7.6491303 1.14737 -1.7068961
-7.6988082 0.76988184 -1.4070625
-7.7477384 0.38738918 -1.1117474
-7.8178492 2.0789507e-06 -0.68858826
-7.9444251 -0.39721915 0.075365163
-8.2620411 -0.82620269 1.9923415
-8.5053415 -1.275799 3.4607978
-8.4935312 -1.6987047 3.3895128
-6.645081 12.590681 -5.6559949
-6.6689939 12.284991 -5.5040736
-6.6903501 11.972206 -5.3683915
-6.7123823 11.65835 -5.2284184
-6.7333946 11.340456 -5.0949225
-6.752522 11.017273 -4.973403
-6.7718406 10.69238 -4.8506684
-6.7912698 10.365623 -4.7272291
-6.8099799 10.035761 -4.6083612
-6.8268991 9.7013855 -4.5008745
-6.8441257 9.3656483 -4.391427
-6.8614397 9.0282125 -4.281426
-6.8788424 8.689065 -4.170867
-6.8933215 8.3445482 -4.0788789
-6.9082894 7.9990726 -3.9837801
-6.9233227 7.6520948 -3.8882732
-6.9384789 7.3036637 -3.7919817
-6.9513335 6.9513345 -3.7103148
-6.9642067 6.5976696 -3.6285274
-6.9771566 6.2427201 -3.5462554
-6.9894834 5.8858809 -3.4679394
-7.0000968 5.5263934 -3.4005141
-7.0107422 5.1658111 -3.332881
-7.0214195 4.8041301 -3.2650442
-7.0347314 4.4429893 -3.1804707
-7.046639 4.0796337 -3.1048188
-7.0585876 3.7150469 -3.0289071
-7.0708756 3.3493619 -2.9508405
-7.0832062 2.9824045 -2.8725042
-7.097054 2.6147063 -2.7845237
-7.1145539 2.2467017 -2.6733408
-7.1342387 1.8774327 -2.5482824
-7.1615334 1.5076929 -2.3748755
-7.1884813 1.1350257 -2.2036688
-7.2311921 0.76117986 -1.9323202
-7.2781143 0.38306057 -1.6342134
-7.3347688 2.1674628e-06 -1.2742776
-7.4237938 -0.39072546 -0.70868206
-7.6288137 -0.8030321 0.59385037
-8.1243229 -1.282786 3.7419157
-8.0899181 -1.7031391 3.5233335
-6.257596 12.515193 -5.9091153
-6.2784619 12.20812 -5.7691832
-6.297966 11.89616 -5.6383853
-6.3180699 11.583128 -5.5035672
-6.3375425 11.266744 -5.3729811
-6.3554282 10.945461 -5.2530365
-6.373415 10.62236 -5.1324139
-6.3915811 10.297549 -5.0105882
-6.409307 9.9700346 -4.891716
-6.4248133 9.6372223 -4.7877278
-6.440526 9.3029833 -4.6823568
-6.4567094 8.9676533 -4.5738254
-6.4729753 8.6306343 -4.4647474
-6.486402 8.2881804 -4.3747034
-6.4996452 7.9440117 -4.285893
-6.513237 7.5987787 -4.194747
-6.5268588 7.2520657 -4.1033974
-6.5373821 6.9005704 -4.0328259
-6.5490479 6.5490499 -3.9545932
-6.5607834 6.1962957 -3.8758926
-6.5725603 5.8422756 -3.7969136
-6.5823293 5.4852767 -3.7314003
-6.5921006 5.1271911 -3.6658745
-6.6019006 4.7680402 -3.6001549
-6.6117301 4.4078217 -3.5342381
-6.6218648 4.0466957 -3.4662709
-6.6328077 3.6848946 -3.3928866
-6.6440101 3.3220072 -3.3177626
-6.6552501 2.9578896 -3.2423868
-6.6665282 2.592541 -3.1667542
-6.6817565 2.227253 -3.0646296
-6.6976485 1.8604593 -2.9580536
-6.7216721 1.4937063 -2.7969477
-6.747735 1.1246229 -2.6221671
-6.7809539 0.7534408 -2.3993964
-6.8238878 0.37910444 -2.1114733
-6.8700471 8.7486046e-07 -1.801924
-6.9420342 -0.38566747 -1.3191659
-7.0801177 -0.78667873 -0.39315712
-7.7868509 -1.2978077 4.3462992
-7.6930671 -1.7095687 3.7173707
-7.7452712 -2.1514635 4.0674572
-5.8764815 12.444316 -6.1467724
-5.8948278 12.136412 -6.0165014
-5.9122152 11.824431 -5.8930421
-5.9297056 11.510606 -5.7688518
-5.9468031 11.193984 -5.6474442
-5.9634776 10.874578 -5.529048
-5.9802451 10.553375 -5.4099855
-5.9971318 10.230402 -5.2900801
-6.0138483 9.9051628 -5.1713829
-6.0282788 9.5743275 -5.0689173
-6.0428033 9.2419357 -4.965785
-6.0573978 8.907938 -4.8621535
-6.0725303 8.5729856 -4.7546997
-6.0856113 8.2334757 -4.661819
-6.0975819 7.8909888 -4.5768228
-6.1097736 7.5473676 -4.490253
-6.1224647 7.2029009 -4.4001389
-6.1330976 6.85464 -4.3246379
-6.1425328 6.503859 -4.2576394
-6.1528058 6.1528068 -4.1846948
-6.1637731 5.8011994 -4.1068215
-6.173583 5.4472804 -4.0371671
-6.1827345 5.0916657 -3.972183
-6.1918621 4.7349539 -3.9073713
-6.2010169 4.3771887 -3.8423672
-6.2103276 4.0184484 -3.7762558
-6.2198987 3.6587646 -3.7082946
-6.2295251 3.2979851 -3.63994
-6.2391553 2.9360757 -3.5715604
-6.2495718 2.5733538 -3.4975951
-6.2622228 2.2101972 -3.4077671
-6.2768974 1.8461467 -3.3035674
-6.2954502 1.4812837 -3.1718292
-6.3190165 1.1151204 -3.0044932
-6.3437543 0.7463249 -2.8288424
-6.3835382 0.37550223 -2.5463495
-6.4225574 1.6772533e-07 -2.2692928
-6.4819741 -0.38129112 -1.8473972
-6.5834346 -0.77452064 -1.1269605
-6.9458833 -1.2257425 1.4466509
-7.3099785 -1.7199942 4.0319571
-5.5012484 12.37781 -6.3697677
-5.518569 12.071873 -6.2390938
-5.5349989 11.761874 -6.1151419
-5.5512862 11.44953 -5.9922638
-5.5666142 11.133228 -5.8766241
-5.5814738 10.814107 -5.764514
-5.5961909 10.492859 -5.6534815
-5.6110086 10.169955 -5.5416923
-5.6255455 9.8447056 -5.4320211
-5.6383972 9.5147963 -5.3350596
-5.6511497 9.1831188 -5.2388506
-5.66396 8.8499403 -5.1422067
-5.6775603 8.5163412 -5.0395989
-5.6900997 8.1795197 -4.9449954
-5.7011952 7.8391442 -4.8612857
-5.7123575 7.4974713 -4.7770743
-5.7235403 7.1544251 -4.6927071
-5.7341599 6.8093147 -4.612586
-5.7429228 6.4607897 -4.5464754
-5.7517128 6.1111946 -4.4801607
-5.7606707 5.7606711 -4.4125762
-5.7704601 5.4098082 -4.3387241
-5.7789555 5.0565858 -4.2746329
-5.7874513 4.7023063 -4.2105341
-5.7959733 4.346981 -4.1462417
-5.8045197 3.990608 -4.0817618
-5.8133793 3.6333625 -4.0149226
-5.8222899 3.275039 -3.9476967
-5.8312521 2.9156275 -3.8800824
-5.8404112 2.5551808 -3.8109806
-5.8503284 2.1938732 -3.7361636
-5.8636193 1.8323815 -3.6358924
-5.8773379 1.469337 -3.5323901
-5.8990626 1.1060736 -3.3684926
-5.9208236 0.74010247 -3.2043192
-5.9538679 0.37211818 -2.9550173
-5.9914331 4.2777947e-07 -2.6716111
-6.0394492 -0.37746465 -2.3093593
-6.1166482 -0.76457912 -1.7269355
-6.301177 -1.1814686 -0.33477494
-6.9445324 -1.7361319 4.5189691
-5.1156435 12.618587 -6.705966
-5.1296659 12.311198 -6.5931182
-5.1457295 12.006702 -6.46385
-5.1617727 11.70002 -6.3347435
-5.1765981 11.388516 -6.2154403
-5.1906719 11.073435 -6.1021814
-5.2048225 10.756635 -5.9883032
-5.2185769 10.437154 -5.8776202
-5.2323003 10.115782 -5.7671838
-5.2451167 9.7908859 -5.6640415
-5.2575574 9.4636049 -5.5639291
-5.2693839 9.1336012 -5.4687533
-5.2812643 8.8021088 -5.3731489
-5.2929225 8.4686775 -5.2793307
-5.3033762 8.1318445 -5.1952095
-5.3131232 7.7925811 -5.1167722
-5.3230343 7.4522491 -5.0370116
-5.3329825 7.1106443 -4.9569526
-5.3423634 6.7669945 -4.8814616
-5.3502603 6.4203138 -4.817915
-5.3581367 6.0725565 -4.7545266
-5.3660364 5.7237754 -4.6909542
-5.3739381 5.3739395 -4.627368
-5.3814244 5.0226636 -4.5671225
-5.3889976 4.6704664 -4.5061812
-5.3965697 4.3172569 -4.4452438
-5.4043622 3.963201 -4.382534
-5.4125547 3.6083715 -4.3166075
-5.4211049 3.2526629 -4.247797
-5.4296827 2.8958321 -4.1787691
-5.4382877 2.5378675 -4.1095233
-5.4469199 2.1787705 -4.0400581
-5.458374 1.8194606 -3.9478791
-5.4706016 1.4588299 -3.8494787
-5.489172 1.0978354 -3.7000396
-5.5103498 0.73471469 -3.5296156
-5.5361876 0.3690801 -3.3216836
-5.5706658 2.0691881e-07 -3.0442233
-5.6094079 -0.37395975 -2.7324498
-5.6764336 -0.75685704 -2.1930704
-5.7997584 -1.1599505 -1.2006338
-6.4366884 -1.7164495 3.9249876
-4.7509065 12.555966 -6.9102602
-4.7642879 12.251028 -6.7948818
-4.7784858 11.946215 -6.6724653
-4.7927499 11.639537 -6.5494761
-4.8057318 11.327798 -6.4375434
-4.8187466 11.014278 -6.3253269
-4.8318133 10.699017 -6.2126656
-4.8449321 10.381998 -6.0995536
-4.8571458 10.061232 -5.9942431
-4.8688254 9.7376518 -5.8935385
-4.8805614 9.4125128 -5.7923474
-4.8917136 9.0846119 -5.6961899
-4.9024491 8.7543755 -5.6036272
-4.9124489 8.4213428 -5.5174069
-4.9223127 8.0866566 -5.4323597
-4.9310918 7.7488604 -5.3566623
-4.9401202 7.410181 -5.2788181
-4.9493012 7.0704327 -5.1996641
-4.9575787 6.7281442 -5.1282911
-4.9652047 6.3838358 -5.062541
-4.9724731 6.0380044 -4.9998722
-4.9797421 5.6911335 -4.9371924
-4.9867702 5.3429699 -4.8765912
-4.993556 4.9935565 -4.8180857
-5.0005422 4.6433616 -4.7578468
-5.0075283 4.2921681 -4.6976175
-5.0144515 3.9399269 -4.6379194
-5.0213332 3.5866673 -4.5785856
-5.0287051 3.2327394 -4.5150232
-5.03614 2.8777945 -4.4509182
-5.0439062 2.5219538 -4.383956
-5.0516968 2.1650143 -4.3167853
-5.0614634 1.8076661 -4.2325764
-5.0726032 1.4493148 -4.136528
-5.0860987 1.0898787 -4.0201697
-5.1054301 0.72934759 -3.853487
-5.1261663 0.36615595 -3.6746967
-5.1585484 1.9622541e-06 -3.3954904
-5.1913204 -0.3708072 -3.1129224
-5.2462511 -0.74946415 -2.6393032
-5.3534617 -1.1471682 -1.7149135
-5.8802891 -1.6800812 2.8274953
-5.8636513 -2.0941591 2.6840408
-4.3908825 12.497129 -7.1022205
-4.403192 12.193457 -6.9879203
-4.414958 11.886425 -6.8786702
-4.4270949 11.578557 -6.765975
-4.4395227 11.269558 -6.6505785
-4.4520197 10.95882 -6.5345325
-4.4645882 10.646326 -6.4178319
-4.4764576 10.330286 -6.3076224
-4.4871407 10.009776 -6.2084212
-4.4974866 9.6868944 -6.1123524
-4.5078807 9.3625221 -6.0158429
-4.5179839 9.0359678 -5.922029
-4.5270224 8.7058144 -5.8381023
-4.5362053 8.3745346 -5.7528372
-4.5454431 8.0419388 -5.6670575
-4.5535235 7.7059641 -5.5920272
-4.561614 7.3687634 -5.516902
-4.5699162 7.0306425 -5.4398141
-4.5772052 6.689764 -5.3721309
-4.5841875 6.3473377 -5.3072991
-4.5911541 6.0038176 -5.2426119
-4.5978465 5.6588879 -5.1804686
-4.6040583 5.3123765 -5.1227889
-4.6102314 4.9648666 -5.0654693
-4.61657 4.6165719 -5.0066142
-4.6229634 4.2673507 -4.947248
-4.6290751 3.9169106 -4.8905001
-4.6352592 3.5655854 -4.8330779
-4.6420245 3.2137108 -4.7702589
-4.648828 2.8608186 -4.7070832
-4.655633 2.5068805 -4.6438961
-4.6624579 2.1519048 -4.5805244
-4.6700644 1.7961798 -4.5098944
-4.6810422 1.4403217 -4.407958
-4.6916685 1.0826943 -4.3092914
-4.7099061 0.72460133 -4.1399469
-4.7278757 0.36368468 -3.9730892
-4.7560568 2.8908678e-07 -3.7114143
-4.7860165 -0.36815417 -3.4332316
-4.829071 -0.74293351 -3.0334468
-4.9128003 -1.1337217 -2.2559884
-5.3998318 -1.6614856 2.2663136
-5.3368101 -2.0526185 1.6811272
-4.0356808 12.443351 -7.2776699
-4.0467753 12.140327 -7.1660666
-4.0578218 11.835315 -7.0549479
-4.0691323 11.529211 -6.9411716
-4.0805063 11.221395 -6.8267584
-4.0918808 10.911683 -6.7123423
-4.1020603 10.596991 -6.609941
-4.1122913 10.280729 -6.5070276
-4.122251 9.9621077 -6.4068379
-4.1316943 9.6406202 -6.3118458
-4.1410184 9.3172932 -6.2180519
-4.1498799 8.9914074 -6.1289153
-4.1582718 8.6630678 -6.0444975
-4.1663532 8.3327074 -5.9632058
-4.1742511 8.0006495 -5.8837571
-4.1813855 7.6658754 -5.8119946
-4.1885605 7.3299837 -5.7398171
-4.1958604 6.9931016 -5.6663861
-4.2020493 6.6532454 -5.6041322
-4.2081556 6.3122334 -5.5427022
-4.2142968 5.9702563 -5.4809284
-4.2202034 5.6269398 -5.421514
-4.2257042 5.2821312 -5.3661833
-4.2313375 4.9365625 -5.3095155
-4.2370028 4.5900874 -5.2525234
-4.2425985 4.2425995 -5.196238
-4.2481747 3.8941619 -5.1401443
-4.2537656 3.5448055 -5.0839033
-4.2598691 3.1949029 -5.0225077
-4.2660761 2.8440514 -4.9600682
-4.2723532 2.4922071 -4.8969283
-4.2786489 2.1393249 -4.8335996
-4.286562 1.786068 -4.7540026
-4.2955337 1.4318451 -4.6637502
-4.305315 1.0763286 -4.5653586
-4.3203263 0.7200557 -4.4143562
-4.3365283 0.36137828 -4.2513766
-4.3598366 -9.1395975e-08 -4.016912
-4.387382 -0.36561498 -3.7398279
-4.4256306 -0.73760378 -3.3550766
-4.4924669 -1.1231165 -2.6827545
-4.6495223 -1.5498389 -1.1029006
-4.8642325 -2.0267622 1.0569175
-3.6845593 12.393519 -7.440239
-3.6944366 12.090885 -7.331851
-3.7043529 11.786578 -7.2230339
-3.7143366 11.480679 -7.1134753
-3.7238734 11.17162 -7.0088229
-3.7330706 10.859844 -6.9078927
-3.7423136 10.546519 -6.8064632
-3.7515879 10.231605 -6.7046905
-3.7608061 9.914854 -6.6035328
-3.7692335 9.5944147 -6.5110526
-3.7772424 9.2714148 -6.4231653
-3.7852707 8.9470043 -6.3350663
-3.7933033 8.6211443 -6.2469187
-3.8006542 8.2923374 -6.1662502
-3.8074353 7.9610014 -6.0918388
-3.813925 7.627851 -6.0206199
-3.8206329 7.2939382 -5.9470105
-3.8273494 6.9588194 -5.8733072
-3.832967 6.6205812 -5.8116598
-3.83851 6.2811999 -5.7508354
-3.8440382 5.9407878 -5.6901674
-3.8494909 5.5992599 -5.6303315
-3.8543761 5.25597 -5.5767217
-3.8592739 4.9118042 -5.5229745
-3.8641841 4.5667648 -5.4690914
-3.8690295 4.2207618 -5.4159203
-3.8738253 3.873826 -5.3632941
-3.878633 3.5260317 -5.3105364
-3.8838882 3.177727 -5.2528644
-3.8892517 2.8285484 -5.1940093
-3.8946924 2.4784417 -5.1343021
-3.9001327 2.1273453 -5.0746031
-3.9079673 1.7763494 -4.9886308
-3.9159596 1.4239862 -4.9009237
-3.9240484 1.070196 -4.8121586
-3.9378445 0.71597207 -4.6607637
-3.9537377 0.35943082 -4.4863577
-3.9717612 1.3659742e-06 -4.2885733
-3.9975061 -0.36340874 -4.0060549
-4.0297961 -0.73268926 -3.651715
-4.0815582 -1.1131505 -3.0836954
-4.2012753 -1.5277363 -1.7699567
-4.4092445 -2.0042014 0.51223511
-3.3354053 12.674543 -7.611578
-3.3360498 12.343385 -7.6038008
-3.3449435 12.041799 -7.4964409
-3.3542302 11.739806 -7.384346
-3.3635809 11.436175 -7.2714682
-3.3716671 11.126503 -7.1738596
-3.3795459 10.814548 -7.0787539
-3.3874485 10.501091 -6.9833617
-3.3954012 10.186206 -6.8873625
-3.4033389 9.8696842 -6.7915483
-3.4101119 9.548315 -6.7097912
-3.4170179 9.2259493 -6.6264281
-3.4242446 8.9030361 -6.5391932
-3.4315155 8.5787897 -6.4514265
-3.4384146 8.2521954 -6.3681479
-3.4443309 7.9219623 -6.296731
-3.4503486 7.5907679 -6.2240901
-3.4563875 7.2584143 -6.1511936
-3.4624479 6.9248977 -6.0780425
-3.4674911 6.588233 -6.017159
-3.4724262 6.2503691 -5.9575896
-3.4773619 5.9115157 -5.8980145
-3.482311 5.5716987 -5.8382668
-3.486819 5.2302294 -5.7838521
-3.4912281 4.8877206 -5.7306299
-3.4956346 4.5443263 -5.6774445
-3.500052 4.2000632 -5.6241212
-3.5043688 3.8548071 -5.572011
-3.5088081 3.5088086 -5.5184193
-3.5135534 3.1621995 -5.4611421
-3.5183253 2.8146605 -5.4035382
-3.5230963 2.4661696 -5.3459496
-3.5279367 2.1167634 -5.2875195
-3.5340235 1.767013 -5.2140455
-3.5413554 1.4165435 -5.1255407
-3.5492899 1.0647888 -5.0297627
-3.5606973 0.71214086 -4.8920646
-3.5750055 0.35750049 -4.7193475
-3.5894437 1.5523591e-06 -4.545063
-3.6139958 -0.3613992 -4.2486925
-3.6411726 -0.72823304 -3.9206409
-3.6848626 -1.1054577 -3.3932567
-3.7766464 -1.5106577 -2.2853289
-3.972517 -1.9862564 0.079042397
-3.9811001 -2.3886585 0.1826468
-2.9832244 12.595837 -7.8615909
-2.9908106 12.295557 -7.7598395
-2.9990029 11.996013 -7.6499634
-3.0073199 11.695134 -7.538414
-3.015511 11.391932 -7.4285498
-3.0225134 11.082551 -7.3346319
-3.029537 10.771688 -7.2404337
-3.0366509 10.459578 -7.1450157
-3.0439155 10.146386 -7.0475807
-3.0506396 9.8298388 -6.957396
-3.0566742 9.509655 -6.8764577
-3.0627446 9.1882353 -6.7950392
-3.0688393 8.8655367 -6.7132974
-3.0749822 8.5416174 -6.6309099
-3.0806704 8.2151222 -6.5546145
-3.0857551 7.8858194 -6.4864168
-3.0908446 7.5553985 -6.4181557
-3.095963 7.2239156 -6.3495059
-3.1010861 6.8913045 -6.2807908
-3.1055086 6.5560756 -6.2214794
-3.1098945 6.2197914 -6.162652
-3.1142931 5.882556 -6.1036582
-3.1187041 5.544364 -6.0444956
-3.1228445 5.2047424 -5.988965
-3.1267617 4.8638525 -5.9364257
-3.1306887 4.5221076 -5.8837571
-3.1346254 4.1795025 -5.8309541
-3.138535 3.8359876 -5.7785182
-3.1426036 3.4917817 -5.7239475
-3.1468329 3.1468339 -5.6672244
-3.1510735 2.8009548 -5.6103487
-3.1553254 2.4541442 -5.5533199
-3.15974 2.1064939 -5.4941063
-3.1650515 1.7583616 -5.4228687
-3.1718524 1.4097133 -5.3316536
-3.1786697 1.059558 -5.2402201
-3.1891818 0.70870769 -5.0992265
-3.2002547 0.35558465 -4.9507127
-3.21573 1.073661e-06 -4.7431583
-3.2346385 -0.35940492 -4.4895449
-3.2594306 -0.72431773 -4.1570292
-3.2982035 -1.0994002 -3.6369977
-3.3689349 -1.4973024 -2.6883268
-3.546283 -1.9701552 -0.30967915
-3.5455534 -2.3637018 -0.31946418
-2.6424665 12.551717 -8.0017395
-2.6493719 12.253346 -7.8975449
-2.6559629 11.951836 -7.7980943
-2.6630499 11.650845 -7.6911621
-2.6699319 11.347211 -7.5873213
-2.6761174 11.038985 -7.4939871
-2.6824646 10.72986 -7.3982172
-2.6888421 10.419264 -7.3019924
-2.6952393 10.107148 -7.2054625
-2.7007766 9.7903166 -7.121912
-2.7060976 9.471343 -7.0416222
-2.7114711 9.1512156 -6.9605455
-2.7169285 8.830018 -6.8781977
-2.7224185 8.5075598 -6.7953558
-2.7270443 8.1811333 -6.725563
-2.7315159 7.8531103 -6.6580887
-2.7360024 7.5240088 -6.5903931
-2.740653 7.1942153 -6.5202227
-2.7449985 6.8624978 -6.4546528
-2.7486606 6.5280704 -6.3993983
-2.752322 6.1927266 -6.3441539
-2.7559929 5.8564863 -6.288763
-2.7597599 5.5195208 -6.2319198
-2.7632341 5.1810651 -6.1795011
-2.7664778 4.8413386 -6.1305542
-2.7697403 4.5008283 -6.0813274
-2.7729995 4.1595001 -6.0321488
-2.7762663 3.8173664 -5.9828563
-2.7800782 3.4750977 -5.9253383
-2.7839668 3.1319637 -5.8666682
-2.7878661 2.7878685 -5.8078332
-2.7917762 2.4428051 -5.7488317
-2.7957087 2.0967822 -5.689496
-2.8010209 1.750639 -5.6093392
-2.806577 1.403289 -5.5255051
-2.8129749 1.0548668 -5.4289727
-2.8221798 0.70554578 -5.2900801
-2.8312402 0.35390559 -5.1533666
-2.8451533 5.7914701e-07 -4.9434342
-2.86134 -0.35766655 -4.699194
-2.8825977 -0.72064841 -4.3784423
-2.9154451 -1.0932919 -3.882812
-2.9709091 -1.4854529 -3.0459251
-3.1333835 -1.9583629 -0.5943765
-3.1259604 -2.3444698 -0.70637965
-2.3044064 12.509635 -8.135417
-2.310261 12.21138 -8.0344582
-2.3159974 11.910845 -7.9355388
-2.3217797 11.6089 -7.8358245
-2.327266 11.303864 -7.7412148
-2.3326547 10.996802 -7.6482892
-2.3381572 10.688722 -7.5534043
-2.3436947 10.37922 -7.4579167
-2.3491061 10.067598 -7.3645978
-2.3537247 9.7511454 -7.284955
-2.3584247 9.4336987 -7.203907
-2.3631523 9.1150179 -7.1223798
-2.3678899 8.7950211 -7.0406823
-2.3724458 8.4730215 -6.9621196
-2.376323 8.1473932 -6.8952608
-2.3802679 7.8208814 -6.8272328
-2.3843458 7.493659 -6.7569127
-2.3884375 7.1653142 -6.6863494
-2.3918383 6.8338251 -6.627708
-2.3950067 6.5007324 -6.5730715
-2.3982019 6.1668057 -6.5179691
-2.4016304 5.8325319 -6.4588494
-2.4049654 5.4970655 -6.4013376
-2.4077737 5.1595159 -6.35291
-2.4105978 4.8211966 -6.3042073
-2.4134195 4.4820647 -6.2555547
-2.4163706 4.1423512 -6.2046638
-2.4193859 3.801893 -6.1526651
-2.4224277 3.4606121 -6.1002121
-2.425544 3.1185586 -6.046473
-2.428812 2.7757862 -5.990119
-2.4320886 2.4320893 -5.9336133
-2.4354031 2.0874891 -5.8764572
-2.4398365 1.7427402 -5.8000073
-2.4442956 1.3967417 -5.7231131
-2.450484 1.0502082 -5.616395
-2.4582026 0.70234376 -5.4832935
-2.466049 0.35229465 -5.3479905
-2.4790785 1.9841407e-06 -5.1233058
-2.4922566 -0.35603613 -4.8960595
-2.5108609 -0.71738774 -4.5752368
-2.5375333 -1.087514 -4.1152878
-2.5845289 -1.4768726 -3.3048735
-2.7256989 -1.9469273 -0.8704893
-2.7151356 -2.3272583 -1.052645
-3.580224 -3.5802217 13.86527
-3.5872858 -4.0997548 13.987048
-3.593684 -4.6204486 14.097381
-3.6001053 -5.1430068 14.208111
-3.6076889 -5.6692228 14.338888
-1.9685981 12.467789 -8.2683477
-1.9736122 12.170609 -8.1674709
-1.9787556 11.872534 -8.0639954
-1.9839259 11.572903 -7.9599771
-1.9883971 11.267586 -7.8700199
-1.9928362 10.9606 -7.780714
-1.9973027 10.652282 -7.6908584
-2.0017815 10.34254 -7.6007495
-2.0059452 10.029727 -7.5169787
-2.0097368 9.7137289 -7.4407005
-2.0135579 9.3966055 -7.3638263
-2.0175784 9.0791044 -7.2829399
-2.0216072 8.7602997 -7.2018847
-2.025202 8.438344 -7.1295643
-2.0286462 8.1145859 -7.060276
-2.0321019 7.7897248 -6.9907522
-2.0355694 7.4637556 -6.9209895
-2.0389228 7.1362314 -6.8535218
-2.0416088 6.8053641 -6.7994833
-2.044476 6.474175 -6.7418013
-2.0473909 6.1421747 -6.6831589
-2.0503063 5.8092017 -6.6245093
-2.0528708 5.4743228 -6.5729132
-2.0552659 5.1381664 -6.524725
-2.057739 4.8013916 -6.4749751
-2.060282 4.4639444 -6.423811
-2.0628233 4.125648 -6.372684
-2.0654032 3.7865739 -6.3207803
-2.0679893 3.4466503 -6.2687449
-2.0705824 3.1058753 -6.2165828
-2.0731897 2.7642529 -6.1641226
-2.0759344 2.4219239 -6.1089067
-2.0791278 2.0791304 -6.0446625
-2.0828645 1.7357222 -5.9694839
-2.0865817 1.3910552 -5.8946972
-2.0925472 1.0462742 -5.7746854
-2.0986717 0.69955879 -5.6514688
-2.1057212 0.35095343 -5.5096426
-2.1161602 2.1094852e-06 -5.2996297
-2.1272681 -0.35454232 -5.0761542
-2.1430809 -0.71435881 -4.7580237
-2.1655185 -1.0827589 -4.306612
-2.2046638 -1.4697752 -3.5190699
-2.3239434 -1.9366189 -1.1193558
-2.3125432 -2.3125432 -1.3487059
-3.0625744 -3.5730023 13.740759
-3.0665729 -4.0887623 13.821202
-3.0708499 -4.6062741 13.907247
-3.075568 -5.1259465 14.002168
-3.080534 -5.647646 14.102079
-3.0855343 -6.1710677 14.202675
-3.0905507 -6.6961908 14.303596
-3.0955837 -7.2230272 14.40485
-3.1006145 -7.7515354 14.506068
-3.1056802 -8.2818127 14.607978
-3.1107626 -8.8138266 14.710227
-3.1158431 -9.3475294 14.812439
-3.1209586 -9.8830338 14.915354
-3.126091 -10.4203 15.018609
-3.1312218 -10.959273 15.121834
-3.1363878 -11.500088 15.225769
-3.1415713 -12.042688 15.33005
-3.1467531 -12.58701 15.434299
-3.1521022 -13.133759 15.541918
-3.1574886 -13.68245 15.650284
-3.1629124 -14.233103 15.759399
-3.1683547 -14.785655 15.868894
-3.1737967 -15.340017 15.97838
-3.1792767 -15.896383 16.088629
-3.1847563 -16.454576 16.198872
-3.1904862 -17.015926 16.314146
-3.1964104 -17.580257 16.433334
-3.2023375 -18.14658 16.552578
-1.6357456 12.431666 -8.383091
-1.6396189 12.133182 -8.2895823
-1.6438787 11.835928 -8.1867399
-1.6480311 11.53622 -8.0864916
-1.6516904 11.231495 -7.9981499
-1.655372 10.925457 -7.9092679
-1.6590827 10.618131 -7.8196836
-1.6628288 10.30954 -7.7292438
-1.666075 9.9964514 -7.650876
-1.6692134 9.6814394 -7.5751061
-1.6723703 9.3652754 -7.4988942
-1.6755326 9.0478773 -7.4225497
-1.6787645 8.7295771 -7.3445239
-1.6814694 8.4073496 -7.2792206
-1.684183 8.0840807 -7.2137051
-1.6868991 7.7597365 -7.1481357
-1.6896238 7.4343467 -7.0823536
-1.6921624 7.1070838 -7.0210705
-1.6945585 6.7782354 -6.9632215
-1.6969615 6.4484539 -6.9052091
-1.6993712 6.1177378 -6.8470321
-1.7017089 5.7858119 -6.7905936
-1.70373 5.4519362 -6.7417994
-1.7058154 5.1174469 -6.6914549
-1.7079126 4.782156 -6.6408267
-1.7100148 4.4460382 -6.5900712
-1.712129 4.1091113 -6.5390339
-1.7142617 3.7713773 -6.4875455
-1.7163998 3.432801 -6.4359298
-1.7185497 3.0933905 -6.3840208
-1.7206985 2.7531199 -6.3321462
-1.7229537 2.4121356 -6.277698
-1.7257625 2.070915 -6.2098885
-1.7287163 1.7287178 -6.1385837
-1.732293 1.3858353 -6.0522285
-1.7371788 1.0423081 -5.9342747
-1.7420923 0.69683796 -5.8156519
-1.7488861 0.34977829 -5.6516376
-1.7571622 2.1756323e-06 -5.4518342
-1.7658001 -0.35316023 -5.2432942
-1.7790685 -0.71162581 -4.9229703
-1.7971241 -1.0782729 -4.4870687
-1.8299598 -1.4639666 -3.6943488
-1.9260825 -1.9260814 -1.3737333
-1.9155349 -2.2986412 -1.6283785
-1.3016969 12.691547 -8.591301
-1.3049514 12.397039 -8.4930887
-1.3078096 12.097239 -8.4068403
-1.3110605 11.799546 -8.3087292
-1.3142297 11.499512 -8.2130928
-1.3171384 11.195678 -8.1253138
-1.3200898 10.890742 -8.0362501
-1.3230493 10.584395 -7.9469366
-1.3259673 10.276248 -7.8588791
-1.3284522 9.9633932 -7.7838888
-1.3309464 9.6493635 -7.7086186
-1.3334703 9.3342934 -7.6324563
-1.3360443 9.0183001 -7.5547805
-1.3384706 8.7000599 -7.4815617
-1.3406148 8.3788433 -7.416853
-1.3427659 8.0565968 -7.3519382
-1.3449342 7.7333722 -7.2865028
-1.3472126 7.4096699 -7.2177472
-1.3490386 7.0824533 -7.1626387
-1.3508439 6.7542205 -7.10816
-1.3526591 6.4251313 -7.0533805
-1.3544793 6.0951576 -6.9984522
-1.3561844 5.7637854 -6.9470015
-1.3577418 5.4309692 -6.9000001
-1.3593029 5.0973868 -6.8528905
-1.3608834 4.7630935 -6.8051949
-1.3625518 4.4282942 -6.7548447
-1.3642349 4.0927043 -6.704052
-1.3660122 3.7565355 -6.6504192
-1.3677888 3.4194729 -6.5968022
-1.3695754 3.0815458 -6.5428891
-1.3713666 2.742734 -6.4888339
-1.3732482 2.4031861 -6.4320507
-1.375586 2.0633786 -6.3615022
-1.3779263 1.7224096 -6.2908773
-1.3811837 1.3811837 -6.192575
-1.3848919 1.0386683 -6.0806694
-1.3885764 0.69428962 -5.9694848
-1.3943468 0.34858808 -5.7953463
-1.4008446 1.8574669e-06 -5.5992575
-1.4078081 -0.35195178 -5.3891129
-1.4179618 -0.70897853 -5.0826993
-1.4330211 -1.0747644 -4.6282468
-1.459504 -1.459502 -3.8290524
-1.5334884 -1.9168608 -1.5963728
-1.5247874 -2.2871807 -1.8589493
-0.97358203 12.656568 -8.6995678
-0.97599149 12.362559 -8.6026192
-0.97812665 12.063564 -8.5167046
-0.98028219 11.763388 -8.4299736
-0.98254949 11.463078 -8.3387442
-0.98473924 11.160379 -8.2506342
-0.98693877 10.856327 -8.1621332
-0.98914814 10.550914 -8.0732346
-0.99120373 10.24244 -7.990521
-0.99305528 9.9305544 -7.9160247
-0.99495482 9.617898 -7.8395939
-0.99686545 9.3040791 -7.7627144
-0.99877965 8.9890175 -7.6856933
-1.0004662 8.6707077 -7.6178284
-1.0020636 8.3505325 -7.5535569
-1.0037118 8.0296946 -7.4872384
-1.0054036 7.7080956 -7.4191623
-1.0069823 7.3845377 -7.3556437
-1.0083272 7.0582914 -7.301527
-1.009672 6.7311482 -7.2474208
-1.0110705 6.4034481 -7.1911454
-1.0125002 6.0750017 -7.1336241
-1.0136576 5.744061 -7.087049
-1.0148177 5.4123611 -7.0403666
-1.0159805 5.0799036 -6.9935789
-1.0171657 4.7467732 -6.9458971
-1.018483 4.4134274 -6.8928914
-1.0197054 4.0788236 -6.8437085
-1.0209504 3.7434859 -6.793612
-1.0222063 3.4073553 -6.7430725
-1.0234654 3.0703962 -6.6924109
-1.0247277 2.7326088 -6.6416259
-1.0262042 2.3944776 -6.5822172
-1.0279408 2.0558827 -6.5123405
-1.0297475 1.716248 -6.4396434
-1.0324636 1.3766183 -6.3303595
-1.0351655 1.0351673 -6.2216415
-1.0381508 0.6921016 -6.1015244
-1.0425951 0.34753174 -5.9226899
-1.0471277 7.6002777e-07 -5.7403173
-1.0526593 -0.35088372 -5.5177455
-1.060492 -0.70699388 -5.2025733
-1.0719535 -1.0719521 -4.741406
-1.0917877 -1.4557161 -3.9433415
-1.1452808 -1.9088012 -1.7909389
-1.13827 -2.2765384 -2.0730329
-0.64748967 12.626048 -8.7940245
-0.64891601 12.329406 -8.7079372
-0.65039194 12.032252 -8.6188593
-0.65187693 11.733787 -8.5292301
-0.65322095 11.431367 -8.4481096
-0.65456808 11.12766 -8.3668032
-0.65592325 10.822734 -8.2850113
-0.65735275 10.517645 -8.1987362
-0.65865046 10.209084 -8.120409
-0.65990394 9.8985605 -8.0447559
-0.66116464 9.5868883 -7.968667
-0.66243023 9.274024 -7.8922834
-0.66367811 8.9596548 -7.8169684
-0.66473496 8.6415558 -7.7531796
-0.66584808 8.323102 -7.6859965
-0.66696489 8.0035801 -7.6185908
-0.66808295 7.6829543 -7.5511098
-0.66904211 7.3594646 -7.4932199
-0.6699301 7.0342669 -7.4396243
-0.67088437 6.7088447 -7.382031
-0.67184389 6.3825169 -7.3241181
-0.67270333 6.0543308 -7.272244
-0.67346972 5.7244935 -7.225986
-0.67423791 5.3939042 -7.1796241
-0.67509061 5.06318 -7.1281586
-0.67596626 4.7317648 -7.0753093
-0.67680776 4.3992519 -7.0245237
-0.67761999 4.0657206 -6.9754958
-0.67843163 3.7313752 -6.9265089
-0.67925048 3.3962531 -6.8770914
-0.68008441 3.0603802 -6.826757
-0.68092036 2.7236826 -6.7763023
-0.68198538 2.3869507 -6.7120233
-0.68308026 2.0492425 -6.6459417
-0.68443114 1.7110804 -6.5644083
-0.68613201 1.3722656 -6.4617519
-0.68783867 1.0317585 -6.3587465
-0.69007242 0.69007403 -6.2239265
-0.69300717 0.34650469 -6.0468011
-0.6959669 2.1312637e-06 -5.8681622
-0.69971007 -0.34985423 -5.6422462
-0.70502532 -0.70502418 -5.3214393
-0.71314567 -1.0697167 -4.8313346
-0.72637278 -1.4527445 -4.0330067
-0.76038951 -1.9009724 -1.9799151
-0.75572461 -2.2671726 -2.2614679
-0.32310113 12.600945 -8.871726
-0.32369962 12.300587 -8.7994833
-0.3244341 12.004063 -8.7108212
-0.32515514 11.705586 -8.623786
-0.32582274 11.403795 -8.5432024
-0.32649428 11.100806 -8.462141
-0.32716733 10.796524 -8.3808908
-0.32783467 10.490711 -8.3003368
-0.32841897 10.180989 -8.229804
-0.32900539 9.8701639 -8.1590185
-0.32959267 9.5581894 -8.088129
-0.33018327 9.2451334 -8.0168352
-0.33074245 8.930047 -7.9493361
-0.33129358 8.6136351 -7.8828092
-0.33184654 8.2961645 -7.816062
-0.33240008 7.9776039 -7.7492423
-0.33294794 7.657804 -7.6831112
-0.33340165 7.3348389 -7.6283436
-0.3338756 7.0113878 -7.5711336
-0.33435088 6.6870184 -7.5137606
-0.33482754 6.3617234 -7.4562254
-0.33520982 6.0337777 -7.410078
-0.33561602 5.7054729 -7.3610477
-0.33604881 5.3767819 -7.3088017
-0.33648276 5.0472426 -7.2564225
-0.33691651 4.7168322 -7.2040634
-0.33732039 4.3851666 -7.1553102
-0.33772394 4.0526886 -7.1066003
-0.33812714 3.7193987 -7.0579233
-0.33853263 3.3853288 -7.0089798
-0.33893779 3.0504413 -6.9600744
-0.33938313 2.7150667 -6.9063153
-0.33992279 2.3794596 -6.8411727
-0.34046412 2.0427842 -6.7758245
-0.3412424 1.7062136 -6.6818824
-0.34208533 1.3683417 -6.5801311
-0.34293112 1.0287939 -6.4780383
-0.34415853 0.68831807 -6.329874
-0.34550995 0.34551191 -6.1667428
-0.34694445 4.1377572e-07 -5.9935832
-0.34889048 -0.3488912 -5.7586751
-0.35156569 -0.70313096 -5.4357481
-0.35563841 -1.0669155 -4.9441276
-0.36223191 -1.4489261 -4.148221
-0.3787446 -1.8937211 -2.154964
-0.37649745 -2.2589839 -2.4262218
-1.7763665e-24 12.569544 -8.9689159
2.4969467e-24 12.272351 -8.8891726
6.5618428e-24 11.976007 -8.8023529
1.7019232e-24 11.677478 -8.7180338
3.619562e-24 11.376398 -8.6376915
-2.3121671e-24 11.074 -8.5573101
8.8698589e-24 10.770319 -8.4767437
4.587862e-24 10.464225 -8.4002457
4.874138e-24 10.15524 -8.3300676
1.8346538e-24 9.8451557 -8.2596416
-1.8982013e-24 9.5339632 -8.1889629
8.7818331e-24 9.2215557 -8.1184769
5.004491e-24 8.9064693 -8.0547514
9.5241544e-25 8.589982 -7.9926162
-5.1132781e-24 8.2725391 -7.9301372
-5.7367164e-24 7.9541001 -7.8674612
1.8827081e-24 7.6341395 -7.8073072
8.4381027e-24 7.3118916 -7.7542386
-6.0178175e-24 6.9888172 -7.7008791
9.4031747e-24 6.6653337 -7.6446371
-1.3440801e-24 6.3404646 -7.59129
3.2382204e-24 6.0144582 -7.5396376
2.9115231e-24 5.6876149 -7.4878531
7.136386e-24 5.359911 -7.4360867
1.2858972e-23 5.031384 -7.3840342
9.7819525e-24 4.7018318 -7.3333945
1.1905631e-24 4.3711877 -7.2851086
5.4050383e-25 4.0397396 -7.2368612
-5.1644388e-24 3.7075157 -7.188344
6.4886697e-24 3.3747935 -7.1361208
-3.5418174e-24 3.0412309 -7.0836082
-8.0337098e-24 2.7071919 -7.0251513
-1.0953783e-23 2.3723834 -6.963223
-4.050329e-24 2.0368261 -6.8957362
7.6379453e-24 1.7013608 -6.7990065
-9.5535718e-24 1.3644259 -6.6983142
-8.004275e-24 1.0260183 -6.5897536
-3.9338119e-24 0.6866532 -6.4304371
-8.6297967e-24 0.34465662 -6.269887
-1.1880577e-23 1.7373978e-06 -6.1080894
-4.715465e-24 -0.34800717 -5.8651757
-6.2084884e-24 -0.70131326 -5.5454016
-8.9622448e-25 -1.0643994 -5.0452943
-7.9590741e-24 -1.4467965 -4.2125063
8.957611e-24 -1.8865345 -2.3284855
-9.8485064e-24 -2.2518215 -2.5703013
0.32157466 12.541412 -9.0559883
0.32223231 12.244828 -8.9766026
0.32292107 11.948082 -8.8934603
0.3235985 11.649548 -8.8116837
0.32425734 11.349008 -8.7321606
0.32491884 11.047242 -8.6523104
0.32558182 10.744202 -8.5722799
0.32618472 10.437913 -8.499506
0.32676315 10.129659 -8.4296799
0.32734123 9.8202381 -8.3599033
0.32792011 9.5096855 -8.2900229
0.32849005 9.1977205 -8.2212276
0.32900047 8.8830147 -8.1596117
0.32951373 8.567359 -8.0976543
0.33003977 8.2509956 -8.0341597
0.33059227 7.9342151 -7.9674687
0.33104825 7.6141119 -7.9124212
0.3314856 7.2926841 -7.8596315
0.33192533 6.9704332 -7.8065515
0.33240008 6.6480026 -7.7492433
0.33280829 6.323359 -7.6999683
0.33320361 5.9976664 -7.6522474
0.3335999 5.6711993 -7.6044121
0.33399713 5.343956 -7.5564623
0.33439532 5.0159311 -7.5083981
0.33481097 4.6873531 -7.458221
0.33524042 4.3581271 -7.4063811
0.33567098 4.0280528 -7.3544083
0.33610138 3.6971169 -7.3024569
0.33653414 3.3653431 -7.250216
0.33696806 3.0327137 -7.1978374
0.33747676 2.6998162 -7.1364326
0.33798572 2.3659 -7.074996
0.33864978 2.0319002 -6.9948378
0.33944723 1.6972356 -6.8985767
0.34023792 1.3609536 -6.803133
0.34121066 1.0236331 -6.6857128
0.34244177 0.68488383 -6.5371027
0.34373143 0.34373233 -6.3814301
0.34517956 9.2792476e-07 -6.2066245
0.3471441 -0.34714308 -5.9694819
0.34989253 -0.6997835 -5.6377158
0.35424808 -1.0627421 -5.111958
0.36115506 -1.4446187 -4.2782087
0.37601364 -1.8800676 -2.4846191
0.37423384 -2.2454007 -2.6994622
0.64091927 12.818387 -9.1905842
0.64179724 12.515048 -9.1375914
0.6430648 12.218231 -9.0610895
0.64433968 11.920285 -8.9841423
0.64564335 11.621582 -8.9054613
0.6469546 11.321707 -8.8263187
0.64826888 11.020571 -8.7469959
0.64958364 10.71813 -8.6676407
0.65073067 10.411693 -8.5984116
0.65187448 10.104057 -8.529376
0.65302241 9.7953367 -8.4600954
0.65417433 9.485528 -8.3905706
0.65525961 9.1736355 -8.3250675
0.65627515 8.8597155 -8.263772
0.65735024 8.5455542 -8.198885
0.65844613 8.2305784 -8.1327429
0.6594938 7.9139271 -8.0695105
0.66036403 7.5941877 -8.0169849
0.66123664 7.2736039 -7.9643211
0.66221601 6.9532695 -7.90521
0.66314089 6.6314116 -7.8493891
0.66392571 6.3072958 -7.802021
0.66471237 5.9824119 -7.7545414
0.66550094 5.6567593 -7.7069492
0.66634929 5.3307953 -7.6557465
0.66722512 5.004189 -7.6028862
0.66800946 4.6760664 -7.5555439
0.66880584 4.3472404 -7.5074801
0.66962194 4.0177331 -7.4582243
0.67044258 3.6874361 -7.4086928
0.67126274 3.3563149 -7.3591967
0.67214119 3.0246379 -7.3061719
0.67311716 2.6924696 -7.2472649
0.67412955 2.3594539 -7.1861644
0.67564732 2.0269437 -7.0945573
0.67720324 1.6930088 -7.0006518
0.67876369 1.3575276 -6.9064717
0.68096513 1.0214477 -6.7736006
0.6833452 0.68334603 -6.62995
0.68576342 0.34288126 -6.4839988
0.68888235 2.1772449e-07 -6.2957549
0.69285995 -0.34642932 -6.0556841
0.69813496 -0.69813323 -5.7373128
0.70715934 -1.0607383 -5.1926394
0.7214818 -1.4429615 -4.3282037
0.74980897 -1.8745214 -2.6185079
0.74664354 -2.2399306 -2.8095579
0.9598527 12.798038 -9.2519903
0.96100473 12.493063 -9.2056379
0.9629029 12.196771 -9.1292629
0.96476626 11.898784 -9.054287
0.96659082 11.599092 -8.9808712
0.96840817 11.298097 -8.9077463
0.97023237 10.995968 -8.8343477
0.97198117 10.691793 -8.7639809
0.97363585 10.385451 -8.697402
0.97534299 10.078545 -8.6287117
0.97705609 9.7705622 -8.559782
0.9787752 9.4614954 -8.4906092
0.98033673 9.1498117 -8.4277782
0.98196524 8.8376894 -8.3622513
0.98359555 8.5244961 -8.2966547
0.98523122 8.2102623 -8.2308378
0.98666602 7.8933296 -8.1731062
0.98800898 7.5747352 -8.119071
0.98948157 7.2561998 -8.0598211
0.99095845 6.9367104 -8.0003929
0.99219382 6.6146269 -7.9506836
0.99336511 6.2913132 -7.9035573
0.99458027 5.967483 -7.854661
0.99591482 5.6435184 -7.8009634
0.99725294 5.3186836 -7.7471223
0.99848527 4.9924264 -7.6975389
0.99965632 4.6650643 -7.6504211
1.0008339 4.3369474 -7.6030383
1.0020103 4.0080419 -7.5556974
1.0032316 3.6785166 -7.5065594
1.0044559 3.3481872 -7.4573026
1.0058399 3.0175207 -7.4016051
1.0073086 2.6861584 -7.3425159
1.0090435 2.3544354 -7.2727084
1.0112447 2.022491 -7.1841393
1.0134594 1.6891 -7.0950265
1.0158126 1.3544177 -7.000339
1.0193081 1.0193092 -6.8596921
1.0228751 0.68191898 -6.7161655
1.0264673 0.34215656 -6.5716276
1.0312184 6.7816859e-07 -6.3804579
1.0373884 -0.34579399 -6.1321931
1.0463524 -0.69756782 -5.7715178
1.0587456 -1.058745 -5.2728467
1.0811732 -1.4415623 -4.3704319
1.1214341 -1.8690546 -2.7504606
1.1175022 -2.2350037 -2.9086621
1.2774092 12.774093 -9.3242493
1.2790973 12.471201 -9.273304
1.2815773 12.174987 -9.1984644
1.2840389 11.877362 -9.1241798
1.2864817 11.578337 -9.0504599
1.2888962 11.277844 -8.9775982
1.2913103 10.976139 -8.904747
1.2935767 10.672009 -8.8363552
1.2956842 10.365474 -8.7727537
1.2977986 10.05794 -8.7089453
1.29992 9.7493992 -8.6449299
1.3020674 9.4399891 -8.5801229
1.304058 9.1284056 -8.5200548
1.3060738 8.815999 -8.459219
1.3082368 8.503541 -8.3939428
1.310407 8.1900454 -8.3284502
1.3122717 7.873631 -8.2721825
1.31422 7.556767 -8.2133884
1.316174 7.2389574 -8.1544189
1.3180352 6.9196858 -8.0982494
1.3195854 6.5979271 -8.0514688
1.3213423 6.2763772 -7.9984493
1.323109 5.9539924 -7.945138
1.3248754 5.6307211 -7.8918328
1.3266413 5.3065672 -7.8385363
1.3281969 4.9807382 -7.7915969
1.3297509 4.6541286 -7.7446985
1.3313086 4.3267541 -7.6976905
1.33287 3.9986103 -7.6505718
1.334435 3.6696982 -7.603343
1.3360595 3.3401494 -7.5543213
1.3380587 3.0106339 -7.493988
1.3400946 2.6801913 -7.43255
1.3427147 2.3497515 -7.3534818
1.3456328 2.01845 -7.2654214
1.3485584 1.6856978 -7.1771297
1.3521608 1.3521631 -7.0684218
1.3565499 1.0174135 -6.9359713
1.3611305 0.68056494 -6.7977357
1.365901 0.34147698 -6.6537757
1.3724297 7.8853475e-07 -6.4567513
1.3811837 -0.34529495 -6.1925745
1.3935416 -0.69676936 -5.8196459
1.4099435 -1.0574572 -5.3246732
1.4427036 -1.4427021 -4.3360491
1.4917064 -1.8646313 -2.8572605
1.4874426 -2.2311625 -2.9859293
1.5934106 12.747287 -9.4051476
1.5960439 12.449144 -9.3415747
1.599104 12.153192 -9.2676983
1.6021699 11.856058 -9.1936808
1.6052241 11.557615 -9.1199436
1.6082374 11.257662 -9.0472012
1.6111026 10.9555 -8.9780235
1.613925 10.651905 -8.9098892
1.6166146 10.346335 -8.8449526
1.6192479 10.039339 -8.7813807
1.6218958 9.7313757 -8.7174559
1.6246301 9.4228554 -8.6514425
1.6271273 9.1119146 -8.591157
1.62962 8.7999487 -8.5309772
1.6321143 8.4869957 -8.4707584
1.6346406 8.1732035 -8.4097691
1.6368825 7.857038 -8.3556433
1.6391245 7.5399737 -8.3015146
1.6413728 7.2220416 -8.2472391
1.6435782 6.903028 -8.1939974
1.6457647 6.5830588 -8.1412077
1.647951 6.2622151 -8.0884256
1.6501493 5.9405384 -8.0353546
1.6523472 5.6179824 -7.9822912
1.6544329 5.2941861 -7.9319377
1.6563621 4.9690871 -7.8853669
1.6582955 4.6432276 -7.8386869
1.6602523 4.3166566 -7.7914453
1.6623956 3.9897506 -7.7396984
1.6645446 3.6620004 -7.6878214
1.6668 3.333602 -7.633369
1.6691881 3.0045404 -7.5757174
1.6716021 2.6745639 -7.5174365
1.6750736 2.3451045 -7.4336286
1.6786556 2.0143883 -7.3471513
