# .PCD v0.7 - Point Cloud Data file format
VERSION 0.7
FIELDS x y z
SIZE 4 4 4
TYPE F F F
COUNT 1 1 1
WIDTH 1477
HEIGHT 1
VIEWPOINT 0 0 0 1 0 0 0
POINTS 1477
DATA ascii
-5.7940192 -4.3455138 -4.160984
-5.785337 -4.7005854 -4.2264848
-5.7773914 -5.0552163 -4.2864299
-5.7688537 -5.408298 -4.350843
-5.759305 -5.7593036 -4.4228806
-5.7498116 -6.1091743 -4.4945006
-5.7403731 -6.4579182 -4.5657129
-5.7298932 -6.8042464 -4.6447749
-5.7173171 -7.1466455 -4.7396579
-5.7060661 -7.4892111 -4.8245378
-5.6950898 -7.8307481 -4.9073477
-5.6834674 -8.1699829 -4.9950314
-5.6701131 -8.505168 -5.0957842
-5.6571617 -8.8393126 -5.1934962
-5.6442914 -9.1719723 -5.2905922
-5.6314802 -9.5031223 -5.3872437
-5.6162858 -9.8284998 -5.5018768
-5.6006169 -10.151116 -5.6200914
-5.5850353 -10.47194 -5.7376466
-5.56954 -10.790981 -5.8545489
-5.5537362 -11.107472 -5.9737778
-5.5367384 -11.419523 -6.1020155
-5.5198879 -11.72976 -6.2291465
-5.503139 -12.038116 -6.355505
-6.5022964 2.1674333 4.4529581
-5.8604999 1.5628008 -0.71182084
-5.6960859 1.1392177 -2.0349219
-5.6255546 0.75007558 -2.6025157
-5.5829544 0.37219852 -2.9453368
-5.5486274 1.3163549e-07 -3.2215779
-5.5189815 -0.36793196 -3.4601488
-5.4990649 -0.7332074 -3.6204245
-5.4784966 -1.0956981 -3.7859466
-5.4659171 -1.4575764 -3.8871803
-5.4535079 -1.8178344 -3.9870443
-5.4444733 -2.1777892 -4.0597458
-5.4358935 -2.5367489 -4.1287913
-5.4276304 -2.8947349 -4.1952853
-5.4193926 -3.2516344 -4.2615786
-5.4111357 -3.6074226 -4.3280239
-5.4026165 -3.9619167 -4.3965826
-5.3951817 -4.316144 -4.4564157
-5.3878102 -4.6694341 -4.5157318
-5.3804603 -5.0217628 -4.5748839
-5.3720155 -5.3720145 -4.6428409
-5.3632269 -5.7207742 -4.7135658
-5.3544669 -6.0683937 -4.784061
-5.345736 -6.4148817 -4.8543234
-5.3354807 -6.7582755 -4.9368467
-5.3252444 -7.1003246 -5.019227
-5.3150678 -7.4410939 -5.1011186
-5.3049092 -7.7805319 -5.1828709
-5.2939196 -8.117341 -5.2713108
-5.282341 -8.451746 -5.3644814
-5.2708764 -8.7847939 -5.4567423
-5.2594829 -9.116437 -5.5484324
-5.2480965 -9.4465723 -5.6400652
-5.2348499 -9.7717199 -5.7466612
-5.2209482 -10.093832 -5.8585343
-5.2071409 -10.41428 -5.9696498
-5.1929774 -10.732153 -6.0836272
-5.1770444 -11.044361 -6.2118478
-5.1611881 -11.354612 -6.3394489
-5.1459503 -11.664153 -6.4620733
-5.1311803 -11.972753 -6.5809317
-5.1168318 -12.280396 -6.6963978
-5.9417477 2.1220539 3.3574014
-5.3742037 1.5354877 -1.5360683
-5.2633595 1.1278648 -2.4917898
-5.205214 0.74360317 -2.9931285
-5.1696 0.36925814 -3.3002024
-5.1373358 -1.8841789e-07 -3.5783877
-5.1137724 -0.3652679 -3.7815609
-5.0936618 -0.72766447 -3.9549549
-5.0768218 -1.0878881 -4.1001554
-5.0654345 -1.4472671 -4.1983347
-5.0549483 -1.8053375 -4.2887526
-5.0470033 -2.1630015 -4.357254
-5.0390835 -2.5195396 -4.4255443
-5.0311875 -2.8749642 -4.4936166
-5.0234199 -3.2293391 -4.5605965
-5.0162673 -3.5830469 -4.6222663
-5.009603 -3.9361143 -4.6797256
-5.0029569 -4.2882476 -4.7370305
-4.9963279 -4.6394463 -4.794188
-4.9896965 -4.9896975 -4.8513632
-4.9820156 -5.3378735 -4.9175892
-4.9742579 -5.6848655 -4.984477
-4.9665246 -6.0307789 -5.0511608
-4.9588351 -6.3756437 -5.1174583
-4.9504538 -6.718472 -5.1897259
-4.9413877 -7.059123 -5.2678943
-4.9323545 -7.3985314 -5.3457785
-4.9234133 -7.7367926 -5.4228692
-4.9138589 -8.0727673 -5.5052528
-4.9035015 -8.406002 -5.5945516
-4.8929172 -8.7373505 -5.6858153
-4.8823781 -9.0672722 -5.7766857
-4.8712106 -9.3944778 -5.872973
-4.8595958 -9.7191925 -5.9731159
-4.8468742 -10.039953 -6.0828042
-4.8341241 -10.358836 -6.192739
-4.8193116 -10.671333 -6.3204541
-4.8052077 -10.98333 -6.4420652
-4.7926197 -11.296888 -6.5506005
-4.778893 -11.605884 -6.6689491
-4.7640486 -11.91012 -6.7969451
-4.7501192 -12.214592 -6.9170451
-5.3917961 2.4885237 2.1917019
-5.4258809 2.0868785 2.508189
-4.9303155 1.5170203 -2.0933459
-4.8427963 1.1175709 -2.9060028
-4.7933292 0.73743594 -3.3653252
-4.7629418 0.36638033 -3.6474853
-4.7329569 1.1917733e-06 -3.9259071
-4.7140946 -0.36262044 -4.1010566
-4.696075 -0.72247112 -4.2683744
-4.6838765 -1.0808949 -4.3816423
-4.6734958 -1.4379976 -4.4780374
-4.6646991 -1.794114 -4.5597119
-4.6575646 -2.1496437 -4.6259623
-4.6505651 -2.504149 -4.6909537
-4.6439071 -2.8577881 -4.7527761
-4.6372867 -3.2104278 -4.8142519
-4.6309657 -3.5622802 -4.872941
-4.6248493 -3.9133317 -4.9297371
-4.6187487 -4.2634587 -4.9863834
-4.6126642 -4.6126633 -5.0428762
-4.6064663 -4.9608092 -5.1004291
-4.599823 -5.3074865 -5.1621189
-4.592701 -5.652554 -5.2282481
-4.5856013 -5.9965544 -5.2941713
-4.5787063 -6.3397465 -5.3581915
-4.5713763 -6.6812401 -5.4262595
-4.5630503 -7.0200782 -5.5035653
-4.5548096 -7.3577685 -5.5800858
-4.5467067 -7.6944265 -5.6553245
-4.5377331 -8.0282955 -5.7386484
-4.5284905 -8.3602896 -5.8244677
-4.5190177 -8.6904192 -5.912425
-4.509141 -9.0182819 -6.004137
-4.4984407 -9.3429165 -6.1034927
-4.4877739 -9.6659737 -6.2025404
-4.4767723 -9.9866457 -6.3046961
-4.464118 -10.30181 -6.422195
-4.4524183 -10.617304 -6.5308347
-4.440814 -10.931232 -6.638587
-4.4289441 -11.242704 -6.7487998
-4.4158263 -11.549084 -6.8706064
-4.4027686 -11.853607 -6.9918523
-4.389637 -12.155917 -7.1137867
-4.8894806 2.4447422 1.3108929
-4.7612009 1.983834 0.020502778
-4.5063152 1.5021049 -2.5434508
-4.4324417 1.1081105 -3.2865577
-4.3928523 0.73214233 -3.6847999
-4.3652382 0.36377117 -3.9625745
-4.3396087 1.5342895e-06 -4.2203922
-4.3229418 -0.3602446 -4.3880477
-4.3064203 -0.71773595 -4.5542407
-4.2967033 -1.0741761 -4.6519804
-4.2868919 -1.4289628 -4.750679
-4.280087 -1.7833678 -4.8191338
-4.2739944 -2.136996 -4.8804169
-4.2679024 -2.4896085 -4.9417024
-4.2618446 -2.841228 -5.0026369
-4.2558041 -3.1918526 -5.0634003
-4.2501221 -3.5417676 -5.1205544
-4.244524 -3.8908122 -5.1768689
-4.2389402 -4.2389383 -5.2330379
-4.2333541 -4.586134 -5.2892261
-4.2276649 -4.9322748 -5.3464594
-4.2219734 -5.2774663 -5.4037094
-4.2154737 -5.6206303 -5.4690933
-4.2091446 -5.9629536 -5.5327587
-4.2028513 -6.3042765 -5.5960631
-4.1964769 -6.6444221 -5.6601853
-4.1889257 -6.9815426 -5.7361407
-4.1815014 -7.3176265 -5.8108292
-4.1741028 -7.6525211 -5.8852491
-4.1657457 -7.9843435 -5.9693198
-4.1573071 -8.3146143 -6.0542026
-4.1491303 -8.644021 -6.1364512
-4.1401911 -8.9704142 -6.2263713
-4.1308384 -9.2943859 -6.3204556
-4.1215277 -9.6168976 -6.414113
-4.1119232 -9.9371481 -6.5107288
-4.1013441 -10.253361 -6.6171441
-4.0906773 -10.567582 -6.7244473
-4.0800815 -10.880216 -6.8310351
-4.0692105 -11.190331 -6.940382
-4.0575099 -11.496279 -7.0580812
-4.045691 -11.799932 -7.1769733
-4.0337553 -12.101267 -7.2970347
-4.4303145 2.4165351 0.74344862
-4.2307758 1.9230825 -1.4462265
-4.0910892 1.4876709 -2.9791069
-4.0340409 1.1001933 -3.6051316
-3.9991398 0.72711587 -3.9881284
-3.9742374 0.36129662 -4.2613997
-3.9533827 -1.2432622e-08 -4.4902525
-3.938549 -0.35804999 -4.6530342
-3.9250183 -0.7136392 -4.8015161
-3.9163873 -1.0681047 -4.8962326
-3.9084718 -1.4212623 -4.9830937
-3.9011378 -1.7732447 -5.0635724
-3.8954442 -2.1247859 -5.1260567
-3.8897669 -2.4753056 -5.1883535
-3.8841841 -2.8248603 -5.249619
-3.878726 -3.1735022 -5.3095121
-3.8736241 -3.5214751 -5.3655019
-3.8685508 -3.8685491 -5.4211755
-3.8634908 -4.2147169 -5.4767022
-3.8583364 -4.5598497 -5.5332637
-3.8532419 -4.9041247 -5.58917
-3.8483288 -5.2477188 -5.643084
-3.8429861 -5.5897961 -5.7017126
-3.837461 -5.9306197 -5.7623467
-3.8319361 -6.2704396 -5.8229728
-3.8264425 -6.6093078 -5.8832598
-3.8200154 -6.9454827 -5.9537864
-3.8134897 -7.2802973 -6.0253992
-3.8069713 -7.6139412 -6.0969281
-3.7999089 -7.9452639 -6.1744289
-3.792531 -8.2746115 -6.255393
-3.7849896 -8.6022472 -6.338151
-3.7770362 -8.9275389 -6.425427
-3.7687938 -9.2506752 -6.5158782
-3.7603388 -9.5717707 -6.6086602
-3.75137 -9.8899736 -6.7070832
-3.7417934 -10.20489 -6.8121734
-3.7322652 -10.518202 -6.9167295
-3.7226856 -10.829631 -7.0218534
-3.7128277 -11.138481 -7.130033
-3.7021871 -11.443123 -7.2468004
-3.6916213 -11.746067 -7.3627453
-3.6810458 -12.047058 -7.4787979
-3.9981236 2.7986882 0.38813928
-3.984432 2.39066 0.22286522
-3.7906084 1.8953055 -2.1167929
-3.6891687 1.4756693 -3.3412778
-3.6425881 1.0927773 -3.9035521
-3.6139219 0.72278672 -4.2495894
-3.5902338 0.35902369 -4.5355239
-3.5748603 1.531508e-06 -4.7210989
-3.5607982 -0.3560788 -4.8908463
-3.5485463 -0.70970821 -5.0387383
-3.5413699 -1.0624098 -5.1253667
-3.5342362 -1.4136927 -5.2114782
-3.5271595 -1.7635792 -5.2968998
-3.5221944 -2.1133151 -5.3568344
-3.5172575 -2.4620788 -5.4164295
-3.5124185 -2.8099334 -5.4748416
-3.5076766 -3.1569083 -5.532084
-3.5032816 -3.5032806 -5.585135
-3.4989116 -3.8488019 -5.6378822
-3.4945385 -4.1934457 -5.6906686
-3.4901352 -4.5371747 -5.7438226
-3.4857016 -4.879982 -5.7973433
-3.4812651 -5.2218962 -5.850894
-3.4762912 -5.5620646 -5.9109364
-3.4712768 -5.9011688 -5.9714665
-3.4663041 -6.2393465 -6.0314903
-3.461359 -6.5765815 -6.0911808
-3.4555876 -6.9111748 -6.16085
-3.4498084 -7.2445955 -6.2306161
-3.4439671 -7.5767269 -6.3011212
-3.4379447 -7.9072733 -6.373817
-3.4313016 -8.2351236 -6.4540071
-3.4242046 -8.5605116 -6.5396733
-3.4170444 -8.8843136 -6.6261091
-3.4099138 -9.2067661 -6.7121811
-3.4025238 -9.5270662 -6.8013859
-3.3942237 -9.8432474 -6.9015784
-3.3855996 -10.156798 -7.0056782
-3.3770192 -10.468758 -7.1092567
-3.368495 -10.779184 -7.2121491
-3.360014 -11.088045 -7.314527
-3.3509505 -11.393231 -7.4239321
-3.3419483 -11.696818 -7.5325971
-3.3329821 -11.998734 -7.6408291
-3.3318472 -12.327833 -7.6545291
-3.5585253 2.7677433 -0.14547914
-3.5541537 2.3694363 -0.20411466
-3.3731496 1.8739746 -2.6317971
-3.2978055 1.4656923 -3.6423333
-3.2582247 1.0860759 -4.1732016
-3.2342296 0.71871787 -4.4950328
-3.2129276 0.35699329 -4.7807422
-3.2002935 1.3747103e-06 -4.9501963
-3.187861 -0.35420558 -5.1169434
-3.1775739 -0.70612603 -5.2549162
-3.1704316 -1.0568105 -5.3507109
-3.1638389 -1.4061481 -5.4391365
-3.1584308 -1.7546835 -5.5116677
-3.1541076 -2.1027379 -5.5696526
-3.149859 -2.449888 -5.6266389
-3.1456342 -2.7961175 -5.6833053
-3.1414204 -3.1414199 -5.7398157
-3.1374044 -3.4860041 -5.7936797
-3.1335101 -3.8298452 -5.8459125
-3.1296008 -4.1728001 -5.8983431
-3.1256888 -4.5148826 -5.9508123
-3.1217501 -4.8560543 -6.0036421
-3.1177471 -5.1962438 -6.0573301
-3.113241 -5.5346503 -6.1177664
-3.1087482 -5.8720779 -6.1780291
-3.1042802 -6.2085605 -6.2379513
-3.0998735 -6.5441766 -6.2970538
-3.0947182 -6.877151 -6.3662019
-3.0895674 -7.2089896 -6.4352832
-3.0844345 -7.5397272 -6.5041323
-3.079282 -7.8692765 -6.5732327
-3.0733128 -8.1954994 -6.653296
-3.0669038 -8.5191765 -6.7392545
-3.0605216 -8.841507 -6.8248563
-3.0543306 -9.1629906 -6.9078922
-3.0482934 -9.4835787 -6.9888644
-3.0413463 -9.7998934 -7.0820398
-3.0340707 -10.113568 -7.1796222
-3.0268183 -10.425707 -7.2768946
-3.0196118 -10.736397 -7.3735476
-3.0124285 -11.045571 -7.4698939
-3.0043335 -11.349704 -7.5784655
-2.9962709 -11.652164 -7.6866035
-2.9882627 -11.95305 -7.7940159
-2.9795127 -12.249107 -7.9113708
-3.1324084 2.7408586 -0.60908687
-3.1372201 2.352916 -0.53648663
-2.9725261 1.8578302 -3.0215318
-2.9157588 1.457881 -3.8780789
-2.8808184 1.0803076 -4.4052911
-2.8596447 0.71491241 -4.7247772
-2.8431673 0.35539705 -4.9734035
-2.8296599 2.054587e-07 -5.1772122
-2.819932 -0.35249147 -5.3239923
-2.810652 -0.70266116 -5.4640179
-2.8046443 -1.0517424 -5.5546651
-2.798629 -1.3993136 -5.6454315
-2.7938573 -1.7461604 -5.7174301
-2.7899082 -2.0924294 -5.77702
-2.7861683 -2.4378972 -5.833446
-2.7824388 -2.7824368 -5.8897247
-2.7787297 -3.1260703 -5.9456878
-2.7751184 -3.4688969 -6.0001798
-2.7716796 -3.8110597 -6.0520635
-2.7682278 -4.1523414 -6.1041489
-2.7647846 -4.4927745 -6.1561046
-2.7613499 -4.8323627 -6.2079291
-2.7577188 -5.1707201 -6.262723
-2.7537525 -5.5075045 -6.3225651
-2.7497978 -5.8433185 -6.3822389
-2.7458651 -6.178195 -6.4415812
-2.7420607 -6.5123944 -6.4989781
-2.7377033 -6.8442588 -6.5647273
-2.7333808 -7.1751246 -6.6299481
-2.7290614 -7.5049186 -6.6951232
-2.7247665 -7.833703 -6.7599325
-2.7199595 -8.1598778 -6.8324618
-2.7145107 -8.4828453 -6.9146786
-2.7091463 -8.8047247 -6.9956231
-2.7038028 -9.1253338 -7.0762491
-2.6984906 -9.4447174 -7.1564016
-2.6927569 -9.7612429 -7.242918
-2.6863713 -10.073893 -7.3392677
-2.6799955 -10.384983 -7.4354706
-2.6736298 -10.694518 -7.5315247
-2.667294 -11.002586 -7.6271253
-2.6604054 -11.306722 -7.7310634
-2.6532629 -11.608023 -7.8388395
-2.6461682 -11.907756 -7.9458866
-2.6390126 -12.205433 -8.0538559
-2.7187395 2.71874 -0.9904983
-2.7283282 2.3385682 -0.82514626
-2.5839875 1.8457075 -3.3142157
-2.5374393 1.4499661 -4.1169081
-2.5090318 1.0753011 -4.6067781
-2.4905953 0.71160042 -4.9247065
-2.4762506 0.35375005 -5.1720676
-2.4643929 9.6227302e-07 -5.3765454
-2.4567237 -0.35095927 -5.508801
-2.4487321 -0.69963676 -5.6466074
-2.4430366 -1.0470141 -5.7448254
-2.4381576 -1.3932309 -5.8289604
-2.4334135 -1.7381519 -5.9107709
-2.4299896 -2.0828471 -5.9698148
-2.4265752 -2.4265742 -6.0286908
-2.4231703 -2.7693355 -6.0874052
-2.4197752 -3.1111381 -6.1459532
-2.4164937 -3.4521322 -6.2025404
-2.4136744 -3.7929158 -6.2511563
-2.4108713 -4.1329203 -6.2994947
-2.4080653 -4.4721203 -6.3478823
-2.4052751 -4.8105488 -6.395997
-2.402379 -5.147953 -6.4459391
-2.3990512 -5.4835443 -6.5033259
-2.3958163 -5.8184104 -6.5591097
-2.3925993 -6.1523962 -6.6145854
-2.3893819 -6.4854631 -6.6700697
-2.3856745 -6.8162122 -6.7340016
-2.3816471 -7.1449389 -6.8034506
-2.3778994 -7.4733977 -6.8680763
-2.3741724 -7.8008518 -6.9323425
-2.3704209 -8.1271553 -6.9970393
-2.3656187 -8.448637 -7.0798516
-2.3608358 -8.7688179 -7.1623268
-2.3561535 -9.0880203 -7.243073
-2.3515341 -9.4061356 -7.3227262
-2.3468885 -9.7228241 -7.4028382
-2.3413448 -10.034334 -7.4984345
-2.3358276 -10.344378 -7.5935779
-2.330327 -10.652925 -7.6884255
-2.3248441 -10.959978 -7.7829819
-2.3190637 -11.264023 -7.882659
-2.312861 -11.564304 -7.9896226
-2.3070538 -11.864847 -8.0897646
-2.3012068 -12.16352 -8.1905918
-3.1663046 14.77609 15.827643
-3.1589041 14.215071 15.678761
-3.1515572 13.656748 15.530951
-3.1443002 13.101252 15.384953
-3.1386418 12.55457 15.271116
-3.1330225 12.009921 15.158061
-3.1274045 11.467153 15.045034
-3.121825 10.926391 14.932788
-3.1162472 10.387492 14.820569
-3.1107075 9.8505735 14.709121
-3.1051693 9.3155107 14.5977
-3.0996506 8.7823429 14.486674
-3.0941699 8.2511215 14.376407
-3.0886903 7.7217269 14.266168
-3.0832479 7.1942482 14.156677
-3.0778069 6.6685824 14.047214
-3.0694585 6.1389208 13.879254
-3.0626631 5.6148825 13.742543
-3.0572593 5.0954313 13.633823
-3.0518742 4.5778127 13.525485
-3.0465081 4.0620112 13.417527
-2.3134544 2.6990314 -1.3303778
-2.3244543 2.3244555 -1.1090741
-2.203717 1.836432 -3.5381227
-2.163506 1.4423391 -4.3471003
-2.1401041 1.0700533 -4.8179121
-2.124557 0.70818698 -5.1306968
-2.1135619 0.35226059 -5.3519011
-2.10268 1.3558337e-06 -5.5708308
-2.0961244 -0.34935251 -5.7027149
-2.0897503 -0.69658226 -5.8309555
-2.0845077 -1.0422527 -5.9364257
-2.0805686 -1.3870442 -6.0156784
-2.0766361 -1.7305288 -6.0947948
-2.0737023 -2.0737019 -6.1538124
-2.0708826 -2.416028 -6.2105436
-2.0680623 -2.7574158 -6.2672811
-2.0654676 -3.0982001 -6.3194809
-2.062952 -3.4382522 -6.370091
-2.0604103 -3.7774198 -6.4212251
-2.0578752 -4.1157484 -6.4722352
-2.0554976 -4.4535775 -6.5200601
-2.0531261 -4.7906256 -6.5677791
-2.0507598 -5.1268992 -6.6153836
-2.0480177 -5.46138 -6.6705475
-2.0451169 -5.794497 -6.7289052
-2.0423429 -6.127027 -6.7847195
-2.0396154 -6.4587812 -6.8395882
-2.0367854 -6.7892842 -6.8965254
-2.0332983 -7.1165423 -6.9666834
-2.0298305 -7.4427109 -7.036447
-2.0265069 -7.7682748 -7.1033154
-2.0233412 -8.0933638 -7.1670036
-2.0195909 -8.4149618 -7.2424507
-2.0155239 -8.7339363 -7.3242726
-2.0114734 -9.0516291 -7.4057651
-2.0074389 -9.3680477 -7.4869313
-2.0034964 -9.6835661 -7.5662446
-1.9990175 -9.9950857 -7.6563544
-1.9943253 -10.304014 -7.7507548
-1.9896549 -10.611492 -7.8447165
-1.985051 -10.91778 -7.9373384
-1.9805799 -11.223286 -8.0272923
-1.9757594 -11.525262 -8.1242743
-1.9709916 -11.825948 -8.220192
-1.966247 -12.12519 -8.3156481
-2.6607466 18.625225 16.362619
-2.6565251 18.064373 16.260708
-2.6523173 17.505299 16.159122
-2.6481228 16.947987 16.057858
-2.6439416 16.392439 15.956912
-2.6397734 15.838641 15.856283
-2.6356184 15.286587 15.755972
-2.6314762 14.73627 15.655975
-2.6273317 14.187593 15.555919
-2.623497 13.642186 15.46334
-2.6197205 13.098603 15.372163
-2.6159544 12.556581 15.281245
-2.6121838 12.016048 15.190212
-2.6084394 11.477137 15.099818
-2.604706 10.939766 15.009684
-2.6011829 10.404735 14.924627
-2.5976539 9.8710861 14.839431
-2.5941498 9.3389416 14.754834
-1.9156765 2.6819477 -1.6249601
-1.9272289 2.3126752 -1.3460603
-1.8278632 1.8278643 -3.7449589
-1.7953438 1.4362764 -4.5300488
-1.7765278 1.0659187 -4.9843054
-1.7633821 0.70535284 -5.3016729
-1.7543342 0.3508679 -5.5201087
-1.7457248 2.3589871e-06 -5.7279592
-1.7398074 -0.34795994 -5.8708162
-1.7348384 -0.69393492 -5.9907775
-1.7299181 -1.0379504 -6.1095624
-1.7267165 -1.3813733 -6.1868558
-1.7235067 -1.7235065 -6.2643504
-1.7207524 -2.0649009 -6.3308473
-1.7184961 -2.4058931 -6.3853154
-1.7164063 -2.746248 -6.4357667
-1.7143151 -3.0857651 -6.4862552
-1.7122355 -3.4244704 -6.5364594
-1.7101543 -3.7623386 -6.5867057
-1.708045 -4.0993071 -6.6376257
-1.7059344 -4.4354291 -6.6885824
-1.7038817 -4.7708678 -6.7381401
-1.7019193 -5.1057563 -6.7855144
-1.6998632 -5.4395614 -6.8351545
-1.6974716 -5.7714024 -6.8928924
-1.6950868 -6.1023126 -6.9504676
-1.6927152 -6.4323173 -7.0077229
-1.6904606 -6.7618413 -7.0621548
-1.6877525 -7.0885596 -7.1275339
-1.6848855 -7.4134955 -7.1967492
-1.6820217 -7.737299 -7.2658863
-1.6791741 -8.0600338 -7.3346338
-1.6763107 -8.3815536 -7.4037623
-1.6729482 -8.6993303 -7.4849377
-1.6695995 -9.0158358 -7.5657849
-1.6664027 -9.3318548 -7.642961
-1.6632433 -9.6468115 -7.7192359
-1.6598957 -9.9593735 -7.8000574
-1.6562186 -10.268555 -7.888824
-1.6525643 -10.57641 -7.9770508
-1.6489197 -10.88287 -8.0650368
-1.6452974 -11.188021 -8.1524887
-1.6412076 -11.488453 -8.2512255
-1.637126 -11.787306 -8.3497667
-1.6331917 -12.085618 -8.444746
-1.6306276 -12.39277 -8.5066471
-1.5243191 2.6675596 -1.8730869
-1.5340159 2.3010261 -1.580457
-1.4560237 1.8200312 -3.9340811
-1.4302808 1.4302827 -4.7109394
-1.4154608 1.0615965 -5.1581726
-1.405511 0.7027564 -5.4584351
-1.3986478 0.34966239 -5.6655493
-1.3920109 1.5169186e-06 -5.86584
-1.3865597 -0.34663859 -6.0303392
-1.3826364 -0.69131821 -6.1487355
-1.3787297 -1.0340449 -6.2666311
-1.3757685 -1.3757676 -6.3559904
-1.3733714 -1.7167133 -6.4283371
-1.3710892 -2.056632 -6.4972081
-1.3693092 -2.3962891 -6.5509224
-1.3676295 -2.7352593 -6.6016097
-1.3659751 -3.0734432 -6.6515365
-1.3643194 -3.4107981 -6.7015009
-1.3626729 -3.7473497 -6.7511868
-1.3610095 -4.0830283 -6.8013849
-1.3593343 -4.4178367 -6.8519382
-1.3576686 -4.7518392 -6.9022112
-1.3560016 -5.0850062 -6.9525137
-1.3544012 -5.4176044 -7.0008082
-1.3525865 -5.7484913 -7.0555763
-1.3506937 -6.0781202 -7.1126928
-1.3488063 -6.4068284 -7.1696529
-1.3469189 -6.7345939 -7.2266078
-1.3449445 -7.0609565 -7.2861948
-1.3427659 -7.3852119 -7.3519387
-1.3405893 -7.7083864 -7.4176235
-1.3384197 -8.0305185 -7.4830942
-1.3362571 -8.3516073 -7.5483556
-1.333743 -8.6693287 -7.6242304
-1.331213 -8.9856882 -7.7005739
-1.3286978 -9.3008833 -7.7764816
-1.326192 -9.6148911 -7.8520994
-1.3236707 -9.9275293 -7.9281855
-1.320743 -10.235758 -8.0165358
-1.3178332 -10.542664 -8.1043501
-1.314936 -10.848221 -8.1917772
-1.3120567 -11.152481 -8.2786713
-1.3089222 -11.453068 -8.3732624
-1.3056333 -11.750699 -8.4725094
-1.3023659 -12.046884 -8.5711155
-1.2992344 -12.342726 -8.665617
-1.1373049 2.6537127 -2.1118701
-1.1450526 2.2901065 -1.8001269
-1.087474 1.8124566 -4.1169076
-1.0692379 1.4256521 -4.8506694
-1.0580165 1.0580171 -5.3021865
-1.0504496 0.70030051 -5.6066518
-1.0452472 0.34841564 -5.8159847
-1.0404522 9.8503267e-07 -6.0089197
-1.0361681 -0.34538925 -6.1812968
-1.0334003 -0.68893385 -6.2926641
-1.030611 -1.0306091 -6.4048967
-1.0281248 -1.3708328 -6.5049362
-1.0264194 -1.7106965 -6.5735555
-1.0246443 -2.0492871 -6.6449847
-1.0232236 -2.3875215 -6.7021394
-1.0219021 -2.725071 -6.7553239
-1.0205837 -3.0617514 -6.8083658
-1.0192648 -3.397547 -6.8614345
-1.0179533 -3.7324946 -6.9142051
-1.0167195 -4.0668778 -6.9638515
-1.015473 -4.400382 -7.0140028
-1.0142841 -4.7333255 -7.0618405
-1.0131136 -5.0655665 -7.1089425
-1.0119495 -5.3970618 -7.1557784
-1.0106915 -5.7272515 -7.2063942
-1.0093325 -6.055994 -7.2610755
-1.0079926 -6.3839526 -7.3149929
-1.0066601 -6.7110658 -7.3686094
-1.0053272 -7.0372891 -7.4222403
-1.0036432 -7.3600488 -7.4899993
-1.0020066 -7.6820488 -7.555851
-1.0003942 -8.0031548 -7.6207228
-0.99878341 -8.3231945 -7.6855407
-0.99701959 -8.6408367 -7.7565084
-0.99511212 -8.9560099 -7.8332596
-0.99322701 -9.2701168 -7.9091167
-0.99136001 -9.5831461 -7.9842362
-0.98949635 -9.8949623 -8.0592241
-0.98740721 -10.203207 -8.1432858
-0.98523492 -10.509171 -8.230691
-0.98307228 -10.813794 -8.3177099
-0.98092628 -11.117165 -8.4040537
-0.9786737 -11.41786 -8.4946928
-0.97622222 -11.714665 -8.5933332
-0.97395885 -12.012158 -8.6844044
-0.97169882 -12.308185 -8.775342
-0.75484705 2.6419666 -2.3144364
-0.75983524 2.2795062 -2.0133698
-0.7229386 1.807348 -4.2402773
-0.71079183 1.421585 -4.9734035
-0.70329708 1.0549477 -5.4257522
-0.69818473 0.69818687 -5.7343068
-0.69455922 0.3472811 -5.9531274
-0.69155431 2.2792428e-06 -6.1344862
-0.68859148 -0.34429452 -6.3133101
-0.68660003 -0.68659854 -6.433506
-0.68480104 -1.0272002 -6.5420871
-0.68298757 -1.3659739 -6.651536
-0.68180329 -1.7045074 -6.7230139
-0.68067831 -2.0420344 -6.7909126
-0.6796934 -2.3789263 -6.8503551
-0.67884994 -2.7153986 -6.9012623
-0.67801124 -3.0510504 -6.9518838
-0.67717463 -3.3858707 -7.0023823
-0.67634517 -3.7198977 -7.0524387
-0.67552817 -4.0531673 -7.1017528
-0.67466402 -4.3853145 -7.1539073
-0.67386913 -4.7170835 -7.2018847
-0.67309403 -5.0482044 -7.2486625
-0.67232341 -5.3785849 -7.2951784
-0.67155182 -5.70819 -7.341743
-0.67061615 -6.0355449 -7.3982177
-0.66968048 -6.3619642 -7.4546871
-0.66879827 -6.6879821 -7.5079374
-0.66791576 -7.0131145 -7.5612001
-0.6668967 -7.3358626 -7.622705
-0.66576749 -7.6563268 -7.6908569
-0.66466218 -7.9759455 -7.7575679
-0.66359556 -8.2949448 -7.8219461
-0.66250247 -8.6125307 -7.8879242
-0.66124159 -8.9267616 -7.9640222
-0.65998548 -9.2397957 -8.0398331
-0.6587342 -9.5516453 -8.1153555
-0.65749991 -9.8624983 -8.1898499
-0.65618712 -10.170899 -8.2690849
-0.65474814 -10.475969 -8.355937
-0.65331542 -10.779704 -8.4424076
-0.65188897 -11.082111 -8.5285015
-0.65044951 -11.382867 -8.6153784
-0.64894229 -11.680961 -8.7063503
-0.64751107 -11.978954 -8.7927313
-0.64604825 -12.274916 -8.8810234
-0.37592855 2.6315017 -2.4948885
-0.37824529 2.2694714 -2.2152383
-0.3607409 1.8037059 -4.3282042
-0.35449901 1.4179975 -5.0816646
-0.35063636 1.0519091 -5.5479264
-0.34807286 0.69614595 -5.8573704
-0.34622845 0.34622931 -6.0800114
-0.34474856 9.6168242e-07 -6.2586513
-0.3432813 -0.34327963 -6.4357677
-0.34216905 -0.68433785 -6.5700245
-0.34131908 -1.0239558 -6.6726246
-0.34047467 -1.3618982 -6.7745528
-0.33979559 -1.6989762 -6.8565297
-0.33925763 -2.0355458 -6.9214616
-0.33873054 -2.371114 -6.9850903
-0.33831286 -2.7065029 -7.0355048
-0.33789498 -3.0410545 -7.0859528
-0.33748582 -3.3748574 -7.1353383
-0.33707899 -3.7078671 -7.1844516
-0.33667311 -4.0400767 -7.2334433
-0.33625665 -4.3713374 -7.2837129
-0.33582458 -4.7015419 -7.3358703
-0.33539873 -5.0309806 -7.3872743
-0.33501473 -5.3602347 -7.4336262
-0.33463162 -5.6887374 -7.4798741
-0.33421132 -6.0158033 -7.5306063
-0.33373263 -6.3409195 -7.5883884
-0.33325532 -6.6651039 -7.6460071
-0.33281457 -6.9891052 -7.6992102
-0.33235493 -7.3118076 -7.7546921
-0.33179528 -7.6312914 -7.8222475
-0.33123749 -7.9496994 -7.8895774
-0.33068037 -8.2670078 -7.9568315
-0.33014861 -8.5838642 -8.021018
-0.32954457 -8.8977022 -8.0939331
-0.32891941 -9.2097416 -8.1694002
-0.32829779 -9.5206356 -8.2444305
-0.32767853 -9.8303566 -8.3191795
-0.3270568 -10.138761 -8.3942337
-0.32634544 -10.443053 -8.4801035
-0.32567933 -10.747417 -8.5605068
-0.32501715 -11.050583 -8.6404409
-0.32435647 -11.352476 -8.7201958
-0.32362705 -11.650574 -8.8082399
-0.32288793 -11.946854 -8.8974609
-0.32215688 -12.241961 -8.9857073
-8.6230662e-25 2.622123 -2.6566193
-3.3319059e-24 2.2615662 -2.3742914
-6.725339e-25 1.8003654 -4.4088483
2.6417216e-24 1.4150565 -5.170352
-1.0054703e-24 1.0493412 -5.6513028
-1.0810338e-23 0.69426006 -5.9713016
8.5726911e-24 0.34518871 -6.2054801
1.1596011e-24 1.3369942e-06 -6.3786774
-3.8230684e-24 -0.34240055 -6.5417647
-9.7984239e-24 -0.6823591 -6.689383
-1.6193145e-24 -1.0210526 -6.7894845
-6.2973954e-24 -1.358081 -6.8897333
-4.2985031e-27 -1.6936641 -6.9847775
-1.4430088e-24 -2.0291588 -7.0499325
1.0770566e-23 -2.3635955 -7.1147227
-9.0391437e-24 -2.6976519 -7.1690292
-5.2888233e-25 -3.0312152 -7.2179036
8.7634881e-24 -3.3639653 -7.2668157
2.3893792e-24 -3.695915 -7.3156109
3.5967671e-24 -4.0270848 -7.3641334
2.2775416e-24 -4.3574448 -7.4126959
-5.5117491e-24 -4.6866226 -7.4645209
9.7570955e-24 -5.0149579 -7.516211
-1.3036175e-24 -5.3424335 -7.5679245
8.9888097e-25 -5.669416 -7.617065
-4.0657536e-25 -5.9960766 -7.6628933
-8.1714275e-25 -6.3202987 -7.7193899
-7.5642989e-24 -6.6434369 -7.7767844
-1.0656253e-23 -6.9656787 -7.8338642
1.3134313e-24 -7.2873888 -7.8886752
-2.9731757e-24 -7.6064181 -7.9527836
1.094565e-24 -7.9238038 -8.0198231
-6.8604275e-24 -8.2401552 -8.0864906
-6.2516355e-24 -8.5554495 -8.152935
2.9060551e-24 -8.869626 -8.2194529
-8.6983401e-24 -9.1818304 -8.2897291
6.6875841e-25 -9.4929304 -8.3597536
2.8892883e-24 -9.8029308 -8.429533
7.6978763e-25 -10.111837 -8.4990683
4.3512889e-24 -10.417501 -8.5764914
-7.628468e-24 -10.721212 -8.6563616
-8.3126636e-24 -11.023652 -8.7360516
7.5945753e-24 -11.324908 -8.8152714
3.0550528e-24 -11.623114 -8.9003181
8.5559775e-25 -11.918757 -8.9891195
-1.0701831e-23 -12.214438 -9.0731297
0.37338507 2.6136968 -2.8019185
0.37562075 2.253727 -2.5320468
0.35983893 1.799197 -4.4370828
0.3530114 1.4120474 -5.2612352
0.34890294 1.0467099 -5.757174
0.34625292 0.69250727 -6.0770564
0.34423789 0.34423906 -6.3202939
0.34289905 1.4596822e-06 -6.4819055
0.34157059 -0.34156948 -6.6422639
0.34025237 -0.68050402 -6.8013883
0.33936742 -1.0180998 -6.9082093
0.33854824 -1.3541926 -7.0070939
0.33776665 -1.6888313 -7.1014395
0.33719254 -2.023155 -7.1707416
0.33667955 -2.3567564 -7.2326665
0.33619246 -2.6895394 -7.2914615
0.3357529 -3.021776 -7.3445234
0.33531445 -3.3531427 -7.3974481
0.33491281 -3.6840384 -7.4459291
0.33451343 -4.0141597 -7.4941406
0.33411372 -4.3434768 -7.5423927
0.33369848 -4.6717777 -7.5925117
0.33327296 -4.9990945 -7.6438742
0.33284855 -5.3255744 -7.6951103
0.33242518 -5.651228 -7.746213
0.33200291 -5.9760504 -7.7971883
0.33156794 -6.2997918 -7.849689
0.33109927 -6.6219859 -7.90626
0.33066174 -6.9438958 -7.9590764
0.33022413 -7.2649302 -8.0119028
0.32974195 -7.584065 -8.0701036
0.32922801 -7.9014711 -8.1321478
0.32871562 -8.2178888 -8.1939983
0.32820359 -8.5332928 -8.2558041
0.32768831 -8.8475838 -8.3180046
0.32708958 -9.1585073 -8.3902779
0.32650998 -9.4687891 -8.4602404
0.32593483 -9.7780447 -8.5296669
0.32536173 -10.086212 -8.5988474
0.32475111 -10.392035 -8.672555
0.32409388 -10.695097 -8.7518911
0.32343811 -10.996894 -8.8310499
0.32278499 -11.297475 -8.9098873
0.32210505 -11.59578 -8.9919643
0.32137284 -11.890794 -9.080349
0.32070819 -12.186909 -9.1605825
0.32090917 -12.515458 -9.1363201
0.7446897 2.606415 -2.9274838
0.74880815 2.2464261 -2.6789153
0.71872944 1.7968246 -4.4943237
0.70493501 1.4098722 -5.3268886
0.69627225 1.04441 -5.8497329
0.69077873 0.69078058 -6.1812983
0.686849 0.34342661 -6.418478
0.68395549 6.3211036e-07 -6.5931177
0.68139452 -0.34069625 -6.7476878
0.67893893 -0.67893815 -6.8958917
0.67701846 -1.0155276 -7.0118055
0.67547119 -1.3509412 -7.1051908
0.67391807 -1.684795 -7.1989269
0.67257494 -2.0177233 -7.2799954
0.67153907 -2.3503842 -7.3425155
0.67052168 -2.6820855 -7.4039187
0.66964483 -3.013402 -7.4568386
0.66877288 -3.3438642 -7.5094705
0.66790313 -3.6734655 -7.561965
0.66703564 -4.002212 -7.6143222
0.66617036 -4.3301063 -7.6665435
0.66532749 -4.6572924 -7.7174168
0.66454434 -4.9840813 -7.7646832
0.6637606 -5.3100834 -7.8119869
0.66297865 -5.6353173 -7.8591809
0.66220111 -5.9598093 -7.9061108
0.6614179 -6.2834687 -7.9533839
0.66049033 -6.6049018 -8.0093641
0.65961975 -6.9260058 -8.0619097
0.65874904 -7.2462382 -8.1144619
0.65786827 -7.565484 -8.1676207
0.65678656 -7.8814383 -8.2329054
0.65574503 -8.1968107 -8.2957706
0.65472627 -8.5114393 -8.3572578
0.65371305 -8.8251257 -8.4184093
0.65257245 -9.1360149 -8.4872513
0.65138519 -9.4450855 -8.5589075
0.65021902 -9.7532845 -8.6292925
0.64907861 -10.060719 -8.698122
0.64791596 -10.366655 -8.7682943
0.64660788 -10.669028 -8.8472452
0.6453051 -10.970185 -8.9258747
0.6440075 -11.27013 -9.0041904
0.64269876 -11.568577 -9.0831795
0.64129025 -11.863869 -9.1681929
0.63997388 -12.159504 -9.2476416
0.63899189 -12.46034 -9.3069096
1.1143211 2.6000845 -3.0366626
1.1197327 2.2394671 -2.8189158
1.0769429 1.794906 -4.5406489
1.0554343 1.4072473 -5.4060831
1.0419375 1.0419389 -5.9491601
1.0340474 0.68936723 -6.2666306
1.0281167 0.34270513 -6.5052571
1.0234933 1.9661552e-06 -6.6912966
1.019851 -0.33994931 -6.8378482
1.0162776 -0.67751777 -6.9816308
1.0130048 -1.0130039 -7.1133184
1.0107148 -1.3476185 -7.2054644
1.0084388 -1.6807308 -7.2970371
1.0061771 -2.0123532 -7.3880439
1.0046277 -2.3441305 -7.4503865
1.0031098 -2.674958 -7.5114627
1.0017787 -3.0053349 -7.5650229
1.0005382 -3.3351269 -7.6149311
0.9993009 -3.6641016 -7.664721
0.9980666 -3.9922657 -7.7143822
0.99686545 -4.3197503 -7.7627139
0.99568969 -4.6465507 -7.8100233
0.99438196 -4.9719086 -7.8626437
0.99309999 -5.2965312 -7.9142241
0.99193686 -5.6209745 -7.9610267
0.99077266 -5.9446349 -8.0078688
0.98961121 -6.2675366 -8.0546026
0.98830086 -6.5886712 -8.1073265
0.98688346 -6.9081831 -8.1643572
0.98558772 -7.227643 -8.2164946
0.98429173 -7.546236 -8.2686415
0.98277974 -7.8622365 -8.3294802
0.98116672 -8.1763878 -8.3943825
0.97958082 -8.4896994 -8.4581947
0.97806877 -8.8026171 -8.5190363
0.97646028 -9.1136293 -8.5837536
0.97469175 -9.42202 -8.6549139
0.97292602 -9.7292595 -8.7259626
0.97116667 -10.035386 -8.7967548
0.96946704 -10.340981 -8.8651438
0.96755356 -10.643089 -8.942132
0.96561241 -10.943605 -9.0202417
0.9636755 -11.24288 -9.098175
0.96174628 -11.540955 -9.1758013
0.95979345 -11.837453 -9.2543755
0.95789367 -12.133318 -9.3308182
0.95706099 -12.441792 -9.3643236
1.4824293 2.5942535 -3.1372199
1.4885991 2.2329001 -2.9510331
1.4344914 1.7931154 -4.5838766
1.4046369 1.4046383 -5.4848142
1.387592 1.0406938 -5.9991903
1.376091 0.68804687 -6.346262
1.3680702 0.34201899 -6.5883102
1.3617775 1.0400018e-06 -6.7782068
1.3569887 -0.3392463 -6.9227257
1.3522282 -0.67611372 -7.0663853
1.3475372 -1.0106514 -7.207953
1.3444824 -1.3444825 -7.3001337
1.3415847 -1.6769799 -7.3875833
1.3386995 -2.0080476 -7.4746547
1.3363686 -2.3386431 -7.5449924
1.3343844 -2.6687694 -7.604867
1.332497 -2.9981163 -7.6618319
1.330851 -3.327126 -7.7115006
1.3292091 -3.655324 -7.7610502
1.3276362 -3.9829078 -7.8085146
1.3260722 -4.3097329 -7.8557148
1.3245066 -4.6357713 -7.9029565
1.3228754 -4.9607821 -7.9521842
1.3210797 -5.2843175 -8.0063734
1.3192888 -5.6069765 -8.0604172
1.3176755 -5.9295378 -8.1091108
1.3161396 -6.2516627 -8.1554575
1.3145485 -6.572742 -8.2034712
1.3126677 -6.8915052 -8.260231
1.3107972 -7.209384 -8.316679
1.3090341 -7.5269446 -8.3698845
1.3071884 -7.8431296 -8.4255838
1.3050481 -8.1565504 -8.4901686
1.3029196 -8.468977 -8.5544014
1.3007982 -8.7803869 -8.6184235
1.2987698 -9.0913868 -8.6796379
1.2964184 -9.3990326 -8.750596
1.2940755 -9.7055664 -8.8212967
1.2917411 -10.010993 -8.8917446
1.2894151 -10.31532 -8.9619389
1.2871022 -10.618591 -9.0317392
1.2847085 -10.920021 -9.1039743
1.2823189 -11.220291 -9.1760798
1.2799432 -11.519486 -9.2477827
1.2774973 -11.816849 -9.3215942
1.2749729 -12.112243 -9.397768
1.2737515 -12.419076 -9.4346323
1.8497677 2.5896757 -3.2161386
1.8560668 2.2272813 -3.0640612
1.7937058 1.7937084 -4.5695944
1.7536566 1.4029254 -5.5364661
1.7322862 1.0393717 -6.0523939
1.7175511 0.68702137 -6.4081321
1.7069658 0.34139469 -6.6636796
1.6987485 1.6460375e-06 -6.8620663
1.6927607 -0.33855224 -7.0066218
1.6870219 -0.67480838 -7.1451712
1.681585 -1.0089508 -7.2764282
1.677179 -1.3417431 -7.382802
1.6735905 -1.6735884 -7.4694352
1.6700047 -2.0040045 -7.5560021
1.6667306 -2.3334234 -7.6350436
1.6641861 -2.6626968 -7.6964741
1.6616744 -2.9910142 -7.7571135
1.6596079 -3.3192132 -7.8070059
1.6576526 -3.6468339 -7.8542085
1.6556957 -3.9736671 -7.901454
1.6537495 -4.2997475 -7.9484377
1.651808 -4.6250625 -7.9953084
1.6498711 -4.9496126 -8.0420704
1.6476674 -5.2725353 -8.095273
1.6454388 -5.594491 -8.1490774
1.6432163 -5.9155769 -8.202734
1.641012 -6.2358437 -8.2559509
1.6391002 -6.5563993 -8.3021049
1.6368886 -6.8749323 -8.3554945
1.6345556 -7.1920438 -8.4118195
1.6322292 -7.5082536 -8.4679813
1.6299878 -7.8239403 -8.5220938
1.6273617 -8.1368093 -8.585494
1.624714 -8.4485111 -8.6494169
1.6220869 -8.7592688 -8.7128401
1.619629 -9.0699205 -8.7721796
1.616959 -9.3783617 -8.8366394
1.6142325 -9.6853943 -8.902463
1.6115153 -9.991394 -8.9680605
1.6088072 -10.296365 -9.0334406
1.6059618 -10.599346 -9.1021366
1.602998 -10.900386 -9.173687
1.6000277 -11.200193 -9.2453957
1.5970452 -11.498725 -9.317399
1.5940104 -11.795675 -9.390667
1.5909525 -12.091238 -9.4644899
1.5881126 -12.387278 -9.5330524
2.2167974 2.5862653 -3.2749622
2.2219424 2.2219448 -3.1714535
2.1552913 1.7960756 -4.5123701
2.1045306 1.4030216 -5.5336003
2.0771992 1.0386015 -6.0834641
2.0580673 0.68602294 -6.4683647
2.0446897 0.34078243 -6.7375054
2.0349188 1.0234058e-06 -6.9340796
2.0275564 -0.33792472 -7.0821991
2.0210121 -0.67367053 -7.213861
2.0145097 -1.0072522 -7.3446779
2.0084994 -1.3389975 -7.4655952
2.0042109 -1.6701757 -7.5518742
1.9999481 -1.9999475 -7.6376343
1.9958469 -2.3284869 -7.7201462
1.9928964 -2.6571946 -7.7795038
1.9900296 -2.9850426 -7.8371806
1.9873279 -3.312212 -7.8915334
1.9847753 -3.6387544 -7.9428883
1.9822439 -3.9644861 -7.9938126
1.9799196 -4.2898245 -8.0405779
1.9775931 -4.6143823 -8.0873842
1.9752793 -4.9381971 -8.1339321
1.9728017 -5.2608032 -8.1837778
1.9701393 -5.5820594 -8.23734
1.9674841 -5.9024515 -8.2907591
1.964836 -6.2219791 -8.3440351
1.962195 -6.5406494 -8.3971672
1.9595466 -6.8584132 -8.450449
1.9569271 -7.1753998 -8.503149
1.9543362 -7.4916215 -8.555274
1.9517522 -7.8070087 -8.6072607
1.9488372 -8.1201534 -8.6659069
1.9458735 -8.4321184 -8.7255287
1.942926 -8.743166 -8.7848291
1.9399874 -9.0532742 -8.8439474
1.936795 -9.3611746 -8.9081764
1.9335424 -9.6677113 -8.9736128
1.9302866 -9.9731474 -9.039115
1.9270277 -10.277479 -9.104681
1.9235905 -10.579749 -9.1738262
1.9201449 -10.88082 -9.2431498
1.9165933 -11.180126 -9.3146019
1.9130064 -11.478037 -9.3867674
1.9093777 -11.774494 -9.4597712
1.9057627 -12.06983 -9.5324984
1.9020861 -12.363559 -9.6064663
2.5829699 2.5829694 -3.3317614
2.5860791 2.2166398 -3.2781425
2.5171037 1.7979326 -4.4675827
2.4538879 1.4022229 -5.5576982
2.4211152 1.0376229 -6.1228504
2.3969712 0.68485028 -6.5391932
2.3820519 0.34029365 -6.7964683
2.3708768 1.6907486e-06 -6.9891787
2.3615048 -0.33735728 -7.1507883
2.3538954 -0.67254072 -7.2820096
2.3463616 -1.0055833 -7.4119253
2.3393195 -1.3367541 -7.5333619
2.3342445 -1.6673173 -7.6208773
2.3294733 -1.9966905 -7.7031541
2.3247213 -2.3247199 -7.7850976
2.3208096 -2.6523528 -7.8525519
2.3175294 -2.9796808 -7.9091163
2.3142586 -3.3060818 -7.9655209
2.3112915 -3.6320291 -8.0166855
2.3083322 -3.9571402 -8.0677195
2.3053801 -4.2814198 -8.1186266
2.3024356 -4.6048722 -8.1693983
2.2994902 -4.9274778 -8.2201939
2.2965951 -5.2493596 -8.2701159
2.2937415 -5.5705137 -8.3193302
2.2909031 -5.8908935 -8.3682699
2.2880638 -6.2104564 -8.4172382
2.2852311 -6.5292315 -8.4660835
2.2821941 -6.8465815 -8.5184526
2.2789886 -7.1625338 -8.5737333
2.2759767 -7.4782076 -8.6256695
2.2729728 -7.7930489 -8.6774702
2.2695172 -8.1054173 -8.7370586
2.2660222 -8.4166536 -8.797327
2.2625961 -8.7271557 -8.85641
2.2591803 -9.0367203 -8.9153118
2.2554283 -9.3439169 -8.9800158
2.2516804 -9.6500568 -9.0446482
2.2479038 -9.9550028 -9.109767
2.2440419 -10.258477 -9.176363
2.240047 -10.56022 -9.2452574
2.2360742 -10.86093 -9.3137627
2.2320347 -11.160173 -9.3834209
2.2278247 -11.457382 -9.4560232
2.2236142 -11.753387 -9.5286274
2.2194118 -12.048236 -9.6010942
2.2153208 -12.342502 -9.6716413
2.2131341 -12.646479 -9.7093525
2.9500499 2.5812953 -3.3606682
2.9503338 2.2127516 -3.3563812
2.8842735 1.8026723 -4.3531575
2.8062081 1.4031055 -5.5310707
2.7645025 1.0366905 -6.1603608
2.7370758 0.68426985 -6.5741944
2.7191305 0.3398914 -6.844974
2.7055781 -2.3559447e-07 -7.0494618
2.6944251 -0.33680278 -7.2177477
2.6859107 -0.67147779 -7.3462205
2.677938 -1.0042254 -7.4665184
2.670023 -1.3350112 -7.5859461
2.6634426 -1.66465 -7.6852379
2.6579769 -1.9934814 -7.7677088
2.6525435 -2.3209748 -7.8496895
2.6474807 -2.6474802 -7.9260821
2.6437554 -2.9742241 -7.9822907
2.6400509 -3.3000612 -8.0381918
2.6367314 -3.6255062 -8.0882769
2.6335089 -3.9502623 -8.1369028
2.6302943 -4.2742262 -8.1854067
2.6270874 -4.5974016 -8.2337923
2.6239374 -4.9198809 -8.2813263
2.6208336 -5.2416668 -8.3281555
2.6171541 -5.561451 -8.3836775
2.6139016 -5.8812766 -8.4327545
2.6106668 -6.2003341 -8.4815607
2.6074402 -6.5186005 -8.5302477
2.6038847 -6.8351951 -8.5838995
2.6000123 -7.150034 -8.6423235
2.5964675 -7.4648428 -8.6958132
2.5930467 -7.77914 -8.7474279
2.5890641 -8.0908241 -8.8075209
2.5850461 -8.4013987 -8.8681488
2.5810881 -8.7111712 -8.9278727
2.5771606 -9.0200605 -8.9871302
2.5728884 -9.3267193 -9.0515947
2.5686207 -9.6323271 -9.1159868
2.564358 -9.9368868 -9.1803083
2.5598955 -10.239581 -9.2476416
2.5553465 -10.540803 -9.3162813
2.5508137 -10.840959 -9.384675
2.5462048 -11.139646 -9.454217
2.5413377 -11.43602 -9.5276566
2.5364709 -11.731176 -9.6010952
2.5324049 -12.028924 -9.6624413
2.5283704 -12.325805 -9.7233181
2.5270011 -12.635003 -9.7439814
3.3179033 2.580591 -3.372777
3.315974 2.2106512 -3.3986549
3.2624087 1.8124509 -4.1170888
3.1562173 1.4027643 -5.5413566
3.107554 1.0358526 -6.1940479
3.0780625 0.68401486 -6.5895915
3.0558257 0.33953807 -6.8878369
3.0396321 6.2431303e-07 -7.1050358
3.0268066 -0.33631092 -7.2770505
3.0176578 -0.67058849 -7.3997583
3.0087354 -1.0029112 -7.5194297
2.9998541 -1.3332667 -7.6385469
2.9915781 -1.6619873 -7.7495441
2.9856851 -1.9904563 -7.8285851
2.9798265 -2.3176415 -7.9071646
2.9740019 -2.6435561 -7.9852839
2.9695678 -2.9695671 -8.0447559
2.9655683 -3.2950757 -8.0983973
2.9617677 -3.6199377 -8.1493711
2.9581535 -3.9442041 -8.1978493
2.9545479 -4.2676811 -8.2462034
2.9510612 -4.5905375 -8.2929716
2.9475718 -4.9126196 -8.3397703
2.9440904 -5.2339382 -8.3864632
2.9400067 -5.5533462 -8.4412365
2.9358907 -5.8717804 -8.4964428
2.93222 -6.1902413 -8.5456753
2.9286017 -6.5080028 -8.5942049
2.9245176 -6.823874 -8.648982
2.920176 -7.1382074 -8.7072134
2.9158363 -7.4515805 -8.765419
2.9119802 -7.7652793 -8.8171387
2.9074728 -8.076313 -8.8775892
2.9029689 -8.3863544 -8.9379988
2.8984685 -8.6954041 -8.9983635
2.893971 -9.0034637 -9.0586815
2.8891823 -9.3095875 -9.1229086
2.8838742 -9.6129141 -9.1941004
2.8784497 -9.9146605 -9.2668562
2.8734102 -10.216569 -9.3344498
2.8683882 -10.517424 -9.4018049
2.8633838 -10.817226 -9.4689283
2.8588398 -11.11771 -9.52987
2.8557091 -11.422835 -9.5718641
3.686729 2.5807118 -3.3707309
3.6810277 2.2086174 -3.4395459
3.669755 1.8348794 -3.5756216
3.5056939 1.4022779 -5.5560131
3.4517415 1.0355241 -6.2072783
3.4179194 0.68358523 -6.6155438
3.3920538 0.3392058 -6.9277697
3.373333 4.704716e-07 -7.1537504
3.359565 -0.33595636 -7.319942
3.3487079 -0.66974199 -7.4510002
3.3391104 -1.0017318 -7.5668559
3.3295674 -1.3318257 -7.6820459
3.3200791 -1.6600387 -7.7965841
3.3133471 -1.9880077 -7.8778462
3.3069029 -2.3148313 -7.9556303
3.3004467 -2.640358 -8.0335627
3.2949281 -2.9654341 -8.1001825
3.2902384 -3.2902372 -8.1567945
3.2858193 -3.6144009 -8.2101336
3.2818649 -3.9382372 -8.2578707
3.2779806 -4.261375 -8.3047543
3.2741058 -4.5837479 -8.3515301
3.2702401 -4.9053583 -8.3981934
3.2663834 -5.2262111 -8.4447479
3.2619073 -5.5452399 -8.4987764
3.2573476 -5.8632245 -8.5538206
3.2528002 -6.1803198 -8.6087103
3.2487209 -6.4974399 -8.6579542
3.2440901 -6.8125877 -8.713851
3.2392819 -7.1264191 -8.7718916
3.2344761 -7.4392943 -8.8299007
3.2297318 -7.7513552 -8.8871717
3.224293 -8.0607309 -8.9528227
3.2182963 -8.367569 -9.0252085
3.2123101 -8.6732359 -9.0974693
3.2061944 -8.9773426 -9.1712933
3.1999855 -9.2799578 -9.2462378
3.1943686 -9.583106 -9.3140421
3.1904459 -9.8903818 -9.361393
3.1879401 -10.201408 -9.3916407
4.0605006 2.5839565 -3.3147755
4.0478959 2.2079432 -3.4530971
4.1002655 1.8637575 -2.8784072
3.8615351 1.4041951 -5.4981608
3.7986574 1.0359986 -6.1881628
3.7573493 0.68315619 -6.6414652
3.7277992 0.33889338 -6.9657412
3.7077551 1.3254502e-06 -7.1856976
3.6922262 -0.33565491 -7.3561082
3.679466 -0.66899264 -7.4961352
3.6691542 -1.0006768 -7.6092925
3.6589003 -1.3305076 -7.7218156
3.6484973 -1.658407 -7.8359733
3.6401217 -1.9855189 -7.927887
3.6330783 -2.3119578 -8.0051804
3.6260486 -2.6371248 -8.0823221
3.6197083 -2.9615784 -8.1518965
3.6148598 -3.2862358 -8.205101
3.6099033 -3.6099029 -8.2594919
3.6051347 -3.9328735 -8.3118229
3.6005259 -4.2551665 -8.3623981
3.596209 -4.5769939 -8.4097681
3.5919693 -4.8981385 -8.456295
3.5877395 -5.2185311 -8.5027122
3.5828836 -5.5371833 -8.5560017
3.5778821 -5.8547158 -8.6108866
3.5728815 -6.1713405 -8.66576
3.5672903 -6.485981 -8.7271166
3.559963 -6.7962923 -8.8075228
3.5524313 -7.1048608 -8.8901739
3.5451648 -7.4126167 -8.9699116
3.5389752 -7.7213993 -9.037838
3.5328066 -8.0291052 -9.1055288
3.5266728 -8.3357697 -9.172843
3.5240686 -8.6499863 -9.201416
3.5248761 -8.9724112 -9.1925554
4.4152775 2.2076387 -3.4592214
4.2174077 1.405803 -5.4496336
4.1420898 1.0355241 -6.2072783
4.0983543 0.68305969 -6.6472216
4.0649538 0.3387464 -6.9832025
4.0429206 8.1465237e-07 -7.2048402
4.0251832 -0.33543131 -7.3832645
4.0093489 -0.66822386 -7.5425448
3.998126 -0.99953067 -7.6554427
3.9869802 -1.3289932 -7.7675562
3.9760463 -1.6566852 -7.8775449
3.9668391 -1.9834176 -7.9701653
3.9594681 -2.3096895 -8.0443087
3.9521098 -2.6347396 -8.1183281
3.9450142 -2.9587595 -8.1897039
3.9397056 -3.2830853 -8.243103
3.9341478 -3.6063023 -8.2990103
3.9286056 -3.9286053 -8.3547602
3.9235742 -4.2505383 -8.4053755
3.9185703 -4.5716634 -8.4557123
3.913434 -4.8917904 -8.5073786
3.9045572 -5.2060761 -8.5966702
3.8952467 -5.5182657 -8.6903248
3.8858807 -5.8288202 -8.7845402
3.8788357 -6.1414905 -8.8554068
3.8718164 -6.4530277 -8.9260168
3.8648224 -6.7634377 -8.9963732
3.8601079 -7.0768642 -9.0437965
3.8564177 -7.3914671 -9.0809155
4.7833171 2.2076859 -3.4582953
4.574316 1.4074833 -5.3989568
4.4890404 1.0359343 -6.1907783
4.436615 0.68255705 -6.6775713
4.4035645 0.33873591 -6.9844608
4.3777881 1.1220446e-07 -7.2238102
4.358408 -0.33526182 -7.4037628
4.3395109 -0.66761631 -7.5792284
4.3268671 -0.99850684 -7.696629
4.3149805 -1.3276854 -7.8070035
4.3031588 -1.655061 -7.9167747
4.2937026 -1.9817071 -8.0045815
4.2855706 -2.3076153 -8.0800858
4.2776613 -2.6324072 -8.1535282
4.269877 -2.9560688 -8.2258101
4.2637396 -3.279798 -8.2828016
4.2509809 -3.5969832 -8.401269
4.2402287 -3.914057 -8.5011082
4.2312341 -4.2312331 -8.5846252
4.2222939 -4.5470862 -8.6676407
4.2132206 -4.8614073 -8.751893
4.2035527 -5.1736031 -8.8416567
4.1978507 -5.4894958 -8.8946037
4.1942525 -5.807425 -8.9280157
4.1967278 -6.133678 -8.9050341
5.1530728 2.2084608 -3.4427016
4.9392695 1.4112195 -5.2861552
4.8330441 1.0356535 -6.2020526
4.7739162 0.68198913 -6.711864
4.7396755 0.33854797 -7.0070934
4.7113705 2.3970085e-06 -7.2511473
4.6904559 -0.33503097 -7.4314742
4.6702929 -0.66718274 -7.6053267
4.6563601 -0.99779177 -7.7254534
4.6425281 -1.326437 -7.8447165
4.6305161 -1.6537566 -7.9482846
4.6162839 -1.9784063 -8.0709982
4.5972834 -2.29864 -8.2348289
4.5817723 -2.6181548 -8.3685637
4.5662985 -2.9354775 -8.5019836
4.5540719 -3.252908 -8.6074066
4.5444546 -3.5706425 -8.6903276
4.5371137 -3.8889546 -8.7536192
4.5326276 -4.2088671 -8.7923021
4.5306287 -4.5306282 -8.8095312
5.525352 2.2101421 -3.4088848
5.5556269 1.8518766 -3.1652496
5.3014393 1.4137168 -5.2107921
5.179256 1.0358526 -6.1940479
5.1164951 0.68220103 -6.6991096
5.0774817 0.33849937 -7.0130606
5.0440035 1.467401e-06 -7.282474
5.0217829 -0.33478436 -7.4612937
4.9999461 -0.66665822 -7.6370258
4.9682636 -0.99365103 -7.8919849
4.9361873 -1.3163143 -8.150116
4.910593 -1.6368649 -8.356082
4.8935137 -1.9574031 -8.4935265
4.8791461 -2.276933 -8.6091452
4.8727756 -2.5988128 -8.6604118
4.8671212 -2.9202721 -8.7059155
5.9026451 2.2134945 -3.3414648
5.9231129 1.8509722 -3.1870463
5.6930652 1.4232682 -4.9226236
5.5287881 1.0366497 -6.1619978
5.4601746 0.68252367 -6.6796474
5.4146905 0.33841869 -7.0227947
5.3483958 1.4423754e-06 -7.5229521
5.2882452 -0.33051312 -7.9767532
5.2548213 -0.65685242 -8.2289152
5.2235012 -0.97940522 -8.4652071
5.2132211 -1.3033055 -8.5427647
5.2134523 -1.6292033 -8.5410185
6.0983267 2.5110762 -4.5715322
5.9466853 2.0988328 -5.6482844
5.9236059 1.7422383 -5.81216
6.1079044 1.4371549 -4.5035257
5.8791122 1.0374919 -6.1280951
5.7599473 0.67764211 -6.974237
5.6363368 0.33155137 -7.8519497
5.5859556 1.6398016e-06 -8.2096891
5.5703492 -0.32766637 -8.320507
5.2471747 14.575488 -12.685146
5.2595344 14.317621 -12.602262
5.2739162 14.063778 -12.505816
5.2883949 13.808588 -12.408721
5.3026514 13.551221 -12.313113
5.3168244 13.292064 -12.218066
5.3310199 13.031384 -12.122869
5.3452916 12.769308 -12.027163
5.3596396 12.505827 -11.930943
5.3740463 12.240886 -11.834326
5.3885498 11.974555 -11.737067
5.403131 11.706785 -11.639282
5.4177732 11.437522 -11.541089
6.1833529 2.0611193 -6.4069996
6.1022654 1.6950736 -6.9507809
6.5242262 1.4498291 -4.1210508
6.11658 1.0194317 -6.8547893
5.9687848 0.66320008 -7.8459225
5.9511743 0.33062255 -7.9640241
5.5379701 14.573606 -12.689689
5.5486565 14.309694 -12.621792
5.5593843 14.044763 -12.553636
5.5701547 13.778803 -12.485213
5.5815802 13.5133 -12.412625
5.5943804 13.249849 -12.331301
5.6072578 12.98523 -12.249486
5.6201768 12.719349 -12.167415
5.6331544 12.452238 -12.084961
5.6462116 12.183932 -12.002007
5.6593103 11.914339 -11.918789
5.6724701 11.643493 -11.835182
5.6857104 11.371422 -11.751063
5.6989932 11.098041 -11.666675
5.712338 10.82338 -11.581891
5.7257657 10.547463 -11.496585
5.7392368 10.270213 -11.411002
5.7527709 9.9916563 -11.325016
5.7663894 9.7118149 -11.238496
5.7800522 9.4306126 -11.151691
5.7937803 9.1480751 -11.064476
5.8075733 8.8641911 -10.976847
5.8214526 8.5789824 -10.888669
5.8378005 8.2958221 -10.784808
5.8542399 8.0110664 -10.680361
5.8706903 7.7245932 -10.57585
5.8872337 7.4365072 -10.470748
5.9038701 7.146791 -10.365052
5.9206014 6.8554335 -10.258757
5.937427 6.5624204 -10.151858
5.954349 6.2677364 -10.04435
5.9713678 5.9713688 -9.9362268
5.9883337 5.6731591 -9.8284388
6.2620263 1.9774823 -8.0896177
6.3210883 1.6634459 -7.714385
6.9191723 1.4566699 -3.914643
6.3554654 1.0034953 -7.4959793
6.0171161 11.131664 -11.556974
6.0291638 10.852496 -11.484259
6.0412602 10.572206 -11.411252
6.0533838 10.290754 -11.338077
6.065578 10.008205 -11.264482
6.0778208 9.724514 -11.19059
6.0900922 9.4396439 -11.116527
6.1024342 9.1536512 -11.042034
6.1148686 8.8665609 -10.966983
6.1273971 8.5783567 -10.891371
6.1399765 8.28897 -10.815446
6.1525865 7.9983625 -10.739339
6.1652699 7.7065892 -10.662789
6.1780272 7.4136329 -10.585791
6.1917076 7.1204648 -10.503221
6.2067394 6.827414 -10.412498
6.2218223 6.5329137 -10.321466
6.237 6.2370014 -10.229857
6.2522526 5.9396405 -10.1378
6.2675576 5.6408029 -10.045427
6.2829599 5.3405161 -9.952466
6.2984157 5.038733 -9.8591814
6.3139701 4.7354784 -9.7653017
6.3295794 4.4307065 -9.671092
6.3452883 4.1244397 -9.5762796
6.3610754 3.8166466 -9.4809933
6.3769188 3.5073059 -9.3853741
6.3952084 3.1976061 -9.2749872
6.4170375 2.8876684 -9.1432362
6.4476423 2.5790577 -8.9585199
6.489017 2.2711575 -8.7088013
6.5451217 1.9635373 -8.3701782
6.6722512 1.6680646 -7.6028857
6.7798777 1.3559771 -6.9533033
8.1577387 1.2236609 1.3628266
