# .PCD v0.7 - Point Cloud Data file format
VERSION 0.7
FIELDS x y z
SIZE 4 4 4
TYPE F F F
COUNT 1 1 1
WIDTH 1475
HEIGHT 1
VIEWPOINT 0 0 0 1 0 0 0
POINTS 1475
DATA ascii
-566.52887 199.95145 -33.564415
-559.39319 164.5275 -84.23243
-554.92902 130.57176 -115.93113
-552.32263 97.468842 -134.43808
-550.85846 64.807045 -144.83456
-550.3681 32.37479 -148.31648
-550.19104 0.00020217268 -149.57323
-550.0166 -32.35379 -150.81204
-549.83984 -64.686928 -152.06723
-549.75995 -97.01635 -152.63423
-549.72125 -129.34607 -152.90919
-549.68256 -161.6711 -153.18423
-549.69464 -194.00972 -153.09842
-549.73096 -226.35959 -152.84068
-549.80353 -258.7309 -152.32507
-549.90277 -291.12491 -151.62019
-550.08447 -323.57904 -150.33028
-550.44086 -356.16739 -147.79964
-550.71515 -388.73996 -145.8522
-550.73218 -421.14792 -145.73148
-549.26428 -452.33514 -156.15399
-547.21857 -482.83978 -170.67966
-545.15002 -513.08221 -185.36806
-542.9671 -542.96692 -200.86795
-540.78754 -572.59845 -216.34393
-538.4931 -601.84521 -232.63615
-536.13745 -630.74988 -249.36285
-533.77264 -659.36621 -266.1543
-531.42859 -687.73102 -282.79846
-529.1051 -715.8479 -299.29718
-526.80182 -743.71991 -315.65195
-524.51843 -771.35059 -331.86496
-522.25482 -798.74255 -347.93823
-520.01062 -825.89923 -363.87314
-517.78571 -852.82324 -379.67203
-515.57965 -879.51819 -395.33597
-513.39233 -905.98639 -410.86722
-511.22357 -932.23114 -426.26703
-509.073 -958.25494 -441.53735
-506.94043 -984.06073 -456.6799
-504.82571 -1009.6512 -471.69611
-502.72849 -1035.0292 -486.58725
-500.64865 -1060.197 -501.35556
-498.586 -1085.1577 -516.00177
-496.54022 -1109.9133 -530.52795
-494.51117 -1134.4666 -544.93567
-492.69293 -1159.2772 -557.84625
-490.8938 -1183.9203 -570.62103
-489.10587 -1208.3792 -583.31677
-487.33279 -1232.6653 -595.90649
-485.57251 -1256.7759 -608.40552
-484.55139 -1282.636 -615.65607
-486.97742 -1317.7036 -598.42987
-486.34973 1003.0966 -387.05005
-485.96967 971.93951 -389.91733
-485.89938 941.43005 -390.44785
-486.16263 911.55511 -388.46161
-488.55112 885.4989 -370.44189
-587.79034 1028.6333 378.26041
-587.00659 990.57379 372.34729
-586.83954 953.61432 371.08682
-587.11505 917.36755 373.16565
-550.62848 275.31451 97.895859
-533.80664 233.54059 -29.015667
-525.58606 197.09491 -91.03508
-520.41534 162.62994 -130.04491
-516.93872 129.23479 -156.27403
-515.47198 96.651176 -167.33995
-514.23163 64.279053 -176.69742
-514.08093 32.13018 -177.83429
-513.93036 5.2565745e-05 -178.97032
-513.78204 -32.111126 -180.08907
-513.63165 -64.20388 -181.22385
-513.53741 -96.28817 -181.93488
-513.50153 -128.3752 -182.20578
-513.46564 -160.45789 -182.47658
-513.46338 -192.54858 -182.49347
-513.49481 -224.65385 -182.25639
-513.53064 -256.76529 -181.98572
-513.62268 -288.9126 -181.29169
-513.74841 -321.09262 -180.34309
-514.04047 -353.40265 -178.13968
-514.23615 -385.67694 -176.66342
-514.21362 -417.79858 -176.83313
-512.9704 -448.849 -186.21262
-511.26349 -479.30942 -199.09027
-509.37799 -509.37781 -213.31522
-507.35956 -539.0694 -228.54314
-505.31146 -568.47528 -243.99484
-503.20444 -597.55511 -259.89133
-501.02304 -626.27863 -276.34869
-498.82874 -654.71265 -292.90338
-496.65356 -682.89844 -309.31393
-494.49722 -710.83966 -325.58188
-492.35959 -738.53925 -341.70935
-490.24033 -766.00043 -357.69763
-488.13925 -793.22614 -373.54926
-486.05612 -820.21948 -389.26544
-483.99066 -846.98346 -404.84802
-481.94266 -873.52094 -420.29874
-479.91199 -899.8349 -435.61911
-477.89832 -925.92792 -450.81107
-475.90149 -951.80286 -465.87604
-473.92123 -977.46252 -480.8157
-471.95746 -1002.9094 -495.63162
-470.06436 -1028.2656 -509.91385
-468.3244 -1053.7299 -523.04059
-466.59732 -1079.0062 -536.0705
-464.8811 -1104.0925 -549.01849
-463.17923 -1128.9994 -561.85779
-461.48981 -1153.7245 -574.60364
-459.81268 -1178.2699 -587.25659
-458.14767 -1202.6375 -599.81818
-456.49472 -1226.8293 -612.28894
-454.85184 -1250.8424 -624.68329
-453.5408 -1275.5835 -634.57428
-454.48953 -1306.6573 -627.41669
-458.39963 977.91943 -367.36005
-458.08331 946.70575 -369.90549
-458.18808 916.37622 -369.06247
-458.41296 886.26514 -367.25259
-463.13525 864.51917 -329.25101
-547.22504 985.00537 347.45184
-546.95886 948.06226 345.30966
-547.0675 911.77942 346.18362
-503.83701 268.71317 -1.7080274
-493.11615 230.12105 -87.983131
-487.42325 194.96931 -133.79605
-483.90009 161.30017 -162.14813
-480.88034 128.23492 -186.44936
-479.6955 95.939186 -195.98405
-478.72855 63.830692 -203.7657
-478.59131 31.906199 -204.86981
-478.45212 0.00016274901 -205.99031
-478.31503 -31.887495 -207.09351
-478.17596 -63.756756 -208.21236
-478.05566 -95.61087 -209.18076
-478.01624 -127.47096 -209.49768
-477.98309 -159.32764 -209.76472
-477.97064 -191.18819 -209.86491
-477.99966 -223.06636 -209.6312
-478.03284 -254.95068 -209.36424
-478.10126 -286.86057 -208.81346
-478.21951 -318.81284 -207.86186
-478.46872 -350.87695 -205.85646
-478.6225 -382.89786 -204.61914
-478.59341 -414.78082 -204.85318
-477.39499 -445.5686 -214.49736
-475.8324 -475.83228 -227.07195
-474.10657 -505.71347 -240.96046
-472.26163 -535.22974 -255.80746
-470.34262 -564.41101 -271.25037
-468.41129 -593.3208 -286.79251
-466.40491 -621.87311 -302.93848
-464.37653 -650.12689 -319.26181
-462.36572 -678.13623 -335.44366
-460.37219 -705.90381 -351.48615
-458.39584 -733.43329 -367.39069
-456.43634 -760.72717 -383.1593
-454.49356 -787.78857 -398.79385
-452.56723 -814.62091 -414.29568
-450.65717 -841.22662 -429.66675
-448.76315 -867.6087 -444.90848
-446.88498 -893.76984 -460.02289
-445.13034 -919.93597 -474.14307
-443.46616 -946.0611 -487.53531
-441.81259 -971.98761 -500.84222
-440.17307 -997.72546 -514.03625
-438.54565 -1023.2732 -527.13232
-436.93027 -1048.6326 -540.13208
-435.32669 -1073.8057 -553.03668
-433.73486 -1098.7949 -565.84656
-432.15295 -1123.5975 -578.57703
-430.58423 -1148.2245 -591.20111
-429.02682 -1172.6733 -603.73401
-427.48065 -1196.9457 -616.17676
-425.94562 -1221.0439 -628.52997
-424.42151 -1244.9696 -640.79474
-423.07068 -1269.2119 -651.66559
-423.18604 -1297.7704 -650.73724
-430.78036 984.64081 -342.00494
-430.19473 952.57428 -347.05414
-430.04724 921.52997 -348.32574
-430.17676 891.08069 -347.20923
-431.12344 862.24719 -339.04666
-508.0614 979.83295 324.32739
-507.69775 942.86725 321.19168
-507.59253 906.41547 320.28424
-508.0639 870.96692 324.34888
-462.90988 264.52005 -64.978264
-455.94281 227.97157 -125.04944
-450.91336 193.24881 -168.41399
-447.9791 159.99269 -193.71423
-445.5455 127.2989 -214.69711
-444.44226 95.237823 -224.20941
-443.71939 63.388741 -230.44225
-443.59305 31.685263 -231.53125
-443.4649 0.00020829764 -232.63626
-443.33875 -31.66703 -233.72397
-443.21265 -63.316051 -234.81116
-443.1019 -94.950264 -235.76625
-443.02747 -126.57907 -236.40797
-442.99692 -158.21315 -236.67116
-442.98932 -189.85239 -236.73715
-443.00266 -221.50107 -236.62195
-443.03317 -253.16167 -236.35857
-443.08279 -284.83884 -235.93063
-443.19547 -316.56808 -234.95934
-443.40372 -348.38849 -233.16368
-443.52805 -380.16687 -232.09201
-443.49741 -411.81894 -232.35593
-442.33768 -442.33762 -242.35526
-440.90979 -472.40317 -254.66704
-439.32962 -502.09088 -268.29153
-437.65268 -531.43518 -282.7504
-435.87579 -560.41156 -298.07114
-434.10596 -589.14374 -313.33087
-432.26682 -617.5238 -329.18823
-430.40179 -645.6026 -345.26895
-428.55099 -673.43713 -361.2269
-426.716 -701.03326 -377.04822
-424.89673 -728.39423 -392.73456
-423.09286 -755.52289 -408.28769
-421.30429 -782.42218 -423.70944
-419.68823 -809.39856 -437.64337
-418.10324 -836.20642 -451.30942
-416.52844 -862.80878 -464.88736
-414.96722 -889.21521 -478.34903
-413.4176 -915.42444 -491.70993
-411.87952 -941.43872 -504.97147
-410.35284 -967.26013 -518.13489
-408.83746 -992.89087 -531.20081
-407.33157 -1018.3289 -544.18469
-405.83835 -1043.5842 -557.05945
-404.35608 -1068.6552 -569.84009
-402.88455 -1093.5436 -582.52771
-401.42374 -1118.2516 -595.12335
-399.97342 -1142.7811 -607.62799
-398.53207 -1167.1295 -620.05585
-397.10254 -1191.3075 -632.38135
-395.68329 -1215.3127 -644.61865
-394.27408 -1239.1471 -656.7688
-392.93646 -1263.0099 -668.30212
-392.56451 -1289.8546 -671.50916
-402.05981 958.75818 -322.97458
-401.75534 927.12781 -325.8017
-401.74857 896.20856 -325.86447
-401.92441 865.68347 -324.2316
-404.03119 839.14197 -304.6691
-468.73337 937.46704 296.11868
-468.62756 901.20721 295.1362
-468.80011 865.47729 296.73816
-435.70453 301.64169 -10.568542
-425.05627 261.57333 -109.44221
-419.45746 225.8618 -161.42976
-415.30405 191.6788 -199.99606
-412.63397 158.70555 -224.78893
-410.72095 126.37585 -242.55209
-409.70074 94.546471 -252.02489
-409.19168 62.952744 -256.7518
-409.07602 31.46747 -257.82593
-408.95868 3.3246186e-05 -258.91571
-408.84308 -31.449266 -259.98871
-408.72934 -62.881275 -261.04474
-408.62796 -94.298676 -261.98657
-408.52481 -125.6998 -262.94424
-408.49686 -157.11409 -263.2038
-408.49161 -188.53435 -263.25262
-408.49509 -219.95869 -263.22021
-408.5213 -251.39752 -262.97684
-408.5545 -282.84521 -262.66852
-408.66113 -314.35464 -261.67804
-408.83084 -345.93372 -260.10245
-408.94464 -377.48715 -259.04587
-408.90613 -408.90607 -259.40341
-407.78522 -439.15311 -269.81189
-406.48517 -469.02124 -281.88315
-405.04562 -498.51761 -295.24976
-403.53271 -527.69659 -309.29797
-401.9126 -556.49414 -324.34152
-400.28024 -585.02478 -339.49857
-398.60123 -613.23254 -355.08902
-396.89664 -641.14056 -370.91681
-395.23599 -668.86078 -386.33633
-393.72229 -696.58545 -400.392
-392.21848 -724.09558 -414.35541
-390.72772 -751.39948 -428.19766
-389.24829 -778.49634 -441.9353
-387.77997 -805.38904 -455.569
-386.32272 -832.07959 -469.10034
-384.87634 -858.57025 -482.53033
-383.43924 -884.85968 -495.87451
-382.01437 -910.95721 -509.10529
-380.60004 -936.86139 -522.23804
-379.19611 -962.57465 -535.27386
-377.80255 -988.09875 -548.21393
-376.41916 -1013.4362 -561.05896
-375.04443 -1038.5845 -573.82416
-373.68112 -1063.554 -586.48291
-372.32773 -1088.3425 -599.04993
-370.98407 -1112.9521 -611.52618
-369.65009 -1137.3849 -623.91284
-368.32568 -1161.6425 -636.21057
-367.00928 -1185.7222 -648.43384
-365.7037 -1209.6353 -660.55676
-364.40735 -1233.3785 -672.59399
-363.12018 -1256.9542 -684.54614
-362.43942 -1282.4778 -690.86725
-364.00455 -1316.0165 -676.33405
-374.21524 966.7229 -291.96088
-373.13498 932.83765 -302.82724
-372.99133 901.39594 -304.27258
-373.03708 870.41986 -303.81204
-373.42108 840.19751 -299.94952
-378.11234 819.24347 -252.75926
-430.08899 896.01892 270.08569
-430.22748 860.45514 271.47888
-432.23569 828.4519 291.67969
-395.51773 296.63855 -77.674438
-388.03683 258.69131 -152.92656
-383.64117 223.79077 -197.14317
-380.26855 190.13449 -231.06932
-377.85464 157.43956 -255.3513
-376.39944 125.46652 -269.98969
-375.46002 93.865234 -279.43964
-375.13568 62.522678 -282.70215
-375.03033 31.252699 -283.76175
-374.92346 5.1021863e-05 -284.83655
-374.81827 -31.234665 -285.89508
-374.71628 -62.452568 -286.92062
-374.62393 -93.655823 -287.8497
-374.53003 -124.84325 -288.79419
-374.47592 -156.03152 -289.3385
-374.47116 -187.23543 -289.38657
-374.4664 -218.43864 -289.43454
-374.48865 -249.65886 -289.21045
-374.51572 -280.88669 -288.93848
-374.60645 -312.17197 -288.02576
-374.74655 -343.51749 -286.61621
-374.84375 -374.84375 -285.63843
-374.80075 -406.034 -286.07135
-373.771 -436.06604 -296.4299
-372.55151 -465.68918 -308.69641
-371.24622 -494.99478 -321.82697
-369.87546 -523.99017 -335.61539
-368.52716 -552.79047 -349.1785
-367.18103 -581.36987 -362.71982
-365.80212 -609.67017 -376.59015
-364.40494 -637.70856 -390.64487
-363.01096 -665.51996 -404.66745
-361.62607 -693.11652 -418.59836
-360.25168 -720.50323 -432.42331
-358.88773 -747.68268 -446.14346
-357.53552 -774.66034 -459.74557
-356.19202 -801.43207 -473.26004
-354.85861 -828.0033 -486.67358
-353.5351 -854.3764 -499.98685
-352.22287 -880.55701 -513.18713
-350.91895 -906.54041 -526.30365
-349.62463 -932.33221 -539.32361
-348.33981 -957.93445 -552.2475
-347.06577 -983.35297 -565.06342
-345.80103 -1008.5863 -577.78564
-344.54547 -1033.6364 -590.41565
-343.29898 -1058.505 -602.95435
-342.06015 -1083.1906 -615.41577
-340.83157 -1107.7024 -627.77466
-339.61179 -1132.0392 -640.04462
-338.4007 -1156.2023 -652.22754
-337.19818 -1180.1936 -664.32367
-336.00418 -1204.0151 -676.33405
-334.81738 -1227.6637 -688.27271
-333.6402 -1251.1505 -700.11444
-332.77118 -1275.6227 -708.85596
-333.36642 -1305.6851 -702.86835
-344.37698 939.21021 -277.18631
-343.98267 906.86365 -281.51337
-343.94901 875.50671 -281.88306
-344.06616 844.52625 -280.59747
-345.51224 816.66559 -264.72833
-392.14185 891.23145 246.97066
-392.14185 855.5824 246.97079
-392.58572 820.86115 251.84155
-358.53162 293.34427 -121.85766
-352.35193 256.25616 -189.67206
-348.47278 221.75558 -232.24043
-345.79315 188.61456 -261.64569
-343.61847 156.19038 -285.51035
-342.56674 124.56983 -297.05136
-341.78293 93.213753 -305.65314
-341.60666 62.110466 -307.5874
-341.51715 31.047113 -308.5697
-341.42914 9.783142e-05 -309.53552
-341.33969 -31.030655 -310.51691
-341.25897 -62.046978 -311.40271
-341.18405 -93.050095 -312.22476
-341.1077 -124.03905 -313.06253
-341.04437 -155.01994 -313.75751
-341.04004 -186.02162 -313.80502
-341.03577 -217.02274 -313.85217
-341.04868 -248.03528 -313.71008
-341.07318 -279.05972 -313.44171
-341.13361 -310.12128 -312.77808
-341.246 -341.24591 -311.54495
-341.31229 -372.34052 -310.81735
-341.28778 -403.33984 -311.08636
-340.46817 -433.32288 -320.08057
-339.46417 -462.90558 -331.09842
-338.4093 -492.23166 -342.67355
-337.29486 -521.27368 -354.9035
-336.11221 -550.00177 -367.88156
-334.89615 -578.45685 -381.22607
-333.6434 -606.62421 -394.97314
-332.37955 -634.54266 -408.84302
-331.11295 -662.22589 -422.74191
-329.85733 -689.70154 -436.52072
-328.60986 -716.96692 -450.2099
-327.3718 -744.02667 -463.79614
-326.14304 -770.88348 -477.28021
-324.92477 -797.54236 -490.64938
-323.71423 -823.99982 -503.93295
-322.51273 -850.26074 -517.11804
-321.32013 -876.32739 -530.20563
-320.13754 -902.20569 -543.18274
-318.96237 -927.89038 -556.07874
-317.79581 -953.38727 -568.88013
-316.63773 -978.6983 -581.5885
-315.48932 -1003.8295 -594.19092
-314.34799 -1028.7751 -606.7157
-313.21487 -1053.5409 -619.15002
-312.0899 -1078.1285 -631.49542
-310.97415 -1102.5446 -643.73883
-309.8652 -1126.7825 -655.90839
-308.7641 -1150.8479 -667.99139
-307.67081 -1174.743 -679.98877
-306.58643 -1198.4741 -691.88873
-305.55466 -1222.2185 -703.21082
-304.57233 -1245.9777 -713.99078
-303.74005 -1270.1855 -723.12384
-303.85883 -1298.3058 -721.8205
-314.71024 912.65985 -257.38675
-314.51892 880.6532 -259.69604
-314.58896 849.3905 -258.85077
-314.82355 818.5412 -256.01907
-318.64572 796.61444 -209.88141
-354.51761 850.84241 223.13063
-354.69904 815.80786 225.32086
-322.358 290.12231 -165.07028
-317.39703 253.91782 -224.95444
-314.13428 219.89421 -264.33923
-312.27686 187.36618 -286.76035
-310.56854 155.28441 -307.38129
-309.74881 123.89965 -317.27628
-309.05167 92.715622 -325.69171
-308.88535 61.777279 -327.69962
-308.80484 30.880751 -328.67136
-308.72437 0.00014681905 -329.64249
-308.64526 -30.86451 -330.5975
-308.57785 -61.715435 -331.41144
-308.51175 -92.553375 -332.2092
-308.4444 -123.37763 -333.02219
-308.38483 -154.19231 -333.74112
-308.37708 -185.02609 -333.83487
-308.3732 -215.86102 -333.8819
-308.38095 -246.70468 -333.78806
-308.40295 -277.56256 -333.52225
-308.43533 -308.43524 -333.1315
-308.53506 -339.38846 -331.92764
-308.59601 -370.31497 -331.19241
-308.62064 -401.20673 -330.89496
-307.93243 -431.10522 -339.20251
-307.02768 -460.54135 -350.1235
-306.08615 -489.73779 -361.48853
-305.08072 -518.63702 -373.62573
-304.02393 -547.24292 -386.38199
-302.93448 -575.57538 -399.53262
-301.80444 -603.60876 -413.17352
-300.6705 -631.40784 -426.86145
-299.5304 -658.96686 -440.62363
-298.3989 -686.31732 -454.2821
-297.27713 -713.46497 -467.82297
-296.16257 -740.40625 -481.27707
-295.05634 -767.14636 -494.63049
-293.95834 -793.68738 -507.88464
-292.86963 -820.03491 -521.02618
-291.78781 -846.18451 -534.08508
-290.71396 -872.14178 -547.04767
-289.64795 -897.90863 -559.91516
-288.59091 -923.49072 -572.67511
-287.54041 -948.88324 -585.35571
-286.49753 -974.09149 -597.94427
-285.46219 -999.11749 -610.44208
-284.43542 -1023.9672 -622.83649
-283.41489 -1048.635 -635.15509
-282.40167 -1073.1263 -647.38568
-281.4086 -1097.4933 -659.37323
-280.4921 -1121.9683 -670.4364
-279.58047 -1146.2798 -681.4408
-278.67581 -1170.4384 -692.36102
-277.77698 -1194.4409 -703.21075
-276.88394 -1218.2892 -713.99072
-275.99661 -1241.9846 -724.70172
-275.18503 -1265.851 -734.49847
-275.11804 -1293.0546 -735.30707
-285.12762 918.74463 -232.05919
-284.84631 886.18878 -235.83197
-284.8046 854.41388 -236.39137
-284.89911 823.04193 -235.12411
-286.14813 794.85602 -218.3716
-317.29883 846.13043 199.43079
-317.43286 811.21753 201.22882
-294.50568 327.22858 -106.27764
-287.00146 287.00168 -206.92628
-283.72784 252.20262 -250.83313
-281.15433 218.67584 -285.34995
-279.53534 186.35699 -307.06442
-278.01434 154.45248 -327.46429
-277.29025 123.24033 -337.17593
-276.66833 92.2229 -345.5173
-276.51907 61.448856 -347.51959
-276.44046 30.715805 -348.57397
-276.36996 9.467065e-05 -349.51917
-276.29834 -30.699696 -350.47968
-276.23834 -61.386173 -351.28491
-276.18756 -92.062378 -351.9657
-276.12756 -122.72316 -352.77026
-276.07224 -153.37328 -353.51266
-276.06186 -184.04118 -353.65164
-276.05725 -214.71092 -353.71362
-276.06302 -245.3893 -353.63614
-276.08145 -276.08127 -353.38892
-276.10565 -306.78391 -353.06418
-276.17947 -337.55264 -352.07407
-276.23486 -368.31305 -351.33136
-276.27182 -399.05923 -350.83578
-275.72797 -428.91013 -358.12955
-274.92316 -458.20508 -368.92474
-274.08887 -487.26898 -380.11377
-273.18967 -516.02472 -392.17453
-272.25708 -544.5141 -404.6825
-271.28409 -572.71082 -417.73251
-270.27933 -600.62061 -431.20853
-269.27216 -628.30164 -444.71725
-268.2572 -655.73975 -458.33023
-267.24878 -682.96899 -471.85529
-266.24789 -709.99438 -485.27911
-265.25452 -736.81812 -498.60278
-264.26956 -763.44537 -511.81317
-263.29086 -789.87238 -524.94012
-262.31937 -816.10455 -537.97003
-261.35501 -842.1438 -550.90405
-260.39877 -867.99567 -563.72968
-259.44849 -893.6557 -576.47522
-258.5051 -919.12915 -589.12842
-257.56851 -944.41785 -601.6897
-256.63974 -969.52771 -614.14703
-255.77498 -994.6803 -625.7453
-254.93373 -1019.7349 -637.02826
-254.09799 -1044.6251 -648.2373
-253.26775 -1069.3525 -659.37317
-252.44287 -1093.9192 -670.43634
-251.62337 -1118.326 -681.42786
-250.80917 -1142.575 -692.34839
-250.00023 -1166.6676 -703.19818
-249.19647 -1190.6052 -713.97815
-248.39787 -1214.3894 -724.68927
-247.60439 -1238.0219 -735.33173
-246.8316 -1261.5837 -745.69647
-246.60605 -1287.8315 -748.72168
-248.20857 -1323.7789 -727.22827
-254.83807 891.93341 -211.06572
-254.68567 859.56445 -213.36523
-254.70886 827.80402 -213.01547
-254.98071 796.81476 -208.91351
-259.05496 777.16528 -147.43793
-280.59311 806.70551 177.54773
-283.50189 779.63031 221.43787
-257.76312 322.20401 -166.93037
-253.66994 285.37888 -228.69176
-250.80016 250.8004 -271.99341
-248.53679 217.46985 -306.1449
-247.14465 185.35855 -327.1507
-245.80705 153.62953 -347.33325
-245.1754 122.58769 -356.86444
-244.62839 91.735817 -365.11832
-244.4971 61.124352 -367.09903
-244.42387 30.553169 -368.20377
-244.35783 0.00010164265 -369.20062
-244.29587 -30.536915 -370.13535
-244.24207 -61.060383 -370.94727
-244.20146 -91.575378 -371.55984
-244.15074 -122.07519 -372.32529
-244.10207 -152.56363 -373.05963
-244.09091 -183.06805 -373.22794
-244.08484 -213.5741 -373.31989
-244.08888 -244.08876 -373.25861
-244.10309 -274.61591 -373.04431
-244.12437 -305.15527 -372.72314
-244.17204 -335.73648 -372.00372
-244.22379 -366.33551 -371.22314
-244.25322 -396.91129 -370.77893
-243.84077 -426.72113 -377.00253
-243.15073 -455.9075 -387.41434
-242.41156 -484.82303 -398.5676
-241.61826 -513.43872 -410.53735
-240.80646 -541.81445 -422.78659
-239.94717 -569.87451 -435.75217
-239.06775 -597.66919 -449.02185
-238.18217 -625.22809 -462.38394
-237.28783 -652.54132 -475.87866
-236.40112 -679.65308 -489.25815
-235.52007 -706.56006 -502.55212
-234.64555 -733.26721 -515.74744
-233.77751 -759.77679 -528.84509
-232.91679 -786.09399 -541.8324
-232.06149 -812.21509 -554.73804
-231.21243 -838.14496 -567.54932
-230.39755 -863.99072 -579.84485
-229.62967 -889.81482 -591.43146
-228.86598 -915.46375 -602.95428
-228.10826 -940.94647 -614.38739
-227.35555 -966.26086 -625.7453
-226.60777 -991.40894 -637.02814
-225.8649 -1016.392 -648.23724
-225.12688 -1041.2118 -659.37317
-224.39366 -1065.8698 -670.43646
-223.66522 -1090.3678 -681.42804
-222.9415 -1114.7074 -692.34827
-222.22243 -1138.8898 -703.19806
-221.50798 -1162.9169 -713.97815
-220.79811 -1186.7897 -724.68921
-220.09279 -1210.5103 -735.33167
-219.39195 -1234.0796 -745.90662
-218.69556 -1257.4994 -756.41437
-218.35672 -1282.8458 -761.52673
-219.23401 -1315.4038 -748.28998
-224.4706 897.88257 -185.41866
-224.33057 865.27515 -187.83334
-224.27187 833.00995 -188.84581
-224.36285 801.29608 -187.27654
-225.89742 774.50543 -160.81389
-244.21193 802.41064 155.00856
-245.37721 771.18579 175.10345
-224.13792 320.19708 -191.15501
-220.71321 283.77432 -250.2126
-218.24403 249.42195 -292.79156
-216.27795 216.27806 -326.69583
-215.09648 184.36853 -347.06961
-213.94119 152.81532 -366.99164
-213.40051 121.94322 -376.31537
-212.92426 91.253281 -384.52802
-212.81058 60.803211 -386.48822
-212.74808 30.392714 -387.56622
-212.68561 0.00011667329 -388.64355
-212.6302 -30.375612 -389.59897
-212.58362 -60.738007 -390.4024
-212.54846 -91.092026 -391.00851
-212.5107 -121.43451 -391.65967
-212.46678 -151.7619 -392.41669
-212.45714 -182.10593 -392.58328
-212.44925 -212.44914 -392.71939
-212.45189 -242.80205 -392.67407
-212.46329 -273.16696 -392.47726
-212.48085 -303.54395 -392.17462
-212.50719 -333.9397 -391.72021
-212.55461 -364.37924 -390.90219
-212.57747 -394.78668 -390.50836
-212.26947 -424.53879 -395.81964
-211.69623 -453.63467 -405.7048
-211.04636 -482.39145 -416.91144
-210.3643 -510.88477 -428.67261
-209.6653 -539.13922 -440.72687
-208.91997 -567.06842 -453.57971
-208.16054 -594.7442 -466.67557
-207.3949 -622.18463 -479.87851
-206.61993 -649.37671 -493.24243
-205.85072 -676.36646 -506.50687
-205.08806 -703.159 -519.65863
-204.33101 -729.75342 -532.71356
-203.64079 -756.38 -544.61578
-202.95523 -782.82721 -556.43793
-202.27426 -809.09692 -568.18066
-201.59787 -835.19092 -579.84491
-200.92596 -861.11115 -591.43134
-200.25851 -886.85913 -602.94092
-199.5955 -912.4364 -614.37427
-198.93687 -937.84515 -625.73199
-198.28256 -963.08661 -637.01514
-197.63255 -988.1626 -648.22424
-196.98677 -1013.0747 -659.36023
-196.3452 -1037.8246 -670.42365
-195.70781 -1062.4136 -681.41516
-195.07454 -1086.8438 -692.33545
-194.44463 -1111.1121 -703.198
-193.81947 -1135.2281 -713.97827
-193.19835 -1159.1899 -724.68909
-192.58118 -1182.9985 -735.33191
-191.96796 -1206.6556 -745.90662
-191.35861 -1230.1625 -756.41412
-190.75314 -1253.5204 -766.85547
-190.36617 -1278.1727 -773.52844
-190.80339 -1308.3661 -765.98883
-193.97485 905.21613 -153.80254
-193.46065 870.57306 -164.14801
-193.42073 838.15674 -164.95061
-193.49545 806.23126 -163.4476
-193.9467 775.78699 -154.36916
-208.22589 798.19934 132.90584
-208.96825 766.21722 147.84105
-206.47313 412.94635 97.642944
-206.38901 378.38 95.950836
-190.92986 318.21664 -215.06331
-188.12502 282.18753 -271.49249
-186.05719 248.07635 -313.09393
-184.36995 215.09836 -347.0386
-183.38733 183.38748 -366.8074
-182.41135 152.00958 -386.4426
-181.95804 121.30556 -395.56281
-181.55182 90.776108 -403.73517
-181.4554 60.485291 -405.67468
-181.40237 30.233912 -406.74142
-181.3494 0.00015824148 -407.80759
-181.29791 -30.216146 -408.84296
-181.25841 -60.4193 -409.63803
-181.22786 -90.613853 -410.25256
-181.1973 -120.79806 -410.86707
-181.16304 -150.96906 -411.5563
-181.15411 -181.15399 -411.73602
-181.14594 -211.3369 -411.90082
-181.14668 -241.52878 -411.88596
-181.15634 -271.7345 -411.69116
-181.16975 -301.94934 -411.42163
-181.18987 -332.18115 -411.01706
-181.22189 -362.44366 -410.37253
-181.23978 -392.68607 -410.01263
-181.01945 -422.3786 -414.44528
-180.55305 -451.38257 -423.82846
-179.99419 -479.98434 -435.07227
-179.41977 -508.3558 -446.62848
-178.83087 -536.49243 -458.47626
-178.19826 -564.29437 -471.2034
-177.5551 -591.85016 -484.14285
-176.94212 -619.29742 -496.47488
-176.33688 -646.56848 -508.65103
-175.73718 -673.65906 -520.71631
-175.14087 -700.56329 -532.7135
-174.54926 -727.28839 -544.61584
-173.96162 -753.83356 -556.43781
-173.37794 -780.20056 -568.18073
-172.79816 -806.39124 -579.84503
-172.22224 -832.40741 -591.43146
-171.65016 -858.25073 -602.94073
-171.08186 -883.92285 -614.37421
-170.5173 -909.4256 -625.73187
-169.9565 -934.76056 -637.01508
-169.39932 -959.92944 -648.22418
-168.84581 -984.93378 -659.36011
-168.2959 -1009.7753 -670.42352
-167.74956 -1034.4554 -681.41504
-167.20676 -1058.976 -692.33557
-166.66743 -1083.3383 -703.18549
-166.13161 -1107.5439 -713.96558
-165.5992 -1131.5944 -724.67676
-165.07021 -1155.4913 -735.3194
-164.54457 -1179.236 -745.89417
-164.02228 -1202.8298 -756.4021
-163.5033 -1226.2745 -766.84332
-162.98758 -1249.5712 -777.21863
-162.57938 -1273.5383 -785.43097
-162.83104 -1302.6482 -780.36798
-162.33224 876.59418 -137.22839
-162.22685 843.57965 -139.77286
-162.23401 811.17035 -139.59999
-162.34946 779.27747 -136.81284
-164.69487 757.59637 -80.189697
-173.07109 761.513 122.03011
-171.17171 410.81216 76.175476
-171.10234 376.42535 74.500626
-158.1403 316.28067 -238.43079
-155.89919 280.61877 -292.5361
-154.21637 246.74634 -333.16296
-152.82468 213.95468 -366.76135
-152.01448 182.41751 -386.32132
-151.21159 151.21187 -405.70486
-150.84273 120.67429 -414.60959
-150.5065 90.304131 -422.72723
-150.42699 60.170963 -424.64676
-150.38264 30.076647 -425.71713
-150.33894 0.00019517621 -426.77237
-150.29527 -30.058935 -427.82654
-150.25961 -60.103809 -428.68747
-150.23441 -90.14045 -429.29593
-150.20984 -120.16771 -429.88931
-150.18404 -150.18399 -430.51184
-150.17729 -180.21257 -430.67493
-150.17053 -210.23862 -430.83795
-150.1687 -240.26965 -430.88257
-150.17606 -270.31683 -430.70459
-150.18527 -300.37036 -430.48239
-150.20247 -330.44531 -430.06714
-150.22028 -360.5285 -429.63699
-150.23441 -390.60931 -429.29575
-150.08586 -420.24023 -432.88217
-149.71758 -449.15265 -441.77325
-149.28738 -477.7196 -452.15924
-148.853 -506.10007 -462.6459
-148.41275 -534.28571 -473.27472
-147.93338 -562.14679 -484.84775
-147.44998 -589.7998 -496.51773
-146.95917 -617.22845 -508.36719
-146.45876 -644.4184 -520.44836
-145.96115 -671.42114 -532.46155
-145.46692 -698.24109 -544.39331
-144.97603 -724.88013 -556.24438
-144.48843 -751.33972 -568.01599
-144.0041 -777.62213 -579.7085
-143.52303 -803.72882 -591.32312
-143.04515 -829.66168 -602.86029
-142.57043 -855.42242 -614.32074
-142.09886 -881.01282 -625.70551
-141.6304 -906.43439 -637.01526
-141.16609 -931.69611 -648.2243
-140.70483 -956.79279 -659.36029
-140.24658 -981.72589 -670.42365
-139.79131 -1006.4971 -681.41516
-139.33896 -1031.1082 -692.33539
-138.88954 -1055.5604 -703.1853
-138.44301 -1079.8552 -713.9657
-137.99934 -1103.9945 -724.67664
-137.5585 -1127.9797 -735.31927
-137.12048 -1151.8119 -745.8941
-136.68524 -1175.493 -756.40186
-136.25275 -1199.024 -766.84314
-135.82298 -1222.4066 -777.21863
-135.39592 -1245.6423 -787.52881
-135.01123 -1269.1055 -796.81604
-135.09317 -1296.8942 -794.83813
-130.74872 882.55408 -110.58367
-130.62318 849.05078 -114.37238
-130.59938 816.24628 -115.09042
-130.64815 783.88904 -113.61873
-131.54768 756.39948 -86.4729
-137.752 757.63611 100.75854
-136.16325 408.48987 52.814041
-136.10396 374.2861 51.024914
-125.80326 314.50821 -259.82617
-124.02974 279.06705 -313.34692
-122.71516 245.43039 -353.01773
-121.61259 212.82217 -386.29092
-120.99319 181.48982 -404.98318
-120.39287 150.49115 -423.09924
-120.11139 120.11153 -431.59381
-119.85712 89.892982 -439.267
-119.80288 59.901516 -440.90378
-119.76968 29.94249 -441.9057
-119.73649 0.00014082418 -442.90732
-119.70332 -29.925751 -443.90805
-119.68333 -59.841484 -444.51138
-119.66724 -89.750313 -444.99677
-119.64776 -119.64761 -445.58502
-119.62778 -149.53458 -446.18759
-119.63071 -179.44591 -446.09937
-119.62487 -209.34341 -446.27591
-119.62876 -239.25739 -446.1582
-119.63558 -269.17987 -445.95239
-119.64386 -299.10959 -445.70258
-119.65945 -329.06332 -445.23203
-119.67895 -359.03671 -444.64365
-119.69016 -388.99292 -444.30539
-119.60734 -418.62552 -446.80478
-119.34599 -447.54724 -454.69162
-119.01633 -476.06531 -464.64001
-118.67361 -504.36273 -474.98203
-118.32621 -532.46771 -485.46619
-117.94531 -560.24017 -496.96072
-117.56545 -587.82721 -508.42404
-117.17494 -615.16833 -520.20862
-116.77867 -642.28253 -532.16742
-116.38322 -669.20343 -544.1012
-115.99044 -695.9425 -555.95441
-115.6003 -722.50183 -567.72772
-115.21278 -748.88293 -579.4223
-114.82784 -775.08783 -591.03876
-114.44547 -801.11823 -602.5777
-114.06564 -826.97577 -614.04016
-113.68833 -852.66235 -625.42664
-113.31349 -878.17944 -636.7384
-112.94112 -903.52893 -647.9754
-112.57121 -928.71228 -659.13898
-112.20368 -953.73132 -670.22955
-111.83857 -978.58734 -681.24823
-111.47581 -1003.2822 -692.19513
-111.11541 -1027.8175 -703.07117
-110.75733 -1052.1945 -713.8775
-110.40155 -1076.415 -724.6142
-110.04804 -1100.4803 -735.28198
-109.69679 -1124.3921 -745.88184
-109.34819 -1148.1559 -756.40186
-109.0022 -1171.7734 -766.84326
-108.65839 -1195.2422 -777.21863
-108.31673 -1218.5632 -787.52869
-107.97723 -1241.738 -797.77429
-107.65878 -1264.9905 -807.38452
-107.6426 -1291.7112 -807.87238
-98.873665 889.86298 -77.906502
-98.609558 854.61627 -88.533585
-98.564133 821.3678 -90.361153
-98.613968 788.9118 -88.355713
-98.905609 758.27655 -76.620903
-102.91164 754.68549 84.569206
-101.50721 439.86475 28.059092
-101.46468 405.85895 26.347876
-101.42266 371.88321 24.65712
-93.826637 312.75555 -280.98303
-92.511185 277.53372 -333.91306
-91.588875 244.23705 -371.02386
-90.80172 211.87086 -402.69678
-90.356842 180.71394 -420.59692
-89.910072 149.85022 -438.57327
-89.694557 119.59286 -447.24561
-89.505486 89.505562 -454.85251
-89.456451 59.637836 -456.82611
-89.447006 29.815813 -457.20599
-89.422325 0.00013824693 -458.19897
-89.397667 -29.799036 -459.19135
-89.378448 -59.585457 -459.96442
-89.381706 -89.381569 -459.83307
-89.366852 -119.15559 -460.43109
-89.352356 -148.92055 -461.01419
-89.361778 -178.7234 -460.63522
-89.35743 -208.5005 -460.8103
-89.355614 -238.28159 -460.88306
-89.371559 -268.1145 -460.24152
-89.376274 -297.92068 -460.052
-89.39222 -327.77148 -459.41006
-89.403831 -357.61508 -458.94333
-89.420517 -387.48874 -458.27182
-89.381355 -417.11279 -459.84781
-89.189278 -445.94626 -467.57605
-88.954201 -474.42227 -477.03476
-88.700363 -502.63522 -487.24829
-88.441948 -530.65155 -497.64618
-88.160332 -558.34875 -508.97754
-87.877357 -585.84894 -520.36383
-87.589218 -613.12439 -531.95746
-87.29467 -640.16083 -543.80896
-87.000038 -667.00024 -555.66418
-86.70739 -693.65894 -567.43964
-86.416695 -720.13898 -579.13611
-86.127945 -746.44208 -590.75439
-85.841133 -772.57007 -602.29517
-85.556213 -798.5246 -613.7594
-85.273178 -824.30725 -625.14789
-84.992012 -849.91992 -636.46124
-84.712685 -875.36432 -647.70026
-84.435196 -900.64203 -658.86548
-84.159515 -925.75464 -669.95795
-83.885635 -950.7038 -680.97827
-83.613525 -975.49097 -691.92706
-83.343178 -1000.118 -702.80499
-83.074577 -1024.5862 -713.61285
-82.807693 -1048.8973 -724.35114
-82.542519 -1073.0527 -735.02087
-82.279045 -1097.0538 -745.62231
-82.017242 -1120.9023 -756.15643
-81.757111 -1144.5994 -766.62366
-81.498611 -1168.1466 -777.0246
-81.241745 -1191.5454 -787.36017
-80.992744 -1214.8911 -797.37909
-80.75473 -1238.2391 -806.95581
-80.525467 -1261.5657 -816.18073
-80.467552 -1287.4807 -818.51135
-80.981728 -1322.7015 -797.8222
-67.655579 947.17847 27.099947
-67.665863 913.48914 27.72057
-66.164223 860.13501 -62.911091
-66.143974 826.7998 -64.133743
-66.156776 793.88141 -63.360729
-66.258812 761.97644 -57.202335
-68.275246 751.02789 64.499771
-67.305367 437.48499 5.9628205
-67.279167 403.6752 4.3816628
-67.252991 369.89148 2.8018005
-62.207069 311.03549 -301.7468
-61.397327 276.28806 -350.61893
-60.806549 243.22636 -386.27567
-60.286095 211.0015 -417.68796
-59.981407 179.94446 -436.07748
-59.686085 149.21541 -453.90173
-59.537102 119.0743 -462.89365
-59.414314 89.121635 -470.30435
-59.369179 59.369267 -473.0285
-59.375416 29.687706 -472.65195
-59.363659 0.00026297881 -473.36163
-59.347115 -29.67345 -474.36017
-59.331776 -59.331661 -475.28583
-59.338486 -89.007576 -474.88098
-59.334175 -118.66821 -475.14114
-59.324352 -148.31073 -475.73413
-59.328903 -177.98666 -475.45929
-59.332977 -207.66536 -475.21356
-59.330105 -237.32021 -475.38718
-59.346157 -267.05746 -474.41806
-59.349037 -296.74506 -474.24448
-59.361504 -326.48813 -473.49191
-59.368217 -356.2092 -473.08646
-59.384296 -385.99777 -472.11609
-59.36702 -415.56906 -473.15875
-59.247086 -444.353 -480.39749
-59.099094 -472.79263 -489.32968
-58.931736 -500.91971 -499.43048
-58.760628 -528.84546 -509.75793
-58.57579 -556.46991 -520.91364
-58.388634 -583.88623 -532.20953
-58.199215 -611.09155 -543.64209
-58.005066 -638.05548 -555.36023
-57.809929 -664.81396 -567.1377
-57.616104 -691.39307 -578.83618
-57.423569 -717.79462 -590.45636
-57.232323 -744.02008 -601.99921
-57.042343 -770.07147 -613.46558
-56.853619 -795.95056 -624.8559
-56.666145 -821.659 -636.17102
-56.4799 -847.19843 -647.41211
-56.294876 -872.57037 -658.57928
-56.111057 -897.77679 -669.67346
-55.928436 -922.81909 -680.6958
-55.747002 -947.69891 -691.64624
-55.566742 -972.41772 -702.52606
-55.387638 -996.97742 -713.33575
-55.209694 -1021.3792 -724.07587
-55.032879 -1045.6246 -734.74719
-54.857204 -1069.7153 -745.3504
-54.687523 -1093.7505 -755.59137
-54.524559 -1117.7533 -765.42719
-54.36256 -1141.6136 -775.20471
-54.201721 -1165.3369 -784.91187
-54.041634 -1188.9159 -794.57422
-53.882488 -1212.3561 -804.17938
-53.724277 -1235.6583 -813.72827
-53.570122 -1258.8977 -823.03265
-53.512367 -1284.2968 -826.51837
-53.773632 -1317.454 -810.74945
-33.527969 1072.8954 -9.0916061
-33.499687 1038.4902 -12.505826
-33.476326 1004.29 -15.325292
-33.460926 970.367 -17.184221
-33.454224 936.71851 -17.993498
-33.450874 903.17383 -18.397881
-33.28793 865.48633 -38.066875
-33.281746 832.04376 -38.813293
-33.290493 798.97205 -37.757298
-33.321598 766.39709 -34.002514
-33.651913 740.34222 5.8695526
-33.651913 706.69025 5.8695478
-33.651913 673.03851 5.8697033
-33.651913 639.38647 5.8696985
-33.651913 605.73444 5.8696618
-33.651913 572.08264 5.8697529
-33.653454 538.45538 6.0558243
-33.843998 507.66013 29.056471
-33.707497 471.90518 12.579588
-33.476173 435.1904 -15.343409
-33.463367 401.56055 -16.889679
-33.450417 367.95477 -18.453278
-30.967178 309.67184 -318.20636
-30.568752 275.11899 -366.3009
-30.277967 242.22388 -401.4017
-30.019993 210.13998 -432.54172
-29.861967 179.17194 -451.61728
-29.717131 148.58569 -469.10031
-29.635492 118.54222 -478.9552
-29.580244 88.740829 -485.6243
-29.551567 59.10334 -489.08597
-29.554539 29.554798 -488.72717
-29.557154 0.0002270494 -488.41141
-29.549068 -29.548931 -489.38708
-29.540991 -59.081818 -490.36267
-29.543365 -88.629822 -490.07581
-29.546099 -118.18424 -489.74588
-29.541346 -147.70659 -490.31943
-29.541941 -177.25159 -490.24771
-29.548 -206.83585 -489.51624
-29.546574 -236.37244 -489.6886
-29.553823 -265.98441 -488.81317
-29.557987 -295.5798 -488.31079
-29.563696 -325.20059 -487.62152
-29.568336 -354.81992 -487.06131
-29.578218 -384.51663 -485.86865
-29.574051 -414.03656 -486.3718
-29.517963 -442.76926 -493.14221
-29.447325 -471.15701 -501.66904
-29.365751 -499.21759 -511.51578
-29.280659 -527.05164 -521.78729
-29.190027 -554.61029 -532.72754
-29.096725 -581.93445 -543.98981
-29.003561 -609.07471 -555.23584
-28.907352 -635.96161 -566.84937
-28.810423 -662.63965 -578.54968
-28.714142 -689.13922 -590.172
-28.618502 -715.4624 -601.71667
-28.523497 -741.61078 -613.18488
-28.429121 -767.58624 -624.57697
-28.335367 -793.3902 -635.8941
-28.242229 -819.02454 -647.13678
-28.149702 -844.49103 -658.30573
-28.057779 -869.79108 -669.40186
-27.966455 -894.92639 -680.42578
-27.875723 -919.89868 -691.37817
-27.785576 -944.70947 -702.2597
-27.698833 -969.45898 -712.73071
-27.615328 -994.15161 -722.81067
-27.532219 -1018.6921 -732.84253
-27.449612 -1043.0851 -742.81439
-27.367496 -1067.3323 -752.72644
-27.285873 -1091.4349 -762.57916
-27.204836 -1115.3981 -772.36133
-27.124176 -1139.2155 -782.09772
-27.043995 -1162.8917 -791.77655
-26.964287 -1186.4285 -801.39813
-26.885145 -1209.8314 -810.95142
-26.806366 -1233.0929 -820.46057
-26.728052 -1256.2184 -829.91412
-26.692703 -1281.2495 -834.1814
-26.797762 -1313.0902 -821.49939
-3.7646835e-22 1070.2333 -19.133198
-1.2672953e-21 1035.2003 -25.317604
-1.2464352e-21 1001.0921 -28.19241
-2.1077968e-21 967.3446 -29.765472
-1.7755474e-21 933.8479 -30.368692
-1.5630301e-21 900.58203 -29.98489
-1.3592698e-21 861.24042 -57.779556
-1.8461738e-21 827.71649 -59.707764
-2.4558631e-22 794.2998 -61.255924
-2.4344051e-22 763.76416 -47.820419
-7.0460087e-22 737.2757 -10.9562
-1.2585581e-21 703.76306 -10.956355
-1.9183946e-21 670.25067 -10.956382
-1.4353002e-22 636.7381 -10.956118
-8.0336645e-22 603.22546 -10.956288
-1.4632029e-21 569.71307 -10.956284
-4.6536326e-22 536.32031 -10.051674
-1.8518506e-21 504.28687 1.9100535
-8.9647981e-22 469.93436 -4.4130177
-1.1397315e-21 432.94919 -36.154099
-7.8601565e-22 399.49329 -37.684311
-1.0598837e-21 366.05957 -39.250088
-1.2433564e-21 308.297 -334.80359
-9.4084151e-22 273.95844 -381.86572
-1.3609169e-21 241.1436 -417.70285
-1.6627357e-21 209.28488 -447.28961
-9.9419375e-22 178.39026 -467.3439
-8.6974467e-22 147.96095 -484.18585
-1.2072837e-21 118.01463 -494.87363
-7.5607635e-22 88.362976 -500.82797
-2.0609e-22 58.839314 -505.01404
-1.6154929e-21 29.422789 -504.64444
-1.4637981e-21 0.00012485101 -504.27457
-1.3735745e-21 -29.42551 -504.28873
-8.4406022e-22 -58.835102 -505.25589
-4.260741e-22 -88.2556 -505.14209
-1.1701705e-21 -117.68717 -504.74399
-9.071548e-22 -147.10686 -504.80075
-9.3904346e-22 -176.52249 -504.91467
-1.2956421e-21 -205.98917 -504.11792
-1.4853391e-21 -235.43309 -503.86191
-1.541571e-21 -264.91315 -503.17865
-3.2449618e-22 -294.42365 -502.26712
-7.797859e-22 -323.91779 -501.69736
-1.9318593e-21 -353.44287 -500.91376
-5.2792702e-22 -383.00864 -499.87271
-1.6687949e-21 -412.5137 -499.50192
-1.9289834e-21 -441.20389 -505.73941
-4.6019081e-22 -469.51038 -514.09265
-1.1183313e-21 -497.52512 -523.53333
-1.7686345e-21 -525.27008 -533.73535
-1.201295e-21 -552.76324 -544.46289
-5.5475688e-22 -579.99554 -555.69177
-1.4232816e-21 -607.05426 -566.84924
-1.4175857e-21 -633.88141 -578.26324
-9.5611002e-22 -660.47937 -589.88745
-6.6035761e-22 -686.90015 -601.43396
-5.4089039e-22 -713.14551 -612.90393
-3.7590681e-22 -739.2171 -624.29797
-1.0553362e-21 -765.11688 -635.61694
-1.4145081e-21 -790.84619 -646.86163
-8.6208174e-22 -816.40698 -658.03229
-5.4279881e-22 -841.90051 -668.72906
-8.5230582e-22 -867.30341 -679.08875
-1.7499503e-21 -892.55127 -689.38519
-6.216073e-22 -917.64587 -699.61884
-1.0033543e-21 -942.59186 -709.77795
-1.550552e-21 -967.38361 -719.88849
-7.4517083e-22 -992.02606 -729.93781
-2.0647953e-21 -1016.5204 -739.92706
-1.831436e-21 -1040.8721 -749.84412
-8.8160237e-22 -1065.0746 -759.71411
-1.4336824e-21 -1089.1331 -769.52551
-1.0371324e-21 -1113.0487 -779.27856
-6.1891326e-22 -1136.8229 -788.97388
-1.4598902e-21 -1160.4609 -798.60022
-7.5006137e-22 -1183.9558 -808.18182
-6.0728179e-22 -1207.3129 -817.70709
-1.1321171e-21 -1230.5334 -827.17688
-2.020716e-21 -1253.6184 -836.59143
-1.9925282e-21 -1278.3511 -841.4704
-1.6829331e-21 -1308.9457 -831.70935
33.466873 1070.9402 -16.466412
33.448738 1036.911 -18.655317
33.437321 1003.1198 -20.033575
33.424541 969.31189 -21.576174
33.41679 935.67035 -22.512268
32.373165 874.07562 -148.48863
32.306114 839.95923 -156.58276
32.312649 807.81653 -155.79369
32.340103 776.16248 -152.47968
32.785942 754.07684 -98.662041
33.574703 738.64374 -3.449837
33.574703 705.06885 -3.4499898
33.574703 671.4942 -3.4499822
33.574703 637.91956 -3.4499166
33.574551 604.3421 -3.4686894
33.574703 570.77014 -3.4499235
33.579002 537.26422 -2.9311795
33.707497 505.61267 12.579431
33.687096 471.61942 10.116766
33.135681 430.7641 -56.444927
33.123581 397.48312 -57.90554
33.111488 364.22644 -59.365253
30.698149 306.98175 -350.68106
30.312073 272.80878 -397.28455
30.008957 240.07181 -433.8739
29.776634 208.43655 -461.91782
29.602533 177.61533 -482.93372
29.468351 147.34192 -499.13083
29.372795 117.49133 -510.66531
29.325659 87.977081 -516.35516
29.288946 58.577991 -520.7868
29.291985 29.292154 -520.42017
29.295021 8.3099148e-05 -520.05359
29.298058 -29.297913 -519.68701
29.295139 -58.590199 -520.03949
29.294786 -87.884148 -520.08191
29.298058 -117.19207 -519.68701
29.301447 -146.50705 -519.27802
29.299929 -175.79947 -519.4613
29.306473 -205.14514 -518.67126
29.312555 -234.50034 -517.93707
29.316767 -263.85071 -517.42883
29.326012 -293.25986 -516.31287
29.331396 -322.64529 -515.66254
29.339245 -352.07077 -514.71521
29.347099 -381.51215 -513.76727
29.355778 -410.98074 -512.71985
29.310566 -439.65845 -518.17706
29.242197 -467.87506 -526.42999
29.167313 -495.84424 -535.46954
29.083479 -523.50238 -545.58905
28.996349 -550.93048 -556.10632
28.903486 -578.06958 -567.3161
28.811665 -605.04498 -578.39954
28.718859 -631.8147 -589.60284
28.623186 -658.33319 -601.15125
28.528149 -684.67535 -612.62329
28.437485 -710.93701 -623.56738
28.349472 -737.08618 -634.19128
28.261894 -763.07104 -644.76294
28.174856 -788.89594 -655.26929
28.088352 -814.56213 -665.71136
28.00238 -840.07129 -676.08929
27.917036 -865.42798 -686.39117
27.832106 -890.62726 -696.64319
27.74769 -915.67365 -706.83295
27.663788 -940.56866 -716.96094
27.580387 -965.31335 -727.02832
27.497595 -989.91321 -737.0224
27.415194 -1014.3619 -746.96906
27.333284 -1038.6648 -756.85626
27.251863 -1062.8225 -766.68457
27.171026 -1086.8411 -776.44232
27.090569 -1110.7133 -786.15454
27.010586 -1134.4443 -795.80951
26.931072 -1158.0359 -805.40747
26.852028 -1181.489 -814.9491
26.773542 -1204.8092 -824.4231
26.695417 -1227.989 -833.8537
26.617746 -1251.0341 -843.22906
26.572208 -1275.4659 -848.7262
26.632704 -1305.0024 -841.42358
67.642189 1082.275 26.291594
67.533676 1046.7722 19.742426
67.456474 1011.8472 15.082866
67.393044 977.19922 11.254421
63.235703 885.30011 -239.66325
63.086369 851.66608 -248.67628
63.062271 819.80963 -250.13087
63.147102 789.33893 -245.01079
63.82354 765.88245 -204.1839
65.465828 752.8573 -105.06328
67.979561 747.77539 46.654301
66.005203 429.03387 -72.50885
65.982086 395.89279 -73.904526
65.963425 362.79901 -75.030952
61.159389 305.797 -364.9798
60.367588 271.6543 -412.76932
59.75235 239.00948 -449.90204
59.305916 207.57095 -476.84705
58.949001 176.84705 -498.38867
58.682945 146.70747 -514.44641
58.486492 116.97314 -526.30353
58.393047 87.589622 -531.9433
58.318878 58.319065 -536.41992
58.324898 29.162683 -536.05658
58.330688 5.4308381e-05 -535.70709
58.336708 -29.168228 -535.34369
58.342731 -58.34259 -534.98035
58.343891 -87.515663 -534.91028
58.350609 -116.70106 -534.50482
58.357327 -145.89322 -534.09918
58.361038 -175.08287 -533.87524
58.37402 -204.30887 -533.09161
58.38678 -233.54706 -532.32141
58.399082 -262.79575 -531.57922
58.41766 -292.0881 -530.45807
58.432991 -321.38129 -529.53265
58.448799 -350.69269 -528.57849
58.465778 -380.0274 -527.55389
58.48835 -409.41833 -526.1911
58.41626 -438.12189 -530.54211
58.281403 -466.25116 -538.68176
58.13612 -494.15689 -547.45026
57.971649 -521.74457 -557.37695
57.800835 -549.10779 -567.68677
57.629208 -576.29205 -578.04486
57.457928 -603.30811 -588.38269
57.286102 -630.14691 -598.75354
57.106419 -656.72363 -609.59839
56.927635 -683.13153 -620.38879
56.749969 -709.37445 -631.11176
56.574501 -735.46844 -641.70227
56.400116 -761.40149 -652.22736
56.227013 -787.17804 -662.67505
56.05476 -812.79388 -673.07153
55.883553 -838.25317 -683.4046
55.71339 -863.55743 -693.6748
55.544266 -888.70807 -703.88263
55.376366 -913.70996 -714.01599
55.209274 -938.55774 -724.10077
55.043194 -963.2558 -734.12482
54.878101 -987.80585 -744.08893
54.714001 -1012.2088 -753.99359
54.551079 -1036.4702 -763.82672
54.38892 -1060.5839 -773.61359
54.227726 -1084.5543 -783.34247
54.06749 -1108.3834 -793.01392
53.90839 -1132.0762 -802.61627
53.750027 -1155.6255 -812.17444
53.592594 -1179.037 -821.67633
53.436077 -1202.3116 -831.12286
53.280476 -1225.4509 -840.51434
53.125965 -1248.4601 -849.83978
53.023972 -1272.5751 -855.99585
53.123856 -1301.5343 -849.96716
92.577637 894.9173 -331.23941
92.513901 863.46307 -333.80386
92.475082 832.27594 -335.3656
92.630936 802.80151 -329.09421
93.747215 781.22705 -284.17883
95.662178 765.29761 -207.12677
101.07844 774.935 10.806705
102.2347 749.72137 57.331421
107.81259 503.12576 281.76813
98.583527 427.19534 -89.580429
98.555756 394.22311 -90.698021
98.528435 361.27106 -91.797264
91.386063 304.62045 -379.18417
90.159454 270.47845 -428.53915
89.233696 237.95662 -465.78882
88.569901 206.66331 -492.49777
88.053612 176.10732 -513.27197
87.679474 146.13271 -528.32593
87.384666 116.51311 -540.18799
87.251816 87.251869 -545.53339
87.130051 58.086784 -550.43292
87.160721 29.05377 -549.19891
87.168312 7.4756739e-05 -548.89355
87.176231 -29.058521 -548.57458
87.183823 -58.122398 -548.26929
87.206589 -87.206566 -547.35315
87.214874 -116.28638 -547.0199
87.22316 -145.37173 -546.68671
87.231445 -174.46275 -546.35333
87.255615 -203.5963 -545.38031
87.272552 -232.72678 -544.69916
87.296745 -261.89008 -543.72565
87.321655 -291.07193 -542.72363
87.348297 -320.27701 -541.65112
87.374626 -349.49835 -540.59241
87.401306 -378.73871 -539.51874
87.430771 -408.01013 -538.33282
87.362152 -436.81073 -541.09393
87.176582 -464.94174 -548.56061
86.973946 -492.8522 -556.71429
86.750046 -520.50012 -565.72308
86.515755 -547.93304 -575.15039
86.260765 -575.07172 -585.40997
86.004265 -602.02966 -595.73114
85.749283 -628.82788 -605.99097
85.480881 -655.35333 -616.79041
85.213829 -681.71051 -627.53583
84.948433 -707.90344 -638.21454
84.68502 -733.93677 -648.81348
84.422905 -759.80597 -659.36023
84.162727 -785.51862 -669.8288
83.903839 -811.07019 -680.24591
83.646523 -836.46509 -690.59918
83.391113 -861.70807 -700.87634
83.137566 -886.8006 -711.07831
82.886482 -911.75116 -721.18103
82.636917 -936.5517 -731.22247
82.38916 -961.20679 -741.19147
82.142578 -985.71082 -751.1134
81.897469 -1010.0687 -760.97571
81.653809 -1034.2816 -770.7796
81.411606 -1058.3508 -780.52539
81.171127 -1082.2815 -790.20154
80.93177 -1106.0675 -799.83228
80.693825 -1129.7134 -809.40686
80.457268 -1153.2207 -818.92499
80.222099 -1176.5907 -828.38745
79.988586 -1199.8287 -837.78326
79.756142 -1222.9276 -847.13599
79.525047 -1245.8923 -856.43469
79.355247 -1269.6837 -863.26709
79.474289 -1298.08 -858.47705
120.92496 937.16852 -407.04181
120.65882 904.94141 -415.07321
120.61376 874.44995 -416.43332
120.70492 844.93469 -413.68237
121.19228 818.0481 -398.97488
122.75618 797.91522 -351.78
124.97343 781.08405 -284.86859
134.73479 808.40881 9.7066345
134.79597 775.07709 11.553027
147.5934 811.76379 397.74948
142.52303 498.83087 244.7373
130.79645 425.08865 -109.14358
130.75513 392.26544 -110.39056
130.70221 359.43124 -111.98766
121.37751 303.44388 -393.38525
119.69406 269.31174 -444.18781
118.51041 237.02101 -479.90729
117.68552 205.94978 -504.80087
117.02189 175.53291 -524.82764
116.52768 145.65973 -539.74188
116.07107 116.07124 -553.52094
115.92775 86.946075 -557.84631
115.7524 57.876343 -563.13806
115.8044 28.951298 -561.56879
115.83041 0.00016362748 -560.78345
115.84046 -28.959974 -560.48029
115.85097 -57.925423 -560.16339
115.87152 -86.903397 -559.54309
115.92271 -115.9226 -557.99799
115.93369 -144.91696 -557.66669
115.94467 -173.91682 -557.33551
115.99319 -202.98801 -555.8714
116.01608 -232.03206 -555.18048
116.03854 -261.08661 -554.50311
116.09309 -290.23264 -552.85675
116.12611 -319.34671 -551.85986
116.17754 -348.53247 -550.30804
116.2097 -377.68137 -549.33746
116.25751 -406.90128 -547.89453
116.21843 -435.81897 -549.07397
