# .PCD v0.7 - Point Cloud Data file format
VERSION 0.7
FIELDS x y z
SIZE 4 4 4
TYPE F F F
COUNT 1 1 1
WIDTH 1500
HEIGHT 1
VIEWPOINT 0 0 0 1 0 0 0
POINTS 1500
DATA ascii
-10.423721 -5.7909594 -5.5698667
-10.436625 -6.184669 -5.5121789
-10.452684 -6.5813217 -5.4403811
-10.470148 -6.9801016 -5.3623056
-10.486777 -7.3795848 -5.287961
-10.50282 -7.7798691 -5.2162385
-10.518699 -8.1812124 -5.1452475
-10.534154 -8.5833864 -5.0761518
-10.550041 -8.987072 -5.0051246
-10.569428 -9.3950481 -4.9184475
-10.59218 -9.8075771 -4.8167276
-10.621042 -10.227672 -4.6876955
-10.656726 -10.656728 -4.5281601
-10.701936 -11.098306 -4.326036
-11.232911 -12.897049 -1.9521705
-11.223218 -13.301593 -1.9955076
-12.363811 19.021244 5.2298031
-12.294891 18.442337 4.9098301
-12.242711 17.893192 4.667572
-10.107347 -1.1662337 -5.2463226
-10.063679 -1.5482595 -5.4490628
-10.02228 -1.9273632 -5.6412644
-9.9798222 -2.3030362 -5.838387
-9.9623499 -2.6821737 -5.9195051
-9.9211073 -3.0526502 -6.1109805
-9.8682337 -3.41593 -6.3564539
-9.7805233 -3.7617419 -6.7636738
-9.8679218 -4.174891 -6.3579063
-9.9565001 -4.5953083 -5.9466662
-10.113868 -5.0569358 -5.2160439
-10.122659 -5.450665 -5.1752343
-10.137027 -5.8482857 -5.1085243
-10.1509 -6.2467103 -5.0441189
-10.16427 -6.6458693 -4.9820423
-10.180255 -7.0478692 -4.9078326
-10.197791 -7.4522319 -4.8264179
-10.214382 -7.8572187 -4.7493854
-10.226537 -8.2598963 -4.6929584
-10.242339 -8.6665955 -4.6195936
-10.259372 -9.0755978 -4.5405154
-10.27735 -9.4867878 -4.4570422
-10.29769 -9.9016285 -4.3626084
-10.326362 -10.326365 -4.2294955
-10.357258 -10.755616 -4.0860534
-10.403648 -11.203931 -3.8706806
-10.960005 -13.0677 -1.2876703
-10.89642 -13.41098 -1.5828785
-11.145214 -14.145851 -0.42779619
-11.889105 19.498131 5.2337909
-11.891052 19.025681 5.2431917
-11.88539 18.541208 5.2158561
-11.772821 17.894688 4.6723194
-11.667417 17.267776 4.1633825
-11.583334 16.68 3.757396
-11.519914 16.127878 3.4511733
-11.493725 15.631464 3.324724
-9.7864285 -3.1709467e-06 -4.9188328
-9.7482519 -0.38993216 -5.1031632
-9.7207317 -0.7776612 -5.2360435
-9.697484 -1.163699 -5.3482919
-9.6591024 -1.545459 -5.5336151
-9.5901833 -1.9180384 -5.8663831
-9.5008745 -2.2802114 -6.2976036
-9.44032 -2.6432912 -6.5899901
-9.3298063 -2.985539 -7.1235957
-9.3320589 -3.3595419 -7.112721
-9.4383497 -3.7753415 -6.5995035
-9.5397921 -4.1975102 -6.1096978
-9.8096218 -4.7086205 -4.8068423
-9.8209982 -5.1069217 -4.7519097
-9.831111 -5.5054235 -4.7030845
-9.8465004 -5.9079013 -4.6287785
-9.8606806 -6.3108377 -4.5603085
-9.871933 -6.7129164 -4.5059805
-9.8885918 -7.1197867 -4.4255409
-9.9046135 -7.5275087 -4.3481836
-9.9185095 -7.9348092 -4.2810864
-9.9311695 -8.3421841 -4.2199607
-9.9467087 -8.7531052 -4.1449289
-9.9633741 -9.1663055 -4.0644622
-9.9813423 -9.5820923 -3.9777024
-9.9994164 -9.9994192 -3.8904305
-10.025772 -10.426805 -3.7631791
-10.057117 -10.861689 -3.6118317
-10.098905 -11.310774 -3.4100657
-10.687257 -13.2522 -0.56924695
-10.610366 -13.58127 -0.94050598
-10.74625 -14.185052 -0.28440168
-11.408221 19.964384 5.2070332
-11.463645 19.583725 5.4857931
-11.087044 16.168602 3.5916357
-10.981729 15.557447 3.0619426
-10.897358 14.983865 2.6375883
-10.835207 14.446942 2.3249907
-10.793573 13.941698 2.1155961
-9.4673824 1.1834213 -4.5546288
-9.4228296 0.7852335 -4.7787147
-9.3984251 0.3915993 -4.9014616
-9.3878021 -2.6450439e-06 -4.9548893
-9.3893728 -0.39122394 -4.946991
-9.3934364 -0.7827875 -4.9265513
-9.3937044 -1.1742158 -4.9251995
-9.3769732 -1.5628313 -5.0093536
-9.3188992 -1.9414393 -5.3014445
-9.1736107 -2.2934046 -6.0321884
-8.848074 -2.5806892 -7.6695127
-8.8884449 -2.9628172 -7.4664569
-9.0092258 -3.3784599 -6.8589869
-9.1190329 -3.7995989 -6.3066964
-9.5043821 -4.3561773 -4.3685336
-9.5143671 -4.7571836 -4.3183227
-9.5246468 -5.1591849 -4.2666144
-9.535306 -5.5622621 -4.2130055
-9.5497913 -5.9686208 -4.1401458
-9.5609436 -6.3739629 -4.0840559
-9.575469 -6.7826257 -4.0110011
-9.5902367 -7.1926804 -3.9367192
-9.6038485 -7.6030478 -3.8682604
-9.6174984 -8.0145836 -3.7996056
-9.630784 -8.426939 -3.7327819
-9.6452789 -8.8415089 -3.659879
-9.6613188 -9.2587652 -3.5792038
-9.6783485 -9.6783495 -3.4935536
-9.697032 -10.101077 -3.3995817
-9.7198515 -10.52984 -3.2848096
-9.7495909 -10.968292 -3.1352322
-9.7876253 -11.418899 -2.9439313
-9.8324251 -11.880848 -2.7186069
-10.312239 -13.749653 -0.30533463
-10.363709 -14.2501 -0.046458144
-10.890702 20.360874 4.9856749
-10.950472 19.996515 5.299367
-10.326303 13.91806 2.0235534
-10.243877 13.361579 1.5909538
-10.180777 12.836631 1.2597862
-10.132678 12.335433 1.0073496
-10.118681 11.878449 0.93388385
-9.1097212 1.9803716 -4.3614235
-9.0757093 1.5783842 -4.539927
-9.0598965 1.1817241 -4.6229148
-9.0591898 0.78775471 -4.6266274
-9.0674238 0.39423347 -4.5834131
-9.078064 -2.1892957e-07 -4.5275712
-9.0899286 -0.39521557 -4.4653044
-9.0994959 -0.79126137 -4.4150963
-9.1222353 -1.189859 -4.2957487
-9.1333828 -1.588416 -4.2372437
-9.1441784 -1.987866 -4.1805854
-9.1530237 -2.3877461 -4.1341629
-8.4257421 -2.5643578 -7.9511452
-8.5296278 -2.9668281 -7.4059272
-8.6968107 -3.4031007 -6.5284996
-9.1947451 -3.9977167 -3.9151976
-9.2033806 -4.4016175 -3.8698733
-9.2135725 -4.8070841 -3.8163826
-9.2244043 -5.2137947 -3.7595339
-9.2341785 -5.6208057 -3.708235
-9.2465324 -6.0303488 -3.6433988
-9.2560053 -6.438961 -3.5936887
-9.2703657 -6.8520117 -3.5183203
-9.2829332 -7.2649064 -3.4523561
-9.2967892 -7.6799574 -3.3796349
-9.3112383 -8.0967321 -3.3038037
-9.3252182 -8.5143318 -3.2304301
-9.3399544 -8.9338713 -3.1530986
-9.3540211 -9.3540201 -3.0792704
-9.3697624 -9.7771473 -2.9966507
-9.3885946 -10.204997 -2.8978126
-9.408145 -10.635297 -2.7952068
-9.4354029 -11.076344 -2.6521533
-9.4695244 -11.528118 -2.4730709
-9.5120134 -11.993408 -2.2500818
-10.0044 -13.919168 0.33410978
-9.9872704 -14.329562 0.24420357
-10.378181 20.284624 4.7716241
-9.6993036 12.344567 1.0467269
-9.6151066 11.800357 0.5847463
-9.5512238 11.287807 0.23423117
-9.4984398 10.793681 -0.055381916
-9.4677811 10.328488 -0.22360581
-8.7860699 3.1949346 -3.9640522
-8.7527399 2.7849603 -4.1469212
-8.7300596 2.3809228 -4.2713718
-8.7213583 1.9821255 -4.3191113
-8.7257242 1.5864938 -4.295155
-8.7375822 1.1914861 -4.2300925
-8.7537222 0.7957927 -4.1415415
-8.7673683 0.39851505 -4.0666599
-8.7836905 -9.4589967e-07 -3.9771037
-8.7928839 -0.3996782 -3.9266658
-8.8057699 -0.80052596 -3.855958
-8.8175516 -1.2023959 -3.7913139
-8.8275909 -1.6050193 -3.7362304
-8.8367634 -2.0083568 -3.685899
-8.8489256 -2.4133463 -3.6191669
-8.0164242 -2.5506835 -8.1869764
-8.1174154 -2.9517894 -7.6328545
-8.8776827 -3.6317809 -3.4613831
-8.8873358 -4.0396986 -3.4084218
-8.8958826 -4.4479432 -3.3615243
-8.9043341 -4.8569093 -3.315155
-8.9143829 -5.267592 -3.2600119
-8.9245691 -5.6792731 -3.204128
-8.9351559 -6.0921521 -3.1460364
-8.9460726 -6.5062351 -3.0861421
-8.9593363 -6.9231257 -3.0133646
-8.971838 -7.3405981 -2.9447684
-8.9851398 -7.7598963 -2.8717823
-8.9995565 -8.1814165 -2.7926788
-9.0135965 -8.6038876 -2.7156465
-9.0271769 -9.0271778 -2.6411309
-9.0403337 -9.4512596 -2.5689409
-9.0548506 -9.8780203 -2.4892874
-9.0737066 -10.311033 -2.3858254
-9.0919752 -10.745063 -2.2855923
-9.1165791 -11.188531 -2.1505928
-9.1481371 -11.643085 -1.9774423
-9.1857519 -12.108493 -1.7710539
-9.6877193 -14.091229 0.98316348
-9.6367226 -14.455086 0.7033549
-9.866292 20.67223 4.5408206
-9.8679371 20.205774 4.5502729
-9.0934782 10.825569 0.098587982
-9.0098009 10.296912 -0.38240415
-8.9466152 9.7986727 -0.74560493
-8.8971872 9.3208618 -1.0297202
-8.8611174 8.8611174 -1.2370521
-8.4863691 4.8493538 -3.3911555
-8.4332905 4.4174366 -3.6962585
-8.4066658 4.0031714 -3.8492985
-8.3866682 3.5942852 -3.9642532
-8.3743515 3.1902273 -4.0350442
-8.3718452 2.7906122 -4.0494561
-8.3797903 2.3942244 -4.0037851
-8.4044552 2.00106 -3.8620093
-8.472333 -1.5041252e-06 -3.4718366
-8.4790421 -0.40376529 -3.4332752
-8.4918108 -0.80874509 -3.3598776
-8.5049057 -1.2149887 -3.2846031
-8.5126019 -1.6214501 -3.2403636
-8.5223684 -2.0291376 -3.1842248
-8.5334234 -2.4381225 -3.120682
-7.6124282 -2.5374775 -8.4146833
-7.6982174 -2.932656 -7.9215503
-8.5627155 -3.6697376 -2.9523079
-8.5712099 -4.0815301 -2.903481
-8.5793924 -4.4939694 -2.8564458
-8.5878839 -4.9073629 -2.8076367
-8.5980444 -5.3225994 -2.7492335
-8.609333 -5.7395563 -2.6843448
-8.6175518 -6.1553965 -2.6371012
-8.6297064 -6.5750165 -2.5672376
-8.6403732 -6.9945908 -2.505919
-8.654377 -7.4180403 -2.4254222
-8.6670828 -7.8416476 -2.3523881
-8.6811743 -8.267786 -2.2713928
-8.6928329 -8.6928349 -2.2043769
-8.7064047 -9.1209984 -2.1263638
-8.7202835 -9.5507889 -2.0465865
-8.7343578 -9.9821253 -1.9656821
-8.7517118 -10.418706 -1.8659332
-8.7706242 -10.85887 -1.7572207
-8.7900791 -11.301531 -1.6453935
-8.8190374 -11.758719 -1.478936
-8.8567896 -12.230807 -1.2619265
-9.3561916 -14.257056 1.6086977
-9.3026218 -14.618408 1.3007727
-9.4791536 -15.347202 2.315496
-9.3280296 20.521662 4.127749
-9.37043 20.146423 4.3836555
-8.5269518 9.3796463 -0.70718306
-8.429327 8.8507929 -1.2963994
-8.3677044 8.3677015 -1.668326
-8.3180037 7.902102 -1.9682947
-8.2776728 7.4499035 -2.2117121
-8.2573862 7.0187764 -2.3341494
-8.1679611 6.5343671 -2.8738844
-8.1067257 6.0800438 -3.2434678
-8.0724897 5.6507421 -3.4501023
-8.0454235 5.2295222 -3.6134627
-8.029418 4.8176498 -3.710062
-8.0165253 4.4090877 -3.7878752
-8.010664 4.005331 -3.8232546
-8.0142469 3.6064115 -3.8016295
-8.0346003 3.2138374 -3.6787858
-8.1647959 -0.40824172 -2.8929875
-8.172452 -0.81724775 -2.8467734
-8.1823235 -1.2273512 -2.7871985
-8.191762 -1.6383536 -2.7302279
-8.2034349 -2.050859 -2.6597803
-8.2122192 -2.4636686 -2.6067588
-7.2125926 -2.5244098 -8.6400414
-7.2804079 -2.9121656 -8.2307396
-8.2409534 -3.7084291 -2.4333355
-8.2486115 -4.1243086 -2.3871117
-8.2568178 -4.5412521 -2.3375826
-8.2660017 -4.9596024 -2.2821527
-8.2762432 -5.37956 -2.220341
-8.2878704 -5.8015103 -2.1501637
-8.296155 -6.2221184 -2.1001592
-8.3066511 -6.6453228 -2.0368121
-8.3150091 -7.0677595 -1.9863673
-8.3302917 -7.4972649 -1.8941292
-8.3429432 -7.9257979 -1.8177696
-8.3554144 -8.3554153 -1.7425014
-8.3677769 -8.7861671 -1.6678851
-8.3820076 -9.2202101 -1.5819941
-8.3937149 -9.6527729 -1.5113388
-8.4074078 -10.088889 -1.4286959
-8.4226618 -10.528329 -1.3366289
-8.440609 -10.972793 -1.2283077
-8.4586325 -11.419155 -1.1195219
-8.4826975 -11.875779 -0.97427922
-8.5195627 -12.353368 -0.75177699
-8.559845 -12.839769 -0.50865376
-8.960844 -14.785395 1.9115907
-9.0773048 -15.43142 2.6144931
-8.8131313 20.409355 3.8196383
-7.8725924 7.4582453 -2.1557844
-7.8092012 6.9871798 -2.5585203
-7.7029204 6.4866672 -3.2337418
-7.6816087 6.064425 -3.369139
-7.6611238 5.6450377 -3.4992874
-7.6372867 5.2255116 -3.6507273
-7.6457505 4.8288946 -3.5969527
-7.653172 4.4307823 -3.5498049
-7.8372602 -0.41248888 -2.380259
-7.8454633 -0.82584113 -2.3281384
-7.8572416 -1.2406187 -2.2533102
-7.8663702 -1.6560791 -2.1953158
-7.8751454 -2.0724075 -2.139564
-7.884418 -2.4898183 -2.0806537
-6.8175435 -2.5117288 -8.8587122
-6.87078 -2.8929632 -8.5204887
-7.9125738 -3.7480626 -1.901776
-7.9205914 -4.1687322 -1.8508384
-7.9287291 -4.5903182 -1.7991381
-7.9380589 -5.0135121 -1.7398632
-7.9480004 -5.4381065 -1.6767033
-7.9592886 -5.8647408 -1.604984
-7.9676452 -6.2902489 -1.5518948
-7.9777312 -6.7180901 -1.4878178
-7.9852509 -7.1446991 -1.4400434
-7.9983311 -7.5773678 -1.3569419
-8.0119829 -8.0119839 -1.2702115
-8.021615 -8.4438076 -1.2090114
-8.0361261 -8.8820362 -1.1168196
-8.049552 -9.3205347 -1.0315264
-8.0609522 -9.7579966 -0.95910031
-8.0738516 -10.198552 -0.87714255
-8.088625 -10.642929 -0.78328925
-8.1035233 -11.089032 -0.68863368
-8.1202869 -11.539356 -0.58213156
-8.1423225 -11.999214 -0.44213513
-8.1731977 -12.474882 -0.2459823
-8.2122974 -12.966787 0.0024282043
-8.6088066 -14.95214 2.521528
-8.6691227 -15.51317 2.9047306
-8.310997 20.315769 3.5628955
-7.2860403 6.47648 -3.3106146
-7.2549767 6.0458131 -3.5189342
-7.2251449 5.6195545 -3.7189906
-7.1952271 5.1965528 -3.9196248
-7.4204941 4.9469938 -2.4089501
-7.5128336 -0.83476126 -1.7897077
-7.5204959 -1.2534187 -1.7383238
-7.5340242 -1.6742299 -1.6475991
-7.542851 -2.0952377 -1.5884085
-7.551136 -2.5170467 -1.5328444
-6.4265394 -2.4992104 -9.0745602
-6.4622812 -2.8721263 -8.8348665
-7.5775657 -3.7887847 -1.3556033
-7.5853939 -4.2141104 -1.3031069
-7.5939736 -4.6407633 -1.2455688
-7.6032763 -5.0688524 -1.1831865
-7.6131725 -5.4984045 -1.1168178
-7.6223207 -5.928472 -1.0554749
-7.6303425 -6.3586187 -1.0016761
-7.6402082 -6.7912974 -0.93551457
-7.6490479 -7.2241015 -0.87623489
-7.6590638 -7.6590662 -0.80906487
-7.6735058 -8.0998135 -0.71221501
-7.6832781 -8.5369787 -0.64668053
-7.6973996 -8.9803009 -0.55198234
-7.7094712 -9.4226885 -0.47102648
-7.7206478 -9.8652754 -0.3960743
-7.7325845 -10.310114 -0.3160246
-7.7460184 -10.758361 -0.22593628
-7.7599173 -11.208773 -0.13272481
-7.7760043 -11.664008 -0.024846021
-7.7957129 -12.126666 0.10732563
-7.8245244 -12.606179 0.30053663
-7.8615999 -13.102669 0.54917318
-8.244482 -15.114886 3.1168377
-8.2669573 -15.615367 3.2675626
-7.8153954 20.228083 3.3223286
-6.8422275 6.4397416 -3.5877757
-6.8136768 6.0120668 -3.7905056
-6.7864647 5.5888505 -3.9837236
-6.7589087 5.1685762 -4.1793909
-7.1460457 5.0442657 -1.4304762
-7.1726227 4.6411076 -1.241761
-7.2652936 4.2737007 -0.58374298
-7.1828027 -1.2675549 -1.1694764
-7.1930432 -1.6924809 -1.0967643
-7.2020078 -2.1182384 -1.0331103
-7.210197 -2.5447772 -0.97496021
-6.039413 -2.4868186 -9.2882624
-6.0611343 -2.8523006 -9.1340275
-7.2357125 -3.8306715 -0.7937873
-7.243463 -4.2608619 -0.73874933
-7.2523923 -4.6927247 -0.67534578
-7.2614412 -5.1257262 -0.61109447
-7.2710309 -5.5602021 -0.54299867
-7.2780128 -5.993659 -0.49342561
-7.2859197 -6.4287539 -0.43728194
-7.2943668 -6.8652887 -0.37730214
-7.3039784 -7.3039799 -0.30905223
-7.3146329 -7.7449074 -0.23339911
-7.3255167 -8.1873446 -0.15611692
-7.3374567 -8.6323032 -0.071337357
-7.3490381 -9.0782251 0.010899707
-7.3601904 -9.5249529 0.090086579
-7.37081 -9.9722757 0.16549474
-7.3818283 -10.421407 0.24372846
-7.3960667 -10.876571 0.34483272
-7.4097199 -11.332515 0.44178131
-7.4250135 -11.792671 0.55037385
-7.4437008 -12.260216 0.6830675
-7.4674072 -12.738521 0.85139328
-7.5003319 -13.235882 1.0851816
-7.8684521 -15.274055 3.6990635
-7.8609748 -15.721952 3.6459725
-7.3087678 20.555908 2.9685051
-7.3338251 20.168016 3.1575458
-6.4040895 6.404089 -3.856766
-6.3779912 5.9793658 -4.0536604
-6.3527894 5.5586905 -4.2437954
-6.3305273 5.1435509 -4.4117436
-6.5759158 4.9319363 -2.5604341
-6.9155254 4.7544222 0.0017211882
-6.9298673 4.3311658 0.10992228
-6.9605303 3.9152973 0.34125471
-6.8324399 -1.2810826 -0.62510753
-6.8415222 -1.710382 -0.55658674
-6.8510876 -2.1409659 -0.48442358
-6.8597593 -2.5724115 -0.41900271
-5.6561069 -2.4745464 -9.4998608
-5.6654873 -2.8327467 -9.4290838
-6.8861537 -3.8734632 -0.21987346
-6.8941703 -4.3088565 -0.15939119
-6.9027958 -4.7456741 -0.094313346
-6.9117541 -5.1838183 -0.026725831
-6.9200497 -5.6225424 0.035853948
-6.927238 -6.0613356 0.090088896
-6.9348178 -6.5013938 0.14727265
-6.9435458 -6.9435468 0.21311703
-6.9504366 -7.3848395 0.26510596
-6.9579406 -7.8276854 0.32172191
-6.9715719 -8.2787437 0.42456156
-6.9822354 -8.7277975 0.50501245
-6.9907961 -9.1754208 0.56959748
-7.0031171 -9.6292887 0.66255254
-7.0158024 -10.085217 0.758255
-7.027987 -10.541982 0.85017842
-7.0404396 -11.000689 0.94412488
-7.0521255 -11.459705 1.0322884
-7.0665841 -11.924862 1.1413714
-7.0818543 -12.393248 1.256578
-7.1031399 -12.874442 1.4171637
-7.1333013 -13.374943 1.6447154
-7.1678042 -13.887623 1.905021
-7.4790897 -15.425624 4.2534866
-7.4502082 -15.831695 4.0355916
-6.815239 20.445715 2.6729171
-6.8593893 20.120872 3.028213
-5.9709744 6.3690386 -4.1211982
-5.9470692 5.9470677 -4.3135691
-5.9234767 5.5285749 -4.5034285
-5.9128318 5.1244531 -4.5890903
-6.1405158 4.9124112 -2.75683
-6.270277 4.5982013 -1.7125915
-6.6331744 4.4221144 1.2077749
-6.6458974 3.9875367 1.3101631
-6.6646876 3.5544989 1.4613756
-6.4833927 -1.7289075 0.0024293268
-6.4939632 -2.1646566 0.087493107
-6.5015974 -2.6006417 0.1489291
-5.2759643 -2.4621172 -9.7142067
-5.2797227 -2.8158519 -9.6839628
-6.5285187 -3.917114 0.36557662
-6.5361457 -4.3574314 0.42694944
-6.5436115 -4.7986498 0.48703131
-6.5518708 -5.241497 0.55349523
-6.5606894 -5.6859322 0.6244629
-6.5676413 -6.1297994 0.68040907
-6.5746384 -6.5746384 0.73671639
-6.5826449 -7.0214891 0.80114561
-6.5897341 -7.4683685 0.85819751
-6.5965362 -7.9158444 0.91293293
-6.6088758 -8.3712444 1.0122384
-6.6181536 -8.8242064 1.0868961
-6.6297793 -9.2816935 1.1804558
-6.641232 -9.7404757 1.2726164
-6.6528158 -10.200987 1.3658389
-6.6631746 -10.661081 1.4491994
-6.6747422 -11.124574 1.5422909
-6.687408 -11.591509 1.6442145
-6.7008085 -12.061456 1.7520527
-6.7133536 -12.531595 1.8530113
-6.7310467 -13.013358 1.9953928
-6.7582221 -13.516445 2.214083
-6.7897511 -14.032154 2.4678092
-7.0743613 -15.563598 4.7581797
-7.0363159 -15.948986 4.4520149
-6.3297782 20.345716 2.4046717
-5.5421858 6.3339257 -4.3861046
-5.5205503 5.9148741 -4.5726461
-5.4982266 5.4982271 -4.7651243
-5.497551 5.104867 -4.7709484
-5.70855 4.8930416 -2.9516792
-5.8286972 4.5796881 -1.9157462
-5.95401 4.2528629 -0.83526915
-6.3192573 4.062377 2.313957
-6.3251543 3.614372 2.3648036
-6.3377595 3.1688781 2.4734886
-6.1223044 -1.7492324 0.61579323
-6.1275601 -2.1884174 0.66110641
-6.1366377 -2.6299889 0.73937738
-4.8998008 -2.4499021 -9.9248676
-4.8987994 -2.7993155 -9.9335051
-5.0659485 -3.2566826 -8.4923134
-6.1681423 -4.4058175 1.0110145
-6.1759763 -4.8525548 1.0785637
-6.1836028 -5.3002319 1.1443191
-6.1907911 -5.7485933 1.2062973
-6.1979675 -6.1979699 1.2681754
-6.2051315 -6.6483569 1.3299452
-6.2129455 -7.1005111 1.3973174
-6.2214417 -7.5546112 1.4705756
-6.2281113 -8.0075731 1.528082
-6.2361283 -8.4633179 1.5972018
-6.2460251 -8.9228945 1.6825355
-6.2586083 -9.3879137 1.7910317
-6.2683134 -9.8502083 1.8747101
-6.2773733 -10.31283 1.9528263
-6.2876968 -10.778911 2.0418336
-6.2997684 -11.249588 2.1459198
-6.3131633 -11.724445 2.2614126
-6.3250651 -12.198341 2.3640327
-6.3378191 -12.675641 2.474005
-6.3528199 -13.159415 2.6033425
-6.3778486 -13.666818 2.8191381
-6.4057636 -14.184194 3.0598347
-6.654202 -15.684906 5.2019138
-6.6189218 -16.074526 4.8977256
-5.8529716 20.260284 2.1755128
-5.1185403 6.2997413 -4.6440096
-5.0984573 5.882834 -4.8304868
-5.0781593 5.4687853 -5.0189619
-5.086678 5.0866771 -4.939857
-5.2799768 4.8738246 -3.1449995
-5.3906584 4.5613251 -2.1172714
-5.5060792 4.2354455 -1.0455371
-5.9654932 4.1299558 3.2203205
-5.9700084 3.6738503 3.2622464
-5.9775972 3.2187045 3.3327127
-5.984458 2.7620561 3.3964176
-5.7564521 -2.2140217 1.2792829
-5.7646532 -2.6606116 1.3554381
-4.5275488 -2.4379122 -10.131618
-4.5223408 -2.7829807 -10.179981
-4.67417 -3.2359657 -8.7701759
-5.7931933 -4.456305 1.6204478
-5.8006363 -4.9082327 1.6895542
-5.808856 -5.3620243 1.7658787
-5.8157148 -5.8157172 1.8295641
-5.8229971 -6.2709222 1.8971858
-5.8289895 -6.72576 1.9528277
-5.8354859 -7.182138 2.0131474
-5.8442159 -7.642437 2.094207
-5.8518724 -8.1025944 2.1653068
-5.8594394 -8.563797 2.235563
-5.8691807 -9.0295115 2.326019
-5.8793149 -9.4973564 2.4201217
-5.8884554 -9.9650784 2.5049884
-5.8975396 -10.434111 2.589345
-5.9077725 -10.906658 2.6843588
-5.9195867 -11.383823 2.7940624
-5.9304323 -11.860866 2.8947697
-5.9414029 -12.339839 2.9966338
-5.952158 -12.820037 3.0965033
-5.9674926 -13.312101 3.2388878
-5.9881387 -13.818783 3.4305937
-6.0103192 -14.332301 3.636549
-6.2190804 -15.786898 5.5749922
-6.1907811 -16.191273 5.3122139
-5.3752756 20.605223 1.8992074
-5.3838038 20.189266 1.9849973
-4.6994815 6.2659736 -4.898757
-4.680779 5.8509727 -5.0868835
-4.6623392 5.4393926 -5.2723784
-4.6763072 5.0659995 -5.1318669
-4.8549824 4.8549805 -3.3345373
-4.9561181 4.5431089 -2.3171883
-5.0618253 4.2181864 -1.2538608
-5.1721153 3.8790867 -0.14442526
-5.5936608 3.7291062 4.095994
-5.5969539 3.2648897 4.1291184
-5.5986972 2.799346 4.1466584
-5.6188245 2.3411744 4.3491254
-5.3816628 -2.6908326 1.9634593
-4.1589227 -2.4260411 -10.336354
-4.1510439 -2.767364 -10.415613
-4.2873616 -3.215523 -9.0443621
-5.409832 -4.5081959 2.2468219
-5.4172463 -4.9658098 2.321398
-5.4254217 -5.4254236 2.4036446
-5.4330068 -5.8857603 2.4799404
-5.439661 -6.3462734 2.5468769
-5.4455838 -6.8069816 2.6064537
-5.4509768 -7.2679715 2.6607044
-5.458478 -7.7328448 2.7361581
-5.466753 -8.2001295 2.8194001
-5.4732819 -8.6660299 2.8850753
-5.4814186 -9.1357012 2.9669302
-5.4909692 -9.6091976 3.0629961
-5.5000792 -10.08348 3.1546383
-5.5088768 -10.558682 3.243135
-5.5174117 -11.034824 3.3289843
-5.5280972 -11.51687 3.4364734
-5.5385571 -12.00021 3.5416982
-5.5485487 -12.484236 3.6422026
-5.5578513 -12.968322 3.7357779
-5.571661 -13.464849 3.8746946
-5.5887418 -13.971856 4.046515
-5.6114516 -14.496253 4.2749567
-5.6407008 -15.041872 4.5691853
-5.7707849 -15.86966 5.8777256
-5.757297 -16.312342 5.7420435
-4.8975163 20.480518 1.5719763
-4.9211044 20.131788 1.8308218
-4.2848907 6.2325668 -5.1507878
-4.2675667 5.8194079 -5.3409028
-4.250896 5.4102297 -5.5238404
-4.2690005 5.0451794 -5.3251624
-4.4332805 4.8363042 -3.5224104
-4.5250359 4.525033 -2.5155108
-4.6211557 4.2010479 -1.4607182
-4.721427 3.8629842 -0.36037552
-4.8261456 3.5099216 0.78878176
-5.1975827 3.3075504 4.8648124
-5.1995816 2.8361335 4.8867493
-5.1997094 2.3635032 4.8881569
-4.9911942 -2.7224708 2.5999727
-3.7939107 -2.41431 -10.538654
-3.783334 -2.7515166 -10.654722
-3.9054527 -3.1953709 -9.3146296
-5.0182014 -4.5620027 2.8963404
-5.0255198 -5.0255213 2.9766517
-5.0334606 -5.4910498 3.0637875
-5.0392337 -5.9554596 3.1271412
-5.0455995 -6.4216743 3.1969962
-5.0517149 -6.8887043 3.2641091
-5.0583792 -7.3576436 3.3372386
-5.064599 -7.8271079 3.4054909
-5.0709314 -8.2978897 3.474983
-5.0769863 -8.7693424 3.5414269
-5.0836687 -9.2430353 3.6147544
-5.0920644 -9.7212143 3.706888
-5.100636 -10.201274 3.8009512
-5.1092119 -10.682899 3.8950624
-5.1180654 -11.16669 3.992214
-5.1268239 -11.651875 4.0883341
-5.1360388 -12.139729 4.1894498
-5.1456881 -12.630327 4.2953401
-5.1552477 -13.122449 4.4002452
-5.1673994 -13.623144 4.5335941
-5.1825109 -14.134121 4.699419
-5.2017102 -14.659368 4.9101114
-5.2280164 -15.208776 5.1987844
-5.3043351 -15.913008 6.0362887
-5.3170133 -16.434404 6.1754093
-4.4292264 20.374441 1.293605
-3.8746665 6.1994662 -5.4005275
-3.8590527 5.7885776 -5.5890021
-3.8439648 5.3815484 -5.7711287
-3.8679748 5.0283651 -5.4812989
-4.0148101 4.817771 -3.7088466
-4.0973692 4.5071034 -2.7122636
-4.1840529 4.184052 -1.6659024
-4.2744641 3.847018 -0.5745402
-4.3688693 3.4950926 0.56503099
-4.4675388 3.1272755 1.7560735
-4.7842426 2.8705442 5.5790262
-4.7821898 2.391094 5.5542488
-4.781713 1.9126827 5.5484924
-3.4325838 -2.4028108 -10.736933
-3.422107 -2.7376881 -10.863404
-3.5254459 -3.1729028 -9.6159897
-4.6171317 -4.6171336 3.5618234
-4.6246161 -5.0870786 3.6521637
-4.630178 -5.5562158 3.7193041
-4.6351705 -6.025723 3.7795708
-4.6403537 -6.4964967 3.8421373
-4.6462464 -6.9693718 3.913269
-4.6529899 -7.4447861 3.9946666
-4.6593447 -7.920887 4.0713778
-4.6644683 -8.3960447 4.1332307
-4.6696491 -8.8723364 4.1957664
-4.6756849 -9.3513718 4.2686238
-4.6837497 -9.8358774 4.3659711
-4.6926227 -10.323771 4.4730787
-4.7010918 -10.812512 4.5753088
-4.709383 -11.302521 4.6753931
-4.7172852 -11.793215 4.7707858
-4.7251449 -12.285379 4.8656564
-4.7343626 -12.782781 4.9769258
-4.7440157 -13.283245 5.0934486
-4.7539439 -13.786439 5.2132936
-4.7660217 -14.298066 5.359086
-4.7845531 -14.832116 5.5827746
-4.8045282 -15.374492 5.8238997
-4.8327222 -15.947986 6.1642327
-3.9698505 20.290346 1.0729263
-3.4687486 6.1666632 -5.6479998
-3.4548302 5.7580495 -5.8346782
-3.4413252 5.3531699 -6.0158091
-3.4682605 5.0097079 -5.6545463
-3.5995347 4.7993789 -3.8938568
-3.6730785 4.4893165 -2.9074643
-3.7504728 4.1671915 -1.8694322
-3.8311815 3.8311787 -0.7869401
-3.9154403 3.4803917 0.34316179
-4.0034885 3.1138237 1.5240933
-4.3519731 2.4177625 6.198072
-4.3500199 1.9333413 6.1718802
-4.3591194 1.4530405 6.293921
-3.0748796 -2.3915758 -10.930685
-3.0644927 -2.7239974 -11.069998
-3.1511488 -3.1511514 -9.9077406
-4.2049375 -4.6721535 4.2259836
-4.2124724 -5.1485786 4.327045
-4.2163839 -5.6218472 4.3795109
-4.2217898 -6.0981431 4.452013
-4.2278514 -6.5766592 4.5333157
-4.2330375 -7.0550628 4.6028714
-4.2384028 -7.5349388 4.6748333
-4.2437611 -8.015995 4.7466979
-4.2494044 -8.4988098 4.8223906
-4.2554832 -8.9837999 4.9039168
-4.2589912 -9.464426 4.9509711
-4.2663836 -9.9548979 5.0501208
-4.2737598 -10.44697 5.1490498
-4.2813311 -10.941182 5.2505994
-4.2891641 -11.437773 5.3556533
-4.2971325 -11.93648 5.4625292
-4.3051739 -12.437171 5.570384
-4.3130941 -12.939284 5.6766143
-4.3196158 -13.438806 5.7640815
-4.3306522 -13.954326 5.9121084
-4.3400197 -14.466737 6.0377522
-4.3542795 -14.998076 6.2290068
-4.367373 -15.528437 6.404613
-4.3968868 -16.12192 6.8004632
-3.5160234 20.656637 0.88080782
-3.5147181 20.209627 0.86111075
-3.0673981 6.1347938 -5.8884249
-3.0550318 5.7281842 -6.0750184
-3.0429339 5.3251338 -6.2575617
-3.0708003 4.9900484 -5.8370872
-3.1874182 4.7811255 -4.0774574
-3.2521789 4.4717464 -3.1002984
-3.3203731 4.1504664 -2.0713274
-3.3915334 3.8154745 -0.99760354
-3.4658105 3.4658086 0.12315375
-3.5434141 3.1004846 1.2941011
-3.6245894 2.7184424 2.5189428
-3.9076467 2.4422767 6.7899466
-3.9055371 1.9527665 6.7581162
-3.9020395 1.4632624 6.7053442
-2.7206597 -2.3805788 -11.120304
-2.710371 -2.7103722 -11.27555
-2.7828679 -3.1307268 -10.181658
-3.7840326 -4.730041 4.924757
-3.7896426 -5.2107596 5.0094008
-3.7946117 -5.6919198 5.0843816
-3.8001776 -6.1752906 5.1683626
-3.8047967 -6.6583958 5.2380624
-3.809011 -7.1418972 5.30165
-3.814733 -7.6294675 5.387989
-3.8203771 -8.1183033 5.4731541
-3.8252175 -8.6067419 5.5461888
-3.8291903 -9.0943298 5.6061344
-3.8331907 -9.5829782 5.6664934
-3.8396776 -10.079156 5.7643738
-3.8465145 -10.577916 5.8675351
-3.8520403 -11.074616 5.9509125
-3.8598537 -11.579563 6.0688081
-3.8671136 -12.084732 6.1783509
-3.8741663 -12.591042 6.2847667
-3.8806553 -13.097214 6.3826804
-3.8885262 -13.609844 6.501442
-3.8962905 -14.124054 6.6185946
-3.8994009 -14.622754 6.6655269
-3.9117725 -15.15812 6.8522038
-3.0552845 20.51405 0.51460403
-3.0665803 20.151812 0.70939338
-4.1371131 13.593371 19.170074
-4.1265802 12.969252 18.988441
-4.1105032 12.331509 18.711201
-4.0867457 11.676414 18.301514
-4.0719404 11.052408 18.046207
-2.6804781 6.5097308 -5.9486971
-2.6701746 6.1032557 -6.1263785
-2.6593699 5.698648 -6.3126969
-2.648778 5.2975554 -6.4953494
-2.6762767 4.9702272 -6.0211496
-2.7784247 4.7630129 -4.2596707
-2.8346574 4.4544597 -3.2899754
-2.8937123 4.1338739 -2.2716084
-2.9554753 3.7998955 -1.206542
-3.0199325 3.4513502 -0.095018297
-3.0872636 3.0872619 1.0660707
-3.1576807 2.7065823 2.2803686
-3.2313542 2.3081079 3.5508189
-3.4487312 1.9707035 7.2993479
-3.446393 1.4770246 7.2590308
-3.4465168 0.98471802 7.2611661
-2.3696818 -2.3696847 -11.308188
-2.3598895 -2.6970196 -11.477051
-2.4205513 -3.1121395 -10.430976
-3.3507924 -4.7868462 5.6104603
-3.3568773 -5.2750945 5.7153916
-3.3609126 -5.7615681 5.7849774
-3.3666291 -6.2523127 5.8835521
-3.3707047 -6.7414103 5.9538298
-3.3739417 -7.229877 6.0096526
-3.379328 -7.7241788 6.1025352
-3.3846631 -8.2198982 6.1945419
-3.3890224 -8.7146292 6.2697082
-3.392792 -9.2090073 6.3347173
-3.3977742 -9.7079277 6.4206295
-3.4011323 -10.203399 6.4785395
-3.4071596 -10.708217 6.5824757
-3.4139199 -11.217167 6.6990519
-3.4197311 -11.724792 6.7992611
-3.4257367 -12.234776 6.9028273
-3.4301672 -12.740623 6.979228
-3.4343455 -13.246763 7.0512819
-3.4399793 -13.75992 7.1484346
-3.4471896 -14.281217 7.272768
-2.6055045 20.409782 0.24681301
-2.6228278 20.108345 0.59533179
-3.5410755 14.164302 19.069052
-3.5481315 13.601171 19.211004
-3.4598751 10.379624 17.435425
-2.2855105 6.4756117 -6.1909666
-2.2769423 6.0718441 -6.3633451
-2.2677581 5.669395 -6.5481162
-2.258719 5.2703419 -6.7299724
-2.2847481 4.9502869 -6.2063093
-2.3725183 4.7450347 -4.4405065
-2.4203508 4.4373093 -3.4781907
-2.470449 4.117413 -2.4702957
-2.5229635 3.7844439 -1.4137826
-2.5777593 3.4370105 -0.31137714
-2.6349881 3.074151 0.83997464
-2.694828 2.6948271 2.0438645
-2.7574096 2.2978389 3.3029101
-2.8223019 1.8815335 4.6084442
-2.9803023 1.4901485 7.787168
-2.9778337 0.99261141 7.7374973
-2.021909 -2.3588965 -11.494215
-2.0129576 -2.6839452 -11.674306
-2.0616174 -3.0924282 -10.69535
-2.9080338 -4.846725 6.3332391
-2.9132631 -5.3409839 6.4384384
-2.9166017 -5.8332052 6.5056067
-2.9219208 -6.3308301 6.6126208
-2.9257109 -6.8266592 6.6888719
-2.9290783 -7.3226967 6.7566161
-2.933306 -7.8221493 6.8416662
-2.9371254 -8.3218575 6.9185123
-2.941241 -8.8237247 7.0013118
-2.944418 -9.3239918 7.0652275
-2.9485538 -9.8285141 7.1484351
-2.9523528 -10.333237 7.2248645
-2.9574993 -10.844165 7.3284016
-2.9585946 -11.341281 7.3504376
-2.9638696 -11.855479 7.4565644
-2.9698229 -12.374263 7.5763326
-2.1616378 20.319393 0.0146615
-2.9441533 14.131937 18.906261
-1.8945793 6.4415674 -6.4326968
-1.887551 6.0401616 -6.6023788
-1.8799549 5.6398635 -6.7857623
-1.8726759 5.2434902 -6.9614925
-1.8969938 4.9321828 -6.3744068
-1.9696643 4.7271943 -4.6199856
-2.0092227 4.4202886 -3.664963
-2.0505428 4.1010847 -2.6674073
-2.0939548 3.7691178 -1.6193459
-2.139245 3.4227901 -0.52594668
-2.1865373 3.0611517 0.61579347
-2.2359786 2.6831732 1.8094096
-2.2876635 2.2876616 3.057199
-2.3412569 1.8730052 4.3510566
-2.5047407 1.5028418 8.2979031
-2.5017991 1.0007195 8.2268839
-2.5009506 0.50018901 8.206399
-1.669338 -2.6709428 -11.870504
-1.7064419 -3.0715966 -10.974736
-2.454536 -4.9090743 7.085855
-2.4580102 -5.4076238 7.1697292
-2.4612288 -5.906951 7.2474337
-2.4652164 -6.409564 7.3437004
-2.4692423 -6.9138794 7.4408956
-2.4721079 -7.416326 7.510077
-2.4760413 -7.9233341 7.6050372
-2.4796536 -8.4308252 7.6922488
-2.4828777 -8.9383621 7.7700839
-2.486007 -9.4468279 7.8456345
-2.4805775 -9.9223127 7.7145534
-2.4739199 -10.390464 7.5538187
-2.4862521 -10.939511 7.8515487
-1.722273 20.236706 -0.19770588
-2.3485854 14.678658 18.70295
-2.3489883 14.09393 18.715107
-1.5077369 6.4078808 -6.6719012
-1.5021728 6.0086889 -6.8398132
-1.4961649 5.6106176 -7.0211196
-1.4904944 5.2167292 -7.1922402
-1.512292 4.9149475 -6.5344415
-1.5698286 4.7094851 -4.7981172
-1.6012362 4.403398 -3.8503067
-1.6339542 4.0848856 -2.8629601
-1.6684071 3.7539134 -1.8232489
-1.7043443 3.4086871 -0.73874742
-1.7418637 3.048259 0.39350051
-1.7810805 2.6716199 1.5769693
-1.8220605 2.277575 2.8136511
-1.8645535 1.8645532 4.0959926
-1.909076 1.4318049 5.4395752
-2.0174561 1.0087272 8.7102365
-2.0148273 0.50370574 8.6308966
-1.3290362 -2.6580734 -12.06467
-1.3563455 -3.0517783 -11.240542
-1.9885994 -4.971499 7.839406
-1.9917706 -5.4773707 7.9351082
-1.9944954 -5.9834876 8.0173359
-1.9974045 -6.4915657 8.1051254
-2.0002596 -7.0009089 8.1912823
-2.0032902 -7.5123396 8.2827377
-2.0025995 -8.0103998 8.261899
-1.996614 -8.4856119 8.0812731
-1.9907986 -8.9585962 7.9057736
-1.9851196 -9.4293203 7.7343965
-1.9796672 -9.8983374 7.5698538
-1.9817647 -10.404265 7.6331511
-1.2842519 20.548029 -0.49757901
-1.2876676 20.17346 -0.36014041
-1.7496828 14.580688 18.229914
-1.7587138 14.069708 18.59329
-1.1249725 6.3748426 -6.9064903
-1.1207811 5.977499 -7.0751405
-1.1163304 5.5816512 -7.2542229
-1.1122847 5.1906619 -7.4170074
-1.1304737 4.8987188 -6.6851373
-1.1729774 4.6919088 -4.9749203
-1.1963559 4.3866367 -4.0342417
-1.2206852 4.0689492 -3.0553064
-1.2462785 3.7388327 -2.0255144
-1.273013 3.3947001 -0.94980437
-1.3009254 3.0354929 0.17330556
-1.3300831 2.6601658 1.3465232
-1.3605458 2.2675762 2.5722449
-1.392133 1.8561753 3.8432214
-1.4252219 1.42522 5.1746173
-1.4599147 0.97327441 6.5705428
-1.5221499 0.50738144 9.0746975
-1.5232948 -9.9158569e-07 9.1207628
-0.99200475 -2.6453478 -12.256699
-1.0107236 -3.0321715 -11.503511
-1.5259055 -5.0863528 9.2258081
-1.5131319 -5.5481524 8.7118378
-1.5150132 -6.0600543 8.7875328
-1.5149891 -6.5649548 8.7865715
-1.5156999 -7.0732689 8.8151655
-1.5127339 -7.5636702 8.6958246
-1.5001633 -8.0008707 8.1900215
-1.4940996 -8.4665661 7.9460382
-1.4897267 -8.9383621 7.7700839
-1.4856018 -9.4088116 7.6041107
-1.4820417 -9.8802786 7.4608641
-0.85183138 20.443951 -0.75931686
-0.85609919 20.118326 -0.50173485
-1.1599694 14.499617 17.838461
-0.74612021 6.3420191 -7.1395497
-0.74331135 5.9464903 -7.3090796
-0.74044347 5.5533233 -7.4821696
-0.73785603 5.1649895 -7.63834
-0.76419938 4.9672933 -6.0483727
-0.77907741 4.6744618 -5.1504064
-0.79454625 4.3700027 -4.216783
-0.81064177 4.053206 -3.2453296
-0.82752788 3.7238739 -2.2261629
-0.84520698 3.3808267 -1.1591334
-0.86366189 3.0228143 -0.045283891
-0.88293654 2.648809 1.1180462
-0.90306568 2.2576618 2.3329496
-0.9239381 1.8478742 3.592711
-0.94579822 1.4186972 4.9120808
-0.96871287 0.96871072 6.295105
-0.99277055 0.49638313 7.7471156
-1.0206388 -1.188982e-06 9.4291124
-1.0308516 -3.0925577 10.045513
-1.0252398 -3.588341 9.70681
-0.65818524 -2.6327419 -12.446898
-0.66949797 -3.0127416 -11.76411
-1.0188977 -5.0944896 9.3240252
-1.020264 -5.6114516 9.4064932
-1.0036587 -8.5310984 8.4042645
-0.99070317 -8.9163303 7.6223364
-0.9878242 -9.3843298 7.4485745
-0.99318713 -9.9318724 7.7722583
-0.42390415 20.347399 -1.0021292
-0.57713884 14.42847 17.494934
-0.37114486 6.3094597 -7.3707409
-0.36973765 5.9158006 -7.5406027
-0.36835951 5.5253921 -7.7069626
-0.36719263 5.1406951 -7.8478184
-0.38071117 4.949245 -6.2159858
-0.38809568 4.6571484 -5.3245964
-0.39577234 4.3534951 -4.3979421
-0.40375879 4.0375853 -3.4338901
-0.41211498 3.7090349 -2.4252107
-0.42088345 3.3670654 -1.3667598
-0.43003514 3.0102453 -0.26205623
-0.43959162 2.6375484 0.89151335
-0.44956771 2.2478368 2.0957348
-0.45991224 1.8396468 3.3444309
-0.47074401 1.4122299 4.6519413
-0.4820959 0.96419007 6.0222363
-0.49401134 0.49400869 7.4605589
-0.51401901 -1.3724745e-06 9.875701
-0.51618075 -0.51618129 10.136637
-0.51971245 -1.0394268 10.562954
-0.51704103 -1.5511234 10.240482
-0.51542306 -2.0616927 10.045176
-0.51414311 -2.5707171 9.8906736
-0.51319897 -3.0791938 9.7767086
-0.51306438 -3.5914514 9.7604637
-0.32755205 -2.6204183 -12.63286
-0.33260491 -2.9934452 -12.022922
-0.49394518 -8.891016 7.4525709
-0.49352556 -9.3769865 7.4019194
-0.49964786 -9.9929581 8.1409397
5.7789836e-24 20.266741 -1.2049714
6.5035744e-24 14.358016 17.15476
4.9922984e-24 6.2775974 -7.5969963
1.0985079e-23 5.88588 -7.7663445
1.9615041e-23 5.497694 -7.9298415
9.6625663e-24 5.1182661 -8.0412045
9.1352459e-24 4.9313231 -6.38238
8.5933758e-24 4.6399589 -5.4974971
5.5998427e-24 4.3371105 -4.5777397
7.0816398e-24 4.0220852 -3.6210032
1.0495027e-23 3.6943116 -2.6226788
1.6176956e-23 3.3534167 -1.5727025
-3.0180793e-25 2.9977787 -0.47703525
5.1540843e-24 2.6263828 0.66689503
8.8033548e-24 2.238096 1.8605772
6.8236027e-24 1.8314927 3.098351
8.4745513e-24 1.4058248 4.3941603
3.0619604e-24 0.95971096 5.7519011
1.3235611e-24 0.49166012 7.1767278
1.6371956e-24 -1.1100232e-06 8.673419
-1.5206067e-24 -0.5175392 10.300462
-2.0316687e-24 -1.0332962 10.193054
4.2647304e-24 -1.5478599 10.109137
1.2941023e-23 -2.063148 10.089032
1.5251095e-24 -2.5839376 10.209866
3.1991118e-24 -2.6082425 -12.816556
1.5877014e-23 -2.9740257 -12.283391
5.5372214e-24 -9.3364182 7.1441784
0.4203335 20.596342 -1.4331455
0.42070615 20.193892 -1.3881656
0.571738 14.29345 16.842995
0.36743471 6.2463889 -7.8185978
0.36603588 5.8565736 -7.9874496
0.36468375 5.4702559 -8.1506662
0.36435387 5.1009517 -8.1904869
0.37796417 4.9135327 -6.547576
0.38524148 4.6228948 -5.669126
0.39280453 4.320847 -4.7561855
0.40067047 4.0067034 -3.8066807
0.40885788 3.6797202 -2.8183742
0.41748506 3.3398781 -1.7769823
0.42648795 2.9854136 -0.69023591
0.4358857 2.6153121 0.44417173
0.44568831 2.2284398 1.6274488
0.45585304 1.8234102 2.8544421
0.46649227 1.3994752 4.1387086
0.47763759 0.95527548 5.4840674
0.48933101 0.48932862 6.8955903
0.50161135 -1.5024709e-06 8.3779583
0.51452118 -0.51452261 9.9363127
0.51895279 -1.0379068 10.471254
0.32452697 -2.5962183 -12.998019
0.32835761 -2.9552219 -12.535615
0.48840606 -9.2797155 6.7839379
0.83578187 20.476654 -1.7279924
0.83901882 20.136452 -1.5326222
1.1386204 14.232753 16.549932
0.73123413 6.2154894 -8.0380049
0.72845298 5.8276229 -8.205862
0.72574782 5.4431067 -8.3691311
0.72595394 5.0816755 -8.3566885
0.75321096 4.8958683 -6.7115836
0.76766014 4.6059594 -5.8395019
0.78267449 4.3047099 -4.9333029
0.79828793 3.9914377 -3.9909477
0.81453699 3.665416 -3.0102332
0.83161271 3.3264499 -1.9796185
0.84947246 2.9731531 -0.90168989
0.86811221 2.6043348 0.22331846
0.88754719 2.2188668 1.396324
0.90770036 1.8153983 2.6126788
0.92879009 1.3931828 3.8855546
0.95087838 0.95087582 5.2187014
0.97404784 0.48702228 6.6171017
0.99837458 -8.0808417e-07 8.0853481
1.0239421 -0.51197213 9.6284857
1.0330234 -1.0330242 10.176588
0.64617068 -2.5846841 -13.172034
0.65268868 -2.9370995 -12.778639
0.97186542 -9.2327213 6.4853783
1.2475598 20.37681 -1.9739579
1.256296 20.100737 -1.6224369
1.7010911 14.175759 16.274733
1.0913153 6.1841173 -8.2607536
1.0872676 5.7987595 -8.4236145
1.0832499 5.4162498 -8.5852747
1.0854743 5.065547 -8.4957781
1.1257696 4.878334 -6.8744183
1.1472869 4.5891457 -6.0086279
1.1696428 4.2886877 -5.109097
1.1928871 3.9762874 -4.1738143
1.2170742 3.6512213 -3.2006042
1.2424234 3.313128 -2.1806326
1.2689965 2.9609895 -1.1114122
1.2967253 2.5934496 0.0043102494
1.3256258 2.209374 1.1671771
1.3555946 1.807458 2.3730283
1.3869499 1.3869481 3.6346636
1.4197829 0.94652116 4.9557648
1.4542155 0.48473707 6.3412261
1.4903598 -1.2723849e-06 7.7955561
1.5284439 -0.50948226 9.3279467
1.5415281 -1.0276866 9.8544149
0.96494037 -2.5731754 -13.345684
0.97327447 -2.919827 -13.010347
1.451009 -9.1897249 6.2122092
1.6567863 20.295631 -2.1739368
2.2597003 14.123128 16.020605
1.4477363 6.1528773 -8.482585
1.4424154 5.7696614 -8.6431532
1.4370904 5.3890886 -8.8038454
1.4420465 5.0471616 -8.6542835
1.4956688 4.8609223 -7.0360899
1.5241522 4.5724559 -6.176527
1.5537415 4.272788 -5.2835922
1.5845023 3.9612546 -4.355299
1.6165059 3.6371381 -3.3895094
1.6499566 3.2999129 -2.3800442
1.6851025 2.9489286 -1.3194278
1.7217703 2.5826528 -0.2128745
1.7599726 2.1999638 0.93998051
1.7995874 1.7995858 2.135469
1.8410268 1.3807684 3.3860106
1.8844104 0.94220304 4.6952281
1.9298977 0.48247442 6.0679259
1.9776353 -5.3275517e-07 7.5085378
2.0280733 -0.50702012 9.0306396
2.0442159 -1.0221106 9.5177841
1.2965364 -2.5930753 -13.045438
1.2984242 -2.9214561 -12.988467
1.9260975 -9.1489649 5.9532466
2.0643377 20.643375 -2.3343654
2.0627654 20.215097 -2.3723297
2.8088176 14.605851 15.638967
2.8144419 14.072208 15.774748
1.8078204 6.5081515 -8.5272408
1.8008379 6.1228476 -8.6958141
1.7941442 5.7412591 -8.8574171
1.7876265 5.3628788 -9.0147638
1.7963899 5.0298915 -8.803196
1.862937 4.8436337 -7.1966081
1.898286 4.5558853 -6.3432078
1.9350024 4.2570033 -5.4567947
1.9731672 3.9463329 -4.5354147
2.0128677 3.623162 -3.5769615
2.0542514 3.2868018 -2.5778689
2.0978317 2.9369624 -1.5257514
2.1432915 2.5719485 -0.42825767
2.1906347 2.1906323 0.71471262
2.2397294 1.7917809 1.8999664
2.2910752 1.3746426 3.1395655
2.3448191 0.93792468 4.4370556
2.4011571 0.48022971 5.7971692
2.4603696 -9.544259e-07 7.2266903
2.5228956 -0.50457948 8.7361937
2.5430005 -1.0172017 9.2215729
1.6441309 -2.9594376 -12.479054
2.3971219 -9.1090651 5.6997561
2.4609358 20.507793 -2.6616883
2.4682651 20.157495 -2.514235
3.3516078 14.523632 15.257253
2.1585562 6.4756665 -8.7450905
2.1505659 6.0932693 -8.9058418
2.1424351 5.7131591 -9.0694218
2.1347694 5.3369226 -9.2236423
2.1491115 5.0145907 -8.9351025
2.2276022 4.8264713 -7.3559942
2.2697179 4.5394349 -6.5086875
2.313457 4.2413359 -5.6287255
2.3589149 3.9315238 -4.7141805
2.4061954 3.6092908 -3.7629766
2.4554095 3.2738769 -2.7728629
2.5072253 2.9250953 -1.7304094
2.5613322 2.5613294 -0.64186287
2.6176591 2.1813807 0.49134478
2.6760707 1.7840456 1.6664978
2.7371488 1.3685738 2.8952916
2.8010664 0.933689 4.1812143
2.8680549 0.47800809 5.5289207
2.9386563 -1.6836771e-06 6.9493079
3.0129788 -0.50216442 8.4445686
3.037451 -1.012485 8.9369097
2.8638277 -9.0687895 5.4438777
2.9306006 -9.7686701 6.7872415
2.8574228 20.410162 -2.8973944
2.8723204 20.106243 -2.6404934
3.8910267 14.452384 14.926466
2.5057425 6.443336 -8.9619055
2.4970241 6.0642004 -9.1122484
2.4872689 5.6851835 -9.2804747
2.4785683 5.3112154 -9.4305058
2.4981213 4.9962401 -9.0933323
2.5896919 4.8094254 -7.5142503
2.6384773 4.5231028 -6.6729736
2.6891363 4.2257833 -5.7993917
2.7417786 3.9168248 -4.8916111
2.7965231 3.5955284 -3.9475758
2.853498 3.2611384 -2.9650741
2.9133236 2.9133215 -1.9334197
2.9759357 2.5507991 -0.8537119
3.0410917 2.1722088 0.26985782
3.1086602 1.7763766 1.4350373
3.1792996 1.3625563 2.6531711
3.2532082 0.92948699 3.92768
3.3307176 0.47581545 5.2642803
3.4124963 -3.3042954e-07 6.6745024
3.4983919 -0.49977073 8.1557188
3.5273376 -1.0078127 8.654871
3.326705 -9.0296297 5.1950855
3.3886456 -9.6818457 6.2632165
3.2517514 20.323446 -3.1067472
4.4259968 14.384487 14.611244
2.8495641 6.4115181 -9.1752872
2.8396456 6.0342445 -9.3249445
2.8285017 5.6570024 -9.4930906
2.8187604 5.2851744 -9.6400795
2.8447967 4.9783921 -9.247221
2.9492335 4.7925038 -7.6713943
3.0045929 4.5068893 -6.8360844
3.0620704 4.2103438 -5.9688139
3.1217899 3.9022355 -5.0677185
3.1838851 3.5818698 -4.1307721
3.2485006 3.2485003 -3.1557975
3.3161662 2.9016445 -2.1348042
3.3871441 2.5403559 -1.0638255
3.4609773 2.1631093 0.050227966
3.5375459 1.7687724 1.2055594
3.6175792 1.3565896 2.4131696
3.7012999 0.9253245 3.6764121
3.7893429 0.47366679 5.0048819
3.8819518 -1.7541436e-06 6.4022422
3.9792006 -0.49740115 7.8696141
4.0120511 -1.0030138 8.3652849
3.7862558 -8.9923601 4.9583044
3.8284638 -9.5711632 5.5951729
3.6439743 20.244299 -3.2978218
4.9561629 14.3178 14.301641
3.1905136 6.3810258 -9.3797693
3.1787231 6.0042524 -9.5379066
3.1664615 5.6292634 -9.702363
3.1556094 5.2593479 -9.8479156
3.1900771 4.9623418 -9.3856239
3.3062534 4.7756972 -7.8274341
3.3680925 4.490788 -6.9980278
3.4322894 4.1950183 -6.1370006
3.4989808 3.8877554 -5.242516
3.5683153 3.5683136 -4.3125815
3.6404531 3.2359564 -3.3450468
3.7157919 2.890059 -2.3345811
3.7949994 2.5299988 -1.2722285
3.8773606 2.1540866 -0.16757128
3.9627755 1.7612337 0.97803581
4.0520382 1.3506782 2.1752563
4.1453953 0.92119735 3.4273894
4.2438445 0.47153714 4.7478147
4.3470831 -1.3612803e-06 6.1324863
4.4554477 -0.49505159 7.5858994
4.4913759 -0.99808431 8.0677814
4.2418203 -8.9549551 4.7206697
4.2702484 -9.4894419 5.1019526
4.0355654 20.177824 -3.4583061
5.4841638 14.258824 14.02783
3.5284564 6.3512201 -9.5796509
3.5147946 5.9751501 -9.7445631
3.5024917 5.6039853 -9.8930712
3.4891951 5.2337914 -10.053577
3.5344019 4.9481616 -9.5078831
3.6607783 4.7590103 -7.9823852
3.7290049 4.474803 -7.1588173
3.7998228 4.1798024 -6.3039694
3.8733826 3.8733821 -5.4160247
3.9498467 3.5548606 -4.4930215
4.0293908 3.2235098 -3.5328391
4.1122394 2.878566 -2.532764
4.1995416 2.5197248 -1.4789364
4.2902856 2.1451409 -0.38356373
4.3843951 1.7537572 0.75244504
4.4827266 1.3448166 1.9394131
4.585855 0.91717041 3.1842806
4.6942773 0.46942696 4.4930506
4.8079505 -9.6913527e-07 5.8652048
4.9272399 -0.49272427 7.3051567
4.9660125 -0.99320513 7.7731905
4.6938863 -8.9183874 4.4883356
4.7058687 -9.4117403 4.6329732
4.4269147 20.122341 -3.5922627
6.0079703 14.200657 13.757765
3.8622525 6.3200479 -9.7886982
3.8481436 5.9471292 -9.9435244
3.8341789 5.5769863 -10.096766
3.8211877 5.2107091 -10.239326
3.8772063 4.9346247 -9.6245956
4.013063 4.7427082 -8.1337442
4.0873566 4.4589329 -7.3184681
4.1646996 4.1646976 -6.4697294
4.2450261 3.859113 -5.5882511
4.3285122 3.5415087 -4.6721039
4.4153481 3.2111607 -3.7191937
4.5057392 2.8672857 -2.7272682
4.6008115 2.5095308 -1.6839715
4.6997943 2.1362684 -0.5977664
4.8024516 1.7463447 0.52876413
4.9096932 1.3390058 1.705602
5.02248 0.91317761 2.9432907
5.140696 0.4673349 4.2405591
5.2645845 -7.3769468e-07 5.6000738
5.3946199 -0.49042171 7.0270424
5.4360299 -0.98837 7.481462
5.1456127 -8.8878775 4.2945142
5.1329136 -9.3325729 4.1551571
4.8224983 20.093742 -3.6613014
6.5304108 14.149223 13.518973
4.1940718 6.2911053 -9.9827852
4.1790633 5.9203372 -10.133757
4.1631675 5.5508881 -10.293657
4.162806 5.2035046 -10.297294
4.2858124 5.0001116 -9.059947
4.3632078 4.7268052 -8.2814054
4.4434505 4.4434505 -7.4742308
4.5269489 4.1497011 -6.6342969
4.6139421 3.84495 -5.7592187
4.7043433 3.5282555 -4.8498449
4.7983589 3.198905 -3.9041278
4.8962083 2.8561208 -2.9198356
4.998848 2.4994245 -1.8873575
5.1059294 2.1274695 -0.81020796
5.2169881 1.7389935 0.30696231
5.3332086 1.3333008 1.4760463
5.4553194 0.9092195 2.7043905
5.5831542 0.46526298 3.9903028
5.7170944 -2.3005416e-06 5.3376436
5.8576493 -0.48813844 6.7515159
5.901464 -0.98357958 7.1922569
5.5682087 -9.2803497 3.8399682
7.0446973 14.631294 13.2412
7.0496788 14.099358 13.287458
4.5401511 6.6356034 -10.014602
4.5218978 6.2610879 -10.184094
4.5051088 5.8912954 -10.339984
4.4900293 5.5261893 -10.480005
4.5119429 5.2060871 -10.276525
4.6422539 4.9993486 -9.0665321
4.7112799 4.7112789 -8.425602
4.7973747 4.4283452 -7.6261692
4.8869629 4.1351218 -6.7943044
4.9801593 3.8308921 -5.9289327
5.077373 3.5151029 -5.0262628
5.1784568 3.1867418 -4.0876517
5.283648 2.8450387 -3.1109068
5.3936915 2.4893939 -2.0891068
5.5087323 2.118742 -1.0209042
5.6280508 1.7317073 0.087017842
5.753263 1.3276745 1.2496709
5.8844233 0.90529329 2.4675543
6.0217037 0.46320736 3.7422607
6.1655121 -1.4123329e-06 5.0775824
6.3163891 -0.48587862 6.4785414
6.3623424 -0.97882408 6.9052396
6.0042667 -9.2373343 3.5803506
7.5443325 14.549782 12.876791
7.5702491 14.059035 13.100251
4.8654633 6.603127 -10.220933
4.8479929 6.2331319 -10.371568
4.829639 5.8645601 -10.529816
4.813201 5.5007997 -10.671549
4.8659396 5.2135048 -10.216825
5.0004869 5.0004845 -9.056735
5.0757194 4.7131658 -8.408062
5.1521235 4.4161038 -7.7492943
5.2446809 4.12082 -6.9512458
5.3441768 3.8172662 -6.0933723
5.4476533 3.5020602 -5.2011776
5.555676 3.174669 -4.2697859
5.6680932 2.8340452 -3.3005028
5.7853785 2.4794471 -2.2892482
5.9082441 2.1100843 -1.2298753
6.0358443 1.7245256 -0.12968224
6.1697869 1.3220965 1.0251955
6.3098388 0.90140337 2.2327509
6.4563656 0.4611674 3.4961324
6.6098914 -1.3831905e-06 4.8198643
6.7708974 -0.48363513 6.2080841
6.81882 -0.97411937 6.6212835
6.4385242 -9.1978912 3.3422978
8.0410843 14.47395 12.537759
5.2072387 6.9429827 -10.267269
5.187326 6.570611 -10.427512
5.1689024 6.2026811 -10.575772
5.1513476 5.8381925 -10.717044
5.1648178 5.5091372 -10.608643
5.2805953 5.2805934 -9.6769409
5.358882 5.0016217 -9.0469313
5.4395466 4.714273 -8.3977995
5.5225916 4.4180722 -7.7295055
5.6068115 4.1116605 -7.051754
5.7057729 3.8038476 -6.2553744
5.8157139 3.4894264 -5.3706393
5.9301457 3.1627436 -4.4497609
6.0495787 2.8231361 -3.4886398
6.1740274 2.4696088 -2.4871526
6.3045049 2.1014988 -1.4371494
6.4404721 1.7174568 -0.34296823
6.5828252 1.3165649 0.80259967
6.7316136 0.89754838 1.9999553
6.8872504 0.45914924 3.252424
7.0502887 -1.1179067e-06 4.5644569
7.2211971 -0.48141435 5.9398217
7.2708936 -0.96945333 6.3397441
6.8695483 -9.159399 3.1099696
8.5385742 14.408845 12.246685
5.547637 7.2812719 -10.318195
5.5277834 6.9097276 -10.467985
5.5079522 6.5406904 -10.617598
5.4876738 6.1736321 -10.770588
5.4762506 5.8185143 -10.856767
5.5347447 5.5347443 -10.415462
5.657692 5.3040848 -9.4878969
5.7200427 5.0050349 -9.0175009
5.8035221 4.7153606 -8.3876934
5.8922124 4.4191585 -7.7185798
5.983305 4.1135216 -7.0313349
6.0760074 3.7975044 -6.331954
6.1812773 3.4769664 -5.5377507
6.3023043 3.1511495 -4.6246738
6.4282999 2.8123798 -3.6741121
6.5598564 2.4599435 -2.6815915
6.6976128 2.0930028 -1.6423045
6.8418274 1.7104559 -0.55428404
6.9924216 1.3110784 0.58185858
7.1497607 0.89371783 1.7688953
7.3143792 0.45714784 3.010843
7.4867563 -9.4095077e-07 4.3113251
7.6674156 -0.47921547 5.6743002
7.713418 -0.96417868 6.0213594
7.2964592 -9.120575 2.8756471
7.4809499 -9.8187485 4.2675223
9.0313597 14.343922 11.956434
5.9074202 7.9923902 -10.225494
5.8871036 7.6186032 -10.369756
5.8654695 7.2455783 -10.523371
5.8456073 6.8771839 -10.664401
5.8247552 6.5100198 -10.812466
