# .PCD v0.7 - Point Cloud Data file format
VERSION 0.7
FIELDS x y z
SIZE 4 4 4
TYPE F F F
COUNT 1 1 1
WIDTH 1288
HEIGHT 1
VIEWPOINT 0 0 0 1 0 0 0
POINTS 1288
DATA ascii
-780.03894 -998.44965 -289.91443
-777.71021 -1026.5773 -301.15851
-777.24615 -1057.0546 -303.3992
-777.36456 -1088.3103 -302.82712
-777.35797 -1119.3954 -302.8591
-777.34485 -1150.4702 -302.92255
-782.82513 -1189.894 -276.46133
-781.56256 -1219.2374 -282.55774
-705.78522 1293.9397 -506.45001
-714.90289 1280.8678 -460.59155
-725.63635 1269.8638 -406.60626
-736.92493 1258.9137 -349.82919
-767.90063 1279.8345 -194.03378
-749.4613 -968.05402 -286.77646
-745.72705 -994.30267 -305.5578
-745.65137 -1025.2706 -305.93851
-745.73969 -1056.4645 -305.49445
-745.85327 -1087.7025 -304.92322
-745.93219 -1118.8981 -304.52652
-745.93219 -1149.9786 -304.52652
-747.13336 -1182.9609 -298.48505
-746.1626 -1212.514 -303.36743
-759.94702 -1266.5781 -234.03711
-652.84155 1334.0677 -629.97345
-653.47021 1306.9406 -626.67401
-654.65765 1280.8521 -620.44196
-656.71613 1256.3267 -609.63855
-661.27826 1236.3029 -585.69537
-670.85614 1225.0419 -535.42761
-680.71564 1213.4497 -483.68231
-690.8692 1201.5118 -430.39334
-701.23138 1189.0447 -376.00983
-722.07343 1192.9911 -266.62424
-723.28204 -943.41125 -260.28125
-716.42474 -965.61584 -296.27026
-716.25159 -996.52393 -297.17877
-716.46423 -1027.9703 -296.06305
-716.6557 -1059.4041 -295.05832
-718.90601 -1093.9872 -283.24805
-728.46466 -1171.8778 -233.08127
-716.6131 -1183.9694 -295.28174
-715.66003 -1213.5104 -300.28372
-715.72375 -1244.7369 -299.94943
-624.58502 1334.3409 -629.27161
-624.25208 1305.2545 -631.09857
-623.30835 1274.9491 -636.27661
-624.79993 1249.6 -628.09265
-625.67554 1222.9114 -623.28839
-627.21252 1197.406 -614.85498
-629.97021 1174.0356 -599.72382
-637.65295 1159.3691 -557.57019
-646.9646 1146.892 -506.47849
-656.54962 1134.0404 -453.88684
-666.32123 1120.6313 -400.27151
-677.94012 1109.3567 -336.52063
-706.54297 1124.0458 -179.58058
-687.45325 -937.4361 -284.32327
-686.84558 -967.82764 -287.65762
-686.92438 -999.16254 -287.22519
-687.42401 -1031.1359 -284.4837
-691.41766 -1194.2667 -262.57114
-691.3822 -1225.632 -262.76587
-691.41174 -1257.1121 -262.60355
-598.66339 1339.866 -615.08203
-597.18719 1308.1245 -623.56738
-596.40686 1278.0148 -628.05292
-594.91876 1246.4966 -636.60632
-594.46033 1217.2284 -639.24188
-596.14868 1192.2976 -629.53662
-596.72522 1165.0352 -626.22296
-597.94171 1138.9368 -619.2301
-599.98816 1114.2638 -607.4671
-604.86237 1094.5129 -579.44958
-613.63916 1081.1738 -528.99945
-622.67438 1067.442 -477.06357
-631.86841 1053.1141 -424.21536
-641.06616 1037.9166 -371.34555
-661.70514 1039.8223 -252.71019
-659.03662 -910.09802 -268.04886
-657.40216 -939.14587 -277.44397
-657.36298 -970.39282 -277.66934
-657.58154 -1002.0289 -276.41306
-659.0282 -1035.6157 -268.09717
-574.10785 1320.4481 -591.22827
-570.77356 1284.2407 -611.35223
-569.15063 1252.1317 -621.14728
-568.20862 1221.6486 -626.83313
-567.6839 1192.1364 -629.99994
-565.99567 1160.2911 -640.18951
-566.62427 1133.2488 -636.39532
-568.07458 1107.7456 -627.64197
-568.97217 1081.0472 -622.22473
-570.42346 1055.2836 -613.46552
-573.31702 1031.9708 -596.00122
-580.73615 1016.2883 -551.22272
-589.2323 1001.695 -499.94409
-597.86389 986.47546 -447.84766
-606.50922 970.41492 -395.66852
-618.52747 958.71783 -323.13171
-643.74426 965.61639 -170.93507
-632.67566 -885.74567 -237.74034
-627.83899 -910.36646 -266.93185
-627.61102 -941.4165 -268.30768
-627.73169 -972.98407 -267.57941
-628.29541 -1005.2725 -264.17719
-548.43042 1270.0494 -571.99072
-542.82745 1228.5043 -607.58777
-541.07037 1196.0507 -618.75037
-539.99451 1165.2515 -625.586
-539.38513 1135.5479 -629.45721
-537.89478 1104.1001 -638.92572
-537.6731 1075.3462 -640.33429
-539.44141 1050.4913 -629.09961
-540.05505 1023.2625 -625.20111
-541.22357 996.99084 -617.77747
-543.18652 972.01825 -605.30609
-548.24518 952.21539 -573.16766
-556.21503 936.78333 -522.53369
-564.29907 920.69867 -471.17435
-572.40552 903.79846 -419.67239
-580.74829 886.40533 -366.66925
-600.54016 885.00671 -240.92752
-598.56232 -882.09167 -253.49321
-597.82397 -912.46802 -258.18405
-597.77277 -943.85168 -258.50909
-598.13654 -975.90692 -256.19821
-515.14508 1173.386 -601.63593
-512.96289 1139.9176 -616.27008
-511.80936 1108.9203 -624.0058
-511.15842 1079.1124 -628.37097
-510.44022 1049.2383 -633.1875
-509.14307 1018.2862 -641.88635
-509.94418 991.55817 -636.51404
-511.33435 965.85406 -627.19135
-512.23163 939.09143 -621.17401
-513.58649 913.04266 -612.08826
-516.54565 889.60657 -592.24353
-523.61456 872.6911 -544.83826
-531.16541 855.7666 -494.20139
-538.74615 838.04968 -443.36362
-546.54645 819.81976 -391.05386
-558.68805 806.99402 -309.63046
-580.60107 806.39062 -162.67842
-570.32898 -855.49347 -231.5641
-568.0285 -883.59985 -246.99152
-567.89679 -914.94464 -247.87514
-567.98462 -946.64099 -247.28609
-568.51941 -979.11658 -243.69989
-487.20349 1117.7023 -596.82465
-484.98984 1084.0951 -612.54285
-483.71625 1052.7943 -621.58643
-482.9306 1022.6769 -627.16467
-482.51456 993.41254 -630.11914
-480.96658 961.93335 -641.11041
-480.92218 933.55487 -641.42603
-482.71783 908.64545 -628.67578
-483.35489 881.41205 -624.15204
-484.45743 854.92505 -616.32361
-486.31558 829.59735 -603.12915
-491.42114 809.39966 -566.87671
-498.45465 791.66333 -516.93445
-505.52249 773.15234 -466.74823
-512.7937 754.10846 -415.11823
-520.2771 734.50903 -361.98132
-538.44666 728.48676 -232.96593
-538.11023 -854.64557 -235.35471
-537.79279 -885.77618 -237.60886
-537.76733 -917.36761 -237.78976
-538.06854 -949.53259 -235.65077
-459.72995 1063.1256 -587.88086
-456.9437 1028.1235 -608.90161
-455.55698 996.53101 -619.3634
-454.70404 966.24622 -625.79834
-454.20328 936.79443 -629.57629
-453.095 906.19012 -637.93768
-452.38699 876.49994 -643.2793
-454.12256 851.47998 -630.18542
-454.57916 823.92499 -626.74036
-455.45813 797.05194 -620.10901
-456.75015 770.76599 -610.36176
-459.65625 746.94153 -588.43701
-466.15875 728.37317 -539.37927
-472.7262 709.08948 -489.83188
-479.48126 689.25458 -438.86859
-486.43225 668.84448 -386.42749
-497.74719 653.2934 -301.06302
-517.03192 646.2901 -155.57048
-509.49719 -827.93274 -212.41591
-507.65979 -856.67584 -226.278
-507.49323 -888.11292 -227.53497
-507.59402 -920.01398 -226.77429
-508.06793 -952.62732 -223.19879
-432.85916 1010.0049 -572.89404
-429.02518 972.45721 -603.74762
-427.34637 940.16217 -617.25739
-426.4566 909.77423 -624.41772
-425.92419 880.24347 -628.70221
-425.66589 851.33197 -630.78094
-424.17157 820.06519 -642.80627
-424.28101 791.99133 -641.92572
-425.98184 766.76746 -628.23853
-426.61844 739.47211 -623.11572
-427.64322 712.73883 -614.86847
-429.37122 686.99408 -600.96283
-434.25964 665.86499 -561.62378
-440.09393 645.47125 -514.67285
-446.09079 624.52722 -466.41385
-452.34988 603.13324 -416.04483
-458.79855 581.14496 -364.14987
-474.41479 569.29785 -238.47997
-477.41565 -827.52032 -214.33092
-477.1366 -858.84576 -216.57661
-477.06223 -890.51611 -217.17513
-477.34326 -922.86353 -214.91335
-578.38922 -1195.3376 598.24182
-581.76038 -1241.0886 625.3703
-400.94955 916.4563 -599.21173
-399.26382 884.08435 -613.74615
-398.29593 853.49133 -622.09186
-397.67987 823.76575 -627.40344
-397.35107 794.70239 -630.2384
-396.18933 764.07965 -640.25537
-395.71069 734.89142 -644.3822
-397.40637 709.65442 -629.76172
-397.82141 681.97974 -626.18329
-398.60623 654.85321 -619.4165
-399.81174 628.2757 -609.02222
-402.15833 603.23755 -588.78949
-407.41873 582.02679 -543.43335
-412.1915 559.40289 -502.28156
-417.07068 536.23389 -460.21228
-422.31281 512.80853 -415.0134
-428.05692 489.2081 -365.48697
-437.49631 468.74619 -284.09863
-454.86197 454.86212 -134.36865
-429.82257 276.31467 -350.26291
-429.82617 245.61502 -350.23184
-429.83157 214.91583 -350.18539
-448.53003 -800.94623 -188.96388
-446.65033 -829.49323 -205.17102
-446.54367 -861.19122 -206.09068
-446.60767 -893.21515 -205.53893
-446.98419 -925.89581 -202.29204
-544.51141 -1166.8099 638.60614
-536.46509 -1187.8867 569.22919
-536.49585 -1226.2761 569.49451
-372.98352 860.73132 -592.96051
-371.13544 827.91772 -610.12067
-370.07263 797.07971 -619.9892
-369.42276 767.2627 -626.02393
-369.02734 738.05487 -629.69562
-368.86627 709.3584 -631.19104
-367.44986 678.3692 -644.34296
-367.5885 650.34888 -643.05597
-369.20139 624.80243 -628.07941
-369.62863 597.09265 -624.11218
-370.24481 569.60767 -618.39062
-371.14697 542.44574 -610.01343
-372.86267 516.27142 -594.08276
-376.41025 492.22906 -561.14178
-377.86832 465.06882 -547.60303
-375.46317 433.2269 -569.93604
-373.6373 402.37878 -586.89014
-372.90781 372.90793 -593.66388
-372.34659 343.70474 -598.87476
-372.03906 314.80252 -601.73016
-371.8884 286.06815 -603.12921
-371.74222 257.3602 -604.48682
-371.61923 228.68893 -605.62842
-371.61203 200.09903 -605.69568
-371.6149 171.51476 -605.66864
-371.65829 142.94554 -605.26575
-371.76825 114.39038 -604.24493
-371.8725 85.81675 -603.27692
-371.94055 57.221836 -602.64514
-372.0072 28.616163 -602.02625
-374.06314 0.00019502998 -582.93591
-378.98996 -29.152866 -537.18817
-383.82602 -59.050003 -492.28293
-391.74872 -90.403397 -418.71771
-411.39505 -126.58308 -236.29271
-416.24893 -800.47845 -191.22246
-415.79224 -831.58429 -195.46306
-415.79044 -863.56458 -195.47984
-415.91357 -895.81366 -194.3365
-417.33847 -930.98566 -181.10538
-504.05923 -1163.2136 624.13501
-501.80533 -1196.6128 603.20648
-501.78955 -1235.1742 603.05957
-344.92969 804.83612 -586.55096
-342.99979 771.74963 -605.96417
-341.81613 740.60175 -617.87079
-341.14282 710.71448 -624.64337
-340.7196 681.43945 -628.90094
-340.54062 652.703 -630.70148
-339.77802 622.92651 -638.37262
-339.09317 593.41321 -645.26154
-339.43787 565.72986 -641.79437
-340.74197 539.50842 -628.67572
-341.01749 511.5264 -625.9046
-341.35419 483.58524 -622.51733
-341.2868 455.04916 -623.19543
-332.82898 416.03641 -708.27454
-333.88785 389.53604 -697.62305
-340.95679 369.37 -626.51477
-340.90012 340.9003 -627.08514
-340.85266 312.44852 -627.5625
-340.81577 284.01318 -627.93353
-340.75781 255.56839 -628.5166
-340.7486 227.16585 -628.60956
-340.7486 198.77017 -628.60938
-340.74988 170.37502 -628.59625
-340.75253 141.98038 -628.56989
-340.76831 113.58961 -628.41077
-340.78943 85.197472 -628.19873
-340.8118 56.802151 -627.97351
-340.8342 28.403028 -627.74805
-341.05307 7.8118006e-05 -625.54614
-341.43219 -28.452557 -621.73279
-342.84506 -57.14077 -607.52063
-347.51315 -86.87822 -560.56305
-354.89862 -118.29938 -486.27124
-363.74637 -151.56084 -397.26965
-387.71088 -775.42163 -156.20541
-385.04541 -802.17786 -183.01791
-384.89575 -833.9408 -184.52292
-384.93442 -866.10229 -184.13429
-385.19849 -898.79633 -181.47789
-317.34778 750.09479 -573.79694
-314.81335 715.48492 -601.60901
-313.70245 684.44177 -613.79968
-313.00012 654.45502 -621.50659
-312.57516 625.15057 -626.16992
-312.2756 596.16266 -629.45715
-312.15259 567.55035 -630.80743
-311.64215 538.29108 -636.40851
-310.93826 508.80823 -644.13293
-310.84378 480.39493 -645.16974
-306.26804 445.48096 -695.38257
-304.74921 415.56729 -712.04974
-304.74921 387.86282 -712.04974
-311.18011 367.75845 -641.4787
-311.25323 339.54907 -640.67639
-311.53885 311.53897 -637.54248
-311.62775 283.2981 -636.56702
-311.65536 254.99094 -636.26361
-311.87912 226.82118 -633.80829
-312.17065 198.65408 -630.60883
-312.17429 170.27707 -630.56934
-312.17429 141.89752 -630.56915
-311.76962 113.37099 -635.01007
-311.62894 84.989891 -636.55377
-311.48718 56.634178 -638.10913
-311.31918 28.301905 -639.95264
-310.96817 8.3018429e-05 -643.80469
-310.94543 -28.267679 -644.05396
-312.41928 -56.803417 -627.88055
-313.05591 -85.378883 -620.89441
-315.43881 -114.70492 -594.74506
-323.14081 -146.88208 -510.22571
-331.86493 -181.017 -414.49017
-352.76877 -224.48906 -185.09776
-414.09955 -865.84448 487.92801
-354.66226 -773.80847 -164.3188
-353.88571 -804.28564 -172.84067
-353.81442 -836.28851 -173.62289
-353.88412 -868.62457 -172.85773
-354.48956 -902.33704 -166.21387
-286.90256 659.87604 -593.05518
-285.6842 628.50531 -607.76202
-284.98599 598.47076 -616.19019
-284.53564 569.07141 -621.6264
-284.20981 539.99878 -625.55945
-283.98898 511.18027 -628.2251
-283.86389 482.56882 -629.73529
-277.41299 443.86096 -707.60449
-277.04474 415.56729 -712.04974
-277.04474 387.86282 -712.04974
-277.04474 360.15829 -712.04962
-284.112 340.93457 -626.7403
-284.14935 312.56445 -626.28949
-284.18234 284.1824 -625.89124
-284.2439 255.81975 -625.14807
-284.30991 227.44801 -624.35126
-284.37924 199.06558 -623.5144
-284.44861 170.66927 -622.67688
-284.51031 142.25523 -621.93207
-284.55661 113.82281 -621.37354
-284.6073 85.382294 -620.76147
-284.65802 56.931656 -620.14893
-284.6481 28.464945 -620.26898
-284.37042 0.00015295656 -623.62061
-283.99228 -28.399096 -628.18542
-282.78323 -56.556568 -642.78003
-283.03052 -84.909042 -639.79474
-284.39465 -113.7578 -623.32819
-286.04462 -143.02219 -603.41162
-292.82529 -175.6951 -521.56189
-301.76477 -211.23526 -413.65237
-326.53619 -261.22885 -114.63489
-371.75821 -855.04382 431.24341
-322.7659 -774.63806 -160.14653
-322.55615 -806.39026 -162.67816
-322.57172 -838.68634 -162.49013
-322.71768 -871.33765 -160.72838
-344.66367 804.21545 566.45605
-258.21735 573.81641 -592.98737
-257.31793 543.22687 -605.05084
-256.80719 513.61456 -611.90088
-256.52322 484.54388 -615.70953
-249.65567 443.8324 -707.81952
-249.34026 415.56729 -712.04974
-249.34026 387.86282 -712.04974
-251.52382 363.31229 -682.76324
-257.0968 342.79587 -608.01685
-257.2168 314.37628 -606.40704
-257.31793 285.90884 -605.0509
-257.49429 257.49438 -602.68536
-257.65082 229.02301 -600.58575
-257.82666 200.532 -598.22754
-258.02689 172.01811 -595.54199
-258.19818 143.4436 -593.24469
-258.32126 114.80952 -591.59375
-258.55563 86.185326 -588.45044
-258.8046 57.512196 -585.11115
-258.7894 28.754528 -585.31506
-257.94434 2.6960961e-05 -596.64917
-256.73141 -28.525543 -612.91754
-255.91853 -56.870644 -623.82007
-255.47255 -85.157272 -629.80151
-254.42461 -113.07745 -643.85724
-255.8611 -142.14491 -624.59039
-257.5575 -171.7049 -601.83777
-264.32874 -205.58876 -511.01981
-273.46198 -243.07727 -388.52209
-331.37448 -810.02637 388.21738
-293.50946 -750.07953 -119.63952
-291.25711 -776.68549 -149.84862
-291.13525 -808.70886 -151.48274
-291.18143 -841.19061 -150.86357
-291.41629 -874.24872 -147.71364
-297.75012 669.93781 436.42682
-231.01611 490.90939 -570.51154
-221.91614 443.8324 -707.81952
-221.6358 415.56729 -712.04974
-221.6358 387.86282 -712.04974
-234.57719 381.18805 -516.77887
-234.71115 352.0668 -514.75763
-236.10954 324.65085 -493.6575
-235.67119 294.58905 -500.272
-236.23672 265.76642 -491.73862
-236.45915 236.45929 -488.38263
-236.93866 207.32143 -481.1474
-237.5468 178.16032 -471.97137
-238.49243 149.05788 -457.70227
-239.48859 119.74446 -442.67172
-240.21689 90.081505 -431.68262
-242.20776 60.552044 -401.64249
-245.95314 30.744282 -345.12912
-249.8799 0.00011763551 -285.87906
-255.62952 -31.953539 -199.12389
-228.82054 -57.20504 -603.64014
-227.70349 -85.388702 -620.4953
-227.12271 -113.56114 -629.25867
-226.15085 -141.34412 -643.92285
-227.54216 -170.65651 -622.92938
-229.27492 -200.61537 -596.78412
-237.69281 -237.69264 -469.76794
-253.5222 -285.21234 -230.92093
-290.98779 -800.21625 334.39124
-260.23187 -748.16656 -129.67975
-259.58932 -778.76782 -139.37494
-259.52515 -811.01587 -140.34348
-259.58246 -843.64276 -139.47882
-259.98322 -877.4433 -133.43159
-194.17517 443.82907 -707.84467
-193.93132 415.56729 -712.04974
-193.93132 387.86282 -712.04974
-238.27795 442.51636 52.680676
-232.12253 397.92453 -53.465889
-227.13364 356.92438 -139.49597
-221.78026 316.8291 -231.81171
-219.4286 282.12274 -272.36472
-218.2283 249.40387 -293.06314
-218.22461 218.22475 -293.12698
-218.48885 187.27631 -288.57025
-220.06715 157.19083 -261.3533
-221.71622 126.69518 -232.9166
-223.89105 95.953445 -195.41267
-226.83708 64.810715 -144.61009
-200.56236 -85.955238 -597.70154
-199.18036 -113.81725 -621.53314
-198.30933 -141.6494 -636.55371
-198.47618 -170.12231 -633.67621
-199.4639 -199.46376 -616.6438
-203.85391 -232.97583 -540.94061
-212.76041 -273.54904 -387.35361
-251.83498 -791.48108 286.4631
-228.01285 -749.18481 -124.33486
-227.76642 -780.91339 -128.58405
-227.73415 -813.33612 -129.14055
-227.84918 -846.29688 -127.15709
-166.43585 443.82907 -707.84467
-166.22685 415.56729 -712.04974
-166.22685 387.86282 -712.04974
-233.42259 427.94162 639.82446
-233.42259 389.03763 639.82434
-171.63211 -114.42135 -603.30389
-170.5668 -142.13895 -624.73633
-169.5818 -169.58163 -644.55304
-170.47575 -198.88818 -626.56799
-171.65016 -228.86682 -602.9408
-179.55058 -269.32584 -443.9964
-214.84743 -751.96582 266.12106
-213.51218 -782.87781 239.25815
-195.91214 -750.99634 -114.82783
-195.799 -783.19586 -117.10372
-195.80856 -815.8689 -116.91129
-195.94435 -849.09216 -114.17937
-138.69392 443.8208 -707.90796
-138.52237 415.56729 -712.04974
-138.52237 387.86282 -712.04974
-194.51881 427.94162 639.82446
-194.51779 389.03568 639.79944
-142.5024 -142.50224 -615.96307
-141.95717 -170.34843 -629.1261
-141.94127 -198.71764 -629.51025
-142.64018 -228.22414 -612.6366
-148.19598 -266.75266 -478.50766
-176.66713 -742.00189 208.84636
-164.86562 -725.40863 -76.06723
-163.72 -753.112 -103.72473
-163.65291 -785.53369 -105.34502
-163.67114 -818.35553 -104.90489
-163.81201 -851.8222 -101.50384
-110.95347 443.81403 -707.95844
-110.8179 415.56729 -712.04974
-110.8179 387.86282 -712.04974
-155.61505 427.94162 639.82446
-155.61423 389.03568 639.79944
-114.28213 -142.85249 -607.50732
-113.63206 -170.44794 -627.12512
-113.1429 -197.99995 -641.88623
-113.96036 -227.92061 -617.21729
-117.70438 -264.83456 -504.2319
-139.82458 -734.07886 163.30467
-131.81262 -724.96936 -78.477493
-131.34482 -755.23254 -92.594673
-131.29436 -787.76605 -94.117775
-131.32722 -820.79492 -93.126015
-131.55888 -855.13263 -86.135277
-83.213844 443.80734 -708.00909
-83.113426 415.56729 -712.04974
-83.113426 387.86282 -712.04974
-116.7113 427.94162 639.82446
-116.7113 389.03763 639.82434
-85.781319 -142.96864 -604.70178
-85.226013 -170.45187 -627.04529
-84.856194 -197.99763 -641.9259
-85.44973 -227.86584 -618.04413
-88.817978 -266.45377 -482.51605
-103.88768 -727.21375 123.84225
-99.00914 -726.06689 -72.455322
-98.798317 -757.45367 -80.938301
-98.778389 -790.22705 -81.740036
-98.80761 -823.39661 -80.564133
-99.038063 -858.32977 -71.291512
-55.474846 443.7988 -708.07227
-55.408951 415.56729 -712.04974
-55.408951 387.86282 -712.04974
-77.807526 427.94162 639.82446
-77.807526 389.03763 639.82434
-76.460793 -152.92155 558.5415
-57.124622 -142.81154 -608.49933
-56.803066 -170.40913 -627.90698
-56.636436 -198.22742 -637.96399
-57.009144 -228.03648 -615.46936
-59.667664 -268.5043 -455.01343
-68.646873 -720.79193 86.929771
-66.149033 -727.63916 -63.828136
-66.057732 -759.6637 -69.338722
-66.045555 -792.54669 -70.073418
-66.068726 -825.85889 -68.675339
-27.737005 443.79227 -708.1228
-27.704475 415.56729 -712.04974
-27.704475 387.86282 -712.04974
-38.903763 427.94162 639.82446
-38.903763 389.03763 639.82434
-37.940941 -151.76364 523.60114
-28.540119 -142.70042 -611.17834
-28.394289 -170.36563 -628.78156
-28.386938 -198.70842 -629.66901
-28.525932 -228.20734 -612.89062
-30.065327 -270.58792 -427.06931
-31.81889 -318.18881 -215.39587
-31.830332 -350.13342 -214.01474
-31.829229 -381.95065 -214.14778
-34.109089 -716.29089 61.056038
-33.15752 -729.46521 -53.808979
-33.126122 -761.90063 -57.599174
-33.122234 -794.93347 -58.067966
-33.122986 -828.07452 -57.977718
-33.407822 -868.60333 -23.594505
-33.406151 -901.96594 -23.796387
-33.43306 -936.12561 -20.548073
-33.444172 -969.88086 -19.206772
-33.453308 -1003.5992 -18.103725
-33.567188 -1040.5828 -4.3574028
-1.0248999e-21 443.78558 -708.1734
-1.5350696e-21 415.56729 -712.04974
-7.1077786e-22 387.86282 -712.04974
-1.4105295e-21 427.94162 639.82446
-9.7998607e-22 389.03763 639.82434
-1.3269389e-21 -150.62323 489.18588
-1.596789e-21 -142.58916 -613.86652
-7.8811572e-22 -170.32608 -629.57635
-1.3875268e-23 -198.75615 -628.84784
-1.629055e-21 -228.38913 -610.14752
-1.4591362e-22 -272.70288 -398.70316
-1.1140005e-21 -318.18881 -215.39587
-9.2324625e-22 -350.2565 -212.66568
-7.3718443e-22 -382.09802 -212.6656
-7.2224414e-22 -433.26318 -33.236034
-1.6156051e-21 -467.97525 -21.300955
-1.3805232e-21 -500.27548 -30.368456
-2.0514013e-21 -532.53668 -38.594837
-5.590554e-22 -565.82037 -38.594589
-3.5786426e-22 -599.104 -38.594719
-1.3213435e-21 -632.38751 -38.594738
-1.1201523e-21 -665.67096 -38.594757
-1.8507492e-21 -698.95447 -38.594784
-1.0906432e-21 -725.97565 -72.956306
-4.8801682e-22 -735.83093 -194.42049
-5.7045372e-22 -749.67157 -285.7186
-7.1766981e-22 -765.71942 -359.05463
-1.0022948e-21 -783.47479 -418.82208
-1.0566119e-21 -801.07269 -474.86639
-2.1294963e-21 -822.60254 -509.95654
-1.0909387e-21 -844.55432 -540.87097
-1.7512238e-21 -865.79297 -572.59308
-1.0787471e-21 -891.76953 -583.81989
-2.1853181e-21 -913.7345 -609.47784
-3.6490363e-22 -1177.8514 -896.73657
-3.3524819e-22 -1196.2812 -917.05945
-9.3075681e-22 -1218.8916 -925.78107
-8.3534064e-22 -1249.6694 -913.59955
27.736588 443.78558 -708.1734
27.704475 415.56729 -712.04974
27.704475 387.86282 -712.04974
38.903763 427.94162 639.82446
38.903763 389.03763 639.82434
37.374981 -149.49968 455.28387
28.495615 -142.47801 -616.55029
28.343348 -170.05984 -634.93085
28.400545 -198.80363 -628.02643
28.580647 -228.64511 -606.28625
30.492369 -274.43118 -375.52115
31.81889 -318.18881 -215.39587
31.841505 -350.2565 -212.66568
31.841505 -382.09802 -212.6656
33.25177 -432.27289 -42.43177
33.30257 -466.23593 -36.299801
33.30257 -499.53833 -36.300034
33.196026 -531.13635 -49.160805
33.196175 -564.33478 -49.1427
33.196175 -597.53101 -49.142841
33.196175 -630.72723 -49.142639
33.196175 -663.92346 -49.142792
33.196026 -697.11633 -49.16087
32.630703 -717.87537 -117.4011
31.683168 -728.71271 -231.77881
30.986509 -743.67627 -315.87274
30.407679 -760.19189 -385.7439
29.906218 -777.56146 -446.27585
29.473553 -795.78577 -498.50302
29.071394 -813.99896 -547.04761
28.70438 -832.42688 -591.35022
28.376303 -851.28894 -630.95276
28.056385 -869.74786 -669.56995
27.777382 -888.8761 -703.24878
27.507994 -907.76367 -735.76703
27.251257 -926.54254 -766.75781
27.021315 -945.74597 -794.5141
26.797958 -964.72632 -821.47583
26.599243 -984.17181 -845.46301
26.480639 -1006.2642 -859.77972
26.462706 -1032.0454 -861.94434
26.457748 -1058.3099 -862.54248
26.454321 -1084.6271 -862.95648
26.452415 -1111.0013 -863.18658
26.450321 -1137.3638 -863.43933
26.447748 -1163.7008 -863.74982
26.175596 -1177.9016 -896.60168
25.994337 -1195.7395 -918.48126
25.908712 -1217.7094 -928.81726
26.15649 -1255.5114 -898.90784
55.472332 443.77881 -708.22388
55.408951 415.56729 -712.04974
55.408951 387.86282 -712.04974
77.807526 427.94162 639.82446
77.807526 389.03763 639.82434
74.196571 -148.39294 421.884
56.957428 -142.39348 -618.59058
56.606544 -169.81943 -639.76837
56.814709 -198.8513 -627.20447
57.226303 -228.90495 -602.36255
61.320194 -275.94083 -355.27423
63.637779 -318.18881 -215.39587
63.68301 -350.2565 -212.66568
63.68301 -382.09802 -212.6656
66.784058 -434.09622 -25.500816
66.863388 -468.04355 -20.713186
66.701897 -500.26413 -30.459957
66.575562 -532.60431 -38.085175
66.575562 -565.89221 -38.084961
66.575562 -599.17993 -38.085011
66.575562 -632.46771 -38.085087
66.575562 -665.75543 -38.085102
66.575562 -699.04333 -38.084892
65.901291 -724.91418 -78.780785
63.624546 -731.68213 -216.19429
62.149708 -745.79645 -305.20874
60.984989 -762.31219 -375.50589
59.933937 -779.14105 -438.94238
59.034027 -796.95923 -493.25668
58.206364 -814.88898 -543.21075
57.480858 -833.47241 -586.99878
56.797356 -851.96014 -628.25183
56.177776 -870.75543 -665.64655
55.582714 -889.32343 -701.56158
55.044014 -908.2262 -734.0752
54.549461 -927.34064 -763.9245
54.063309 -946.10785 -793.26593
53.615276 -965.07489 -820.30725
53.21949 -984.56049 -844.19513
52.986492 -1006.7431 -858.258
52.954788 -1032.6182 -860.17139
52.945438 -1058.9087 -860.7356
52.945629 -1085.3853 -860.72406
52.942192 -1111.786 -860.93127
52.94162 -1138.2449 -860.96588
52.937614 -1164.6274 -861.20776
52.365929 -1178.2333 -895.71191
52.011681 -1196.2687 -917.09277
51.853996 -1218.5688 -926.60968
52.394691 -1257.4724 -893.97632
83.206299 443.76706 -708.31244
83.113426 415.56729 -712.04974
83.113426 387.86282 -712.04974
116.7113 427.94162 639.82446
116.7113 389.03763 639.82434
110.47698 -147.30247 388.97482
85.392448 -142.32054 -620.34875
84.851303 -169.70247 -642.12305
85.2425 -198.899 -626.38214
86.005615 -229.34808 -595.67706
93.741226 -281.22354 -284.41946
95.456665 -318.18881 -215.39587
95.524513 -350.2565 -212.66568
95.524513 -382.09802 -212.6656
102.56156 -717.93066 70.48291
99.575027 -730.21667 -49.685852
99.496353 -762.80524 -52.851391
99.477043 -795.81641 -53.628246
99.485573 -829.0462 -53.285126
100.35673 -869.75818 -18.232553
100.31562 -902.84045 -19.886694
100.41754 -937.23022 -15.785437
100.49768 -971.47742 -12.561211
100.56785 -1005.6783 -9.7379627
100.93262 -1042.9702 4.9395337
78.610535 -1179.158 -893.23169
78.075279 -1197.1543 -914.76874
77.831543 -1219.3606 -924.57617
78.22049 -1251.5277 -908.92609
110.9388 443.75531 -708.401
110.8179 415.56729 -712.04974
110.8179 387.86282 -712.04974
155.61423 427.93939 639.79938
155.61505 389.03763 639.82434
115.04948 -115.04934 -584.35016
113.79839 -142.24774 -622.10516
113.12548 -169.68814 -642.41193
113.70108 -198.97684 -625.04175
115.03597 -230.07182 -584.75775
127.73975 -287.41431 -201.38748
127.27556 -318.18881 -215.39587
127.36602 -350.2565 -212.66568
127.36602 -382.09802 -212.6656
138.14508 -725.26147 112.62113
132.52899 -728.90918 -56.859665
132.38271 -761.20032 -61.273975
132.35648 -794.13861 -62.065773
132.4012 -827.50732 -60.715927
138.66985 443.74362 -708.48938
138.52237 415.56729 -712.04974
138.52237 387.86282 -712.04974
194.51779 427.93939 639.79938
194.51881 389.03763 639.82434
143.52975 -114.82372 -591.16046
142.17531 -142.17513 -623.85986
141.39488 -169.67381 -642.70123
142.19293 -199.07001 -623.43457
144.87025 -231.79227 -558.7984
159.16544 -286.49774 -213.68161
159.09444 -318.18881 -215.39587
159.20753 -350.2565 -212.66568
159.20753 -382.09802 -212.6656
174.6627 -733.58331 160.45554
165.37854 -727.66541 -63.684376
165.10648 -759.48962 -70.252602
165.07976 -792.38269 -70.897568
165.14507 -825.72516 -69.320816
165.73372 -861.81525 -55.109333
166.40004 443.73349 -708.56525
166.22685 415.56729 -712.04974
166.22685 387.86282 -712.04974
233.42136 427.93939 639.79938
233.42259 389.03763 639.82434
230.06241 -115.0311 572.22284
171.94008 -114.62652 -597.10797
170.54239 -142.11839 -625.22772
169.67778 -169.67767 -642.6225
170.71016 -199.16171 -621.85248
175.15338 -233.53767 -532.46155
189.44618 -284.16916 -244.91231
190.91333 -318.18881 -215.39587
191.04903 -350.2565 -212.66568
191.04903 -382.09802 -212.6656
212.40407 -743.41412 216.96471
198.19725 -726.72302 -68.854706
197.71718 -757.91571 -78.513184
197.66576 -790.66296 -79.547691
197.72604 -823.85834 -78.334778
198.13489 -858.58435 -70.109291
194.12825 443.72186 -708.65369
193.93132 415.56729 -712.04974
193.93132 387.86282 -712.04974
272.32492 427.93939 639.79938
272.32635 389.03763 639.82434
267.22202 -114.52356 551.80286
200.3873 -114.50688 -600.72058
198.91071 -142.07893 -626.18329
198.01456 -169.72665 -641.63647
199.25366 -199.2536 -620.26892
205.89687 -235.3105 -505.71091
219.63948 -282.39343 -268.7283
222.73221 -318.18881 -215.39587
222.89053 -350.2565 -212.66568
222.89053 -382.09802 -212.6656
251.56395 -754.69165 281.7894
231.21039 -726.66107 -69.19529
230.19608 -756.35834 -86.686272
230.11572 -788.9682 -88.071739
230.15796 -821.99255 -87.343498
230.41783 -855.83746 -82.862144
221.85583 443.71173 -708.72955
221.6358 415.56729 -712.04974
221.6358 387.86282 -712.04974
311.22845 427.93939 639.79938
311.2301 389.03763 639.82434
304.05359 -114.01987 531.5387
228.75018 -114.37494 -604.70184
227.26849 -142.04269 -627.05865
226.39215 -169.79408 -640.28156
227.86769 -199.38405 -618.0174
237.11072 -237.11061 -478.55084
254.55112 -286.36987 -215.39586
254.55112 -318.18881 -215.39587
254.73204 -350.2565 -212.66568
254.73204 -382.09802 -212.6656
265.17874 -729.24146 -55.036949
262.53827 -754.79742 -94.878632
262.41986 -787.25952 -96.665352
262.43979 -820.12421 -96.36467
262.65912 -853.64203 -93.055222
249.58592 443.70844 -708.75476
249.34026 415.56729 -712.04974
249.34026 387.86282 -712.04974
350.13205 427.93939 639.79938
350.13391 389.03763 639.82434
340.56436 -113.52129 511.4754
257.0618 -114.24959 -608.48602
255.61281 -142.00703 -627.92029
254.93669 -169.95773 -636.98877
256.55609 -199.54344 -615.26904
268.80469 -238.93741 -450.98691
286.37 -286.36987 -215.39586
286.37 -318.18881 -215.39587
286.37 -350.00775 -215.3959
286.57355 -382.09802 -212.6656
299.04935 -431.96002 -45.336792
299.29031 -465.56253 -42.104851
331.65372 -810.70886 391.96289
294.75513 -753.263 -102.9318
294.5936 -785.58282 -105.09834
294.58835 -818.3009 -105.16891
294.78275 -851.59442 -102.56191
277.31769 443.70844 -708.75476
277.04474 415.56729 -712.04974
277.04474 387.86282 -712.04974
389.03763 427.94162 639.82446
389.03763 389.03763 639.82434
376.75531 -113.02645 491.56354
285.41782 -114.16698 -610.97748
283.94287 -141.97122 -628.7818
283.854 -170.3123 -629.85449
285.27594 -199.69307 -612.69012
300.28583 -240.22855 -431.50491
318.18887 -286.36987 -215.39586
318.18887 -318.18881 -215.39587
318.18887 -350.00775 -215.3959
318.41507 -382.09802 -212.6656
331.19699 -430.55582 -58.374336
331.27164 -463.78012 -57.472996
375.1929 -825.42426 472.70328
327.05807 -752.2334 -108.33522
326.63055 -783.91321 -113.49572
326.5899 -816.47467 -113.98652
326.71771 -849.46594 -112.44379
327.96628 -885.50879 -97.372421
305.04486 443.70175 -708.80542
304.74921 415.56729 -712.04974
304.74921 387.86282 -712.04974
427.94141 427.94162 639.82446
427.94141 389.03763 639.82434
412.63419 -112.53639 471.84756
313.72192 -114.0806 -613.58588
312.26477 -141.93849 -629.57635
312.31665 -170.35439 -629.00684
314.06088 -199.85675 -609.86621
332.10223 -241.52878 -411.88596
350.00775 -286.36987 -215.39586
350.00775 -318.18881 -215.39587
350.00775 -350.00775 -215.3959
350.25656 -382.09802 -212.6656
364.70966 -431.02036 -54.061993
364.62735 -464.07108 -54.96476
359.74146 -752.18658 -108.58112
358.59845 -782.39648 -121.12431
358.49823 -814.76868 -122.22404
358.57935 -847.55103 -121.33398
359.13394 -881.5105 -115.24792
430.62552 -1174.4331 669.27881
429.98163 -1211.7664 662.21313
430.13727 -1251.3083 663.9212
332.76993 443.69336 -708.86853
332.4537 415.56729 -712.04974
332.4537 387.86282 -712.04974
466.84518 427.94162 639.82446
466.84518 389.03763 639.82434
448.20108 -112.05019 452.27917
341.97525 -113.99162 -616.27002
340.61432 -141.92255 -629.96021
340.79337 -170.39659 -628.15887
342.97177 -200.06662 -606.24603
364.26489 -242.84302 -392.05347
381.82666 -286.36987 -215.39586
381.82666 -318.18881 -215.39587
381.82666 -350.00775 -215.3959
401.95221 -401.95206 -12.948431
400.60056 -433.9838 -26.545008
400.3259 -467.04672 -29.308214
393.85138 -754.88177 -94.436302
390.45499 -780.90985 -128.60149
390.3046 -813.13446 -130.11441
390.33569 -845.72711 -129.80156
390.60034 -878.85059 -127.13979
470.90503 -1098.7783 680.66345
472.1358 -1140.9946 693.0437
469.08588 -1172.7146 662.36395
469.07339 -1211.7728 662.2384
469.07339 -1250.8623 662.23853
360.49533 443.68668 -708.91913
360.15814 415.56729 -712.04974
360.15814 387.86282 -712.04974
505.74893 427.94162 639.82446
505.74893 389.03763 639.82434
482.95572 -111.45119 428.1796
370.24194 -113.92036 -618.41736
368.36829 -141.68008 -635.81494
369.28134 -170.43745 -627.3371
371.96951 -200.29109 -602.37604
396.77954 -244.17192 -372.00375
413.64554 -286.36987 -215.39586
413.03195 -317.7168 -221.09355
413.64554 -350.00775 -215.3959
422.19632 -779.43927 -135.99821
421.94635 -811.43506 -138.31932
421.94073 -843.88141 -138.37117
422.13846 -876.7489 -136.53564
509.49936 -1097.3833 674.64886
509.7822 -1137.2063 677.27502
511.0015 -1179.2341 688.5968
508.23584 -1211.9469 662.91638
388.22574 443.68668 -708.91913
387.86264 415.56729 -712.04974
387.86264 387.86282 -712.04974
544.8114 428.06641 641.19263
544.65271 389.03763 639.82434
548.22662 352.43152 670.63916
516.27869 -110.63094 395.17822
398.52896 -113.86528 -620.08252
396.39548 -141.56969 -638.47809
397.78293 -170.47821 -626.51489
401.44882 -200.72437 -594.9071
429.83878 -245.62202 -350.12344
445.46442 -286.36987 -215.39586
444.59402 -317.56714 -222.90062
444.82288 -349.50354 -220.92776
454.61465 -779.33936 -136.50085
453.53812 -809.8894 -145.78294
453.43414 -842.09186 -146.67964
453.5441 -874.69202 -145.73141
454.31345 -908.62671 -139.09825
415.9624 443.69336 -708.86853
415.56711 415.56729 -712.04974
415.56711 387.86282 -712.04974
583.55646 389.03763 639.82434
583.55646 350.13397 639.82446
583.55646 311.23026 639.82452
585.08398 273.03952 652.11694
588.74133 235.49678 681.54926
573.93378 -76.524323 562.38715
431.34436 -86.268806 -585.08398
426.78528 -113.80922 -621.77264
424.60306 -141.53426 -639.33392
426.34772 -170.53891 -625.29401
431.84979 -201.52985 -581.01654
470.49927 -250.9328 -269.98969
477.28333 -286.36987 -215.39586
477.28333 -318.18881 -215.39587
477.62259 -350.2565 -212.66568
489.17807 -782.68481 -119.67445
485.05457 -808.42413 -152.8578
484.83688 -840.38379 -154.60956
484.88809 -872.7984 -154.19742
485.27457 -905.84576 -151.08713
443.70163 443.70175 -708.80542
443.27161 415.56729 -712.04974
443.27161 387.86282 -712.04974
622.70099 350.26944 641.64032
622.46021 311.23026 639.82452
622.46021 272.32654 639.82458
622.46021 233.42274 639.82422
622.46021 194.51906 639.82428
622.46021 155.61522 639.82422
625.67755 117.31477 664.09692
609.50092 -76.187538 542.05383
459.20551 -86.100937 -591.83734
455.00504 -113.75097 -623.52765
452.87152 -141.52229 -639.62354
454.99448 -170.6228 -623.60736
464.08813 -203.03848 -555.00079
508.62415 -254.31206 -219.00249
516.67059 -807.29761 -158.29689
516.12384 -838.70111 -162.42188
516.06714 -870.86328 -162.84915
516.3233 -903.56586 -160.91652
518.38641 -939.57526 -145.35194
471.44183 443.71011 -708.74225
470.97604 415.56729 -712.04974
470.97604 387.86282 -712.04974
662.28638 272.70627 646.37421
661.64777 233.52296 641.83978
661.36401 194.51906 639.82428
661.36401 155.61522 639.82422
661.36401 116.7115 639.82428
661.36401 77.807686 639.82428
661.36401 38.903973 639.82434
661.98102 0.00021565596 644.20532
667.43988 -39.260975 682.96704
644.75287 -75.853111 521.87506
487.09711 -85.958107 -597.58032
483.22772 -113.70055 -625.05493
481.13522 -141.51031 -639.91315
483.66754 -170.70609 -621.93225
496.81082 -204.56898 -528.60663
546.94543 -257.38586 -172.61966
549.61237 -808.25336 -153.68222
547.39606 -837.19391 -169.41931
547.24255 -869.14984 -170.50951
547.37207 -901.55396 -169.58977
547.86914 -934.60016 -166.0603
499.22461 443.75531 -708.401
498.68051 415.56729 -712.04974
498.68051 387.86282 -712.04974
700.67963 116.78003 642.58655
700.36792 77.818825 640.49597
700.26782 38.903973 639.82434
700.26782 0.00012727406 639.82434
700.26782 -38.903561 639.8244
679.70032 -75.522102 501.89597
515.22137 -85.870125 -601.12433
511.51038 -113.66883 -626.01086
509.56097 -141.54465 -639.08368
512.35468 -170.78481 -620.34875
529.60602 -205.95781 -504.65854
586.20178 -260.53403 -125.11912
578.62195 -835.78723 -175.95038
578.3183 -867.47729 -177.98697
578.34106 -899.64154 -177.83414
578.60175 -932.19147 -176.08636
528.17969 444.78296 -700.64777
526.38501 415.56729 -712.04974
526.38501 387.86282 -712.04974
531.16241 363.427 -681.69757
739.9043 0.00024734688 644.47943
739.46912 -38.919331 641.71533
714.34412 -75.193893 482.09067
543.28381 -85.781487 -604.68829
539.77936 -113.63751 -626.95258
538.02539 -141.58546 -638.09601
541.16479 -170.89401 -618.15076
561.99292 -207.0498 -485.82568
611.29993 -836.51556 -172.56844
609.3252 -865.88306 -185.11467
609.20819 -897.78033 -185.85791
609.3385 -930.04279 -185.03023
610.14551 -963.3877 -179.9025
554.10828 415.58139 -711.93622
554.08948 387.86282 -712.04974
554.08948 360.15829 -712.04962
560.41284 336.24789 -673.88464
748.6842 -74.868172 462.43353
571.25067 -85.687531 -608.47266
568.0307 -113.60606 -627.90717
566.79919 -141.69958 -635.33997
570.12018 -171.03603 -615.29565
594.72516 -208.1537 -466.79166
640.35223 -864.4754 -191.40778
640.01196 -896.0166 -193.46164
640.02307 -928.03339 -193.39427
640.43597 -960.65381 -190.90237
582.39795 415.99869 -708.57782
581.79395 387.86282 -712.04974
581.79395 360.15829 -712.04962
581.79395 332.4538 -712.04962
581.79395 304.74936 -712.04962
585.19476 278.66434 -692.50134
588.57495 252.24654 -673.07172
782.73218 -74.545792 442.96909
599.37976 -85.625534 -610.96423
596.28003 -113.577 -628.7818
596.03125 -141.91203 -630.21185
599.11206 -171.17467 -612.50299
627.81073 -209.27022 -447.53915
673.27954 -865.64496 -186.17897
670.85822 -894.47754 -200.09679
670.69781 -926.2016 -201.01884
670.85822 -958.36877 -200.09676
671.88672 -991.83258 -194.18512
610.03906 388.20682 -709.08337
609.49841 360.15829 -712.04962
609.49841 332.4538 -712.04962
609.49841 304.74936 -712.04962
609.49841 277.04486 -712.04962
609.49841 249.34042 -712.04968
609.49841 221.63594 -712.04962
610.98456 194.4043 -703.8952
614.71906 167.65092 -683.40479
816.48395 -74.225655 423.64844
627.46576 -85.563393 -613.46539
624.5271 -113.55026 -629.58966
624.59949 -141.95428 -629.19238
628.17059 -171.31917 -609.59833
661.25055 -210.39778 -428.09384
701.83636 -893.24615 -205.40514
701.31873 -924.46539 -208.24591
701.34302 -956.37671 -208.11227
701.76935 -988.85675 -205.77284
637.7464 332.7374 -709.19702
637.27502 304.78384 -711.67126
637.20288 277.04486 -712.04962
637.20288 249.34042 -712.04968
637.20288 221.63594 -712.04962
637.20288 193.93149 -712.04968
637.20288 166.22701 -712.04962
637.20288 138.52254 -712.04968
637.20288 110.81808 -712.04968
640.35193 83.524368 -695.52277
644.36176 56.031509 -674.47797
849.95135 -73.908592 404.5159
655.50592 -85.500717 -615.98987
652.84406 -113.53804 -629.96027
653.15192 -141.98944 -628.34454
657.4137 -171.49911 -605.97748
695.05255 -211.53752 -408.43793
737.00574 -897.2243 -188.25528
731.97711 -922.92761 -214.64703
731.82489 -954.55414 -215.44588
732.02783 -986.64606 -214.38095
732.98688 -1019.8076 -209.3477
667.29547 278.03989 -700.03809
665.53986 249.57753 -708.86841
665.15826 221.71953 -710.78802
664.90741 193.93149 -712.04968
664.90741 166.22701 -712.04962
664.90741 138.52254 -712.04968
664.90741 110.81808 -712.04968
664.90741 83.113625 -712.04968
664.90741 55.409142 -712.04968
664.90741 27.704689 -712.04968
665.78864 1.4723882e-05 -707.617
670.13367 -27.922131 -685.76355
683.56073 -85.445076 -618.23059
680.79987 -113.46655 -632.1167
681.71851 -142.02448 -627.49622
686.72101 -171.68008 -602.33575
729.2229 -212.68996 -388.56766
763.5376 -922.60767 -215.97815
762.2666 -952.83307 -222.37045
762.26001 -984.58575 -222.40356
762.67554 -1016.9006 -220.31387
693.41724 166.42029 -708.16077
693.02478 138.60504 -710.05585
692.66144 110.82591 -711.81006
692.61182 83.113625 -712.04968
692.61182 55.409142 -712.04968
692.61182 27.704689 -712.04968
692.61182 0.00010580553 -712.0498
692.61182 -27.70438 -712.0498
692.61182 -55.408833 -712.0498
692.61182 -83.113319 -712.0498
692.61182 -110.81777 -712.04987
696.44379 -139.28867 -693.54718
716.87006 -172.04878 -594.92059
763.76752 -213.8548 -368.47983
792.75958 -951.3114 -228.49344
792.55774 -982.77155 -229.46794
792.67749 -1014.6271 -228.88988
793.11908 -1046.9171 -226.7578
722.49054 83.364395 -701.95508
720.90356 55.454285 -709.32336
720.5473 27.713371 -710.97729
720.31628 0.00010580553 -712.0498
720.31628 -27.70438 -712.0498
720.31903 -55.409138 -712.03705
720.31903 -83.113625 -712.03699
720.31628 -110.81777 -712.04987
720.44672 -138.54729 -711.44421
749.34723 -172.92607 -577.26721
801.27246 -215.72704 -336.19308
830.28674 -958.02295 -201.48816
822.93188 -981.18787 -235.63445
822.84326 -1012.73 -236.04601
822.97443 -1044.5443 -235.43689
823.24048 -1076.545 -234.20189
823.19434 -1108.1462 -234.41582
823.14117 -1139.7338 -234.66286
825.91382 -1175.3389 -221.79012
825.46411 -1206.4474 -223.87802
830.91162 -1246.3673 -198.58701
748.75781 -27.731585 -708.75488
748.4809 -55.442848 -709.99274
748.1167 -83.123985 -711.62085
748.02075 -110.81777 -712.04987
748.0603 -138.52954 -711.87323
748.81995 -166.4043 -708.47675
842.08795 -218.31897 -291.49753
857.41656 -984.44098 -222.96704
853.36249 -1011.3924 -241.09164
853.39917 -1043.0433 -240.92751
853.47998 -1074.7524 -240.56635
853.65997 -1106.5962 -239.76167
853.75909 -1138.3455 -239.31827
855.31274 -1172.0952 -232.37233
853.79962 -1201.6437 -239.13736
858.64886 -1240.2704 -217.45763
802.1806 -57.298405 -597.99841
795.94763 -85.280067 -624.86908
793.17303 -113.31027 -636.83069
796.57336 -142.24513 -622.17175
815.97522 -174.85176 -538.52814
883.63031 -220.90746 -246.8606
890.16547 -1176.2899 -218.68695
887.57275 -1204.563 -229.86423
887.25116 -1235.8141 -231.25064
829.97864 -57.23978 -601.54169
824.14471 -85.256111 -625.82501
821.57355 -113.32036 -636.52734
825.42834 -142.3152 -620.48175
849.82672 -175.82602 -518.92517
857.71637 -57.181004 -605.09119
852.32605 -85.232544 -626.77997
851.3811 -113.51747 -630.58234
854.43762 -142.40614 -618.284
910.7074 -182.14136 -391.87152
