# .PCD v0.7 - Point Cloud Data file format
VERSION 0.7
FIELDS x y z
SIZE 4 4 4
TYPE F F F
COUNT 1 1 1
WIDTH 1373
HEIGHT 1
VIEWPOINT 0 0 0 1 0 0 0
POINTS 1373
DATA ascii
-766.42517 -1245.4407 -201.45459
-736.52167 -1227.536 -351.85739
-725.51398 -1239.4196 -407.22183
-714.83044 -1250.9532 -460.95596
-706.20642 -1265.2864 -504.33145
-751.15344 -1175.7184 -114.00406
-720.17151 -1158.5367 -276.6062
-700.97821 -1158.1378 -377.33832
-690.56989 -1170.9662 -431.96414
-680.46887 -1183.424 -484.97726
-670.65643 -1195.5181 -536.47559
-661.39471 -1207.7642 -585.08405
-657.12482 -1228.5376 -607.49377
-655.24921 -1253.5201 -617.3374
-654.14569 -1279.8501 -623.12878
-653.40198 -1306.804 -627.0321
-787.29803 1288.3063 263.5101
-786.83038 1251.7761 260.94431
-791.52789 1223.2705 286.71851
-704.17566 -1088.2714 -192.56961
-676.68262 -1076.5405 -343.41998
-665.91766 -1089.6833 -402.48587
-656.0965 -1103.4348 -456.37305
-646.56342 -1116.7913 -508.67972
-637.54224 -1130.1885 -558.17731
-630.62903 -1146.5983 -596.10913
-627.71924 -1169.8402 -612.07489
-626.30591 -1195.6749 -619.82928
-625.40436 -1222.3811 -624.77618
-624.28345 -1248.5668 -630.92651
-624.83374 -1278.069 -627.90704
-625.10681 -1307.0415 -626.40857
-742.86304 1273.4797 213.79581
-741.26392 1235.4401 204.60394
-746.62 1208.8136 235.39124
-752.78418 1182.9467 270.82446
-752.53094 1146.7139 269.36789
-752.53094 1110.8789 269.36801
-752.24829 1074.6407 267.74408
-752.07599 1038.5812 266.75314
-752.43909 1003.2524 268.84048
-659.22534 -1004.5337 -266.96414
-640.8584 -1007.063 -372.53961
-631.33313 -1022.1583 -427.29202
-622.08685 -1036.8114 -480.44083
-613.35858 -1051.4718 -530.61206
-605.13757 -1066.1947 -577.86761
-600.53003 -1086.6732 -604.35242
-598.44043 -1111.3893 -616.3634
-597.40454 -1137.9135 -622.31781
-596.68823 -1164.9626 -626.43524
-595.28839 -1190.5767 -634.48181
-595.617 -1219.5967 -632.59271
-596.87524 -1250.5957 -625.36041
-597.80737 -1281.0156 -620.00262
-599.31219 -1312.7789 -611.35229
-566.02399 1273.5541 -640.01855
-566.02399 1245.2529 -640.01843
-566.229 1217.3925 -638.78101
-712.75342 1282.9562 245.57193
-708.62823 1240.0997 220.67439
-712.62903 1211.4695 244.82088
-717.76398 1112.5343 275.81308
-714.23291 1071.3495 254.50153
-713.78876 1034.9939 251.82063
-713.67084 999.13928 251.10936
-641.63861 -930.37579 -183.64389
-617.18939 -925.78394 -331.20786
-606.16644 -939.55774 -397.73755
-597.21503 -955.54401 -451.76361
-588.79077 -971.50452 -502.6091
-580.83716 -987.42316 -550.61292
-574.0069 -1004.5118 -591.83759
-570.90881 -1027.6357 -610.53577
-569.50586 -1053.5857 -619.00366
-568.65283 -1080.4403 -624.15192
-567.54352 -1106.71 -630.84705
-566.72266 -1133.4451 -635.80182
-568.18445 -1164.7781 -626.97888
-568.69025 -1194.2494 -623.92627
-569.71564 -1224.8885 -617.73737
-571.31952 -1256.903 -608.05707
-574.77258 -1293.2382 -587.21594
-533.5094 1263.5751 -666.78693
-532.81696 1233.892 -671.18616
-535.14166 1211.1101 -656.41687
-543.25 1200.8684 -604.9032
-676.04663 1245.349 238.77953
-677.46088 1069.675 247.76431
-675.86658 1031.5859 237.63562
-675.5918 995.60895 235.88985
-675.75861 960.28857 236.94975
-598.44427 -850.42072 -254.24313
-580.58405 -855.59735 -367.71295
-571.94342 -872.96619 -422.608
-563.83179 -890.26056 -474.14307
-556.15521 -907.41095 -522.914
-548.68481 -924.10071 -570.37445
-543.82141 -944.53192 -601.2724
-541.67725 -969.31714 -614.89502
-540.63867 -995.91333 -621.4931
-539.96729 -1023.0958 -625.75848
-538.45917 -1048.5782 -635.33997
-538.51526 -1077.0304 -634.98364
-539.84827 -1108.1095 -626.51483
-540.48163 -1137.8561 -622.49078
-541.58685 -1168.6874 -615.46924
-543.27319 -1200.9196 -604.75549
-511.5856 1278.9641 -625.50647
-506.51413 1238.1459 -659.51636
-507.14938 1211.5236 -655.25635
-506.34348 1181.4681 -660.66101
-506.34732 1153.3468 -660.63495
-506.33765 1125.1948 -660.69995
-506.33377 1097.0568 -660.72589
-506.35123 1068.9637 -660.60901
-506.46176 1041.0603 -659.86768
-508.18234 1016.3649 -648.32898
-513.29144 998.06665 -614.06689
-638.37506 1028.4934 224.76259
-637.83002 992.18018 221.10754
-637.79926 956.69904 220.90144
-639.03833 923.05542 229.21075
-578.90564 -771.87421 -174.04774
-557.30115 -774.02924 -318.93103
-546.25745 -789.03845 -392.99176
-538.46753 -807.70111 -445.23212
-531.07794 -826.12115 -494.78778
-523.88837 -844.0423 -543.00183
-517.21442 -862.02393 -587.75854
-514.07965 -885.35919 -608.78107
-512.6745 -911.42114 -618.20404
-511.85687 -938.40405 -623.68713
-511.34619 -965.8761 -627.11151
-509.85373 -991.38214 -637.12048
-511.26514 -1022.5303 -627.65521
-511.54797 -1051.5153 -625.75854
-512.26733 -1081.4532 -620.93439
-513.46283 -1112.5028 -612.9173
-515.36993 -1145.2664 -600.12799
-485.82373 1286.0043 -606.62177
-481.84805 1247.1364 -634.85156
-482.53879 1220.5396 -629.94708
-480.68335 1187.5708 -643.12158
-480.74075 1159.4337 -642.71448
-480.60565 1130.8372 -643.6734
-480.5687 1102.4812 -643.93597
-480.39859 1073.8323 -645.14349
-480.31363 1045.3887 -645.74701
-480.48178 1017.4911 -644.55298
-482.43253 993.24359 -630.70154
-487.21112 974.42236 -596.77069
-601.61151 1026.2787 215.54445
-600.44006 988.96021 207.2261
-600.28424 953.39282 206.11974
-600.44006 918.32037 207.2262
-537.25146 -695.26648 -241.45264
-520.15143 -703.73407 -362.87357
-512.69263 -723.80127 -415.83566
-505.60028 -743.52979 -466.19592
-498.70145 -762.71973 -515.18195
-491.98834 -781.39307 -562.84906
-486.99451 -802.10858 -598.30847
-484.87497 -827.13959 -613.35852
-483.84369 -853.84161 -620.68164
-483.21091 -881.14917 -625.17468
-481.71423 -906.7561 -635.80194
-481.62137 -934.91199 -636.4613
-482.94183 -965.88361 -627.08502
-483.31747 -995.06525 -624.41772
-484.11938 -1025.1938 -618.72363
-485.38754 -1056.4316 -609.71893
-487.50781 -1089.7233 -594.66376
-456.14395 1083.3419 -614.93518
-455.86621 1054.1907 -617.03058
-455.74951 1025.4365 -617.91083
-455.78488 997.02954 -617.6441
-457.18896 971.52679 -607.05115
-461.7926 952.44733 -572.31934
-563.41083 985.96924 194.33095
-563.02759 950.10931 191.4398
-563.10583 915.04706 192.03
-564.37659 881.83856 201.61707
-516.30975 -613.11774 -161.01936
-497.00845 -621.26038 -306.63632
-486.49265 -638.52148 -385.97192
-479.70825 -659.59882 -437.15582
-473.11053 -680.09631 -486.93216
-466.6918 -700.0376 -535.35773
-460.44492 -719.44507 -582.48676
-457.32062 -743.14581 -606.05798
-455.81671 -769.19061 -617.40399
-455.05261 -796.34204 -623.16858
-454.57916 -823.92468 -626.74023
-453.08102 -849.52679 -638.04303
-453.83673 -879.30853 -632.34155
-454.595 -909.18982 -626.62091
-455.06842 -938.57855 -623.04907
-455.93869 -968.86963 -616.48358
-457.27255 -1000.2837 -606.42041
-459.81091 -1034.5743 -587.27032
-431.58258 1064.5707 -583.16705
-430.92267 1034.2145 -588.4776
-430.72562 1005.0265 -590.06348
-430.80472 976.49103 -589.42657
-431.7821 949.92084 -581.56128
-435.97775 930.086 -547.79742
-526.66528 983.1087 181.99942
-526.20258 947.16461 178.2755
-526.10962 911.92358 177.52748
-526.31567 877.19287 179.1859
-474.94846 -538.2749 -234.18523
-459.3187 -551.18225 -359.96408
-453.35855 -574.25415 -407.92755
-447.36212 -596.4826 -456.18301
-441.11047 -617.5545 -506.49246
-435.04654 -638.06818 -555.29108
-430.18079 -659.61047 -594.44763
-428.04858 -684.87762 -611.60651
-427.02014 -711.7002 -619.88257
-426.42032 -739.12842 -624.70984
-425.05673 -765.10205 -635.68298
-424.78802 -792.93744 -637.84564
-426.02957 -823.65704 -627.85406
-426.24219 -852.48425 -626.14319
-426.80515 -882.06372 -621.61304
-427.72458 -912.47894 -614.21393
-429.15549 -944.14197 -602.69873
-432.46506 -980.25397 -576.06573
-406.35471 1044.9124 -552.60748
-405.40323 1013.5083 -560.81116
-405.31219 984.32959 -561.59631
-405.41922 955.63129 -560.67328
-406.2937 928.67145 -553.13348
-410.36432 908.664 -518.03601
-490.67487 981.34985 174.41708
-489.50018 944.03607 164.28873
-489.37207 908.83392 163.18401
-489.49786 874.10352 164.26855
-418.07941 59.725731 -451.51459
-402.73157 28.766727 -583.84717
-403.58334 0.00024719932 -576.50275
-424.88971 -30.349112 -392.79504
-425.81677 -60.830788 -384.80185
-427.97144 -91.708092 -366.22397
-428.84225 -122.52615 -358.71567
-429.71664 -153.4702 -351.17639
-456.78925 -424.16138 -117.75098
-440.13242 -440.13232 -261.36966
-428.50455 -459.11191 -361.62735
-423.65753 -484.17984 -403.41913
-418.84561 -508.59802 -444.90863
-413.59381 -531.76337 -490.19034
-408.5289 -554.43182 -533.86127
-403.48834 -576.41168 -577.32178
-400.41101 -600.61639 -603.8551
-399.01291 -627.02026 -615.90967
-398.2666 -654.29498 -622.3446
-397.81985 -681.97681 -626.19635
-396.35117 -707.76978 -638.85999
-396.79004 -736.89557 -635.07605
-397.68759 -766.96875 -627.33704
-397.98306 -795.966 -624.78949
-398.58148 -825.63293 -619.62964
-399.56012 -856.2002 -611.19159
-401.05588 -888.05212 -598.2951
-380.07141 1023.2693 -527.14642
-379.57593 992.73712 -531.74731
-379.45377 963.22894 -532.88147
-379.55179 934.28162 -531.97137
-380.41202 907.13647 -523.98358
-384.57101 887.4718 -485.36551
-453.22867 941.32129 152.15053
-452.96857 905.93719 149.73534
-452.98358 871.1225 149.8752
-453.65497 837.51697 156.10887
-372.6575 143.33006 -595.98773
-370.95956 114.1414 -611.75366
-370.08411 85.404205 -619.88275
-369.84622 56.899483 -622.09174
-369.70731 28.439159 -623.38141
-369.76746 0.0001160379 -622.82324
-369.91785 -28.455145 -621.42657
-370.06976 -56.933712 -620.01587
-370.26202 -85.445076 -618.23059
-370.47318 -113.99162 -616.27002
-370.66876 -142.56473 -614.45435
-370.86884 -171.17007 -612.59644
-371.17007 -199.86066 -609.79932
-371.46313 -228.59267 -607.07788
-371.72919 -257.35086 -604.60779
-372.26239 -286.35565 -599.65643
-372.81607 -315.45956 -594.51532
-375.08713 -346.23413 -573.42773
-377.29504 -377.29495 -552.9259
-379.19009 -408.35846 -535.32971
-381.06168 -439.68658 -517.95117
-378.66537 -466.04953 -540.2019
-374.98697 -490.36755 -574.35754
-372.20581 -515.36176 -600.18182
-370.79395 -541.9295 -613.29175
-370.11856 -569.41309 -619.56311
-369.55569 -596.97437 -624.78961
-368.33704 -623.3396 -636.1051
-368.02475 -651.12054 -639.00488
-369.20566 -681.61029 -628.03979
-369.33701 -710.26343 -626.81989
-369.7002 -739.40027 -623.44788
-370.35107 -769.19061 -617.40399
-371.36346 -799.85968 -608.00336
-372.94855 -831.9621 -593.28503
-353.72803 1002.2297 -498.04611
-353.40897 971.87488 -501.25568
-353.29709 942.12579 -502.3812
-353.37781 912.89288 -501.56924
-354.41348 886.03394 -491.15097
-358.52429 866.43384 -449.79935
-417.15729 938.60419 140.00282
-416.79834 903.06335 136.39182
-416.76285 868.25616 136.03528
-416.98563 833.9715 138.27599
-345.71695 201.66844 -578.63153
-342.31915 171.15971 -612.81042
-341.29605 142.20685 -623.10229
-340.93439 113.64497 -626.7403
-339.92474 84.981323 -636.89642
-339.72302 56.620522 -638.92572
-339.7204 28.310154 -638.95209
-339.76492 -2.0574571e-06 -638.50421
-339.85791 -28.321283 -637.56879
-340.04013 -56.673283 -635.73578
-340.23306 -85.058174 -633.79529
-340.73013 -113.57664 -628.79486
-340.85532 -142.02289 -627.53601
-340.90012 -170.44984 -627.08514
-340.9436 -198.88371 -626.64746
-340.98581 -227.32387 -626.2229
-341.03989 -255.77991 -625.67896
-341.15079 -284.29205 -624.56378
-341.24451 -312.80743 -623.62054
-341.32382 -341.32367 -622.82306
-334.45029 -362.32114 -691.96539
-333.58337 -389.18054 -700.68573
-341.76312 -427.2038 -618.40399
-341.84927 -455.7988 -617.53741
-341.56183 -483.87918 -620.42853
-341.17719 -511.76562 -624.29822
-340.04932 -538.41125 -635.64343
-339.65366 -566.08929 -639.6236
-340.12543 -595.21942 -634.87787
-340.81577 -624.82874 -627.93365
-340.98318 -653.55109 -626.24945
-341.39651 -682.79297 -622.09174
-342.08273 -712.6723 -615.18878
-343.11728 -743.42059 -604.78229
-345.01743 -776.28912 -585.66809
-326.9162 980.74878 -468.79572
-326.60571 950.12585 -472.20306
-326.60703 920.43817 -472.18866
-326.7272 891.07422 -470.86993
-327.91248 864.49664 -457.86304
-332.3645 846.0188 -409.00806
-381.44836 936.28235 129.62338
-380.89096 900.28809 123.50706
-380.79404 865.44122 122.44344
-380.93228 831.12506 123.9603
-315.4881 229.44608 -594.20459
-313.1311 199.26534 -620.06921
-312.56308 170.48904 -626.30255
-311.7684 141.71309 -635.02332
-311.53284 113.28485 -637.6084
-312.89349 85.334755 -622.67706
-313.18695 56.94323 -619.4566
-313.29016 28.480968 -618.32397
-313.18451 0.0001246782 -619.48303
-313.0365 -28.457747 -621.10748
-312.88861 -56.888702 -622.73016
-312.7421 -85.293167 -624.33789
-312.66708 -113.69705 -625.16132
-312.57999 -142.08167 -626.11682
-312.49298 -170.45062 -627.07196
-312.27078 -198.71764 -629.51025
-312.04288 -226.94016 -632.01111
-311.82977 -255.13342 -634.34979
-311.6662 -283.33267 -636.14478
-311.50162 -311.5014 -637.95093
-311.45117 -339.76486 -638.50421
-305.41379 -360.94345 -704.75677
-305.41263 -388.70691 -704.76953
-306.02911 -417.31241 -698.00446
-311.33359 -452.84875 -639.79468
-311.4332 -481.30573 -638.70172
-312.04288 -510.61545 -632.01117
-312.40237 -539.60394 -628.06604
-312.52078 -568.21942 -626.76691
-312.75784 -597.08307 -624.16534
-313.16144 -626.32275 -619.73621
-313.84619 -656.22382 -612.22192
-314.90781 -687.07141 -600.57245
-317.13727 -720.76648 -576.10669
-299.69046 959.0097 -438.69144
-299.52063 928.51398 -440.7417
-299.5365 898.60968 -440.55002
-299.69293 869.10962 -438.66199
-301.30807 843.66284 -419.16534
-306.45389 827.42566 -357.04996
-345.16797 897.43683 110.27055
-345.05609 862.6405 108.92037
-345.13715 828.32947 109.89855
-346.44089 796.81409 125.63589
-286.64957 257.98477 -596.10925
-284.6503 227.72047 -620.24231
-284.06586 198.84621 -627.29724
-283.14069 169.88463 -638.4649
-284.4993 142.24969 -622.06512
-285.26822 114.10739 -612.78357
-286.19507 85.85865 -601.59552
-287.59106 57.518444 -584.74432
-287.99582 28.799641 -579.85852
-287.45151 0.00022528545 -586.42871
-286.81073 -28.680954 -594.16394
-286.31442 -57.262833 -600.15491
-285.97 -85.790939 -604.31195
-285.63202 -114.25269 -608.39203
-285.35461 -142.6772 -611.7403
-285.12759 -171.07639 -614.48102
-284.89539 -199.42653 -617.28406
-284.74521 -227.79593 -619.0968
-284.59518 -256.13553 -620.90784
-284.44531 -284.44522 -622.71661
-284.34732 -312.78198 -623.8996
-277.6489 -333.17862 -704.75684
-277.6489 -360.94345 -704.75677
-277.6489 -388.70837 -704.75671
-277.76541 -416.64801 -703.35028
-284.07571 -454.52097 -627.17798
-284.14386 -483.04437 -626.35565
-284.35172 -511.83295 -623.84656
-284.61612 -540.77057 -620.65479
-285.10544 -570.21082 -614.74817
-285.78757 -600.15387 -606.51428
-286.8096 -630.98102 -594.17737
-272.12933 937.33447 -406.3959
-271.98715 906.6239 -408.30286
-271.91333 876.16528 -409.29306
-272.16406 846.73279 -405.93021
-274.42447 823.27362 -375.61285
-309.75177 894.83862 98.207382
-309.57483 859.93011 95.83419
-309.58643 825.56396 95.989487
-310.10916 792.50116 103.00079
-256.51425 256.5144 -615.82983
-255.66422 227.25714 -627.23102
-254.95537 198.29872 -636.73822
-256.25479 170.83675 -619.31012
-257.4231 143.013 -603.64008
-263.1138 116.93958 -527.31494
-275.68774 91.895996 -358.66919
-275.73145 61.273785 -358.08331
-273.84708 30.427523 -383.35712
-271.55261 9.7512486e-05 -414.13107
-269.13843 -29.904087 -446.51083
-266.64737 -59.254856 -479.92188
-264.20303 -88.067589 -512.70557
-262.20493 -116.5354 -539.50482
-260.74896 -144.86043 -559.03284
-259.43219 -172.9547 -576.69379
-258.67603 -201.19226 -586.83588
-258.19919 -229.51022 -593.23108
-257.79147 -257.79135 -598.69952
-257.52737 -286.14148 -602.24139
-257.29788 -314.47519 -605.31946
-251.97916 -335.9722 -676.65601
-249.88306 -360.94205 -704.76959
-249.88306 -388.70691 -704.76953
-249.98132 -416.63535 -703.45172
-256.5322 -456.0571 -615.58936
-256.7384 -484.95023 -612.82373
-257.22079 -514.44159 -606.35321
-257.99869 -544.66382 -595.92017
-259.53912 -576.75342 -575.2597
-244.5724 947.71826 -365.96304
-243.99869 914.9953 -374.61945
-243.8266 883.8714 -377.21606
-243.96022 853.86078 -375.20041
-244.44116 824.98914 -367.94315
-247.5621 804.5769 -320.85168
-274.32986 857.28101 83.04258
-274.32986 822.98987 83.042389
-274.49515 789.17383 85.53643
-228.77512 285.96909 -604.32562
-227.46729 255.90094 -624.05908
-227.22456 227.22467 -627.72137
-226.87108 198.51225 -633.0553
-228.94624 171.7097 -601.74353
-248.01866 155.01183 -313.96283
-260.59421 130.29715 -124.21276
-264.51636 99.193848 -65.032051
-261.81665 65.45443 -105.76746
-257.43567 32.179554 -171.87105
-253.23273 0.00017472413 -235.28877
-249.17116 -31.146193 -296.5733
-245.88214 -61.470451 -346.20056
-244.24004 -91.589798 -370.97806
-242.85431 -121.42704 -391.8869
-241.48325 -150.92686 -412.57465
-240.12854 -180.09631 -433.01556
-238.74434 -208.90121 -453.90158
-237.36354 -237.36349 -474.73618
-236.50195 -266.06467 -487.73648
-235.27681 -294.09586 -506.22256
-233.85287 -321.54767 -527.70813
-232.89557 -349.3432 -542.15271
-222.11911 -360.94345 -704.75677
-222.11911 -388.70837 -704.75671
-222.20479 -416.63373 -703.46442
-230.384 -460.76788 -580.04932
-297.80594 -632.8374 437.26929
-215.6467 924.20026 -337.58133
-215.34598 892.14771 -342.76703
-215.37215 861.48871 -342.3161
-215.45425 831.03802 -340.90009
-216.36256 803.63269 -325.23663
-220.99586 789.271 -245.33833
-239.28024 820.38947 69.964592
-239.42841 786.69354 72.519547
-199.62106 285.17303 -613.93317
-198.85687 255.67314 -627.11157
-198.1351 226.44034 -639.55786
-199.83673 199.83691 -610.21448
-216.56667 185.62868 -321.71692
-238.49234 170.35182 56.377762
-247.1331 141.21919 205.3822
-254.49333 109.0687 332.30527
-258.6496 73.899971 403.9776
-248.34329 35.477859 226.25117
-238.43484 9.7564254e-05 55.386093
-233.7644 -33.394867 -25.152636
-230.72177 -65.920303 -77.620964
-228.21219 -97.805046 -120.89738
-225.82896 -129.04503 -161.99426
-224.01395 -160.0099 -193.29335
-223.18559 -191.30176 -207.57779
-222.65698 -222.65692 -216.69305
-223.69237 -255.64824 -198.83875
-225.23253 -289.58447 -172.27953
-228.03104 -325.75854 -124.02095
-232.19695 -364.88086 -52.182518
-238.22827 -408.39111 51.824139
-194.35423 -360.94345 -704.75677
-194.35423 -388.70837 -704.75671
-194.43213 -416.64017 -703.41357
-186.43806 901.11743 -305.43097
-186.29623 869.38257 -308.28442
-186.31593 838.42181 -307.88858
-186.43886 807.90192 -305.41504
-188.19649 784.15234 -270.05429
-204.47131 817.88544 57.369652
-204.58424 784.23993 59.641739
-170.98364 284.97281 -616.3501
-170.40985 255.61494 -627.8938
-170.60774 227.4771 -623.9129
-171.72105 200.34137 -601.51489
-206.02533 206.02557 88.63385
-214.46797 178.72351 258.48663
-221.22011 147.48029 394.32935
-225.98598 112.9931 490.21124
-233.78409 -350.6759 647.09735
-233.78409 -389.64001 647.09747
-166.58934 -360.94345 -704.75677
-166.58934 -388.70837 -704.75671
-166.65672 -416.64172 -703.40088
-157.10609 911.21552 -263.39844
-156.70529 877.5498 -273.0751
-156.68257 846.08606 -273.62372
-156.72469 814.96844 -272.60693
-157.15047 785.75256 -262.32745
-160.25569 769.22729 -187.36098
-169.93475 781.70013 46.3125
-142.44881 284.89774 -617.25726
-141.55289 254.79538 -638.88617
-142.19073 227.50525 -623.48773
-143.16891 200.43668 -599.87195
-176.71132 212.0537 209.91335
-183.67255 183.67274 377.97198
-188.54301 150.83449 495.55548
-194.82008 -350.6759 647.09735
-194.82008 -389.64001 647.09747
-138.82445 -360.94345 -704.75677
-138.82445 -388.70837 -704.75671
-138.88324 -416.64957 -703.33752
-126.66057 886.62415 -233.95483
-126.55311 854.23364 -237.19753
-126.56128 822.64844 -236.95091
-126.62673 791.41718 -234.97597
-127.73864 766.43188 -201.42114
-135.54021 779.35651 34.012283
-114.03864 285.09674 -614.8551
-113.21964 254.74438 -639.57104
-113.7178 227.43581 -624.53735
-114.40582 200.21027 -603.77435
-142.84311 214.26476 254.39668
-149.02455 186.28088 440.93817
-153.60825 153.60855 579.26343
-155.85606 -350.6759 647.09735
-155.85606 -389.64001 647.09747
-111.05956 -360.94345 -704.75677
-111.05956 -388.70837 -704.75671
-111.1087 -416.65741 -703.27423
-96.085495 896.79822 -190.09354
-95.817307 862.35596 -200.88486
-95.779823 830.09216 -202.39276
-95.824387 798.53662 -200.5997
-96.107285 768.8584 -189.21672
-101.3513 777.02661 21.785711
-102.62316 752.57001 72.961815
-85.601738 285.3392 -611.92755
-84.927483 254.78252 -639.05743
-85.267899 227.38112 -625.36029
-85.707924 199.98523 -607.65479
-106.66464 213.32941 235.5782
-112.02521 186.7088 451.27075
-116.89204 -350.6759 647.09735
-116.89204 -389.64001 647.09747
-83.29467 -360.94345 -704.75677
-83.294357 -388.70691 -704.76953
-83.333084 -416.66541 -703.21069
-64.562256 871.59052 -159.59863
-64.492538 838.4032 -163.80644
-64.481506 806.0188 -164.47258
-64.535599 774.42731 -161.20772
-65.487717 753.1087 -103.74242
-68.199814 750.19818 59.947498
-57.144394 285.72205 -607.30591
-56.635784 254.86125 -638.00372
-56.831848 227.32765 -626.16998
-57.085781 199.80029 -610.84375
-70.800339 212.40106 216.90295
-74.371971 185.93015 432.46988
-77.928032 -350.6759 647.09735
-77.928032 -389.64001 647.09747
-55.529778 -360.94345 -704.75677
-55.529572 -388.70691 -704.76953
-55.556656 -416.67484 -703.13464
-33.745125 1079.844 17.121269
-33.654381 1043.2859 6.1674542
-33.600506 1008.0151 -0.335722
-33.430473 969.48389 -20.860294
-33.435493 936.19391 -20.254282
-32.626064 880.90387 -117.96107
-32.576008 846.97632 -124.00335
-32.562435 814.0611 -125.64198
-32.586266 782.07062 -122.76522
-32.771461 753.74384 -100.40999
-34.063858 749.40497 55.595573
-31.928553 415.07138 -202.15822
-31.929802 383.15781 -202.00751
-31.907196 350.97931 -204.73595
-28.609919 286.09927 -602.75256
-28.346737 255.12076 -634.52161
-28.408342 227.26692 -627.08533
-28.521059 199.64746 -613.47882
-35.246967 211.48195 198.40968
-37.031528 185.15782 413.8251
-38.964016 -350.6759 647.09735
-38.964016 -389.64001 647.09747
-27.764889 -360.94345 -704.75677
-27.764786 -388.70691 -704.76953
-27.778957 -416.6842 -703.05859
-3.7961128e-22 1097.8551 -40.432304
-1.4075373e-21 1063.5128 -44.483955
-6.331492e-22 1029.719 -46.660435
-5.916999e-22 995.86737 -49.215157
-1.4357643e-21 962.34564 -50.572784
-1.6072187e-21 929.00189 -51.260357
-3.8742648e-22 890.19055 -76.44223
-1.5837757e-21 855.12903 -86.153061
-6.7984038e-22 822.14014 -86.632828
-8.9170817e-24 789.61505 -84.819382
-2.0096345e-21 758.33447 -76.31736
-1.2183299e-22 733.60095 -31.117712
-1.5004394e-21 700.25562 -31.117828
-5.2910004e-22 666.91016 -31.117626
-1.7807034e-21 633.56458 -31.117878
-8.0936402e-22 600.21912 -31.117676
-1.1291793e-21 566.87366 -31.117855
-1.4635063e-21 533.92078 -28.155888
-1.145763e-21 502.33051 -13.83291
-1.0183929e-21 467.97775 -21.282413
-1.2674395e-21 415.23199 -200.66679
-9.0441153e-22 383.29099 -200.66672
-3.4649906e-22 350.97931 -204.73595
-9.4524045e-22 286.69547 -595.55548
-1.9162733e-21 255.93355 -623.62073
-1.2083149e-21 227.24394 -627.42987
-1.408437e-21 199.49112 -616.17688
-1.571413e-21 210.56964 180.0558
-1.7718784e-21 184.39192 395.33469
-1.4483253e-21 -350.6759 647.09735
-8.1772105e-22 -389.64001 647.09747
-5.6630802e-22 -360.94345 -704.75677
-1.0045523e-21 -388.70691 -704.76953
-1.0693589e-21 -416.69205 -702.9953
33.205475 1095.781 -48.019844
33.191372 1062.124 -49.722076
33.177284 1028.496 -51.423157
33.162907 994.88733 -53.158527
33.144352 961.1864 -55.397968
33.125969 927.5274 -57.61705
33.109844 893.96588 -59.563637
33.104622 860.7204 -60.193844
33.101936 827.54877 -60.518059
33.106712 794.56128 -59.941807
33.14555 762.34766 -55.253727
33.260048 731.72125 -41.43243
33.260048 698.46112 -41.432457
33.260048 665.20123 -41.432323
33.260048 631.9411 -41.43235
33.260048 598.68109 -41.432339
33.260048 565.4209 -41.432365
33.29834 532.77356 -36.810158
33.366245 500.49374 -28.613111
33.351707 466.92404 -30.368481
31.940908 415.23199 -200.66679
31.940908 383.29099 -200.66672
31.907196 350.97931 -204.73595
28.790552 287.90558 -580.94849
28.45092 256.05838 -621.94556
28.394947 227.15977 -628.70221
28.479597 199.35738 -618.48389
28.814718 172.88847 -578.03143
36.746822 183.73425 379.4581
38.964016 -350.6759 647.09735
38.964016 -389.64001 647.09747
27.764889 -360.94345 -704.75677
27.764786 -388.70691 -704.76953
27.779482 -416.69205 -702.9953
66.521904 1097.6118 -41.323391
66.467735 1063.4838 -44.592693
66.425667 1029.5981 -47.131794
66.399246 995.98901 -48.72636
66.389351 962.64569 -49.324055
66.380653 929.32916 -49.848957
65.63662 886.0946 -94.754929
65.451538 850.87012 -105.92561
65.458244 818.22833 -105.52092
65.485085 785.82098 -103.90098
65.75206 756.1488 -87.787804
66.719162 733.91113 -29.417948
66.719162 700.55139 -29.418049
66.719162 667.19171 -29.417757
66.719162 633.83203 -29.417826
66.719162 600.47253 -29.417793
66.719162 567.11292 -29.417826
66.76889 534.15131 -26.416811
67.051956 502.88998 -9.3317432
67.021378 469.14978 -11.177662
63.881817 415.23199 -200.66679
63.881817 383.29099 -200.66672
63.814392 350.97931 -204.73595
57.985374 289.92697 -556.54828
56.926533 256.16956 -620.45538
56.698727 226.79495 -634.20453
56.927414 199.24597 -620.40192
57.441978 172.3261 -589.34528
73.256561 183.14146 365.14896
76.607498 153.21503 567.39624
77.928032 -350.6759 647.09735
77.928032 -389.64001 647.09747
55.529778 -360.94345 -704.75677
55.529572 -388.70691 -704.76953
55.56086 -416.7063 -702.8811
100.96082 1043.2618 6.0744619
100.86934 1008.6934 2.3929932
100.76188 974.03174 -1.9305223
100.66201 939.51233 -5.9490547
97.165306 874.48798 -146.645
97.007927 840.73535 -152.97806
96.995972 808.29987 -153.45911
97.100243 776.802 -149.26347
98.094719 752.05957 -109.24911
95.822723 415.23199 -200.66679
95.822723 383.29099 -200.66672
95.721596 350.97931 -204.73595
87.61882 292.06287 -530.7663
85.449059 256.34738 -618.07074
84.988396 226.63596 -636.60638
85.337883 199.12198 -622.54401
85.976089 171.95239 -596.86517
109.52061 182.53453 350.49365
114.42025 152.56044 547.6402
116.89204 -350.6759 647.09735
116.89204 -389.64001 647.09747
83.29467 -360.94345 -704.75677
83.294357 -388.70691 -704.76953
83.345695 -416.72836 -702.70367
127.86983 863.12134 -197.46236
127.82644 830.87213 -198.77153
127.84034 799.0022 -198.35199
128.17099 769.02606 -188.37349
131.1783 754.27527 -97.619804
127.76363 415.23199 -200.66679
127.76363 383.29099 -200.66672
127.62878 350.97931 -204.73595
123.04557 307.61404 -343.04684
114.01165 256.52625 -615.66956
113.29253 226.58524 -637.37103
113.73937 199.04396 -623.88629
114.49274 171.73918 -601.15118
145.37585 181.72006 330.8288
151.91048 151.91063 528.02863
155.85606 -350.6759 647.09735
155.85606 -389.64001 647.09747
111.05956 -360.94345 -704.75677
111.05914 -388.70691 -704.76953
111.13306 -416.74893 -702.53864
158.1478 885.62781 -238.25006
157.97231 853.05066 -242.4863
157.9995 821.59747 -241.83029
158.1158 790.5791 -239.02226
159.37608 765.00531 -208.59662
168.56148 775.383 13.158347
159.70454 415.23199 -200.66679
159.70454 383.29099 -200.66672
159.53598 350.97931 -204.73595
155.91507 311.83032 -292.15256
142.60918 256.69672 -613.38538
141.6386 226.62187 -636.81732
142.14066 198.99709 -624.69672
142.94661 171.53598 -605.23889
180.91162 180.91187 311.31708
189.08264 151.2662 508.58331
194.82008 -350.6759 647.09735
194.82008 -389.64001 647.09747
138.82445 -360.94345 -704.75677
138.82445 -388.70837 -704.75671
138.9221 -416.76617 -702.39929
187.78839 907.64398 -278.26492
187.41232 874.591 -285.83069
187.3924 843.26599 -286.23175
187.4753 812.39319 -284.56406
188.0656 783.60687 -272.68759
191.34262 765.37067 -206.75902
202.73428 777.14838 22.423532
191.64545 415.23199 -200.66679
191.64545 383.29099 -200.66672
191.44319 350.97931 -204.73595
189.71201 316.18683 -239.56465
171.36053 257.04099 -608.76758
170.01875 226.69182 -635.76227
170.52853 198.95013 -625.50641
171.33723 171.3374 -609.23669
216.13374 180.11163 291.99957
225.94078 150.62738 489.30215
233.78409 -350.6759 647.09735
233.78409 -389.64001 647.09747
166.58934 -360.94345 -704.75677
166.58934 -388.70837 -704.75671
166.71156 -416.77869 -702.29773
216.33253 896.23499 -325.75446
216.21609 864.86462 -327.76236
216.16249 833.7699 -328.68698
216.35072 803.58862 -325.44052
218.75374 781.26361 -284.00253
236.93527 812.34961 29.527054
237.06198 778.91803 31.711737
223.58635 415.23199 -200.66679
223.58635 383.29099 -200.66672
223.35039 350.97931 -204.73595
220.25848 314.65524 -258.05386
200.11357 257.28903 -605.44043
198.56354 226.92992 -632.16968
198.87686 198.87689 -626.76678
199.74049 171.20631 -611.87427
251.04446 179.31775 272.83115
262.49023 149.99454 470.2066
272.74811 -350.6759 647.09735
272.74811 -389.64001 647.09747
194.35423 -360.94345 -704.75677
194.35423 -388.70837 -704.75671
194.50198 -416.78986 -702.20874
244.60904 917.284 -365.41006
244.34259 885.742 -369.43057
244.34157 855.19568 -369.44598
244.47472 825.10236 -367.43658
246.07672 799.74945 -343.26447
251.4967 785.92737 -261.48309
271.40466 814.21405 38.904575
271.53131 780.65265 40.815681
255.52727 415.23199 -200.66679
255.52727 383.29099 -200.66672
255.25757 350.97931 -204.73595
255.25757 319.07211 -204.73607
229.14261 257.78552 -598.7804
227.47433 227.47446 -623.9527
227.26236 198.85472 -627.15161
228.07904 171.05946 -614.82825
285.65012 178.53156 253.85188
298.78094 149.39066 451.98114
311.71213 -350.6759 647.09735
311.71213 -389.64001 647.09747
222.11911 -360.94345 -704.75677
222.11911 -388.70837 -704.75671
222.29471 -416.80252 -702.1073
272.24026 937.71674 -404.90805
271.93011 906.4339 -409.06805
271.89209 876.09686 -409.57788
272.06549 846.42609 -407.25201
273.17386 819.52179 -392.38657
277.29956 801.08795 -337.05118
306.0199 850.05536 48.154354
306.02982 816.07965 48.287273
306.2027 782.51831 50.606522
299.39737 498.99582 -40.668797
299.15759 465.35626 -43.884724
287.46817 415.23199 -200.66679
287.16602 382.88812 -204.71927
287.16476 350.97931 -204.73595
287.16476 319.07211 -204.73607
258.59506 258.59518 -587.92151
256.01266 227.56708 -622.55737
255.66223 198.8486 -627.25763
256.40286 170.93536 -617.3241
319.95212 177.7514 235.01749
335.02658 148.90091 437.20087
350.67618 -350.6759 647.09735
350.67618 -389.64001 647.09747
249.884 -360.94345 -704.75677
249.88306 -388.70691 -704.76953
250.08533 -416.80875 -702.0567
299.44125 958.21222 -441.69955
298.96603 926.79474 -447.43643
298.88574 896.65741 -448.40543
298.9295 866.89569 -447.87698
299.80423 839.4519 -437.31851
303.59674 819.71143 -391.53864
340.98007 886.54822 59.718273
340.79501 851.98773 57.484261
340.82187 817.9726 57.808697
341.29849 784.98676 63.561665
331.3912 497.08698 -56.029858
331.31647 463.84323 -56.931931
319.40909 415.23199 -200.66679
309.21948 371.06357 -323.6662
319.07196 350.97931 -204.73595
319.07196 319.07211 -204.73607
288.89618 260.00668 -568.98993
284.5654 227.6526 -621.26715
283.6918 198.5844 -631.81262
284.73196 170.83928 -619.25671
287.54828 143.77432 -585.26056
371.03534 148.41418 422.5173
389.64017 -350.6759 647.09735
389.64017 -389.64001 647.09747
277.6489 -360.94345 -704.75677
277.64783 -388.70691 -704.76953
277.87784 -416.81665 -701.9931
325.8248 977.47461 -480.77258
325.42331 946.68604 -485.17859
325.31454 916.79572 -486.37173
325.42459 887.52185 -485.16415
326.12329 859.77972 -477.49704
329.60172 838.98639 -439.32596
377.07153 925.53943 81.593636
375.87189 888.42468 68.429176
375.73383 853.94067 66.913887
375.8107 819.95087 67.75766
376.72 787.68732 77.735786
364.75903 497.39877 -53.51981
364.83972 464.34155 -52.634464
364.92212 431.27182 -51.730572
350.98068 382.88812 -204.71927
350.97916 350.97931 -204.73595
350.97916 319.07211 -204.73607
320.11853 261.91522 -543.39166
313.24036 227.8112 -618.8703
311.82254 198.43271 -634.4292
312.98074 170.71687 -621.7193
315.61624 143.46204 -592.7981
406.80951 147.93091 407.92917
428.60419 -350.6759 647.09735
428.60419 -389.64001 647.09747
305.41379 -360.94345 -704.75677
305.41263 -388.70691 -704.76953
305.67258 -416.82605 -701.91705
351.83768 996.87366 -517.06158
351.36792 966.2619 -521.78723
351.13837 936.36932 -524.09601
351.19855 907.263 -523.49109
351.96973 879.9245 -515.73328
355.40079 858.88544 -481.21942
411.6485 926.20935 84.588737
410.96152 890.41687 77.677864
410.87338 855.98639 76.791557
410.99789 821.99603 78.044266
413.74863 793.01843 105.71444
400.46225 500.578 -27.93626
400.74442 467.53537 -25.097874
402.01822 435.51974 -12.284416
382.88803 382.88812 -204.71927
382.88638 350.97931 -204.73595
382.88638 319.07211 -204.73607
351.80261 263.85202 -517.41455
341.92484 227.95009 -616.77716
340.09525 198.3891 -635.1817
341.28418 170.6423 -623.22198
343.73804 143.22433 -598.53778
442.35138 147.45062 393.43622
467.56818 -350.6759 647.09735
467.56818 -389.64001 647.09747
333.17868 -360.94345 -704.75677
333.17743 -388.70691 -704.76953
333.46725 -416.83389 -701.85376
377.21759 1015.5858 -553.64557
376.86478 985.64642 -556.92133
376.69235 956.2193 -558.52234
376.72952 927.33435 -558.17749
377.48746 900.1626 -551.13959
380.9097 879.02264 -519.36255
446.61575 927.58661 90.746735
446.23178 892.46375 87.181488
446.18173 858.04193 86.716812
446.38611 824.09772 88.614647
414.79535 382.88812 -204.71927
414.14243 350.42828 -210.7822
414.79355 319.07211 -204.73607
383.95874 265.81772 -491.05069
370.62558 228.07753 -614.8551
368.50192 198.4243 -634.57434
369.63721 170.60193 -624.03247
371.90143 143.03905 -603.00806
477.66327 146.97339 379.03665
497.94614 114.91078 567.37201
506.53223 -350.6759 647.09735
506.53223 -389.64001 647.09747
360.94354 -360.94345 -704.75677
360.9422 -388.70691 -704.76953
361.26443 -416.84344 -701.77747
402.30621 1034.5017 -587.51453
401.66046 1004.1512 -593.08234
401.55853 975.21368 -593.96112
401.70752 946.88226 -592.67645
402.62589 920.28784 -584.75787
406.25516 899.56525 -553.46558
481.9964 929.56445 99.589554
481.66458 894.51996 96.728661
481.65329 860.09521 96.631401
481.94446 826.19049 99.141762
446.104 382.37494 -209.88142
445.79462 350.26733 -212.54901
446.70078 319.07211 -204.73607
416.59766 267.81277 -464.29086
399.65326 228.37332 -610.38843
396.97073 198.4855 -633.51776
397.93994 170.54585 -625.16119
399.97342 142.84775 -607.62793
512.74731 146.49934 364.73013
533.95844 114.41981 547.61633
548.9054 -313.6601 676.49194
545.49622 -350.6759 647.09735
545.61487 -389.72476 648.1203
388.707 -360.94205 -704.76959
388.707 -388.70691 -704.76953
389.0643 -416.8544 -701.68866
413.39078 1240.1725 -729.56366
417.81876 1225.6018 -693.92981
426.77045 1052.7004 -621.89233
426.21579 1022.918 -626.35583
425.96375 993.91553 -628.38428
426.07242 965.76428 -627.50958
427.49393 940.48682 -616.06995
431.65527 920.86475 -582.58215
519.48492 969.70538 124.21649
517.51367 931.52478 108.35299
517.27802 896.6153 106.45661
517.34607 862.24353 107.00397
518.50964 829.61548 116.36794
479.11362 351.35013 -200.66692
478.60794 319.07211 -204.73607
461.08688 276.65231 -345.73474
428.56796 228.5697 -607.42676
425.7843 198.6994 -629.82794
426.20425 170.48181 -626.44849
428.21326 142.73788 -610.28131
547.53235 146.00882 349.92422
569.66132 113.93242 528.00476
589.27344 -196.42426 685.83081
585.71838 -234.28719 657.22235
584.46027 -272.74783 647.09735
584.45715 -311.71042 647.07251
584.46027 -350.6759 647.09735
416.47177 -360.94205 -704.76959
416.47177 -388.70691 -704.76953
416.86877 -416.86865 -701.57452
440.5766 1266.658 -732.38177
440.5766 1239.1219 -732.38171
440.80792 1212.2219 -730.63666
447.33383 1202.21 -681.40234
450.44183 1069.7996 -657.95416
450.10202 1040.8611 -660.51794
450.05893 1012.6328 -660.84302
450.08307 984.55688 -660.66089
452.30341 961.14496 -643.90967
456.69513 941.9339 -610.77667
554.04938 969.58649 123.70415
553.21228 933.54596 117.38891
553.1264 898.83063 116.741
553.29828 864.52856 118.03733
498.56213 280.44141 -294.91489
457.85681 228.92847 -602.0127
454.89938 199.01871 -624.32477
454.56339 170.4613 -626.85962
456.33875 142.60599 -613.46564
581.42859 145.35727 330.26453
605.46649 113.52513 511.61661
626.2843 -78.285309 668.67456
623.42426 -116.89188 647.09729
623.42426 -155.85599 647.09741
623.42426 -194.81992 647.09729
623.42426 -233.78403 647.09741
623.42426 -272.74783 647.09735
623.5069 -311.75333 647.72113
444.23657 -360.94205 -704.76959
444.23657 -388.70691 -704.76953
444.6752 -416.88278 -701.46027
468.1846 1294.3928 -731.87073
468.11264 1266.658 -732.38177
468.11264 1239.1219 -732.38171
468.64487 1212.9634 -728.60229
473.91245 1198.7197 -691.1994
473.961 1170.9625 -690.85468
473.90167 1142.9396 -691.27588
473.88547 1115.0248 -691.39099
473.78482 1086.9183 -692.10577
473.63568 1058.7151 -693.16479
473.54947 1030.6666 -693.77679
473.94482 1003.6481 -690.96948
476.96039 981.97748 -669.55719
481.90753 963.81537 -634.4292
589.61407 971.12927 130.35483
589.14398 935.69952 127.01698
589.16064 901.06927 127.13531
589.44983 866.83813 129.18875
537.07587 284.33441 -242.69969
487.3689 229.35022 -595.65002
483.48218 199.08107 -623.24854
482.94742 170.45218 -627.04529
484.47995 142.49432 -616.16345
615.02069 144.71086 310.758
641.17133 113.14806 496.44345
667.68616 78.551514 684.71527
662.56403 38.974518 648.34509
662.38831 0.00015274576 647.09741
662.38831 -38.963783 647.09729
662.38831 -77.927902 647.09735
662.38831 -116.89188 647.09729
662.38831 -155.85599 647.09741
662.52881 -194.86127 648.0954
662.81366 -233.93414 650.1178
472.00131 -360.94205 -704.76959
472.00131 -388.70691 -704.76953
472.48349 -416.89706 -701.34613
495.64868 1266.658 -732.38177
495.64868 1239.1219 -732.38171
496.1694 1212.8586 -728.88953
498.34412 1190.4889 -714.30566
498.34412 1162.803 -714.30585
498.32343 1135.0703 -714.44415
498.2446 1107.2102 -714.97321
498.24835 1079.5383 -714.94781
498.22397 1051.8062 -715.11163
498.86487 1025.4446 -710.81329
502.07928 1004.1587 -689.25732
508.5928 988.9306 -645.5766
628.04211 1011.8458 155.46869
625.58496 973.13232 138.9903
625.28619 937.92944 136.98666
625.41333 903.37482 137.83948
628.21521 872.52118 156.62903
576.67639 288.33838 -188.9975
518.17102 230.29845 -581.34344
512.09674 199.14888 -622.07855
511.0004 170.33354 -629.43073
512.66058 142.40578 -618.2973
519.09857 115.35534 -575.12299
676.63971 112.77354 481.3707
701.35236 77.9282 647.09741
701.35236 38.964088 647.09753
701.35236 0.00015274576 647.09741
701.43787 -38.968597 647.67133
701.68719 -77.96508 649.34363
499.76611 -360.94205 -704.76959
499.76611 -388.70691 -704.76953
500.70853 -417.25696 -698.44946
527.62665 1194.1027 -704.16138
527.6745 1166.4385 -703.8573
527.7124 1138.748 -703.61639
527.9859 1111.5493 -701.87909
528.20764 1084.2158 -700.47003
528.29559 1056.5914 -699.91113
529.26715 1030.6783 -693.73871
662.57782 1011.303 153.20924
661.86145 975.37488 148.65854
661.7171 940.3349 147.74144
661.95874 905.83856 149.27655
550.95892 231.98286 -555.9267
540.91522 199.28468 -619.73615
538.9436 170.19292 -632.26233
540.73505 142.29881 -620.8811
545.79694 114.90477 -588.72168
711.8739 112.40137 466.39755
740.60303 77.958321 648.91925
741.62219 39.03294 655.39423
531.92963 -335.95554 -676.82349
527.53088 -360.94205 -704.76959
527.53088 -388.70691 -704.76953
529.32538 -417.8884 -693.36877
698.80042 1013.2608 161.35777
698.35199 977.69293 158.6516
698.36194 942.78864 158.71165
700.51288 910.66681 171.69392
584.22998 233.69223 -530.13562
569.69354 199.39291 -617.87085
567.18646 170.15613 -633.0025
568.91486 142.22893 -622.57056
573.33044 114.66632 -595.92023
746.87646 112.03161 451.52292
561.18134 -308.6496 -669.24677
555.29779 -333.17862 -704.75684
555.29565 -360.94205 -704.76959
555.35028 -388.74509 -704.44019
736.69763 1052.4253 178.35643
735.37726 1015.5211 170.7666
735.15997 980.2135 169.51791
735.38428 945.49432 170.80713
617.995 235.42674 -503.9613
598.50079 199.50046 -616.01666
595.66302 170.18968 -632.32843
597.18719 142.18755 -623.56757
601.15015 114.505 -600.78784
781.65344 111.66489 436.76834
589.16162 -224.44234 -669.69952
586.15527 -251.2092 -686.9801
583.06268 -277.64874 -704.7569
583.06049 -305.41263 -704.76953
583.06049 -333.17731 -704.76935
583.06268 -360.94345 -704.75677
583.46185 -388.97433 -702.46271
772.80072 1053.8195 183.96526
772.25793 1017.9766 180.98682
772.20624 982.80804 180.70366
652.26501 237.18744 -477.39603
627.66803 199.71269 -612.35565
624.22076 170.24213 -631.27051
625.38983 142.13425 -624.85602
628.82562 114.332 -606.00427
816.1994 111.30013 422.08755
615.30182 -139.84122 -680.2074
611.65515 -166.81491 -700.21606
610.82526 -194.35339 -704.76959
610.82526 -222.11813 -704.76947
610.82526 -249.883 -704.76935
610.82526 -277.64771 -704.76959
610.82526 -305.41263 -704.76953
610.82758 -333.17862 -704.75684
611.09778 -361.10321 -703.27405
810.80475 1269.0858 199.06328
810.67242 1233.6322 198.36908
816.76611 1207.3934 230.34999
815.61481 1170.2302 224.30821
813.41602 1131.7095 212.76804
810.21375 1092.0273 195.96133
809.68188 1056.1071 193.16988
809.50726 1020.6832 192.25371
809.82544 985.87463 193.92363
687.05145 238.97447 -450.42996
656.76208 199.88437 -609.39746
653.3186 170.43118 -627.46979
653.57135 142.08087 -626.14343
656.854 114.23554 -608.91486
850.52039 110.93768 407.50229
645.13672 -28.049292 -670.41052
641.19757 -55.756069 -691.08453
638.59003 -83.294189 -704.76965
638.59003 -111.05905 -704.76959
638.59247 -138.82436 -704.75684
638.59003 -166.58868 -704.76941
638.59003 -194.35339 -704.76959
638.59003 -222.11813 -704.76947
638.59003 -249.883 -704.76935
638.64313 -277.67072 -704.49084
638.79523 -305.51068 -703.69244
639.6828 -333.74753 -699.03424
837.8233 1291.6445 157.6501
837.1828 1255.7743 154.42851
836.85693 1220.4166 152.78993
847.43976 1200.5398 206.01721
847.41937 1165.2019 205.91489
847.3786 1129.8384 205.71001
847.20355 1094.3049 204.82941
847.14661 1058.9335 204.54262
847.17505 1023.67 204.6859
722.36603 240.78882 -423.05447
686.14111 200.12454 -605.25244
682.20911 170.55241 -625.02863
678.56744 141.36838 -643.34497
684.77661 114.12958 -612.11505
676.11615 84.514755 -655.67371
670.85016 55.904408 -682.15991
666.83618 27.784946 -702.34827
666.35486 0.00014761326 -704.76965
666.35486 -27.764559 -704.76953
666.35486 -55.529453 -704.76947
666.35486 -83.294189 -704.76965
666.35486 -111.05905 -704.76959
666.35486 -138.82379 -704.76947
666.35486 -166.58868 -704.76941
666.47827 -194.38925 -704.1488
666.64703 -222.21561 -703.29938
667.20459 -250.20161 -700.49536
869.39447 1251.9281 141.53221
873.12677 1222.3774 159.55342
885.11932 1203.7626 217.45898
758.22107 242.6308 -395.26044
716.03998 200.49123 -598.92865
696.66046 167.19868 -692.50134
694.12225 138.82466 -704.75696
694.12225 111.05978 -704.7569
694.11963 83.29451 -704.76965
694.11963 55.529747 -704.76953
694.11963 27.764881 -704.76947
694.11963 0.00014761326 -704.76965
694.11963 -27.764559 -704.76953
694.11963 -55.529453 -704.76947
694.18518 -83.302071 -704.4527
694.40045 -111.10394 -703.41364
694.58685 -138.9173 -702.51331
912.06696 1262.8623 178.1946
911.91028 1227.5715 177.46703
798.6391 245.73517 -348.41879
737.29968 198.50388 -633.20081
721.88708 166.58936 -704.75671
721.8844 138.82408 -704.76953
721.88708 111.05978 -704.7569
721.8844 83.29451 -704.76965
721.8844 55.529747 -704.76953
721.8844 27.764881 -704.76947
722.13818 0.00014297785 -703.59119
722.41132 -27.785015 -702.32294
723.88708 -55.683567 -695.47174
840.70667 249.09848 -297.67279
750.52283 194.58009 -700.86371
749.73138 166.60703 -704.4021
749.64923 138.82408 -704.76953
749.73706 111.07236 -704.37695
750.06879 83.341087 -702.89386
750.40356 55.585522 -701.39667
883.93787 252.55385 -245.53479
814.99237 203.74817 -542.76532
797.31433 170.85324 -618.97699
794.57019 141.88776 -630.80743
796.62268 113.80344 -621.9588
803.39307 86.07795 -592.77106
850.99109 205.41174 -514.07861
826.23505 170.94533 -617.12384
823.11938 141.91724 -630.09259
824.76367 113.76073 -623.24854
830.69385 85.933945 -598.5647
912.88403 213.0065 -383.11383
855.41925 171.08408 -614.33417
852.20087 142.03363 -627.28406
852.88354 113.71793 -624.53717
857.93677 85.793732 -604.20447
