# .PCD v0.7 - Point Cloud Data file format
VERSION 0.7
FIELDS x y z
SIZE 4 4 4
TYPE F F F
COUNT 1 1 1
WIDTH 1485
HEIGHT 1
VIEWPOINT 0 0 0 1 0 0 0
POINTS 1485
DATA ascii
-1324.9258 -30.81201 -336.91074
-1320.9478 -61.439247 -348.07788
-1321.7603 -92.215706 -345.797
-1325.2148 -123.2756 -336.0994
-1328.4025 -154.46527 -327.15085
-1333.303 -186.0421 -313.39435
-1338.5684 -217.90628 -298.61255
-1343.8701 -250.02222 -283.72968
-1349.2197 -282.39471 -268.7121
-1354.6121 -315.02591 -253.57472
-1360.0476 -347.91913 -238.31561
-1363.2522 -380.44232 -229.3194
-1366.4071 -413.0997 -220.46317
-1369.5765 -445.90863 -211.56578
-1372.7667 -478.87186 -202.61044
-1375.9657 -511.98721 -193.62985
-1379.6857 -545.45691 -183.18723
-1385.5436 -579.99487 -166.74287
-1406.043 -621.27472 -109.19622
-1300.6051 0.00024480559 -318.25363
-1292.8717 -30.782455 -340.47974
-1291.6107 -61.505161 -344.10394
-1294.3741 -92.455154 -336.16168
-1297.4875 -123.57009 -327.21359
-1300.6873 -154.84354 -318.01721
-1305.8121 -186.54456 -303.2879
-1310.9832 -218.49702 -288.42621
-1316.1953 -250.70375 -273.44614
-1321.4491 -283.16757 -258.34644
-1326.7391 -315.8902 -243.14227
-1330.9514 -348.58246 -231.03622
-1334.0532 -381.15796 -222.12163
-1337.1461 -413.87833 -213.23209
-1340.2535 -446.75098 -204.30113
-1343.3755 -479.77676 -195.32854
-1346.5121 -512.95685 -186.31424
-1349.6692 -546.29462 -177.24037
-1352.8706 -579.80164 -168.03891
-1357.2626 -613.99963 -155.41615
-1366.4716 -650.7005 -128.94933
-1276.6124 31.137033 -297.72046
-1265.9774 0.00024308826 -329.03174
-1262.417 -30.79047 -339.51398
-1263.3225 -61.625401 -336.84818
-1266.5737 -92.675934 -327.27625
-1269.6276 -123.86607 -318.28503
-1273.1427 -155.26111 -307.93607
-1278.178 -187.05043 -293.11093
-1283.2534 -219.09193 -278.1684
-1288.3693 -251.3891 -263.10645
-1293.5205 -283.94348 -247.94049
-1298.6682 -316.7482 -232.78444
-1301.7103 -349.2392 -223.82834
-1304.7383 -381.87457 -214.91333
-1307.7748 -414.66013 -205.97372
-1310.8197 -447.59695 -197.00873
-1313.8789 -480.68719 -188.00224
-1316.9523 -513.9325 -178.95346
-1320.0402 -547.3335 -169.86238
-1322.9972 -580.828 -161.15613
-1325.6815 -614.34015 -153.25299
-1329.3267 -648.45184 -142.52124
-1335.5038 -684.03839 -124.33463
-1350.613 -724.71906 -79.850899
-1241.2405 31.031124 -310.50098
-1234.0781 0.00017176174 -332.11536
-1232.9907 -30.824739 -335.39679
-1235.6609 -61.782898 -327.33884
-1238.6401 -92.897858 -318.34821
-1241.6339 -124.16332 -309.3139
-1245.4543 -155.68178 -297.78424
-1250.3937 -187.55898 -282.87863
-1255.3669 -219.68903 -267.87079
-1260.3853 -252.07693 -252.72639
-1265.4438 -284.72476 -237.4608
-1269.3798 -317.34476 -225.58344
-1272.3588 -349.89865 -216.59323
-1275.3186 -382.5954 -207.66133
-1278.2866 -415.44293 -198.7045
-1281.2684 -448.44376 -189.70572
-1284.2699 -481.60114 -180.64815
-1287.2799 -514.91174 -171.56491
-1290.304 -548.37903 -162.43889
-1292.9836 -581.84253 -154.35199
-1295.6176 -615.41803 -146.40388
-1298.2563 -649.12805 -138.44043
-1301.2861 -683.17517 -129.29723
-1306.0635 -718.33478 -114.88032
-1315.4003 -756.3551 -86.703873
-1217.3571 62.428745 -288.37814
-1206.845 30.944935 -320.91455
-1203.6154 0.00018953212 -330.91055
-1204.597 -30.887037 -327.87192
-1207.6538 -61.930962 -318.41107
-1210.5725 -93.120834 -309.37711
-1213.5105 -124.4625 -300.28363
-1217.6157 -156.10448 -287.57736
-1222.4525 -188.0696 -272.60684
-1227.3331 -220.29039 -257.50064
-1232.2529 -252.7697 -242.27312
-1237.0789 -285.47949 -227.33656
-1239.9807 -317.94351 -218.35489
-1242.8961 -350.56027 -209.33096
-1245.7875 -383.31912 -200.38188
-1248.6924 -416.23068 -191.39091
-1251.6107 -449.29602 -182.35794
-1254.5427 -482.51636 -173.28297
-1257.4886 -515.89264 -164.16515
-1260.2931 -549.35846 -155.48486
-1262.8707 -582.86322 -147.50679
-1265.4421 -616.49731 -139.54787
-1268.0297 -650.27148 -131.53926
-1270.6221 -684.18103 -123.51506
-1273.2308 -718.2326 -115.44086
-1276.868 -753.02454 -104.18289
-1283.7393 -789.99335 -82.915527
-1296.7368 -831.24158 -42.6861
-1181.1392 62.165367 -304.27252
-1175.0192 30.921721 -323.71326
-1174.1099 0.00013779086 -326.6019
-1176.6685 -30.96489 -318.47409
-1179.5122 -62.07946 -309.44061
-1182.3749 -93.345291 -300.34729
-1185.2463 -124.76263 -291.22577
-1189.6204 -156.52887 -277.33118
-1194.364 -188.58359 -262.2627
-1199.1456 -220.8952 -247.07338
-1203.9604 -253.46529 -231.77864
-1207.6322 -286.01794 -220.11481
-1210.4703 -318.54474 -211.09898
-1213.3114 -351.22153 -202.07439
-1216.1392 -384.04382 -193.09157
-1218.9856 -417.02124 -184.0498
-1221.84 -450.15146 -174.98248
-1224.7079 -483.43719 -165.87241
-1227.5891 -516.87958 -156.71986
-1230.137 -550.32416 -148.62645
-1232.6465 -583.88495 -140.65485
-1235.1661 -617.58289 -132.65059
-1237.6907 -651.41614 -124.63107
-1240.2311 -685.39075 -116.56116
-1242.7765 -719.50208 -108.47574
-1245.3378 -753.7569 -100.33936
-1248.0101 -788.21674 -91.85051
-1252.4222 -823.96179 -77.83506
-1260.902 -862.72235 -50.898281
-1157.8557 93.880257 -278.82816
-1147.4543 62.024658 -312.76212
-1144.5505 30.933929 -322.23578
-1145.5876 2.5238454e-05 -318.85223
-1148.453 -31.039097 -309.50403
-1151.2402 -62.229084 -300.41086
-1154.0361 -93.57029 -291.28967
-1156.8701 -125.06686 -282.04379
-1161.4773 -156.95624 -267.01276
-1166.1215 -189.10072 -251.86163
-1170.7977 -221.50212 -236.60558
-1175.3135 -254.12181 -221.87294
-1178.0745 -286.55859 -212.86555
-1180.8484 -319.1481 -203.8159
-1183.6199 -351.8869 -194.7737
-1186.3838 -384.77298 -185.75659
-1189.1606 -417.81308 -176.69728
-1191.9504 -451.00824 -167.59566
-1194.7588 -484.36145 -158.43393
-1197.4061 -517.79718 -149.79691
-1199.8693 -551.2912 -141.76106
-1202.3213 -584.91284 -133.76151
-1204.7781 -618.66974 -125.7463
-1207.2501 -652.56763 -117.68118
-1209.7272 -686.60168 -109.60021
-1212.2196 -720.77911 -101.46863
-1214.717 -755.09418 -93.320999
-1216.8488 -789.30725 -86.366196
-1218.9989 -823.64783 -79.351654
-1221.7933 -858.55731 -70.234787
-1227.4431 -895.7016 -51.802826
-1121.0277 93.419235 -297.38608
-1115.6979 61.983433 -315.25748
-1114.9501 30.97089 -317.76495
-1117.3949 0.0001449259 -309.56735
-1120.1019 -31.113688 -300.49048
-1122.8269 -62.379059 -291.35355
-1125.5603 -93.796516 -282.18839
-1128.673 -125.40804 -271.75098
-1133.1754 -157.38522 -256.65424
-1137.7188 -189.61972 -241.41983
-1142.2987 -222.11349 -226.06311
-1145.7083 -254.60173 -214.63058
-1148.4047 -287.1011 -205.58893
-1151.1139 -319.75369 -196.50493
-1153.8158 -352.55481 -187.4453
-1156.5153 -385.50488 -178.39406
-1159.2273 -418.60965 -169.30026
-1161.9521 -451.87021 -160.16351
-1164.6897 -485.28729 -150.98386
-1167.0952 -518.70886 -142.91843
-1169.495 -552.26147 -134.8714
-1171.8892 -585.9444 -126.8438
-1174.2881 -619.76294 -118.80036
-1176.6967 -653.72015 -110.72414
-1179.1204 -687.82013 -102.59689
-1181.549 -722.05756 -94.45385
-1183.7755 -756.30084 -86.988152
-1185.8668 -790.57782 -79.975769
-1187.9656 -824.97601 -72.93837
-1190.0718 -859.49628 -65.876038
-1192.1639 -894.12286 -58.860901
-1195.9918 -930.21576 -46.025913
-1204.2533 -970.09283 -18.324455
-1098.3616 125.52707 -268.16199
-1087.8085 93.240921 -304.55823
-1085.2098 62.012127 -313.52057
-1086.2919 31.037083 -309.78882
-1088.9695 0.0001130796 -300.55405
-1091.6187 -31.188982 -291.41736
-1094.276 -62.530025 -282.25238
-1096.9464 -94.023926 -273.04263
-1100.3169 -125.75025 -261.41846
-1104.7229 -157.81744 -246.22252
-1109.1644 -190.14224 -230.9043
-1113.3717 -222.6743 -216.3938
-1115.9908 -255.08353 -207.3605
-1118.6224 -287.64554 -198.28496
-1121.2664 -320.36169 -189.16617
-1123.8933 -353.22351 -180.10593
-1126.5278 -386.23798 -171.02003
-1129.1796 -419.40952 -161.87456
-1131.8389 -452.73547 -152.70302
-1134.3354 -486.14365 -144.0923
-1136.6724 -519.62134 -136.03307
-1139.0137 -553.23511 -127.95785
-1141.3446 -586.97705 -119.91898
-1143.6901 -620.86011 -111.82987
-1146.04 -654.87982 -103.72484
-1148.3997 -689.03973 -95.586517
-1150.7434 -723.3244 -87.503403
-1152.7452 -757.51813 -80.599617
-1154.785 -791.85248 -73.56459
-1156.8322 -826.30859 -66.504456
-1158.8916 -860.89081 -59.401505
-1160.9532 -895.59241 -52.290874
-1163.0223 -930.41772 -45.155224
-1165.4789 -965.68231 -36.682613
-1170.0187 -1002.873 -21.025522
-1060.9385 124.8164 -289.61035
-1056.1028 93.185677 -306.77893
-1055.5137 62.089226 -308.87051
-1057.8381 31.113091 -300.61774
-1060.4115 0.00012037929 -291.48141
-1062.9929 -31.264347 -282.31689
-1065.5869 -62.6814 -273.10739
-1068.1981 -94.25267 -263.83658
-1071.8102 -126.09523 -251.0128
-1076.1139 -158.25186 -235.73328
-1080.4476 -190.66713 -220.34691
-1083.6069 -223.09538 -209.13065
-1086.1609 -255.56709 -200.06335
-1088.7269 -288.19238 -190.95285
-1091.3051 -320.97189 -181.79953
-1093.8621 -353.89639 -172.72173
-1096.4309 -386.9754 -163.60129
-1099.012 -420.21024 -154.43787
-1101.5955 -453.59805 -145.2657
-1103.869 -487.00079 -137.19383
-1106.1471 -520.53955 -129.106
-1108.4198 -554.20984 -121.03688
-1110.697 -588.01587 -112.95242
-1112.9786 -621.95856 -104.852
-1115.2745 -656.04364 -96.700752
-1117.575 -690.26678 -88.533325
-1119.6591 -724.48505 -81.134346
-1121.6147 -758.73926 -74.190544
-1123.6028 -793.13129 -67.132629
-1125.5978 -827.64532 -60.049759
-1127.605 -862.28607 -52.923748
-1129.6143 -897.04645 -45.790192
-1131.6306 -931.93103 -38.631165
-1133.3148 -966.6507 -32.65202
-1133.5771 -1000.215 -31.720499
-1136.1088 -1035.8638 -22.732367
-1037.7125 157.22926 -260.42737
-1027.8964 124.59358 -296.33414
-1025.5917 93.235619 -304.76447
-1026.7079 62.224926 -300.6814
-1029.2056 31.188225 -291.54535
-1031.7109 0.00016227615 -282.38101
-1034.2285 -31.340055 -273.17181
-1036.7628 -62.834045 -263.90137
-1039.3052 -94.482178 -254.60175
-1043.1467 -126.44182 -240.55003
-1047.3423 -158.68819 -225.20262
-1051.2527 -191.13667 -210.89897
-1053.7292 -223.5181 -201.83997
-1056.2175 -256.05249 -192.73808
-1058.7177 -288.74103 -183.59297
-1061.2202 -321.58176 -174.4386
-1063.7161 -354.57187 -165.30913
-1066.219 -387.71582 -156.15401
-1068.7336 -421.01605 -146.95547
-1071.0804 -454.39755 -138.37122
-1073.2902 -487.85901 -130.28822
-1075.5138 -521.46106 -122.15432
-1077.7227 -555.19031 -114.07426
-1079.9359 -589.05585 -105.97841
-1082.1631 -623.06348 -97.831848
-1084.3947 -657.20874 -89.669266
-1086.5865 -691.46411 -81.651009
-1088.4697 -725.64636 -74.762741
-1090.384 -759.96442 -67.76059
-1092.3197 -794.41425 -60.679878
-1094.2672 -828.99023 -53.556057
-1096.2168 -863.68591 -46.424751
-1098.1732 -898.50537 -39.268047
-1100.1417 -933.45355 -32.067616
-1101.2212 -967.73981 -28.119024
-1101.2212 -1001.1102 -28.11904
-1101.3613 -1034.6121 -27.606661
-1102.9146 -1069.4929 -21.924856
-1111.0526 -1111.0525 7.8432231
-1009.9543 189.36655 -246.51704
-1000.6002 156.34383 -281.80267
-996.24951 124.5314 -298.21436
-995.78955 93.355415 -299.94949
-997.99628 62.374954 -291.62534
-1000.4299 31.263554 -282.4451
-1002.8711 3.7121059e-05 -273.23627
-1005.3243 -31.416204 -263.98257
-1007.7938 -62.98698 -254.66699
-1010.2712 -94.712921 -245.32176
-1014.3207 -126.79 -230.04602
-1018.4161 -159.12744 -214.59711
-1021.3275 -191.49881 -203.61493
-1023.7382 -223.94258 -194.5215
-1026.1603 -256.53998 -185.38486
-1028.5938 -289.29187 -176.20522
-1031.0253 -322.19519 -167.03284
-1033.4502 -355.24832 -157.88565
-1035.8866 -388.45728 -148.69516
-1038.3114 -421.814 -139.54784
-1040.453 -455.19794 -131.46988
-1042.6079 -488.72226 -123.34092
-1044.7672 -522.38348 -115.19545
-1046.9121 -556.17188 -107.10454
-1049.0706 -590.10217 -98.962387
-1051.2332 -624.16962 -90.804298
-1053.4095 -658.38074 -82.595047
-1055.3484 -692.5722 -75.280968
-1057.1851 -726.8147 -68.352501
-1059.052 -761.19342 -61.310078
-1060.9352 -795.70129 -54.206371
-1062.8298 -830.33569 -47.059368
-1064.7266 -865.09021 -39.904755
-1066.6348 -899.97284 -32.706768
-1068.3993 -934.84924 -26.050493
-1069.0552 -968.83105 -23.576241
-1069.0552 -1002.2391 -23.576229
-1069.0503 -1035.6425 -23.594402
-1069.0698 -1069.0697 -23.52103
-1070.0723 -1103.5118 -19.739565
-1074.1843 -1141.3207 -4.2278299
-976.10358 188.92348 -255.43275
-967.72095 156.08417 -288.07404
-965.69788 124.60631 -295.95145
-966.79248 93.560654 -291.68927
-969.14996 62.525963 -282.5094
-971.51483 31.339287 -273.30084
-973.89124 0.00016495246 -264.04727
-976.28351 -31.49291 -254.73219
-978.68335 -63.140755 -245.38721
-981.38257 -94.97245 -234.87701
-985.3399 -127.1404 -219.46744
-988.95557 -159.50879 -205.38835
-991.28876 -191.8623 -196.30321
-993.63293 -224.36862 -187.17511
-995.98828 -257.02914 -178.00377
-998.3548 -289.84473 -168.78905
-1000.715 -322.8111 -159.5986
-1003.0731 -355.92905 -150.41631
-1005.4423 -389.20343 -141.19069
-1007.6355 -422.55676 -132.6505
-1009.7219 -456.00339 -124.52648
-1011.8124 -489.58661 -116.38615
-1013.9072 -523.30682 -108.22973
-1015.9969 -557.15955 -100.09227
-1018.0908 -591.14935 -91.939171
-1020.1979 -625.28241 -83.734238
-1022.2357 -659.50665 -75.799316
-1024.0145 -693.68719 -68.872551
-1025.7949 -727.9834 -61.939907
-1027.6187 -762.42657 -54.838394
-1029.4535 -796.99615 -47.693581
-1031.2903 -831.68561 -40.541374
-1033.1337 -866.49908 -33.363956
-1034.9883 -901.44128 -26.142019
-1036.4816 -936.17676 -20.327486
-1036.8165 -969.92505 -19.022963
-1036.8165 -1003.3708 -19.022898
-1036.8118 -1036.8116 -19.041334
-1036.8118 -1070.2572 -19.041491
-1036.8071 -1103.6978 -19.05965
-1037.3076 -1137.6921 -17.110598
-1040.1075 -1174.3149 -6.2079277
-948.97662 221.42795 -237.88826
-940.01117 188.00241 -273.96243
-936.13812 156.02312 -289.54651
-935.79633 124.77298 -290.92197
-937.87109 93.787231 -282.57367
-940.15955 62.677402 -273.36542
-942.45923 31.415419 -264.1123
-944.77423 0.0001546569 -254.79727
-947.09668 -31.56967 -245.45297
-949.43042 -63.295334 -236.06238
-952.34741 -95.234528 -224.32535
-956.19427 -127.49244 -208.84691
-958.86932 -159.8114 -198.08345
-961.1358 -192.22704 -188.96373
-963.41302 -224.79634 -179.80086
-965.70099 -257.52008 -170.59454
-968 -290.39987 -161.3443
-970.2843 -323.42798 -152.15314
-972.57935 -356.61221 -142.91846
-974.84216 -389.93665 -133.81342
-976.85571 -423.30408 -125.71156
-978.88196 -456.81146 -117.5588
-980.91217 -490.45602 -109.38933
-982.94214 -524.23566 -101.22151
-984.96735 -558.14795 -93.073067
-987.00531 -592.20294 -84.872856
-989.04724 -626.39636 -76.656677
-990.8526 -660.5683 -69.392387
-992.5752 -694.80255 -62.461418
-994.31262 -729.16248 -55.470364
-996.08777 -763.66718 -48.327675
-997.86475 -798.29169 -41.177887
-999.64801 -833.03986 -34.002342
-1001.4423 -867.91663 -26.782913
-1003.0695 -902.76233 -20.235796
-1004.473 -937.50812 -14.588326
-1004.505 -971.02124 -14.459554
-1004.505 -1004.5048 -14.459526
-1004.5004 -1037.9835 -14.477999
-1004.5004 -1071.467 -14.477913
-1004.4958 -1104.9452 -14.496421
-1004.4958 -1138.4285 -14.496206
-1004.9539 -1172.446 -12.653336
-1010.7566 -1212.9076 10.694767
-914.65027 220.77783 -249.10147
-907.50854 187.76044 -278.82809
-905.599 156.13789 -286.77643
-906.59326 125.04752 -282.63782
-908.80542 94.014389 -273.42993
-911.02838 62.829666 -264.17722
-913.26611 31.491949 -254.86241
-915.51105 9.1992268e-05 -245.51842
-917.76691 -31.647009 -236.12817
-920.03796 -63.450726 -226.67509
-923.14764 -95.497894 -213.73149
-926.47968 -127.79009 -199.86197
-928.66858 -160.11511 -190.7507
-930.86792 -192.59328 -181.59631
-933.07764 -225.22543 -172.39857
-935.29785 -258.01306 -163.15692
-937.52863 -290.95703 -153.87115
-939.74121 -324.04858 -144.6618
-941.96417 -357.29651 -135.4091
-944.00934 -390.62451 -126.89584
-945.96686 -424.05396 -118.74787
-947.92822 -457.62051 -110.58355
-949.90204 -491.32852 -102.36774
-951.86279 -525.16559 -94.206161
-953.83173 -559.1427 -86.010735
-955.8045 -593.25781 -77.799171
-957.69928 -627.45789 -69.912285
-959.36401 -661.63019 -62.983044
-961.03882 -695.92456 -56.01178
-962.72821 -730.3454 -48.979874
-964.44977 -764.9082 -41.814194
-966.17303 -799.59131 -34.640995
-967.90253 -834.39856 -27.441975
-969.64258 -869.33472 -20.198936
-971.01263 -904.04614 -14.496161
-972.12036 -938.59888 -9.8856106
-972.12036 -972.12018 -9.8856192
-972.11591 -1005.6371 -9.9039717
-972.11591 -1039.1582 -9.9041491
-972.11591 -1072.6794 -9.9040995
-972.11145 -1106.1957 -9.9224491
-972.18689 -1139.8052 -9.6087332
-974.67761 -1176.3348 0.75892186
-888.60034 253.88599 -225.43446
-879.79797 219.94968 -263.38239
-876.2226 187.76205 -278.79596
-875.7973 156.39253 -280.62967
-877.56836 125.3671 -272.99435
-879.59851 94.24292 -264.242
-881.75531 62.982697 -254.94411
-883.92651 31.568863 -245.58376
-886.10455 3.1843334e-05 -236.194
-888.29333 -31.724489 -226.7579
-890.49689 -63.606815 -217.25822
-893.78973 -95.763069 -203.06247
-896.23138 -128.03293 -192.53606
-898.35291 -160.41994 -183.39012
-900.4845 -192.9608 -174.20078
-902.62616 -225.6564 -164.96782
-904.77808 -258.5079 -155.69083
-906.93628 -291.51505 -146.38672
-909.08063 -324.67148 -137.14189
-911.18274 -357.96451 -128.07967
-913.07159 -391.31625 -119.93662
-914.96423 -424.80472 -111.77699
-916.86877 -458.4342 -103.56635
-918.77728 -492.20193 -95.338951
-920.67712 -526.10126 -87.148048
-922.58075 -560.13812 -78.941452
-924.49646 -594.31897 -70.682701
-926.16156 -628.46655 -63.504471
-927.7782 -662.69849 -56.535061
-929.39624 -697.04706 -49.559143
-931.04529 -731.5354 -42.450062
-932.70874 -766.15332 -35.279182
-934.37799 -800.89532 -28.082417
-936.05756 -835.7655 -20.841898
-937.55511 -870.58673 -14.385913
-938.86456 -905.33356 -8.7405987
-939.66229 -939.66211 -5.3014388
-939.66229 -973.22162 -5.3013258
-939.65802 -1006.7764 -5.3197536
-939.65802 -1040.3356 -5.3198042
-939.65369 -1073.8899 -5.3383508
-939.65369 -1107.449 -5.3383374
-940.53448 -1142.0774 -1.5412747
-954.03577 -1192.5446 56.663769
-853.61218 252.92224 -239.9751
-847.4342 219.70531 -267.59549
-845.82971 187.9624 -274.76898
-846.60229 156.77841 -271.31488
-848.46735 125.69893 -262.97672
-850.45361 94.495049 -254.09657
-852.41626 63.142086 -245.3219
-854.44324 31.646244 -236.25999
-856.55377 9.9051249e-05 -226.82396
-858.67853 -31.802692 -217.32475
-860.81012 -63.763546 -207.79509
-863.82422 -95.980309 -194.31967
-865.86804 -128.2766 -185.18211
-867.92157 -160.726 -176.00143
-869.9848 -193.32988 -166.77696
-872.05798 -226.08896 -157.50841
-874.14478 -259.00577 -148.17847
-876.22235 -292.07385 -138.89053
-878.2981 -325.29556 -129.61015
-880.19623 -358.59833 -121.12425
-882.0202 -392.00882 -112.96976
-883.85565 -425.55988 -104.76399
-885.69476 -459.24896 -96.541679
-887.54156 -493.07852 -88.284714
-889.37622 -527.03766 -80.082642
-891.22235 -561.13995 -71.82869
-892.96771 -595.31165 -64.025772
-894.52625 -629.48132 -57.058205
-896.08618 -663.7674 -50.084084
-897.65558 -698.17627 -43.067707
-899.25494 -732.72595 -35.917259
-900.86414 -767.40271 -28.722775
-902.47913 -802.20355 -21.502726
-904.09155 -837.1217 -14.293719
-905.35846 -871.82654 -8.6298141
-906.62476 -906.62463 -2.9683976
-907.13068 -940.72797 -0.70670736
-907.13068 -974.3255 -0.70673364
-907.12646 -1007.9182 -0.72531998
-907.12646 -1041.5156 -0.72522402
-907.12231 -1075.1079 -0.74385148
-907.34229 -1108.9738 0.23943715
-910.75018 -1146.8705 15.475379
-828.45728 286.77386 -209.98177
-819.63007 252.19388 -250.9637
-816.49072 219.82471 -265.53882
-816.15582 188.34372 -267.0936
-817.59869 157.23074 -260.39499
-819.41205 126.06348 -251.97589
-821.20526 94.754585 -243.65065
-823.06311 63.312679 -235.02539
-824.97565 31.729866 -226.14575
-826.86133 0.00017354843 -217.39133
-828.91382 -31.881172 -207.86179
-831.19366 -63.937813 -197.27765
-833.41321 -96.162956 -186.97249
-835.38885 -128.52121 -177.80028
-837.37384 -161.0332 -168.58455
-839.36835 -193.70024 -159.32468
-841.37231 -226.52304 -150.02071
-843.38965 -259.50439 -140.65472
-845.39423 -292.63638 -131.34813
-847.34064 -325.90009 -122.31147
-849.09979 -359.23434 -114.14429
-850.86237 -392.70557 -105.96104
-852.63617 -426.31802 -97.725807
-854.41357 -460.0686 -89.474098
-856.19061 -493.95615 -81.223335
-857.96747 -527.97992 -72.974197
-859.7478 -562.14258 -64.708633
-861.28302 -596.27271 -57.581112
-862.78473 -630.4964 -50.608791
-864.29559 -664.84277 -43.594147
-865.81183 -699.30945 -36.554996
-867.3609 -733.92065 -29.36293
-868.91553 -768.65588 -22.145327
-870.47974 -803.51971 -14.883075
-871.84656 -838.31384 -8.5374002
-873.06604 -873.06598 -2.8757355
-874.29285 -907.91937 2.8204041
-874.52509 -941.79608 3.898154
-874.52509 -975.43176 3.8982224
-874.52106 -1009.0627 3.8797247
-874.52106 -1042.6981 3.8796556
-874.51709 -1076.3286 3.8610587
-875.7641 -1111.5466 9.6506882
-792.87939 285.43674 -227.91527
-787.77124 252.08694 -252.57976
-786.25018 220.15019 -259.9238
-787.06219 188.89511 -256.00287
-788.59991 157.72005 -248.5782
-790.20148 126.43231 -240.8454
-791.94263 95.033302 -232.43845
-793.68457 63.494976 -224.02721
-795.39984 31.816252 -215.74535
-797.25751 0.00012152311 -206.77585
-799.08551 -31.963268 -197.9492
-800.9884 -64.078896 -188.76147
-802.88629 -96.346283 -179.59756
-804.79315 -128.76683 -170.39014
-806.70917 -161.34169 -161.13922
-808.63428 -194.07207 -151.84367
-810.57214 -226.96008 -142.48666
-812.51581 -260.00507 -133.10185
-814.44714 -293.20084 -123.77692
-816.19537 -326.47803 -115.33561
-817.88916 -359.87103 -107.15733
-819.59369 -393.40475 -98.927155
-821.30164 -427.07678 -90.680237
-823.02039 -460.89133 -82.381386
-824.73163 -494.83878 -74.119133
-826.44617 -528.92535 -65.840286
-828.04474 -563.07031 -58.121937
-829.492 -597.23407 -51.133705
-830.94446 -631.5177 -44.120667
-832.39813 -665.91852 -37.101501
-833.86829 -700.44928 -30.003065
-835.36273 -735.11902 -22.787556
-836.86249 -769.91327 -15.54606
-838.33698 -804.80341 -8.4263935
-839.50964 -839.50958 -2.7644486
-840.68555 -874.31268 2.9131546
-841.84546 -909.19299 8.5137415
-841.84546 -942.86664 8.5137024
-841.84155 -976.53607 8.4951591
-841.84155 -1010.2097 8.495121
-841.83771 -1043.8787 8.47649
-842.17743 -1077.9868 10.116652
-846.41974 -1117.2739 30.600477
-761.73975 380.87003 -225.02057
-769.88904 320.78729 -184.03273
-759.7702 284.91403 -234.92656
-757.05267 252.35103 -248.59447
-756.71802 220.70947 -250.27776
-758.03564 189.509 -243.65062
-759.49207 158.22765 -236.32571
-760.98352 126.83076 -228.82407
-762.54022 95.317696 -220.99423
-764.19281 63.682793 -212.68231
-765.87915 31.911802 -204.20082
-767.5329 0.00011601739 -195.88332
-769.25751 -32.052227 -187.20905
-770.79437 -64.23278 -179.47881
-772.29688 -96.537041 -171.92204
-774.08038 -129.01332 -162.95166
-775.92676 -161.65121 -153.66525
-777.78204 -194.44537 -144.33395
-779.64954 -227.39774 -134.9408
-781.51923 -260.5062 -125.53745
-783.31085 -293.74142 -116.52615
-784.93591 -327.05646 -108.35265
-786.57123 -360.51166 -100.12764
-788.2099 -394.10474 -91.885986
-789.85895 -427.84015 -83.591949
-791.51135 -461.71475 -75.28096
-793.15997 -495.7247 -66.989189
-794.80829 -529.87207 -58.698643
-796.20807 -563.98053 -51.658081
-797.60199 -598.20154 -44.647053
-798.99725 -632.53931 -37.629684
-800.40094 -667.00067 -30.569504
-801.82056 -701.5929 -23.429388
-803.25983 -736.32141 -16.190241
-804.70801 -771.17834 -8.9067326
-805.95135 -805.95117 -2.6534176
-807.0802 -840.7085 3.0246933
-808.21234 -875.56329 8.7188473
-809.09131 -910.2276 13.139655
-809.09131 -943.93988 13.139805
-809.08759 -977.64746 13.121032
-809.08759 -1011.3594 13.121024
-809.08392 -1045.0667 13.102444
-811.0528 -1081.4036 23.005117
-727.8183 411.37564 -236.47366
-719.40802 375.34338 -280.61343
-727.21368 347.798 -239.64674
-733.98352 319.12338 -204.117
-728.80719 285.18552 -231.28374
-727.14801 252.92119 -239.99168
-727.73053 221.4834 -236.93439
-728.86688 190.13943 -230.97035
-730.23401 158.74667 -223.79541
-731.64429 127.24252 -216.39375
-733.0791 95.619125 -208.86359
-734.58984 63.87748 -200.93504
-736.17084 32.007439 -192.63698
-737.78448 5.3080643e-05 -184.16789
-739.25647 -32.141426 -176.44275
-740.60449 -64.400208 -169.36824
-742.05829 -96.790054 -161.73772
-743.51471 -129.30679 -154.09451
-745.026 -161.96205 -146.16249
-746.81415 -194.82082 -136.77815
-748.60754 -227.83701 -127.36592
-750.40277 -261.00946 -117.9436
-752.00592 -294.26309 -109.52995
-753.56885 -327.63846 -101.32744
-755.13824 -361.15298 -93.090591
-756.71759 -394.80914 -84.801628
-758.30017 -428.60434 -76.496017
-759.89276 -462.54324 -68.137352
-761.47156 -496.61172 -59.851784
-762.9328 -530.73578 -52.182343
-764.26489 -564.89124 -45.191566
-765.60504 -599.16901 -38.157883
-766.94989 -633.5672 -31.09935
-768.29608 -668.0835 -24.03455
-769.66797 -702.74005 -16.834629
-771.05176 -737.52783 -9.57166
-772.38763 -772.38757 -2.5606639
-773.46954 -807.09851 3.1176279
-774.55811 -841.91089 8.830596
-775.64612 -876.81732 14.540945
-776.2627 -911.26477 17.776251
-776.2627 -945.01538 17.776424
-776.25903 -978.76129 17.757645
-776.25903 -1012.5117 17.757538
-776.97302 -1047.2244 21.504417
-782.49268 -1088.6854 50.473499
-680.23993 401.96005 -323.90186
-678.95111 370.3371 -330.97308
-686.38177 343.19104 -290.20248
-702.7428 319.42868 -200.43216
-699.40967 286.12225 -218.72009
-698.18597 253.88599 -225.43446
-698.91364 222.38184 -221.44194
-699.82458 190.86139 -216.4436
-700.92322 159.30084 -210.41527
-702.1413 127.66231 -203.73221
-703.50439 95.932587 -196.25293
-704.88208 64.080254 -188.69391
-706.34845 32.106934 -180.64819
-707.87061 0.00019692723 -172.29642
-709.11603 -32.232487 -165.4628
-710.3877 -64.580566 -158.48532
-711.6922 -97.048676 -151.32797
-713.06122 -129.64737 -143.81615
-714.4671 -162.37874 -136.10226
-715.86584 -195.23598 -128.42766
-717.44525 -228.27795 -119.76171
-719.09235 -261.48798 -110.72409
-720.58643 -294.7851 -102.52656
-722.0899 -328.22253 -94.276871
-723.59644 -361.79816 -86.010727
-725.11261 -395.51572 -77.692307
-726.63171 -429.37314 -69.356651
-728.15405 -463.37064 -61.004204
-729.66632 -497.4996 -52.706749
-730.94012 -531.59271 -45.717438
-732.22162 -565.80743 -38.685883
-733.50439 -600.13983 -31.647419
-734.79498 -634.59558 -24.566309
-736.09015 -669.17285 -17.459957
-737.41003 -703.89136 -10.217903
-738.74146 -738.74133 -2.9126906
-739.86084 -773.49084 3.2291293
-740.89862 -808.25305 8.9238462
-741.93945 -843.11279 14.634155
-742.98657 -878.07495 20.379745
-743.35907 -912.30408 22.423338
-743.35565 -946.08881 22.404623
-743.35565 -979.87775 22.404762
-743.47876 -1013.8345 23.080145
-745.90814 -1051.0522 36.40979
-635.98407 393.70456 -400.55786
-639.67596 365.52921 -379.33643
-646.3465 338.56259 -340.99338
-672.8009 320.3815 -188.93001
-670.96039 287.5546 -199.50966
-670.50256 255.4296 -202.14133
-670.29565 223.43199 -203.33026
-670.88446 191.68149 -199.94589
-671.62048 159.9097 -195.71509
-672.6806 128.12982 -189.6216
-673.74994 96.250038 -183.47464
-675.06787 64.292419 -175.89958
-676.39679 32.209488 -168.26047
-677.66248 6.3850443e-05 -160.98508
-678.87616 -32.327278 -154.0085
-680.06122 -64.767654 -147.19658
-681.25348 -97.321793 -140.34349
-682.50732 -130.00121 -133.13673
-683.8111 -162.81197 -125.64191
-685.15045 -195.75708 -117.94347
-686.49805 -228.83253 -110.19744
-687.66077 -261.96588 -103.51344
-689.05829 -295.31052 -95.480453
-690.49554 -328.80719 -87.219223
-691.94183 -362.44562 -78.905617
-693.39111 -396.22339 -70.575165
-694.84949 -430.14484 -62.191662
-696.30469 -464.20297 -53.827072
-697.62402 -498.30283 -46.243427
-698.84705 -532.45477 -39.213444
-700.07111 -566.72412 -32.177139
-701.3028 -601.11664 -25.097672
-702.5387 -635.63013 -17.993406
-703.77905 -670.26556 -10.864093
-705.04626 -705.0462 -3.5797057
-706.25018 -739.88098 3.340471
-707.24091 -774.59711 9.035533
-708.23444 -809.41064 14.746282
-709.23077 -844.32233 20.473427
-710.22986 -879.33221 26.216547
-710.38031 -913.34595 27.081074
-710.37708 -947.16925 27.062223
-710.37708 -980.99664 27.062298
-711.42859 -1016.3265 33.106953
-596.33032 387.61478 -457.10355
-601.48871 360.89337 -425.96979
-608.0202 334.41113 -386.54892
-643.57227 321.78632 -171.97314
-642.87109 289.29211 -176.20518
-642.36798 256.9473 -179.24161
-642.1911 224.76701 -180.30936
-642.08167 192.62471 -180.96997
-642.54218 160.63565 -178.19044
-643.2229 128.64471 -174.08174
-644.12811 96.619331 -168.61845
-645.15479 64.515526 -162.42183
-646.30701 32.315544 -155.46764
-647.37488 0.00019479064 -149.02251
-648.44635 -32.422207 -142.55577
-649.61035 -64.960762 -135.53046
-650.74683 -97.611946 -128.67107
-651.8468 -130.36931 -122.0321
-653.04913 -163.26218 -114.77504
-654.30261 -196.29063 -107.20995
-655.46143 -229.41132 -100.21592
-656.55096 -262.62021 -93.639725
-657.64423 -295.93976 -87.041542
-658.79126 -329.39554 -80.118332
-660.17065 -363.0936 -71.793053
-661.5589 -396.93512 -63.414577
-662.94989 -430.91736 -55.019028
-664.31677 -465.02158 -46.769207
-665.48114 -499.11081 -39.741203
-666.64673 -533.3172 -32.706715
-667.81934 -567.64624 -25.629189
-668.9931 -602.09363 -18.545122
-670.17395 -636.66522 -11.417449
-671.36523 -671.36517 -4.2276607
-672.57916 -706.20801 3.0989954
-673.57825 -740.93591 9.1286173
-674.52753 -775.70648 14.858508
-675.47644 -810.57166 20.585897
-676.42804 -845.53503 26.329237
-677.32617 -880.52386 31.749435
-677.32617 -914.3902 31.749563
-677.323 -948.25226 31.730803
-677.64484 -982.58484 33.672737
-680.83514 -1021.2526 52.928253
-573.29419 422.42743 -414.02643
-558.65045 382.23471 -507.06091
-564.21466 356.34625 -471.71063
-571.09863 330.63626 -427.97525
-615.07935 323.72601 -148.55743
-614.34564 291.00598 -153.21867
-613.91602 258.49103 -155.94803
-613.55444 226.04643 -158.24539
-613.55713 193.7549 -158.22826
-613.53827 161.45761 -158.34837
-613.93225 129.24902 -155.84525
-614.5296 97.031166 -152.05013
-615.26642 64.765091 -147.36891
-616.09473 32.426102 -142.10651
-616.94977 0.00020395356 -136.6741
-617.97681 -32.525066 -130.14908
-619.00452 -65.158211 -123.62
-620.06323 -97.904617 -116.89389
-621.15594 -130.76955 -109.95142
-622.20813 -163.73883 -103.26676
-623.31122 -196.83492 -96.258629
-624.31488 -230.01053 -89.882225
-625.32178 -263.29327 -83.485001
-626.3291 -296.68204 -77.085167
-627.37634 -330.198 -70.431702
-628.42993 -363.8277 -63.738194
-629.60919 -397.64767 -56.246391
-630.93829 -431.69458 -47.802273
-632.12408 -465.77548 -40.268772
-633.23108 -499.91919 -33.235924
-634.34479 -534.18488 -26.160313
-635.45953 -568.56885 -19.078157
-636.58112 -603.07666 -11.952578
-637.70667 -637.70648 -4.8016572
-638.84491 -672.46826 2.4303007
-639.91693 -707.27643 9.2406483
-640.81592 -741.99725 14.952031
-641.71741 -776.81561 20.679451
-642.62445 -811.73602 26.441957
-643.53107 -846.75134 32.202045
-644.19635 -881.53168 36.428577
-644.19635 -915.43683 36.428822
-644.19342 -949.33752 36.409927
-645.55499 -985.32068 45.060268
-530.48138 412.59668 -498.78833
-522.62122 377.44882 -551.49969
-527.81134 351.8743 -516.69427
-534.88025 326.87131 -469.28909
-586.17059 325.65039 -125.32823
-585.44135 292.72073 -130.21863
-584.91309 259.96155 -133.76151
-584.65704 227.36674 -135.47841
-584.42706 194.80908 -137.02051
-584.59497 162.3877 -135.89441
-584.65704 129.92397 -135.47853
-585.03467 97.505867 -132.94563
-585.42059 65.046867 -130.35765
-585.82263 32.545906 -127.66191
-586.53979 0.00019141634 -122.85242
-587.34222 -32.630039 -117.47113
-588.29071 -65.365417 -111.1104
-589.2738 -98.212135 -104.5174
-590.26025 -131.16876 -97.902695
-591.27899 -164.244 -91.070572
-592.17401 -197.39124 -85.068466
-593.0238 -230.62021 -79.369461
-593.9668 -263.9852 -73.045647
-594.92883 -297.46432 -66.594254
-595.87787 -331.04303 -60.22995
-596.85419 -364.7442 -53.68243
-597.86072 -398.57367 -46.932392
-598.84082 -432.49594 -40.359699
-599.82422 -466.52982 -33.765247
-600.87903 -500.73239 -26.69136
-601.93481 -535.05298 -19.611151
-602.99707 -569.49713 -12.487339
-604.06036 -604.06012 -5.3569784
-605.13013 -638.74823 1.8171901
-606.2204 -673.578 9.1286087
-607.10547 -708.28961 15.064214
-607.95959 -743.06158 20.792145
-608.81616 -777.93164 26.536116
-609.67505 -812.8999 32.296089
-610.53925 -847.97107 38.091667
-610.9906 -882.54193 41.118465
-610.98779 -916.48151 41.099571
-611.37762 -951.03174 43.713943
-615.39514 -991.46973 70.655792
-490.0578 403.57721 -576.55731
-487.5592 372.83948 -594.29913
-492.26566 347.48178 -560.88
-557.85645 360.96609 -95.144112
-556.86145 327.56564 -102.20911
-556.16711 294.44153 -107.13969
-555.52386 261.42303 -111.70687
-555.18555 228.60599 -114.10925
-555.08929 195.91402 -114.79255
-554.98322 163.23048 -115.5458
-555.20776 130.63715 -113.95154
-555.42261 98.015961 -112.42635
-555.5412 65.35804 -111.58421
-555.71918 32.689388 -110.32021
-556.08044 0.00018410046 -107.75524
-556.69519 -32.746658 -103.39005
-557.44312 -65.581459 -98.079262
-558.32532 -98.52784 -91.814873
-559.25543 -131.58929 -85.210892
-560.15338 -164.75093 -78.834366
-560.9082 -197.96751 -73.475098
-561.69781 -231.28719 -67.868439
-562.50232 -264.70682 -62.155796
-563.36505 -298.25198 -56.02964
-564.27631 -331.92697 -49.559284
-565.1803 -365.7048 -43.140266
-566.08459 -399.58911 -36.718925
-566.89404 -433.50699 -30.971615
-567.67487 -467.49677 -25.427654
-568.46033 -501.58243 -19.849964
-569.42194 -535.92633 -13.021958
-570.4259 -570.42584 -5.8934474
-571.43591 -605.0498 1.2788428
-572.44965 -639.79639 8.4764862
-573.39056 -674.57697 15.157578
-574.19989 -709.30566 20.904512
-575.00891 -744.12903 26.648798
-575.82019 -779.05072 32.409409
-576.63373 -814.07098 38.186127
-577.44958 -849.19049 43.979275
-577.70868 -883.55444 45.819138
-577.70599 -917.5329 45.799973
-579.55853 -954.56677 58.954075
-538.61072 504.9476 7.2285962
-452.44617 395.89056 -642.83246
-453.32214 368.3244 -636.22394
-457.552 343.16418 -604.31201
-528.26709 363.18381 -70.808105
-527.31671 329.57312 -77.977844
-526.37213 296.08441 -85.104065
-525.88464 262.94257 -88.781944
-525.32532 229.82994 -93.002121
-525.15863 196.93465 -94.259193
-525.18683 164.12105 -94.046951
-525.21265 131.30324 -93.852142
-525.31592 98.49678 -93.072891
-525.46619 65.683411 -91.939072
-525.57666 32.848625 -91.105873
-525.75769 4.1537842e-05 -89.740105
-526.03766 -32.877239 -87.62767
-526.57263 -65.821434 -83.59185
-527.25049 -98.85936 -78.477333
-528.08905 -132.02209 -72.151115
-528.79944 -165.24976 -66.791649
-529.52368 -198.57124 -61.327961
-530.24023 -231.97995 -55.921516
-530.95642 -265.47803 -50.518452
-531.71539 -299.08972 -44.792278
-532.53448 -332.83395 -38.612858
-533.3609 -366.68558 -32.377991
-534.16809 -400.62582 -26.288584
-534.86322 -434.57617 -21.043936
-535.54559 -468.60226 -15.895736
-536.27374 -502.75638 -10.40259
-537.01855 -537.01837 -4.7831516
-537.76794 -571.37823 0.87025923
-538.70203 -606.03967 7.9175506
-539.66418 -640.85114 15.17622
-540.43585 -675.54474 20.99815
-541.19727 -710.32129 26.742849
-541.96338 -745.19952 32.522533
-542.72913 -780.17297 38.299633
-543.49701 -815.24542 44.092995
-544.26709 -850.41736 49.902981
-544.35034 -884.56915 50.530327
-545.02423 -919.72833 55.614918
-554.89685 -971.06927 130.09772
-508.85318 542.77692 38.658813
-504.73938 504.7395 5.5533824
-417.4025 389.57593 -697.27948
-419.81805 363.84241 -677.84064
-423.79147 339.03333 -645.86493
-498.33441 365.44547 -45.989758
-497.40994 331.60675 -53.429665
-496.50894 297.90543 -60.679882
-495.70486 264.37601 -67.150536
-495.31943 231.14928 -70.252769
-494.83673 197.93492 -74.136932
-494.82782 164.94278 -74.208374
-494.83899 131.95721 -74.11908
-494.9101 98.982124 -73.546661
-494.97458 65.996742 -73.028008
-495.17249 33.011658 -71.434769
-495.30157 0.00017014997 -70.395973
-495.47977 -33.031937 -68.962158
-495.71158 -66.094604 -67.096886
-496.15573 -99.231033 -63.522449
-496.69244 -132.45119 -59.203125
-497.31787 -165.77245 -54.170383
-497.95386 -199.18146 -49.052265
-498.62305 -232.69069 -43.666832
-499.30539 -266.29614 -38.17606
-499.96686 -299.98001 -32.852631
-500.65973 -333.77289 -27.277332
-501.4343 -367.71832 -21.043756
-502.07626 -401.66077 -15.877545
-502.7016 -435.67456 -10.84544
-503.35831 -469.80103 -5.5603633
-504.00757 -504.00745 -0.3358165
-504.6423 -538.28497 4.7721558
-505.34119 -572.71997 10.396506
-506.04901 -607.25867 16.092375
-506.67261 -641.7851 21.110577
-507.38651 -676.51508 26.855558
-508.10239 -711.34314 32.616638
-508.82028 -746.26965 38.394245
-509.5426 -781.29852 44.206711
-510.26462 -816.42322 50.016983
-510.91522 -851.52509 55.252544
-511.00287 -885.73816 55.957958
-513.18036 -923.72449 73.480995
-476.13013 544.14886 49.009338
-393.8815 422.01599 -660.15369
-384.3075 384.30765 -742.70288
-387.11807 359.4668 -718.4693
-390.74347 334.92313 -687.21069
-468.03302 367.7403 -20.805006
-467.13806 333.6702 -28.521612
-466.28244 299.75314 -35.898865
-465.4342 265.96265 -43.213062
-464.83044 232.41547 -48.418457
-464.46521 199.05676 -51.567791
-464.16125 165.77205 -54.188461
-464.15079 132.61467 -54.27869
-464.14032 99.458855 -54.369053
-464.26392 66.323547 -53.303085
-464.32468 33.16608 -52.778942
-464.51974 0.00016730382 -51.097473
-464.70651 -33.193184 -49.48666
-464.88507 -66.411903 -47.947449
-465.09949 -99.66394 -46.098473
-465.33521 -132.95271 -44.066284
-465.79251 -166.35439 -40.123207
-466.24442 -199.81888 -36.227097
-466.83908 -233.41943 -31.099581
-467.45868 -267.11914 -25.757431
-468.09268 -300.91666 -20.290909
-468.71774 -334.79828 -14.901565
-469.28662 -368.72507 -9.9964132
-469.85046 -402.72891 -5.1347957
-470.4415 -436.83841 -0.038886316
-471.02536 -471.02515 4.9952488
-471.61285 -505.29944 10.060802
-472.22568 -539.68634 15.344539
-472.82266 -574.14172 20.492207
-473.41684 -608.67865 25.615091
-473.92297 -643.18109 29.978941
-474.43231 -677.76031 34.370861
-474.91208 -712.36798 38.50742
-475.58411 -747.34625 44.301544
-476.258 -782.42377 50.112152
-476.936 -817.60443 55.958214
-477.40314 -852.50549 59.985687
-478.349 -888.36243 68.141487
-445.86511 583.05457 83.776909
-442.79935 544.98395 55.309666
-358.40106 413.53992 -728.36505
-352.29691 379.39682 -785.04474
-355.36703 355.36722 -756.53699
-358.54639 330.96597 -727.01562
-437.35263 370.06787 4.734817
-436.50708 335.77487 -3.1166284
-435.68268 301.6265 -10.771632
-434.88116 267.61942 -18.214146
-434.08456 233.73804 -25.610811
-433.66272 200.15218 -29.527559
-433.41278 166.69742 -31.848522
-433.19852 133.29201 -33.838264
-433.14548 99.956886 -34.330921
-433.15329 66.639061 -34.257721
-433.2771 33.329144 -33.108192
-433.36166 0.00019993485 -32.323372
-433.55054 -33.349922 -30.569458
-433.76123 -66.732285 -28.613258
-433.93466 -100.13866 -27.002626
-434.09637 -133.5679 -25.500935
-434.29184 -167.03526 -23.686152
-434.59418 -200.58183 -20.878508
-435.00198 -234.23164 -17.092123
-435.44824 -267.96802 -12.948153
-436.0228 -301.86172 -7.6132917
-436.5929 -335.84052 -2.319931
-437.07043 -369.8287 2.1143365
-437.55304 -403.89496 6.5955272
-438.02869 -438.02838 11.011875
-438.55768 -472.29282 15.924264
-439.10617 -506.66092 21.017029
-439.64587 -541.10248 26.028444
-440.19708 -575.64227 31.146606
-440.6622 -610.14758 35.465714
-441.08145 -644.65747 39.358635
-441.50153 -679.23297 43.258839
-441.97556 -713.96051 47.660599
-442.4137 -748.69995 51.729065
-442.87946 -783.55573 56.053406
-443.50879 -818.78534 61.897358
-444.03253 -853.90869 66.76075
-446.62408 -893.24799 90.824356
-411.47366 582.9212 82.830078
-409.72379 546.29846 65.227631
-323.54294 404.42877 -801.68494
-321.63416 375.24005 -820.88562
-324.41449 351.4491 -792.91779
-327.90424 327.90433 -757.8136
-406.71631 372.82343 34.974854
-405.55814 337.96518 23.324234
-404.70352 303.52783 14.727692
-403.94876 269.29941 7.1354318
-403.20236 235.20149 -0.37284592
-402.58734 201.29391 -6.5594602
-402.36319 167.65158 -8.8145189
-402.1521 134.05084 -10.937933
-401.95773 100.48952 -12.892926
-401.82947 66.971825 -14.183204
-401.8533 33.48806 -13.943683
-401.96872 0.00011347872 -12.782338
-402.08057 -33.506618 -11.657417
-402.23651 -67.039375 -10.088595
-402.36499 -100.59109 -8.7959213
-402.61124 -134.2036 -6.3190231
-402.77496 -167.82275 -4.6721263
-402.95172 -201.47565 -2.8942366
-403.18576 -235.19157 -0.53976536
-403.49026 -268.99344 2.5230546
-403.84329 -302.88232 6.074275
-404.25443 -336.87851 10.20989
-404.72397 -370.99689 14.9333
-405.13132 -405.13113 19.030645
-405.55814 -439.35443 23.324041
-406.00266 -473.66968 27.795797
-406.44254 -508.05298 32.22068
-406.93411 -542.57867 37.165302
-407.40424 -577.15588 41.894745
-407.78873 -611.68304 45.76223
-408.14175 -646.22437 49.313515
-408.5314 -680.8855 53.233021
-408.918 -715.6062 57.121609
-409.30908 -750.39978 61.055893
-409.7276 -785.31104 65.26593
-410.11646 -820.23285 69.177635
-411.32199 -856.92065 81.304176
-378.6192 619.55878 98.576942
-376.93964 582.54333 80.146263
-376.6041 547.78809 76.464142
-291.82455 397.94269 -853.88086
-292.09671 371.75961 -850.89447
-294.24194 347.74054 -827.35327
-376.21835 410.42017 72.231499
-375.6203 375.62039 65.668282
-374.54263 340.4935 53.842346
-373.47113 305.56741 42.084236
-372.62561 271.00064 32.805145
-371.99606 236.72496 25.896973
-371.5343 202.65523 20.829359
-371.08386 168.67467 15.886846
-370.75867 134.82144 12.318172
-370.56485 101.06331 10.191174
-370.38989 67.343903 8.2714386
-370.22021 33.656525 6.4092693
-370.23547 0.00014798196 6.5769253
-370.33728 -33.667019 7.6941705
-370.38651 -67.342834 8.2342424
-370.52408 -101.05187 9.743741
-370.64304 -134.77917 11.049367
-370.86246 -168.57359 13.45717
-371.12646 -202.43253 16.354343
-371.28506 -236.27216 18.094601
-371.50354 -270.18436 20.492208
-371.73596 -304.14755 23.042725
-371.96011 -338.14539 25.502203
-372.25653 -372.25641 28.755424
-372.5809 -406.45178 32.31501
-372.99881 -440.81662 36.900909
-373.32449 -475.14017 40.474976
-373.71298 -509.60843 44.737705
-374.1178 -544.17133 49.180485
-374.42987 -578.66425 52.604652
-374.76324 -613.24884 56.263325
-375.11813 -647.93134 60.157745
-375.44229 -682.62213 63.714806
-375.75827 -717.35651 67.182381
-376.11679 -752.23358 71.116882
-376.47253 -787.16962 75.020149
-377.04166 -822.63605 81.265549
-380.31912 -864.36151 117.232
-343.47989 618.26379 89.893578
-342.63562 582.48065 79.702354
-343.21832 549.14941 86.736244
-262.5033 393.75497 -887.58063
-263.67157 369.14032 -873.47815
-265.20502 344.76666 -854.96771
-344.32507 413.19016 100.09612
-343.81262 378.19394 93.910362
-343.05963 343.05978 84.820953
-342.07083 307.86383 72.884956
-341.10675 272.8855 61.24712
-340.487 238.34103 53.76619
-340.06143 204.03705 48.629356
-339.63696 169.81863 43.505394
-339.22763 135.6911 38.564274
-338.82553 101.64778 33.710381
-338.6459 67.72924 31.542389
-338.4899 33.849129 29.65888
-338.33398 0.00028222072 27.77692
-338.2514 -33.824982 26.780241
-338.29816 -67.659431 27.344484
-338.34332 -101.50279 27.889893
-338.48672 -135.39465 29.621202
-338.60999 -169.30489 31.108946
-338.80209 -203.28113 33.427711
-339.05386 -237.33759 36.466507
-339.29346 -271.43454 39.358418
-339.52866 -305.57556 42.197903
-339.76419 -339.76404 45.041031
-339.89938 -373.88913 46.673
-340.03943 -408.04724 48.363464
-340.28827 -442.37454 51.367447
-340.56119 -476.78564 54.661854
-340.8804 -511.32037 58.514988
-341.13367 -545.81378 61.57225
-341.37939 -580.34479 64.538139
-341.65564 -614.98004 67.872871
-341.92438 -649.65625 71.116776
-342.21744 -684.43469 74.65448
-342.52859 -719.30994 78.410515
-342.80511 -754.17114 81.74823
-343.10129 -789.13293 85.323715
-344.45587 -826.69403 101.67483
-308.60236 651.49396 82.791306
-308.24554 616.49133 78.005608
-308.4368 582.60309 80.570953
-237.75241 422.67114 -867.46936
-235.41092 392.35172 -898.87408
-236.40923 367.74792 -885.48462
-237.3811 342.88403 -872.44965
-311.62045 415.49408 123.27065
-311.45749 380.67032 121.0854
-311.06335 345.62616 115.79851
-310.19501 310.19519 104.15204
-309.51538 275.12485 95.037254
-308.86618 240.22939 86.329803
-308.19958 205.46661 77.388817
-307.7692 170.98314 71.616257
-307.38284 136.61472 66.434769
-307.01602 102.33872 61.514851
-306.64865 68.144295 56.587566
-306.39429 34.043941 53.175774
-306.23959 0.00013761997 51.101101
-306.07797 -34.008537 48.933331
-305.96182 -67.991302 47.375618
-305.94766 -101.98239 47.185677
-305.98874 -135.99487 47.736561
-306.11908 -170.06592 49.484528
-306.25235 -204.168 51.272213
-306.42554 -238.3309 53.594864
-306.70413 -272.6257 57.331512
-307.00034 -307.00021 61.304424
-307.23001 -341.36655 64.385017
-307.44431 -375.76505 67.259071
-307.60736 -410.14307 69.446182
-307.66034 -444.3981 70.156418
-307.75916 -478.73633 71.48188
-307.94836 -513.24707 74.019524
-308.05453 -547.65253 75.443802
-308.24554 -582.24146 78.005722
-308.4325 -616.86493 80.512993
-308.6355 -651.56366 83.235565
-308.88348 -686.40765 86.562019
-309.12613 -721.29407 89.815971
-309.37781 -756.25677 93.191704
-309.99429 -792.20746 101.46027
-273.6312 649.87433 72.500633
-273.23682 614.7829 66.549751
-274.04971 582.35596 78.815308
-208.60129 417.20273 -908.7251
-208.97513 391.82849 -903.08423
-209.67072 366.92383 -892.58862
-210.7285 342.43399 -876.62781
-277.94308 416.91476 137.56186
-278.24442 382.58624 142.10873
-278.25497 347.81873 142.26778
-277.99173 312.74075 138.29585
-277.40259 277.4028 129.40605
-276.81592 242.21414 120.55405
-276.22653 207.17006 111.66104
-275.62543 172.26598 102.59123
-275.11191 137.55608 94.84288
-274.76978 103.03868 89.680435
-274.44003 68.610115 84.704742
-274.11234 34.26416 79.760468
-273.79565 0.00018402823 74.981674
-273.62866 -34.203384 72.461983
-273.48221 -68.370422 70.252625
-273.38425 -102.51894 68.77433
-273.30927 -136.6544 67.642593
-273.31815 -170.8237 67.776939
-273.4364 -205.07713 69.56144
-273.60956 -239.40833 72.173775
-273.83517 -273.83502 75.578537
-274.07782 -308.33731 79.239532
-274.34393 -342.92984 83.255104
-274.56952 -377.53284 86.658684
-274.77109 -412.15649 89.69989
-274.9549 -446.80154 92.473396
-275.0025 -481.25424 93.191818
-275.04495 -515.70911 93.832603
-274.98962 -549.97913 92.997704
-275.07327 -584.53052 94.259918
-275.13638 -619.05676 95.212151
-275.26395 -653.75177 97.137039
-275.4278 -688.5694 99.609146
-275.59311 -723.43182 102.10353
-275.9075 -758.74554 106.84739
-277.75787 -798.55365 134.76701
-238.06175 680.17657 48.952324
-237.45496 644.52063 38.488655
-237.84373 611.59827 45.193031
-184.77966 448.75079 -869.8642
-182.37724 416.8624 -911.2926
-182.83438 391.78809 -903.40936
-183.30035 366.60095 -895.37402
-243.00827 451.30118 134.2522
-243.6369 417.66339 145.09239
-244.28735 383.88028 156.30908
-244.55455 349.3638 160.91681
-244.77689 314.71335 164.75067
-244.59758 279.54031 161.65884
-244.23166 244.23178 155.3486
-243.71194 208.89615 146.38651
-243.1841 173.70319 137.28409
-242.65166 138.65837 128.10249
-242.12039 103.76606 118.94144
-241.78799 69.082458 113.20927
-241.49959 34.500088 108.23554
-241.21185 0.00022526317 103.27393
-240.93382 -34.41898 98.479935
-240.67673 -68.764572 94.046242
-240.54727 -103.0915 91.813629
-240.46516 -137.4086 90.397789
-240.39882 -171.71332 89.254044
-240.35052 -206.01465 88.420898
-240.55177 -240.55164 91.891182
-240.76575 -275.16068 95.58139
-240.97673 -309.827 99.219536
-241.14963 -344.4993 102.20103
-241.33749 -379.24454 105.44078
-241.55518 -414.09451 109.19426
-241.7323 -448.9313 112.24892
-241.92336 -483.84659 115.54355
-241.97116 -518.50952 116.36793
-242.00873 -553.16272 117.01581
-242.04178 -587.81573 117.58561
-241.9097 -622.05328 115.30785
-241.87444 -656.51624 114.69964
-241.90742 -691.16394 115.26863
-241.97343 -725.92017 116.40723
-242.8006 -763.08752 130.67102
-202.42889 674.76318 16.279329
-200.66685 635.44525 -19.170052
-201.45651 604.36981 -3.2834172
-156.49318 443.39752 -907.87579
-156.59549 417.58813 -905.81763
-156.88531 392.21347 -899.98676
-157.39398 367.25275 -889.75305
-208.20129 451.10306 132.4113
-208.99303 417.98608 148.33949
-209.63214 384.32578 161.19756
-210.15288 350.25491 171.67381
-210.53329 315.80005 179.3273
-210.73561 280.98105 183.39772
-210.7971 245.93004 184.63448
-210.64096 210.64105 181.49321
-210.19595 175.16338 172.54074
-209.73288 139.82205 163.22441
-209.27084 104.63559 153.92899
-208.85736 69.619232 145.61012
-208.43465 34.7393 137.10559
-208.18459 0.00021776397 132.07503
-207.93515 -34.655781 127.05653
-207.69705 -69.232224 122.26646
-207.46242 -103.73107 117.5462
-207.26634 -138.17747 113.60131
-207.1991 -172.6658 112.24889
-207.27025 -207.27017 113.67986
-207.35995 -241.91983 115.48464
-207.43704 -276.58252 117.03546
-207.54643 -311.31952 119.23627
-207.73227 -346.22043 122.97533
-207.89001 -381.13156 126.14882
-208.04015 -416.08026 129.16913
-208.22096 -451.14532 132.80711
