# .PCD v0.7 - Point Cloud Data file format
VERSION 0.7
FIELDS x y z
SIZE 4 4 4
TYPE F F F
COUNT 1 1 1
WIDTH 1508
HEIGHT 1
VIEWPOINT 0 0 0 1 0 0 0
POINTS 1508
DATA ascii
-10.073743 -0.43799037 0.69803876
-10.077703 -0.87632376 0.71882063
-10.080144 -1.3148026 0.73163527
-10.082219 -1.7534312 0.74252599
-10.081204 -2.1915686 0.73720193
-10.081019 -2.6298325 0.73623121
-10.081066 -3.0681505 0.73647404
-10.068039 -3.5019283 0.6681006
-10.047163 -3.9315009 0.5585416
-10.067992 -17.947292 0.66785967
-10.07973 -18.406464 0.72945976
-8.6926718 15.409734 -4.4765139
-8.7824106 15.169619 -3.9841256
-8.8846016 14.942286 -3.4234166
-9.2429199 14.284513 -1.4573858
-9.2765827 13.914873 -1.2726743
-9.3086853 13.539905 -1.0965387
-9.3320818 13.14975 -0.96816421
-9.3511162 12.75152 -0.86372524
-9.3662748 12.346454 -0.78055125
-9.3802729 11.938525 -0.70374703
-9.3938103 11.528767 -0.62947041
-9.4083939 11.119008 -0.54944777
-9.4221392 10.706974 -0.47403085
-9.4349537 10.292675 -0.40372095
-9.4482689 9.8777332 -0.33066148
-9.4609852 9.4609842 -0.26089355
-9.4738626 9.043231 -0.19023414
-9.4818707 8.6198816 -0.14629717
-9.4913864 8.1971054 -0.094081111
-9.5023785 7.7746711 -0.033776201
-9.5122356 7.3503633 0.020311251
-9.5219851 6.9250793 0.073804498
-9.5317106 6.4988942 0.12717135
-9.5412416 6.0716987 0.1794643
-9.5516129 5.6441331 0.23637101
-9.5617027 5.2154717 0.29173511
-9.57125 4.7856231 0.34411815
-9.5821218 4.3555083 0.40376952
-9.5930195 3.9244158 0.4635562
-9.6055155 3.4929137 0.53212208
-9.6856728 0.44025731 0.97193462
-9.675807 -8.0238482e-07 0.9178043
-9.6695967 -0.43952891 0.88372648
-9.6668043 -0.87880284 0.86840671
-9.6629944 -1.3176844 0.84750623
-9.6575069 -1.755911 0.81739825
-9.6551638 -2.1943583 0.80454165
-9.6536617 -2.6328194 0.79629689
-9.6539707 -3.0717192 0.79799253
-9.8082438 -17.83317 1.6444632
-9.7097988 -18.095535 1.104309
-8.232029 15.680054 -4.8531361
-8.2584715 15.337162 -4.7011366
-8.3550615 15.118682 -4.1459255
-8.780035 14.215294 -1.7031292
-8.8122044 13.847749 -1.5182152
-8.838398 13.468035 -1.3676528
-8.8605719 13.07989 -1.2401921
-8.8771782 12.681682 -1.1447388
-8.8916855 12.278994 -1.0613461
-8.904705 11.872939 -0.98651063
-8.9179983 11.465998 -0.91009194
-8.9300642 11.056269 -0.84073591
-8.9430771 10.646519 -0.76594204
-8.9564466 10.235938 -0.68909055
-8.966938 9.8209314 -0.6287809
-8.9807396 9.408391 -0.54944879
-8.9907274 8.9907265 -0.49203858
-9.0004148 8.5718231 -0.43635553
-9.0100822 8.1519794 -0.38078064
-9.0204582 7.7318201 -0.32113776
-9.0297251 7.3097763 -0.26787946
-9.0387259 6.8866472 -0.21614182
-9.0467682 6.4619756 -0.16991046
-9.0558434 6.0372281 -0.11774299
-9.0645704 5.6113987 -0.067582741
-9.0750723 5.1857548 -0.0072172191
-9.085845 4.7592506 0.054704465
-9.0956974 4.3312836 0.11133865
-9.1069717 3.9029868 0.17614894
-9.1181917 3.4735966 0.24064115
-9.352931 -1.7815121 1.589957
-9.1437874 -2.1770945 0.38776949
-9.1433306 -2.6123831 0.38514361
-9.1433306 -3.0477793 0.38514313
-9.3969402 -17.898933 1.8429211
-9.3734875 -18.300619 1.7081131
-7.7799931 15.559986 -5.2154746
-7.8391619 15.286364 -4.8583593
-7.9332972 15.073264 -4.2902017
-8.319664 14.14343 -1.9582734
-8.3495197 13.776705 -1.7780817
-8.3749418 13.399903 -1.6246462
-8.3942661 13.011108 -1.508011
-8.4082184 12.612327 -1.4237998
-8.4218111 12.211625 -1.3417658
-8.4357071 11.809988 -1.2578928
-8.4482336 11.405116 -1.1822879
-8.4593048 10.997094 -1.1154677
-8.4710035 10.588753 -1.0448586
-8.4823599 10.178831 -0.97631776
-8.4940472 9.7681541 -0.90577906
-8.5057669 9.3563414 -0.83504343
-8.5161572 8.9419641 -0.77233493
-8.5253973 8.5253954 -0.71656209
-8.5346193 8.1078863 -0.6609022
-8.5428343 7.6885486 -0.6113261
-8.5517502 7.2689867 -0.55750936
-8.5601511 6.8481202 -0.50680929
-8.5674572 6.42559 -0.46270987
-8.5756197 6.0029316 -0.41344607
-8.5846434 5.5800166 -0.35898122
-8.5947266 5.1568356 -0.29812768
-8.6050253 4.7327623 -0.23596016
-8.61446 4.3072281 -0.1790207
-8.6251955 3.8813369 -0.11423151
-8.6330404 3.4532154 -0.066879869
-9.0048676 -1.8009746 2.1772983
-8.6007795 -2.1501975 -0.26159084
-8.600317 -2.5800974 -0.26438513
-8.6002779 -3.0100994 -0.26461831
-9.0185919 -18.037188 2.2601337
-7.3491817 15.47196 -5.4811115
-7.4226508 15.235968 -5.0143495
-7.5169435 15.033885 -4.4152942
-7.8641624 14.072712 -2.2093399
-7.8926525 13.70829 -2.0283384
-7.9153934 13.331187 -1.8838615
-7.9316978 12.941192 -1.7802726
-7.9454694 12.545478 -1.6927834
-7.9581409 12.146633 -1.6122781
-7.9701557 11.745493 -1.5359474
-7.9817166 11.342439 -1.4624952
-7.9923291 10.936869 -1.3950732
-8.0029345 10.530177 -1.3276919
-8.01371 10.122577 -1.2592382
-8.0252914 9.7148247 -1.1856599
-8.0357723 9.304574 -1.1190718
-8.0465288 8.8935308 -1.0507313
-8.0551767 8.4791327 -0.99579203
-8.0626287 8.0626278 -0.94844228
-8.0700598 7.6453199 -0.901236
-8.0784359 7.2280736 -0.84802282
-8.0868282 6.8099594 -0.79469883
-8.0952034 6.3909497 -0.74149346
-8.102766 5.9704571 -0.69344282
-8.1095848 5.5486631 -0.65012509
-8.1188393 5.127687 -0.59133035
-8.1285133 4.7059793 -0.5298658
-8.1374474 4.282865 -0.47310802
-8.1477861 3.8594756 -0.40742511
-8.1568356 3.4344544 -0.34993196
-8.6441898 -1.8198303 2.7463219
-8.060667 -2.1212301 -0.9609127
-8.060132 -2.5453053 -0.9643116
-8.0600605 -2.9694986 -0.96476293
-8.6984768 -17.854773 3.091224
-8.6584492 -18.228315 2.8369176
-6.917583 15.756715 -5.7815475
-6.9330096 15.406687 -5.6780949
-7.0108132 15.190093 -5.1563301
-7.4132886 14.002878 -2.4572704
-7.4401398 13.640256 -2.2772017
-7.4594064 13.261166 -2.1480007
-7.4743347 12.872463 -2.0478897
-7.4875998 12.479334 -1.9589286
-7.4993157 12.08223 -1.8803638
-7.510119 11.682407 -1.8079104
-7.5202007 11.280298 -1.7403018
-7.5301447 10.876875 -1.6736168
-7.5400825 10.472336 -1.6069733
-7.5504422 10.067256 -1.5374991
-7.5612288 9.6615667 -1.465163
-7.5711155 9.2535849 -1.3988599
-7.5807948 8.8442593 -1.3339477
-7.5887632 8.4319582 -1.2805098
-7.5957451 8.0177307 -1.2336903
-7.6028409 7.6028399 -1.1861063
-7.6105866 7.1877761 -1.1341596
-7.6184168 6.7719245 -1.081655
-7.6263628 6.3553009 -1.0283622
-7.6334143 5.9370975 -0.98107582
-7.6409187 5.5184398 -0.93075049
-7.6486411 5.0990925 -0.87896174
-7.6576023 4.6796441 -0.8188656
-7.6660738 4.2589283 -0.76205558
-7.675827 3.8379116 -0.69665062
-7.684989 3.415549 -0.6352092
-8.2771101 -1.8393605 3.3356414
-7.5435767 -2.0954404 -1.5835415
-7.5429831 -2.5143294 -1.5875241
-7.5429497 -2.9333711 -1.5877444
-8.296731 -17.976252 3.4672241
-6.4846578 15.639468 -6.1267452
-6.5255814 15.354307 -5.8361607
-6.6045251 15.151559 -5.2756104
-6.9419088 14.292163 -2.8799739
-6.9667192 13.933436 -2.7038085
-6.9920669 13.572835 -2.5238192
-7.0083647 13.192215 -2.4080958
-7.0221963 12.80518 -2.3098829
-7.0343208 12.413505 -2.2237914
-7.0450864 12.018085 -2.1473513
-7.0549378 11.619898 -2.0774012
-7.0643878 11.219909 -2.0102994
-7.073679 10.818566 -1.9443239
-7.0829949 10.416165 -1.8781762
-7.0926127 10.013101 -1.8098826
-7.1025047 9.6092701 -1.7396461
-7.1119585 9.2037086 -1.6725131
-7.1207218 8.7961855 -1.6102904
-7.1279793 8.3858557 -1.558761
-7.1343765 7.9737129 -1.5133355
-7.1410975 7.5611591 -1.4656069
-7.1482401 7.1482387 -1.4148966
-7.1554899 6.7345762 -1.363412
-7.1628809 6.3201876 -1.3109319
-7.1700039 5.9047065 -1.2603592
-7.1775193 5.4886889 -1.2069906
-7.1846709 5.0715313 -1.1562119
-7.1919317 4.6536021 -1.1046536
-7.19978 4.2351637 -1.0489248
-7.2090168 3.8165362 -0.98333853
-7.2175736 3.3965037 -0.92257869
-7.9046721 -1.8599252 3.9562511
-7.0505118 -2.0736802 -2.1088269
-7.0499625 -2.4882243 -2.1127241
-7.049902 -2.9029033 -2.1131575
-7.9741015 -17.824465 4.4492435
-7.9116187 -18.150185 4.0055733
-6.0687227 15.551101 -6.3869104
-6.1232114 15.308028 -5.9758229
-6.1989403 15.109914 -5.4044971
-6.5027585 14.224783 -3.1123638
-6.5254169 13.866508 -2.9414184
-6.5470042 13.503193 -2.7785566
-6.5619054 13.123812 -2.666136
-6.5743375 12.737776 -2.572341
-6.585403 12.34763 -2.4888628
-6.5952291 11.953849 -2.4147289
-6.6044021 11.557702 -2.3455238
-6.6132298 11.159825 -2.278924
-6.6220236 10.760787 -2.2125781
-6.630784 10.360599 -2.1464839
-6.6398554 9.9597816 -2.0780518
-6.6488357 9.5576982 -2.0102975
-6.6578398 9.1545286 -1.9423627
-6.6657686 8.7488184 -1.8825468
-6.6724672 8.3405828 -1.8320104
-6.6784229 7.930625 -1.7870752
-6.6847973 7.5203953 -1.738983
-6.6915345 7.1097555 -1.6881588
-6.6982856 6.6982846 -1.6372286
-6.7050495 6.2859812 -1.5861949
-6.711123 5.872232 -1.5403798
-6.7175303 5.4579926 -1.4920355
-6.7247167 5.0435357 -1.4378188
-6.7323027 4.6284561 -1.3805847
-6.7396693 4.2122917 -1.325012
-6.7483277 3.7959323 -1.2596861
-6.7549853 3.3774898 -1.2094599
-7.5238128 -1.8809545 4.590898
-6.5741405 -2.0544207 -2.5738285
-6.5734925 -2.4650614 -2.5787203
-6.5734358 -2.8758798 -2.5791452
-7.5487337 -17.928244 4.7789102
-5.6743178 15.888085 -6.5085073
-5.6653075 15.485172 -6.5810122
-5.7244906 15.265306 -6.1047478
-6.0667052 14.155644 -3.3508148
-6.0883083 13.800162 -3.1769667
-6.106174 13.433583 -3.0331964
-6.120729 13.057554 -2.9160602
-6.1308546 12.670435 -2.8345778
-6.1409359 12.281871 -2.7534561
-6.1498652 11.889738 -2.6815901
-6.1583467 11.495578 -2.6133413
-6.1666131 11.099902 -2.5468154
-6.1747165 10.702842 -2.481606
-6.1827612 10.3046 -2.4168701
-6.1912537 9.9060059 -2.3485293
-6.1996355 9.5061064 -2.2810771
-6.2079864 9.1050444 -2.2138703
-6.215312 8.701436 -2.1549206
-6.2214432 8.2952566 -2.1055775
-6.2269669 7.8874893 -2.0611296
-6.232986 7.4795823 -2.0126896
-6.2392879 7.0711918 -1.961978
-6.245656 6.6620326 -1.9107261
-6.2519569 6.2519555 -1.8600267
-6.257534 5.840363 -1.8151404
-6.2632303 5.428133 -1.7693001
-6.2704687 5.0163732 -1.7110533
-6.2774763 4.6034808 -1.6546563
-6.2844725 4.1896462 -1.598354
-6.2926688 3.7756004 -1.5324007
-6.2987881 3.3593531 -1.4831568
-7.1323662 -1.9019667 5.2249656
-6.1086121 -2.036206 -3.0135725
-6.1079373 -2.443176 -3.0190036
-6.1078596 -2.8503366 -3.0196276
-7.2282395 -17.829659 5.9964914
-7.1390591 -18.085619 5.2788234
-5.2538791 15.761637 -6.8719358
-5.2664971 15.423312 -6.7631416
-5.3289828 15.225664 -6.2243786
-5.6350594 14.087647 -3.5853274
-5.6551242 13.733873 -3.4123266
-5.6702724 13.365643 -3.2817104
-5.6831913 12.99015 -3.1703284
-5.6921582 12.604062 -3.0930111
-5.7013712 12.21722 -3.0135746
-5.7093754 11.826562 -2.9445622
-5.7171831 11.434363 -2.8772418
-5.7248406 11.040763 -2.8112183
-5.7322741 10.645652 -2.747123
-5.7396779 10.249423 -2.6832836
-5.7475443 9.852932 -2.6154652
-5.7552094 9.4549866 -2.5493715
-5.7627468 9.0557432 -2.4843795
-5.7695851 8.6543751 -2.4254231
-5.775146 8.2502069 -2.37747
-5.7801704 7.8445153 -2.3341517
-5.7858272 7.4389186 -2.2853758
-5.7916951 7.0327725 -2.2347844
-5.797575 6.6257968 -2.1840873
-5.8034415 6.2179699 -2.1335053
-5.8089175 5.8089161 -2.0862911
-5.8149333 5.3995795 -2.0344238
-5.8205819 4.9890695 -1.9857134
-5.8270016 4.5783558 -1.9303671
-5.8333583 4.1666842 -1.8755548
-5.840899 3.7548628 -1.8105419
-5.846828 3.3410449 -1.7594193
-6.7314677 -1.923279 5.8681169
-5.6540046 -2.0192881 -3.4219806
-5.6533375 -2.4228587 -3.4277318
-5.6532426 -2.8266232 -3.4285526
-6.7641745 -17.876747 6.1501174
-6.7503271 -18.322319 6.0307245
-4.8475928 15.661453 -7.1598701
-4.8734126 15.369991 -6.9201221
-4.9347034 15.183701 -6.3510127
-5.2075405 14.0203 -3.8175979
-5.2254028 13.666438 -3.6517429
-5.2384505 13.297605 -3.5305908
-5.249948 12.922947 -3.4238284
-5.2581882 12.538756 -3.347311
-5.2663655 12.153151 -3.2713833
-5.2737646 11.764551 -3.2026789
-5.2808714 11.374184 -3.1366861
-5.287796 10.982345 -3.0723958
-5.2946706 10.589337 -3.0085607
-5.3017206 10.195617 -2.9430943
-5.308835 9.8009253 -2.8770342
-5.3158555 9.404974 -2.8118486
-5.3227806 9.007781 -2.7475429
-5.3287897 8.6080437 -2.6917484
-5.3338304 8.2058916 -2.6449466
-5.3384681 7.8023767 -2.6018772
-5.3437796 7.3990774 -2.5525618
-5.3491468 6.9950366 -2.502723
-5.3545251 6.5901823 -2.4527831
-5.3598676 6.1844606 -2.4031715
-5.3650832 5.7777805 -2.3547463
-5.3706784 5.3706765 -2.3027899
-5.3757753 4.9622536 -2.255466
-5.3814859 4.5535631 -2.202436
-5.3873725 4.1441302 -2.1477821
-5.3941112 3.7343838 -2.0852075
-5.3997679 3.3229318 -2.0326858
-6.3214836 -1.9450736 6.5258451
-5.2109814 -2.0042262 -3.7856493
-5.2102842 -2.4047492 -3.7921219
-5.2101755 -2.8054795 -3.7931359
-5.2199306 -3.2122655 -3.702553
-6.3328552 -18.024282 6.6314411
-4.4505334 15.576865 -7.4029813
-4.4860444 15.327317 -7.0457697
-4.5416765 15.138921 -6.4861498
-4.7679882 14.303966 -4.2096272
-4.784349 13.95435 -4.0450535
-4.7997603 13.599319 -3.8900282
-4.8116455 13.232024 -3.7704694
-4.8211646 12.856439 -3.6747208
-4.8286924 12.474121 -3.5989928
-4.8360615 12.090154 -3.524864
-4.8428411 11.703532 -3.4566674
-4.8492517 11.31492 -3.3921804
-4.855536 10.924953 -3.3289702
-4.861918 10.534154 -3.2647669
-4.8683586 10.142411 -3.1999822
-4.8747954 9.749589 -3.1352313
-4.881187 9.355607 -3.0709362
-4.8873672 8.9601736 -3.0087707
-4.8926678 8.5621681 -2.9554482
-4.8972712 8.1621161 -2.9091415
-4.9015489 7.7607851 -2.8661101
-4.9064622 7.3596931 -2.8166909
-4.911427 6.9578547 -2.7667477
-4.916297 6.5550613 -2.7177618
-4.921113 6.1513915 -2.6693127
-4.9253902 5.7462873 -2.6262836
-4.930161 5.3410068 -2.5782936
-4.9357677 4.9357662 -2.521904
-4.9408765 4.5291362 -2.47051
-4.9464002 4.1220002 -2.4149435
-4.9525552 3.714416 -2.3530333
-4.9576778 3.3051171 -2.3015008
-5.9026451 -1.967548 7.2041364
-4.7774739 -1.9906151 -4.1142111
-4.7767797 -2.3883929 -4.1211958
-4.7767 -2.786411 -4.1219926
-4.7774143 -3.1849442 -4.1148105
-5.9444647 -17.833397 7.6248093
-5.9132347 -18.232475 7.3106618
-4.0609741 15.505537 -7.6079822
-4.1006289 15.284163 -7.1728225
-4.1545591 15.107487 -6.5810118
-4.3490787 14.233349 -4.4464135
-4.364903 13.888325 -4.2727623
-4.3786421 13.533982 -4.121994
-4.3880444 13.164132 -4.0188174
-4.3964968 12.789805 -3.9260635
-4.4036574 12.410308 -3.8474841
-4.4102693 12.028008 -3.7749252
-4.4164758 11.643435 -3.7068152
-4.4222364 11.256601 -3.6436017
-4.4279742 10.868664 -3.5806355
-4.4336905 10.47963 -3.5179119
-4.4395142 10.089805 -3.4540017
-4.4454288 9.6991158 -3.3890967
-4.4512463 9.3071499 -3.3252611
-4.45608 8.912158 -3.2722077
-4.4608307 8.5161304 -3.2200794
-4.4654965 8.1190853 -3.1688747
-4.4694524 7.7199621 -3.1254644
-4.4739466 7.321002 -3.0761437
-4.47788 6.9203572 -3.0329878
-4.4823341 6.5197573 -2.9841104
-4.4867015 6.1182275 -2.9361799
-4.4905992 5.7153058 -2.8934059
-4.4949827 5.3122506 -2.8453023
-4.5002007 4.9093094 -2.7880425
-4.5048342 4.5048327 -2.7371972
-4.5100365 4.1000319 -2.6801107
-4.5155215 3.6945148 -2.6199191
-4.5202446 3.2874484 -2.5680892
-5.4219146 -1.971606 7.3265634
-4.351573 -1.9779906 -4.4190354
-4.3502808 -2.3728819 -4.4332199
-4.3501554 -2.7682836 -4.4345989
-4.3504419 -3.163959 -4.4314499
-5.487288 -17.958401 8.0439577
-3.676898 15.810658 -7.7878051
-3.67869 15.450495 -7.7661734
-3.7170899 15.240069 -7.3026409
-3.9350593 14.166211 -4.6715178
-3.9489028 13.821159 -4.5044122
-3.960634 13.466154 -4.3628082
-3.9692929 13.098664 -4.2582831
-3.976505 12.724816 -4.171227
-3.9827833 12.346625 -4.0954428
-3.9886332 11.965898 -4.0248289
-3.9942005 11.583179 -3.9576216
-3.9993665 11.198225 -3.8952668
-4.0045624 10.812318 -3.8325443
-4.0097551 10.425361 -3.7698615
-4.0150623 10.037655 -3.7058001
-4.0204172 9.6490002 -3.6411607
-4.0257187 9.2591524 -3.5771666
-4.0298309 8.8656273 -3.5275223
-4.0334768 8.4703016 -3.4835186
-4.037724 8.0754461 -3.4322462
-4.0419631 7.6797285 -3.3810766
-4.0453405 7.2816119 -3.3403058
-4.0487752 6.8829165 -3.2988541
-4.0528316 6.4845285 -3.2498808
-4.0567594 6.0851374 -3.2024701
-4.0608668 5.6852126 -3.1528907
-4.0649309 5.2844081 -3.1038351
-4.0689163 4.8826976 -3.0557215
-4.0731869 4.4805045 -3.0041759
-4.0778303 4.0778284 -2.9481196
-4.0827279 3.6744535 -2.8890011
-4.0869927 3.2695935 -2.8375235
-4.9297991 -1.9719205 7.3360491
-3.9329929 -1.9664983 -4.6964626
-3.9314766 -2.3588884 -4.7147651
-3.9313638 -2.7519565 -4.7161274
-3.9314606 -3.1451695 -4.7149601
-5.0856771 -17.799871 9.2176666
-5.0419159 -18.150898 8.6894217
-3.2892361 15.71524 -8.0556726
-3.2987316 15.394079 -7.928319
-3.3360155 15.197402 -7.4282551
-3.5250428 14.100171 -4.892962
-3.5368495 13.754415 -4.7346091
-3.5467803 13.398947 -4.6014147
-3.5547888 13.034225 -4.4940014
-3.5604956 12.65954 -4.4174595
-3.5661323 12.283344 -4.3418608
-3.5711806 11.903935 -4.274147
-3.5760064 11.522685 -4.2094259
-3.5805626 11.139526 -4.1483202
-3.585175 10.755525 -4.0864544
-3.5898595 10.370703 -4.0236263
-3.5946307 9.9850836 -3.9596331
-3.5994148 9.5984373 -3.8954675
-3.6040609 9.2103758 -3.8331487
-3.6079192 8.819356 -3.7814
-3.6115139 8.4268646 -3.7331898
-3.6152823 8.0339575 -3.682646
-3.6185577 7.6391764 -3.6387174
-3.6218693 7.2437372 -3.5943007
-3.6249433 6.8471131 -3.5530717
-3.6284952 6.4506555 -3.5054278
-3.6317639 6.0529394 -3.4615877
-3.6355593 5.6553135 -3.4106839
-3.6391635 5.2565675 -3.3623474
-3.6425128 4.8566823 -3.3174214
-3.6465309 4.4568706 -3.2635288
-3.6505427 4.0561566 -3.2097206
-3.6546717 3.65467 -3.1543453
-3.658484 3.2519839 -3.1032102
-4.4375038 -1.9722244 7.345232
-3.5204976 -1.9558352 -4.9539261
-3.5197508 -2.3465023 -4.9639435
-3.5192194 -2.7371733 -4.9710689
-3.5192771 -3.1282463 -4.9702992
-4.6039038 -17.904074 9.5770407
-2.9081545 15.63133 -8.2912254
-2.923264 15.347134 -8.063241
-2.9567037 15.153108 -7.5586705
-3.1189964 14.035483 -5.1098638
-3.1289608 13.689202 -4.9595132
-3.1375377 13.334535 -4.8300972
-3.143995 12.968979 -4.7326655
-3.149056 12.596221 -4.6563039
-3.153718 12.220657 -4.5859585
-3.1580296 11.84261 -4.5209012
-3.1622226 11.463055 -4.4576325
-3.1662178 11.081759 -4.3973517
-3.1704721 10.700342 -4.3331585
-3.1745536 10.317297 -4.2715712
-3.1787119 9.9334736 -4.2088318
-3.1828279 9.5484819 -4.1467223
-3.1868751 9.1622667 -4.0856547
-3.1908269 8.7747707 -4.0260296
-3.1938832 8.3839436 -3.9799137
-3.1966922 7.9917293 -3.9375243
-3.1995463 7.5989208 -3.894459
-3.2027266 7.2061343 -3.8464751
-3.205699 6.8121099 -3.8016291
-3.2083676 6.4167342 -3.7613578
-3.2112427 6.0210791 -3.7179785
-3.2145405 5.6254444 -3.6682172
-3.2176833 5.2287326 -3.6207983
-3.2206559 4.8309817 -3.5759401
-3.2247596 4.4340425 -3.5140238
-3.2277455 4.0346808 -3.4689677
-3.2316766 3.6356337 -3.4096539
-3.2347572 3.2347569 -3.3631709
-3.9450767 -1.9725393 7.354722
-3.1137412 -1.9460886 -5.1891646
-3.1129954 -2.3347485 -5.2004161
-3.1122625 -2.7232325 -5.211472
-3.1123006 -3.1123033 -5.2109003
-4.1311808 -18.073919 10.16282
-2.5328021 15.55864 -8.4952822
-2.5505252 15.303152 -8.1896524
-2.5796564 15.109417 -7.687304
-2.7072439 14.309716 -5.4871397
-2.7165048 13.970594 -5.3274403
-2.7248774 13.624384 -5.1830587
-2.7321665 13.270524 -5.0573592
-2.7372377 12.904119 -4.9699154
-2.7417111 12.533535 -4.8927708
-2.7453904 12.158155 -4.8293238
-2.7491701 11.782155 -4.7641511
-2.7527564 11.404276 -4.7023048
-2.7566805 11.02672 -4.6346359
-2.7603886 10.647211 -4.5706892
-2.7639475 10.266089 -4.5093193
-2.7674127 9.8836155 -4.449564
-2.7706695 9.4994354 -4.3934045
-2.7741401 9.1150303 -4.3335557
-2.7774587 8.7291536 -4.2763286
-2.7802088 8.3406267 -4.2289019
-2.7825608 7.9501719 -4.188344
-2.7850668 7.5594654 -4.1451297
-2.7878091 7.1686506 -4.0978408
-2.7903478 6.7765565 -4.0540586
-2.792659 6.3832207 -4.0142088
-2.7951949 5.9897022 -3.9704754
-2.798039 5.5960765 -3.9214349
-2.8007367 5.2013669 -3.8749144
-2.803334 4.8057151 -3.8301215
-2.8070283 4.4110446 -3.7664216
-2.8094609 4.0135131 -3.7244675
-2.8131948 3.6169639 -3.6600823
-2.8154612 3.2176683 -3.6210017
-3.452493 -1.9728546 7.3642168
-2.7117841 -1.9369905 -5.4088416
-2.7110393 -2.3237488 -5.4216919
-2.7109625 -2.710964 -5.4230132
-2.7109735 -3.0982578 -5.422822
-3.6751471 -17.850718 11.203761
-3.6719697 -18.35985 11.148962
-2.1623704 15.496987 -8.6683531
-2.1802807 15.261965 -8.3080263
-2.2055128 15.071004 -7.8003993
-2.3093331 14.240884 -5.7116985
-2.3173628 13.904174 -5.5501523
-2.3246496 13.560453 -5.4035525
-2.3303006 13.205034 -5.2898612
-2.3345568 12.840061 -5.2042313
-2.3381348 12.470052 -5.1322474
-2.3412566 12.096491 -5.0694437
-2.3444538 11.722268 -5.0051227
-2.3476689 11.347064 -4.9404359
-2.3510756 10.971685 -4.8718977
-2.3542321 10.594044 -4.8083963
-2.3573294 10.215093 -4.7460818
-2.3599603 9.833168 -4.6931534
-2.3627717 9.451088 -4.63659
-2.3656583 9.0683546 -4.5785217
-2.3683565 8.6839724 -4.5242362
-2.3707285 8.2975483 -4.4765105
-2.3727434 7.9091439 -4.4359808
-2.3748987 7.5205116 -4.3926153
-2.3771956 7.1315842 -4.3464069
-2.3793197 6.741405 -4.3036737
-2.3813095 6.3501582 -4.2636395
-2.3835003 5.9587488 -4.2195644
-2.3858731 5.5670366 -4.1718254
-2.3881516 5.1743288 -4.1259866
-2.3904445 4.7808876 -4.0798564
-2.3931699 4.3874764 -4.0250282
-2.3956819 3.9928002 -3.9744914
-2.3983891 3.5975814 -3.9200265
-2.4006815 3.2009072 -3.8739042
-2.9597516 -1.9731703 7.3737159
-2.3144996 -1.9287518 -5.6077476
-2.313848 -2.3138492 -5.6208615
-2.3137829 -2.6994145 -5.6221733
-2.3137736 -3.0850337 -5.6223583
-3.1777117 -18.007034 11.758737
-1.7999926 15.839933 -8.7162237
-1.7951789 15.43854 -8.8324347
-1.8118455 15.219501 -8.4300661
-1.8327757 15.028761 -7.924767
-1.9155301 14.174923 -5.926899
-1.9221057 13.839159 -5.7681513
-1.927943 13.495598 -5.6272287
-1.9322878 13.139557 -5.5223346
-1.9355885 12.774882 -5.442647
-1.9385321 12.406604 -5.3715858
-1.9412249 12.035595 -5.3065705
-1.9439096 11.663458 -5.2417545
-1.9464438 11.289374 -5.1805787
-1.9491271 10.91511 -5.1157966
-1.9516747 10.539043 -5.0542917
-1.9542053 10.161865 -4.9932013
-1.9566463 9.7832298 -4.9342675
-1.9590056 9.4032259 -4.8773103
-1.9613945 9.0224133 -4.8196349
-1.9633067 8.6385479 -4.7734733
-1.9652305 8.2539663 -4.7270246
-1.9669968 7.8679857 -4.6843839
-1.9687663 7.4813094 -4.6416655
-1.9706523 7.094346 -4.5961328
-1.9723959 6.7061439 -4.554038
-1.9740856 6.3170719 -4.5132451
-1.9760715 5.9282131 -4.4653025
-1.9780205 5.5384564 -4.4182487
-1.9798917 5.1477175 -4.3730779
-1.9817417 4.7561789 -4.3284111
-1.9838333 4.36443 -4.277915
-1.9860692 3.9721365 -4.2239332
-1.9880958 3.5785711 -4.1750102
-1.9902091 3.1843328 -4.1239891
-2.4668531 -1.9734842 7.3832164
-1.92142 -1.9214213 -5.784709
-1.9207731 -2.3049288 -5.8003244
-1.9207193 -2.6890097 -5.8016229
-1.9207193 -3.0731518 -5.8016243
-2.6982267 -17.808298 12.969069
-2.6819663 -18.237371 12.576503
-1.4321309 15.753439 -8.9535131
-1.431313 15.386615 -8.9781942
-1.4453678 15.176358 -8.5540581
-1.5254499 14.110408 -6.1373692
-1.5304668 13.7742 -5.9859657
-1.5349146 13.430502 -5.8517404
-1.5383446 13.07593 -5.7482314
-1.5407492 12.711179 -5.6756682
-1.5430558 12.344446 -5.606061
-1.5452571 11.975742 -5.5396304
-1.5473772 11.605329 -5.4756474
-1.5493592 11.232853 -5.4158349
-1.5513338 10.859334 -5.3562474
-1.553282 10.484653 -5.2974582
-1.5552791 10.109313 -5.2371883
-1.5573764 9.7336016 -5.1739001
-1.5593144 9.3558855 -5.1154137
-1.5611427 8.9765692 -5.0602393
-1.5624533 8.5934916 -5.0206909
-1.5639699 8.2108402 -4.9749188
-1.5656047 7.828022 -4.9255877
-1.5669738 7.4431238 -4.8842683
-1.5682685 7.0572047 -4.8451991
-1.5696874 6.6711693 -4.8023839
-1.5712117 6.2848449 -4.7563796
-1.5727971 5.8979893 -4.7085381
-1.5743922 5.5103703 -4.6603999
-1.5758544 5.1215253 -4.616272
-1.5773131 4.7319374 -4.5722551
-1.5789953 4.3422351 -4.5214896
-1.5806746 3.9516845 -4.4708095
-1.5824099 3.560421 -4.418448
-1.5840114 3.16802 -4.3701143
-1.9737873 -1.9737892 7.3924131
-1.5315855 -1.9144846 -5.9522047
-1.5310596 -2.296592 -5.9680762
-1.5310045 -2.6792593 -5.9697375
-1.5310107 -3.0620224 -5.9695544
-2.1741252 -17.936535 13.438146
-1.068805 15.675806 -9.1664991
-1.0700616 15.337548 -9.1159334
-1.0808316 15.131641 -8.682579
-1.1389176 14.046647 -6.345386
-1.1424556 13.709469 -6.203022
-1.1456872 13.36635 -6.0729961
-1.1481892 13.012809 -5.9723196
-1.1499109 12.649018 -5.9030466
-1.151647 12.284234 -5.8331914
-1.1532357 11.916767 -5.7692695
-1.1547916 11.547916 -5.7066612
-1.1562588 11.177167 -5.647625
-1.157739 10.805562 -5.5880651
-1.1591997 10.432796 -5.5292921
-1.1606969 10.059372 -5.4690518
-1.162057 9.6838064 -5.4143224
-1.1635097 9.3080769 -5.3558688
-1.1649238 8.9310799 -5.2989764
-1.165925 8.5501146 -5.2586875
-1.1669848 8.168891 -5.2160444
-1.1681889 7.7879238 -5.1675982
-1.1691815 7.4048138 -5.1276584
-1.1701947 7.0211682 -5.0868845
-1.1712433 6.6370449 -5.0446959
-1.1723797 6.2526913 -4.998971
-1.1735662 5.8678308 -4.9512305
-1.1747744 5.4822788 -4.9026213
-1.1758599 5.0953922 -4.8589411
-1.1769668 4.7078652 -4.814404
-1.1782205 4.3201413 -4.763958
-1.1794479 3.9314926 -4.714572
-1.180765 3.5422943 -4.6615715
-1.1820172 3.1520436 -4.6111889
-1.4805766 -1.9741033 7.4019179
-1.1452399 -1.908734 -6.0909877
-1.1443832 -2.2887692 -6.1254606
-1.1443378 -2.6701212 -6.127295
-1.1443423 -3.0515816 -6.1271086
-1.666124 -4.9983745 14.867769
-1.6687635 -5.5625458 14.973969
-1.6714501 -6.128653 15.082071
-1.6592891 -17.699083 14.592748
-1.650575 -18.156328 14.242126
-0.70944905 15.607877 -9.3528509
-0.71120971 15.291007 -9.2465849
-0.71841866 15.086791 -8.8114853
-0.75346261 14.315787 -6.6963983
-0.75579429 13.982192 -6.5556712
-0.75812542 13.646255 -6.4149728
-0.76017249 13.303016 -6.2914228
-0.76169765 12.94886 -6.1993694
-0.76285535 12.587113 -6.1294937
-0.76401669 12.224267 -6.059402
-0.76504713 11.85823 -5.9972081
-0.76605898 11.490883 -5.9361382
-0.76704586 11.122164 -5.8765745
-0.76802605 10.752363 -5.8174119
-0.76899338 10.381411 -5.7590322
-0.76989818 10.008675 -5.704421
-0.77075249 9.6344042 -5.652863
-0.77171731 9.2606049 -5.5946279
-0.77265346 8.8855143 -5.5381284
-0.77341396 8.5075512 -5.4922237
-0.77410412 8.1280928 -5.450573
-0.77478606 7.747858 -5.409411
-0.77548182 7.3670754 -5.3674192
-0.77623224 6.9860888 -5.3221307
-0.77688336 6.6035075 -5.2828312
-0.77757019 6.2205606 -5.241374
-0.77835619 5.8376708 -5.1939325
-0.77914071 5.4539828 -5.146584
-0.77988553 5.0692539 -5.1016326
-0.7806254 4.6837506 -5.0569758
-0.78141767 4.2977962 -5.0091624
-0.78223699 3.9111843 -4.9597058
-0.78309327 3.5239177 -4.9080248
-0.78395468 3.1358171 -4.8560386
-0.98720872 -1.9744182 7.4114275
-0.76115328 -1.9028841 -6.232223
-0.76048303 -2.2814515 -6.272675
-0.76045585 -2.6615975 -6.2743144
-0.76045585 -3.0418265 -6.2743144
-1.115201 -5.5760059 15.136448
-1.1147146 -6.1309314 15.107097
-1.1147017 -6.6882119 15.106313
-1.1150453 -7.2477961 15.127053
-1.1157007 -7.8099065 15.166609
-1.1166691 -8.3750191 15.225047
-1.1176389 -8.9411116 15.283587
-1.1186301 -9.508357 15.343413
-1.1196885 -10.077196 15.407289
-1.1210896 -10.650353 15.491857
-1.1224877 -11.224878 15.576236
-1.1238892 -11.800838 15.660831
-1.1256776 -12.382455 15.768763
-1.1277634 -12.969281 15.894655
-1.1310701 -13.572843 16.094231
-1.1239024 -16.85854 15.661626
-1.1177431 -17.325022 15.28988
-1.1156423 -17.850279 15.163084
-0.35338807 15.549073 -9.5141754
-0.35451856 15.244296 -9.3777113
-0.35815448 15.042486 -8.9388199
-0.37500259 14.250094 -6.9050741
-0.37616804 13.918216 -6.7643886
-0.37733635 13.584108 -6.6233644
-0.37828037 13.239811 -6.509408
-0.37896979 12.884972 -6.426187
-0.37957451 12.525959 -6.3531904
-0.38011187 12.163577 -6.2883286
-0.38061896 11.799186 -6.2271152
-0.38111833 11.433549 -6.1668348
-0.3816008 11.066421 -6.1085978
-0.38208598 10.698406 -6.0500293
-0.3825663 10.329289 -5.9920478
-0.38305706 9.9594812 -5.9328127
-0.3834846 9.5871124 -5.8812051
-0.3839131 9.213913 -5.8294787
-0.38437182 8.8405504 -5.7741046
-0.38476676 8.4648666 -5.726429
-0.38510376 8.0871782 -5.6857533
-0.38542426 7.7084851 -5.6470652
-0.38579497 7.3301034 -5.602313
-0.38616955 6.9510493 -5.5571012
-0.38648874 6.5703073 -5.5185738
-0.38680688 6.1889086 -5.4801717
-0.38718495 5.8077722 -5.4345312
-0.3875716 5.426002 -5.3878579
-0.38793862 5.0431995 -5.3435521
-0.3883079 4.6596928 -5.2989759
-0.38869682 4.2756629 -5.2520313
-0.38915759 3.8915744 -5.1964107
-0.38956246 3.5060599 -5.1475415
-0.38998082 3.1198466 -5.0970368
-0.49368316 -1.9747335 7.4209414
-0.37971133 -1.8985567 -6.3366747
-0.37911066 -2.2746658 -6.4091802
-0.37909716 -2.653681 -6.4108119
-0.3790957 -3.0327675 -6.4109902
-0.56491846 -12.993127 16.019804
-0.5644328 -13.546388 15.961181
-0.56471878 -14.117971 15.995699
-0.56500173 -14.690047 16.029854
-0.5652349 -15.261345 16.058004
-0.56520492 -15.82574 16.054382
-0.56473207 -16.377232 15.997309
6.7245596e-24 15.498225 -9.653676
7.8038223e-24 15.205103 -9.4877396
6.2068996e-24 15.001405 -9.0568953
2.4554242e-24 14.183846 -7.1155281
8.2458573e-24 13.855797 -6.9680281
7.5470433e-24 13.522043 -6.8314652
4.4930898e-24 13.176893 -6.7264051
1.4118793e-23 12.823679 -6.6437955
1.8043895e-23 12.465295 -6.5750837
1.4163141e-23 12.103347 -6.515533
4.5863994e-24 11.740867 -6.4542027
6.9295956e-24 11.376783 -6.3952427
1.4416827e-23 11.011322 -6.337945
1.3163996e-23 10.644903 -6.2806869
1.7519982e-23 10.277444 -6.2238317
1.3804458e-23 9.9100618 -6.1622624
3.9935074e-24 9.5405502 -6.1060309
1.1837852e-23 9.1684542 -6.058116
1.1543039e-23 8.7961798 -6.0069695
2.1797306e-23 8.422204 -5.9605098
2.0457986e-23 8.0462532 -5.9209833
1.1168402e-23 7.6696601 -5.8813887
4.4791144e-24 7.2930627 -5.837646
7.1279846e-24 6.9158072 -5.7934451
1.4479271e-23 6.5369663 -5.7553072
1.9116291e-23 6.1575766 -5.716547
1.3803086e-24 5.7783427 -5.67137
6.9946025e-24 5.3984556 -5.6253543
1.352151e-23 5.0175748 -5.5814996
1.9589669e-23 4.6360502 -5.5368104
-3.3455141e-24 4.2540002 -5.4897776
1.4389664e-23 3.8719256 -5.433588
4.5099848e-24 3.4884408 -5.3838859
1.4499712e-23 -1.9750396 7.4301515
1.2919782e-23 -1.8962525 -6.3923435
9.1314365e-24 -2.2682881 -6.537499
6.2084387e-24 -2.64623 -6.5392995
-2.1023589e-24 -3.0242515 -6.5394816
0.35123733 15.454443 -9.7737875
0.35268596 15.165495 -9.5989256
0.35605264 14.954207 -9.1925364
0.37161103 14.121219 -7.3144708
0.37280911 13.793937 -7.1698465
0.37387782 13.459601 -7.0408421
0.37467277 13.113547 -6.9448819
0.37534469 12.761716 -6.8637757
0.37588334 12.40415 -6.7987533
0.37639552 12.044655 -6.7369304
0.37687051 11.682985 -6.6795936
0.3773497 11.320491 -6.6217508
0.37782413 10.956898 -6.5644808
0.3782953 10.592266 -6.5076056
0.37875867 10.226482 -6.4516735
0.37926966 9.8610106 -6.3899903
0.37975347 9.4938345 -6.3315902
0.38012993 9.1231174 -6.2861457
0.38053739 8.7523575 -6.2369642
0.38091087 8.3800354 -6.1918783
0.38123199 8.0058718 -6.1531129
0.38155979 7.6311936 -6.1135478
0.38191855 7.2564521 -6.0702434
0.38227341 6.8809204 -6.0274076
0.38259074 6.5040412 -5.9890971
0.38291168 6.126586 -5.9503593
0.38328373 5.7492557 -5.9054508
0.38365495 5.3711677 -5.8606377
0.3840192 4.9922481 -5.816668
0.38438722 4.6126447 -5.7722454
0.3847822 4.232604 -5.724566
0.38524613 3.8524587 -5.6685658
0.38566148 3.4709525 -5.6184287
0.49383831 -1.9753529 7.4396667
0.37883648 -1.8941845 -6.4422779
0.37699649 -2.261982 -6.6643844
0.37698019 -2.6388624 -6.6663547
0.3769787 -3.01583 -6.666533
0.70078772 15.417329 -9.8756065
0.70346963 15.124597 -9.7137403
0.70985097 14.90687 -9.3285933
0.7399348 14.05876 -7.5128722
0.74229544 13.732465 -7.3703928
0.74431849 13.39773 -7.2482948
0.74573135 13.050297 -7.1630206
0.74708253 12.700401 -7.0814662
0.74822551 12.345718 -7.0124836
0.74919039 11.987044 -6.9542499
0.75004035 11.625624 -6.9029489
0.75098926 11.264838 -6.8456745
0.75193483 10.903053 -6.7886086
0.7528708 10.54019 -6.7321148
0.75380623 10.176382 -6.6756573
0.75480044 9.8124037 -6.6156526
0.75577044 9.4471292 -6.5571079
0.75660855 9.0793018 -6.5065246
0.75729889 8.7089357 -6.4648576
0.75804144 8.3384552 -6.4200382
0.75865638 7.9658923 -6.382925
0.75931144 7.5931134 -6.3433909
0.76003689 7.2203498 -6.2996078
0.76074558 6.8467078 -6.2568312
0.7613498 6.4714732 -6.220365
0.76199132 6.0959287 -6.1816454
0.76272792 5.720459 -6.1371861
0.76349032 5.3444319 -6.0911727
0.76419938 4.9672933 -6.0483727
0.7649281 4.5895667 -6.0043902
0.76570714 4.2113872 -5.9573727
0.76662874 3.8331425 -5.9017496
0.76746345 3.4535837 -5.8513703
0.98783433 -1.975669 7.4491901
0.80687189 -2.0171809 -3.4728618
0.75210881 -2.256326 -6.7781057
0.75207639 -2.6322696 -6.7800627
0.75207341 -3.0082941 -6.7802424
0.63480133 -14.60043 -13.858241
0.6311546 -14.832134 -14.078339
0.62797093 -15.071304 -14.270489
0.62549192 -15.324555 -14.420111
1.0493596 15.390607 -9.9489174
1.0525589 15.086676 -9.8201885
1.0615965 14.86235 -9.4565411
1.1015947 14.320729 -7.8471384
1.1049851 13.996476 -7.7107215
1.1084008 13.670275 -7.5732875
1.1113648 13.336376 -7.4540195
1.1133268 12.988811 -7.3750782
1.1152828 12.639869 -7.2963796
1.1168636 12.285499 -7.2327666
1.1182446 11.927942 -7.1771975
1.1196204 11.569408 -7.1218419
1.1210344 11.210342 -7.0649443
1.1224302 10.850158 -7.0087819
1.1238118 10.48891 -6.9531898
1.1251706 10.126534 -6.8985214
1.126634 9.7641602 -6.8396354
1.1280704 9.4005842 -6.7818446
1.1294614 9.0356913 -6.7258687
1.1303493 8.6660109 -6.6901426
1.1314344 8.297183 -6.646481
1.1323477 7.9264321 -6.609735
1.1333295 7.5555277 -6.5702305
1.1344427 7.1848016 -6.5254397
1.1354685 6.812809 -6.4841671
1.1363612 6.4393802 -6.4482417
1.137296 6.065577 -6.4106312
1.1384397 5.6921949 -6.364615
1.1395628 5.3179584 -6.3194184
1.1406024 4.9426098 -6.2775912
1.1416937 4.5667739 -6.2336817
1.1428642 4.1905017 -6.1865826
1.1442149 3.8140483 -6.1322393
1.1452764 3.435828 -6.089519
1.4819883 -1.9759851 7.4587135
1.2099005 -2.0165021 -3.489255
1.1256549 -2.251313 -6.8790264
1.1256022 -2.6264069 -6.8811536
1.1255977 -3.0015972 -6.881331
0.96682519 -13.535554 -13.269846
0.96058911 -13.768448 -13.520763
0.95554304 -14.014633 -13.723807
0.95171034 -14.275656 -13.87802
0.9479146 -14.534693 -14.030748
0.94509536 -14.806497 -14.144186
0.94232684 -15.07723 -14.255585
0.94089323 -15.367924 -14.313271
1.3976367 15.374001 -9.9944725
1.4001731 15.051858 -9.9179277
1.4112527 14.818151 -9.5835695
1.4620166 14.25466 -8.0516367
1.4668993 13.935542 -7.9042859
1.4712106 13.608698 -7.7741799
1.4749399 13.274456 -7.6616368
1.4774861 12.928002 -7.5848012
1.4799381 12.579473 -7.5108023
1.4818485 12.225248 -7.453155
1.4837348 11.869879 -7.3962255
1.4856665 11.513913 -7.337934
1.4875396 11.156548 -7.2814059
1.4893887 10.798067 -7.2256083
1.4912364 10.438655 -7.1698475
1.4930133 10.077838 -7.1162291
1.4947884 9.7161226 -7.0626574
1.4966379 9.3539858 -7.0068436
1.4983808 8.990283 -6.9542503
1.4998167 8.6239433 -6.9109159
1.5012023 8.2566109 -6.8690972
1.5024377 7.887795 -6.83182
1.5036808 7.5184016 -6.7943029
1.5050206 7.1488457 -6.7538724
1.5063628 6.7786322 -6.7133713
1.5075828 6.4072256 -6.6765537
1.5089533 6.0358124 -6.6351933
1.5103322 5.6637444 -6.5935802
1.511815 5.2913504 -6.5488353
1.5132707 4.9181285 -6.5049005
1.5148072 4.5444193 -6.4585366
1.5163527 4.1699677 -6.4118967
1.5180277 3.795068 -6.3613539
1.5194051 3.4186609 -6.3197842
1.9762899 -1.9762906 7.4679341
1.6126579 -2.0158226 -3.5056336
1.4977604 -2.2466407 -6.9729714
1.497696 -2.6209705 -6.9749117
1.4976844 -2.9953694 -6.9752669
1.3092016 -12.437416 -12.663235
1.2997844 -12.672899 -12.947426
1.2927117 -12.927119 -13.160858
1.2874382 -13.196242 -13.320004
1.2822288 -13.463406 -13.477208
1.2782876 -13.741594 -13.596144
1.2744893 -14.019384 -13.710773
1.2724212 -14.314741 -13.773181
1.2741674 -14.652927 -13.720483
1.7469949 15.373553 -9.9957027
1.7467402 15.021965 -10.001848
1.7599139 14.783278 -9.6838055
1.8195078 14.192159 -8.2450838
1.8254118 13.873128 -8.1025486
1.8309064 13.548707 -7.9698958
1.8350141 13.2121 -7.870729
1.8382303 12.867611 -7.7930813
1.8411113 12.519554 -7.7235293
1.8434339 12.166663 -7.6674581
1.8458476 11.813423 -7.6091852
1.848225 11.458993 -7.5517898
1.8505441 11.103263 -7.495801
1.8528548 10.746557 -7.4400172
1.8551496 10.388837 -7.3846135
1.8573207 10.029531 -7.332202
1.8593669 9.6687059 -7.2827978
1.8615839 9.3079185 -7.2292752
1.8638064 8.946269 -7.1756225
1.8657217 8.5823183 -7.1293817
1.8674009 8.2165623 -7.0888438
1.868981 7.8497181 -7.0506973
1.8705053 7.4820199 -7.0138946
1.8720031 7.1136098 -6.9777384
1.8736348 6.7450829 -6.9383397
1.8753723 6.3762641 -6.8963962
1.8770469 6.0065475 -6.855968
1.8785992 5.6357942 -6.818491
1.8803384 5.2649465 -6.7765021
1.882421 4.8942924 -6.7262249
1.884323 4.5223737 -6.6803098
1.886095 4.1494064 -6.6375232
1.8881012 3.7762001 -6.5890942
1.8900741 3.4021313 -6.5414591
2.470757 -1.9766073 7.4774661
2.0151443 -2.0151463 -3.5219996
1.8690464 -2.2428579 -7.0491114
1.8689518 -2.6165323 -7.0514011
1.8689445 -2.9903128 -7.0515761
1.6623267 -11.303823 -12.03977
1.6491203 -11.543845 -12.3586
1.6400915 -11.808661 -12.576575
1.6330894 -12.084865 -12.745621
1.6263844 -12.360522 -12.907495
1.6212243 -12.645552 -13.032073
1.6163365 -12.930694 -13.150072
1.6135397 -13.231029 -13.217592
1.6155303 -13.570457 -13.169538
2.0998609 15.398979 -9.9259481
2.0929914 14.999769 -10.064155
2.1066213 14.746349 -9.789938
2.1235616 14.511003 -9.4491282
2.1739929 14.130951 -8.4345312
2.1808181 13.811845 -8.2972155
2.1873035 13.488372 -8.1667376
2.1917212 13.150326 -8.0778627
2.1955948 12.807635 -7.9999304
2.1988516 12.460158 -7.9344082
2.2016461 12.109053 -7.8781896
2.2045407 11.757548 -7.8199563
2.2073495 11.404637 -7.7634468
2.21014 11.050698 -7.707304
2.2128696 10.695536 -7.65239
2.2155631 10.339294 -7.5981979
2.2181008 9.9814529 -7.5471444
2.2205157 9.6222334 -7.4985604
2.2231765 9.2632332 -7.4450316
2.2255766 8.9023046 -7.3967438
2.2277663 8.5397692 -7.3526945
2.2299342 8.176424 -7.3090787
2.2319503 7.8118238 -7.2685146
2.233762 7.4458723 -7.2320671
2.2355244 7.0791607 -7.1966095
2.2375336 6.7125998 -7.1561933
2.2396157 6.3455777 -7.1142993
2.2415884 5.9775677 -7.0746145
2.2434332 5.6085801 -7.0374961
2.2453599 5.2391729 -6.9987335
2.2478347 4.8703055 -6.9489474
2.2500856 4.5001693 -6.903656
2.2521827 4.1290007 -6.8614683
2.2546017 3.7576685 -6.8128037
2.2569196 3.3853793 -6.7661719
2.9653823 -1.9769225 7.487
2.4173601 -2.0144684 -3.5383596
2.23945 -2.2394521 -7.1176314
2.2393453 -2.612571 -7.1197371
2.2393367 -2.9857826 -7.1199136
2.0091324 -10.380519 -11.751265
1.9980698 -10.656375 -11.973825
1.9891144 -10.940131 -12.153996
1.9808254 -11.224681 -12.320757
1.9743387 -11.516977 -12.451262
1.9682984 -11.809791 -12.572783
1.9646811 -12.115536 -12.645556
1.9668109 -12.45647 -12.602709
2.4404645 14.991424 -10.087584
2.4523447 14.714067 -9.8827171
2.4695833 14.464699 -9.5854502
2.5258327 14.072494 -8.6154642
2.5331941 13.751622 -8.4885216
2.5400407 13.425926 -8.3704576
2.545079 13.088976 -8.2835703
2.5495565 12.74778 -8.2063637
2.5534468 12.402454 -8.1392765
2.5566769 12.052904 -8.0835752
2.5598955 11.702378 -8.0280714
2.5629752 11.350318 -7.9749594
2.5662198 10.998084 -7.9190135
2.5693738 10.644548 -7.8646212
2.5724964 10.289985 -7.8107758
2.5753794 9.9336052 -7.7610588
2.5782094 9.5762043 -7.7122593
2.5812938 9.2189045 -7.6590681
2.5839677 8.8593159 -7.6129599
2.5862684 8.4977379 -7.5732875
2.5887828 8.1361732 -7.5299287
2.591372 7.7741137 -7.4852767
2.5934854 7.4099555 -7.4488339
2.5955117 7.0449586 -7.4138918
2.5978632 6.6802173 -7.3733416
2.6003599 6.3151579 -7.3302875
2.6026292 5.9488645 -7.2911563
2.6047306 5.5815625 -7.25492
2.606967 5.2139325 -7.2163539
2.6094708 4.846159 -7.1731744
2.6120713 4.4778352 -7.1283293
2.6148703 4.1090784 -7.0800591
2.6176755 3.7395341 -7.0316868
2.6199243 3.3684721 -6.9929128
3.460166 -1.9772396 7.4965367
2.8193057 -2.013792 -3.5547063
2.6085885 -2.2359347 -7.1883926
2.6084161 -2.6084161 -7.1913657
2.6084061 -2.9810371 -7.1915398
2.380307 -9.1811848 -11.124967
2.3671236 -9.4684982 -11.352298
2.3560033 -9.7605877 -11.544061
2.3460202 -10.054375 -11.716217
2.3380911 -10.354405 -11.852951
2.3308387 -10.655265 -11.978015
2.3262894 -10.966795 -12.056466
2.3284607 -11.309668 -12.019021
2.7918744 15.006324 -10.045758
2.7963433 14.680802 -9.978323
2.8141472 14.422503 -9.7096891
2.8284392 14.142195 -9.4940367
2.8733842 14.007747 -8.8158693
2.8824778 13.691768 -8.6786566
2.8896899 13.364814 -8.5698357
2.8953848 13.02923 -8.4839029
2.9000714 12.687811 -8.4131927
2.9044428 12.34388 -8.3472338
2.9082646 11.996591 -8.2895622
2.9115994 11.646396 -8.2392464
2.9151299 11.296125 -8.1859741
2.9187245 10.945217 -8.1317339
2.9222836 10.593277 -8.0780315
2.9258404 10.240439 -8.0243664
2.9291482 9.8858738 -7.9744544
2.9324412 9.5304337 -7.9247675
2.9358878 9.1746473 -7.8727632
2.939106 8.8173151 -7.8242078
2.9413605 8.4564095 -7.7901874
2.9441948 8.0965338 -7.7474203
2.9471478 7.7362609 -7.7028599
2.9496078 7.3740168 -7.6657453
2.9519467 7.0108714 -7.630456
2.9546647 6.6479945 -7.5894394
2.9573996 6.284472 -7.5481758
2.9599791 5.9199567 -7.5092506
2.9624033 5.5545053 -7.4726777
2.9649804 5.188714 -7.4337912
2.9676538 4.8224354 -7.3934526
2.9705734 4.4558592 -7.3493977
2.9737527 4.0889072 -7.3014245
2.9771469 3.7214322 -7.2502117
2.9794254 3.3518515 -7.2158279
3.9550667 -1.9775345 7.5054593
3.2209806 -2.0131145 -3.5710425
2.9764419 -2.2323329 -7.2608466
2.9763033 -2.6042659 -7.262939
2.9762802 -2.9762826 -7.2632856
2.7631547 -7.9440713 -10.479103
2.7477593 -8.2432804 -10.7114
2.7342691 -8.5445938 -10.914951
2.7224655 -8.8480148 -11.093053
2.7129405 -9.1561766 -11.236774
2.7044258 -9.4654913 -11.365257
2.6988294 -9.7832594 -11.449695
2.7009397 -10.128526 -11.417855
3.1435709 14.669996 -10.009381
3.1547554 14.371662 -9.8593683
3.1690087 14.084481 -9.6682005
3.1811376 13.784928 -9.5055237
3.1901243 13.469412 -9.3849916
3.1975377 13.145431 -9.2855625
3.2034266 12.813704 -9.2065783
3.2090862 12.479778 -9.1306677
3.2518938 12.284929 -8.5565243
3.2560296 11.938774 -8.50105
3.2599542 11.590947 -8.448411
3.2639873 11.242621 -8.3943214
3.2679932 10.893309 -8.3405924
3.2719715 10.543017 -8.2872314
3.2759347 10.191795 -8.2340755
3.2795086 9.8385248 -8.186141
3.2832654 9.4849873 -8.1357574
3.2872183 9.1311607 -8.0827351
3.2909553 8.7758789 -8.0326185
3.2933295 8.4162855 -8.0007734
3.2963619 8.0577726 -7.9601007
3.2996273 7.6991291 -7.9163041
3.3022921 7.3384256 -7.8805637
3.3049235 6.9770589 -7.8452716
3.3079774 6.615952 -7.8043118
3.3109734 6.2540579 -7.7641268
3.3138094 5.8912163 -7.7260914
3.3165739 5.5276203 -7.689014
3.3194323 5.1635604 -7.6506767
3.3223848 4.7989984 -7.6110706
3.3256507 4.4342003 -7.5672698
3.3292439 4.0690746 -7.5190759
3.3329868 3.7033167 -7.4688749
3.3355384 3.335536 -7.4346552
4.4495649 -1.9775847 7.5069985
3.6223862 -2.0124383 -3.5873652
3.3418434 -2.2278965 -7.35009
3.3416493 -2.599062 -7.3526936
3.3416362 -2.9703443 -7.3528671
3.1582549 -6.667429 -9.8124352
3.1404243 -6.9787216 -10.051586
3.1244223 -7.2903209 -10.266206
3.1107011 -7.6039376 -10.450241
3.0994141 -7.9207263 -10.601624
3.0895798 -8.2388821 -10.733521
3.0828457 -8.5634623 -10.823846
3.0847416 -8.9114761 -10.798417
3.5133004 14.755859 -9.7625999
3.5010848 14.354446 -9.9100561
3.5088637 14.035453 -9.8161554
3.5196598 13.726672 -9.6858349
3.5290802 13.410502 -9.5721245
3.5369711 13.086792 -9.4768715
3.5428274 12.754178 -9.4061813
3.5479805 12.417931 -9.343976
3.5528724 12.079764 -9.2849264
3.5573945 11.739401 -9.2303352
3.5617037 11.39745 -9.1783218
3.5659964 11.054587 -9.126502
3.5703661 10.711098 -9.0737572
3.5747864 10.366879 -9.0203972
3.5789506 10.021061 -8.9701319
3.5827093 9.6733131 -8.9247608
3.5870798 9.3264065 -8.8720055
3.5910976 8.9777431 -8.8235054
3.594491 8.6267786 -8.7825432
3.5980797 8.2755833 -8.7392225
3.6009452 7.9220777 -8.7046347
3.6039507 7.568295 -8.668355
3.6072192 7.2144365 -8.6289034
3.6104932 6.8599353 -8.5893774
3.6133921 6.5041046 -8.5543861
3.6162956 6.1476998 -8.5193377
3.6195726 5.791316 -8.4797792
3.6237049 5.4355559 -8.4299011
3.6706326 5.1388855 -7.8634338
3.6739948 4.7761917 -7.8228469
3.6775608 4.4130712 -7.7798018
3.681572 4.0497265 -7.7313819
3.6848269 3.6848257 -7.692091
3.6883147 3.3194814 -7.649991
4.9440885 -1.9776368 7.5085373
4.0235219 -2.0117631 -3.6036785
3.7038338 -2.2223017 -7.4626598
3.7036479 -2.5925543 -7.4649034
3.7036192 -2.9628968 -7.4652495
3.5677483 -5.3516254 -9.1053543
3.5457232 -5.6731577 -9.3712225
3.5270543 -5.995995 -9.5965729
3.5112672 -6.320282 -9.7871447
3.4980824 -6.646359 -9.9462976
3.4868472 -6.9736948 -10.081921
3.4789886 -7.3058782 -10.17678
3.4803908 -7.6568613 -10.159855
3.8661325 14.058662 -9.7461176
3.8651404 13.703679 -9.7570057
3.8700345 13.369209 -9.7032995
3.8762372 13.038251 -9.6352329
3.8817022 12.70375 -9.5752592
3.8868532 12.367258 -9.5187349
3.8918312 12.029295 -9.4641066
3.89639 11.689168 -9.4140816
3.9009016 11.348077 -9.3645725
3.9053371 11.005948 -9.3158998
3.9095504 10.662411 -9.2696619
3.9140201 10.318778 -9.2206125
3.9184999 9.9743624 -9.1714525
3.9227567 9.628583 -9.1247416
3.9273441 9.2828121 -9.074398
3.9319279 8.9361982 -9.0240984
3.9350092 8.5854721 -8.9902859
3.938581 8.2352142 -8.9510908
3.9419527 7.883904 -8.9140902
3.9452267 7.531795 -8.8781605
3.948595 7.1792622 -8.841198
3.9520433 6.8262548 -8.8033581
3.9553788 6.4724364 -8.7667551
3.9591658 6.1187091 -8.7251978
3.9623346 5.7633944 -8.690423
3.9655085 5.4075089 -8.6555929
3.9692254 5.0517406 -8.6148071
3.9729044 4.6952491 -8.5744333
3.9767852 4.3383098 -8.5318508
3.9812143 3.9812114 -8.483243
3.9847348 3.6224856 -8.4446115
3.9886386 3.2634301 -8.4017706
3.9923837 2.9035492 -8.360672
3.995909 2.5428493 -8.3219891
3.9999259 2.1817768 -8.2779102
4.004498 1.820225 -8.2277346
4.0098739 1.4581327 -8.1687441
4.0179563 1.0958045 -8.0800486
5.4386373 -1.977687 7.510077
4.4243884 -2.0110884 -3.6199825
4.0577235 -2.2133062 -7.6436524
4.0545721 -2.5801845 -7.6782384
4.0538859 -2.948283 -7.6857657
3.9920816 -3.9920847 -8.3639889
3.9643307 -4.3247266 -8.6685171
3.9427485 -4.6596136 -8.9053545
3.9248009 -4.9952016 -9.1023111
3.909507 -5.3311467 -9.2701397
3.8968217 -5.6681056 -9.4093428
3.8877418 -6.0083303 -9.5089827
3.8884587 -6.3629327 -9.5011187
4.2525244 12.757571 -9.3947973
4.2521944 12.402231 -9.3981171
4.2515969 12.046189 -9.4041262
4.2531219 11.696083 -9.3887882
4.2554502 11.347867 -9.3653641
4.2589164 11.002199 -9.3304968
4.2610779 10.652693 -9.3087568
4.263526 10.30352 -9.2841311
4.266736 9.9557161 -9.2518377
4.2697768 9.6069965 -9.2212515
4.2733774 9.2589836 -9.18503
4.2769523 8.9103165 -9.1490707
4.2798643 8.5597267 -9.1197767
4.2826209 8.2083559 -9.0920477
4.2855887 7.8569117 -9.0621948
4.2886724 7.5051751 -9.0311775
4.2916322 7.1527195 -9.0014009
4.2946444 6.7998524 -8.9710989
4.2979021 6.4468513 -8.9383326
4.3014536 6.0937243 -8.9026051
4.3047857 5.7397132 -8.8690891
4.3080263 5.3850312 -8.8364916
4.3115463 5.0301366 -8.8010826
4.3150878 4.6746769 -8.7654524
4.3188467 4.3188453 -8.727644
4.3231645 3.9628999 -8.6842146
4.3274908 3.6062403 -8.6406956
4.3310914 3.2483168 -8.604476
4.3350248 2.8900137 -8.5649052
4.3385563 2.5308239 -8.5293818
4.3425527 2.1712754 -8.4891806
4.3466053 1.8110828 -8.44841
4.3501396 1.4500432 -8.4128609
4.3536134 1.088401 -8.3779154
4.3561854 0.72603011 -8.352047
4.3586946 0.36322114 -8.3268061
4.3610902 -1.6691475e-06 -8.3027067
4.3634062 -0.36361951 -8.2794065
4.3657084 -0.72761881 -8.2562551
4.3677473 -1.0919398 -8.2357435
4.3692403 -1.4564151 -8.2207251
4.369904 -1.8207952 -8.2140465
4.369556 -2.1847794 -8.2175531
4.3694563 -2.5488493 -8.2185555
4.3694224 -2.9129517 -8.2188873
4.3721795 -3.2791364 -8.1911564
4.3519502 -3.6266253 -8.3946514
4.3343391 -3.9731448 -8.5718088
4.3200798 -4.3200808 -8.7152443
4.3096886 -4.6688323 -8.819768
4.3095918 -5.0278592 -8.8207417
4.3747401 -17.863525 -8.1653986
4.6864572 8.6519194 -8.656085
4.6805782 8.2810211 -8.7106752
4.6783643 7.9172306 -8.7312326
4.677978 7.5567322 -8.7348194
4.6789088 7.1983194 -8.7261772
4.6796646 6.8395081 -8.719162
4.679172 6.4788527 -8.7237301
4.6795411 6.1193986 -8.7203045
4.6808596 5.7610569 -8.7080622
4.6821785 5.4025126 -8.6958132
4.6817565 5.0418897 -8.6997356
4.6815982 4.6815972 -8.7012043
4.6830583 4.3228216 -8.6876469
4.6840792 3.9634509 -8.6781664
4.68718 3.6055219 -8.649374
4.6891732 3.2463498 -8.6308708
4.6917505 2.8872304 -8.6069355
4.6946316 2.5278773 -8.580183
4.7002444 2.169342 -8.5280657
4.7066355 1.810244 -8.4687233
4.7121167 1.449882 -8.4178267
4.7161288 1.0883359 -8.3805704
4.7204165 0.72621584 -8.3407593
4.7223663 0.36325663 -8.3226528
4.7242103 -1.521847e-06 -8.3055334
4.7250161 -0.36346531 -8.2980471
4.7256613 -0.7270267 -8.292057
4.726181 -1.0906584 -8.2872314
4.7268982 -1.4544314 -8.2805748
4.7270775 -1.8181089 -8.2789078
4.7263427 -2.1813896 -8.2857342
4.7261992 -2.5448797 -8.2870655
