# .PCD v0.7 - Point Cloud Data file format
VERSION 0.7
FIELDS x y z
SIZE 4 4 4
TYPE F F F
COUNT 1 1 1
WIDTH 1509
HEIGHT 1
VIEWPOINT 0 0 0 1 0 0 0
POINTS 1509
DATA ascii
-842.82953 217.50443 58.852757
-842.82953 190.31641 58.852818
-842.82953 163.12839 58.852867
-842.82953 135.94023 58.852852
-842.82953 108.75235 58.852695
-842.82953 81.564217 58.85268
-842.82953 54.376186 58.85273
-842.82953 27.18816 58.852783
-842.82953 2.5842561e-05 58.852768
-842.82953 -27.188 58.852818
-842.82953 -54.37603 58.852875
-842.82953 -81.564163 58.852859
-842.82953 -108.75206 58.852699
-842.82953 -135.94008 58.852753
-842.82953 -163.12822 58.852741
-845.83136 -190.99409 70.541595
-836.92426 390.56473 144.48817
-839.10181 363.61072 153.24973
-841.58978 336.63593 163.26062
-844.0885 309.49918 173.31476
-810.72522 270.24188 39.07119
-810.72522 243.21764 39.071232
-810.72522 216.1935 39.071331
-810.72522 189.16925 39.071369
-810.72522 162.14514 39.071198
-810.72522 135.12099 39.071301
-810.72522 108.09674 39.071339
-810.72522 81.072632 39.071163
-810.72522 54.048492 39.071266
-810.72522 27.024246 39.071308
-810.72522 6.7097824e-07 39.071346
-810.72522 -27.024006 39.071239
-810.72522 -54.048252 39.071274
-810.72522 -81.072495 39.071316
-810.72522 -108.09675 39.071354
-810.72522 -135.12076 39.071243
-810.72522 -162.145 39.071285
-813.20233 -189.74716 49.038494
-804.07739 388.17545 123.88667
-806.4408 361.50797 133.72408
-808.81812 334.68341 143.61946
-784.82373 297.69186 43.744232
-779.00201 268.62143 19.511961
-779.00201 241.75931 19.511841
-779.00201 214.89714 19.511992
-779.00201 188.03502 19.511864
-779.00201 161.17299 19.511808
-779.00201 134.31071 19.511892
-779.00201 107.44868 19.511833
-779.00201 80.586418 19.511919
-779.00201 53.72438 19.511858
-779.00201 26.862114 19.511946
-779.00201 8.5604988e-05 19.511885
-779.00201 -26.862051 19.511761
-779.00201 -53.724213 19.511911
-779.00201 -80.586349 19.511784
-779.00201 -107.44851 19.511942
-779.00201 -134.31064 19.51181
-779.00201 -161.17281 19.511965
-780.99298 -188.51547 27.799341
-771.90332 385.95181 104.71391
-774.1554 359.42947 114.42294
-776.42444 332.75339 124.2047
-752.00836 295.43198 18.944893
-747.6604 267.02164 0.20033138
-747.6604 240.31941 0.20045526
-747.6604 213.61736 0.20037949
-747.6604 186.91515 0.20050338
-747.6604 160.21298 0.20036344
-747.6604 133.51077 0.20048733
-747.6604 106.80871 0.20041156
-747.6604 80.106644 0.20033178
-747.6604 53.404331 0.20039473
-747.6604 26.702263 0.20031433
-747.6604 6.0739902e-05 0.20044629
-747.6604 -26.702009 0.20036489
-747.6604 -53.404316 0.20043166
-747.6604 -80.106384 0.20035027
-747.6604 -106.80859 0.20048141
-747.6604 -133.51065 0.20039839
-747.6604 -160.21297 0.20046459
-749.20258 -187.3006 6.8488121
-740.09229 383.75156 85.744263
-742.24268 357.37628 95.358185
-744.4057 330.84711 105.02826
-719.88147 293.28513 -4.6136084
-716.68665 265.43958 -18.896975
-716.68665 238.89566 -18.897013
-716.68665 212.35175 -18.897053
-716.68665 185.80771 -18.896885
-716.68665 159.26379 -18.896927
-716.68665 132.71977 -18.897036
-716.68665 106.17587 -18.897074
-716.68665 79.63195 -18.89711
-716.68665 53.087902 -18.896936
-716.68665 26.543989 -18.896978
-716.68665 7.7148281e-05 -18.897018
-716.68665 -26.543835 -18.897057
-716.68665 -53.087883 -18.896885
-716.68665 -79.631798 -18.896927
-716.68665 -106.1757 -18.896967
-716.68665 -132.71962 -18.897005
-716.68665 -159.26353 -18.897045
-717.98602 -186.14445 -13.087689
-734.57764 423.79492 187.40202
-708.64185 381.57651 66.989388
-710.68921 355.34479 76.494576
-712.74835 328.96094 86.054955
-688.49591 291.28687 -26.542332
-686.08081 263.87735 -37.755138
-686.08081 237.48953 -37.754936
-686.08081 211.10187 -37.754932
-686.08081 184.7141 -37.755001
-686.08081 158.32642 -37.755009
-686.08081 131.93864 -37.755074
-686.08081 105.55098 -37.755077
-686.08081 79.163315 -37.755077
-686.08081 52.775539 -37.755146
-686.08081 26.387743 -37.754936
-686.08081 7.7007149e-05 -37.75494
-686.08081 -26.387697 -37.755009
-686.08081 -52.775364 -37.755009
-686.08081 -79.163139 -37.755081
-686.08081 -105.5508 -37.755081
-686.08081 -131.93848 -37.755089
-686.08081 -158.32637 -37.754936
-687.14624 -185.00089 -32.808601
-695.53229 417.3194 135.29176
-677.54907 379.42761 48.461147
-679.49237 353.33606 57.844307
-681.45001 327.09607 67.2967
-657.54413 289.31958 -48.131424
-655.83026 262.33221 -56.406727
-655.83026 236.09898 -56.406631
-655.83026 209.86577 -56.406536
-655.83026 183.63255 -56.406715
-655.83026 157.39932 -56.406624
-655.83026 131.16611 -56.406521
-655.83026 104.9329 -56.406704
-655.83026 78.699669 -56.406605
-655.83026 52.46645 -56.406506
-655.83026 26.233356 -56.406624
-655.83026 2.3408489e-05 -56.406593
-655.83026 -26.233068 -56.406708
-655.83026 -52.466293 -56.406609
-655.83026 -78.699631 -56.406582
-655.83026 -104.93272 -56.406696
-655.83026 -131.16595 -56.406601
-655.83026 -157.39928 -56.406567
-656.65942 -183.86459 -52.402748
-657.7486 411.09286 85.185013
-646.80157 377.30093 30.125534
-648.64923 351.35175 39.418613
-650.50452 325.25226 48.749794
-627.17596 287.45569 -68.583595
-625.93182 260.8049 -74.840988
-625.93182 234.72446 -74.840942
-625.93182 208.64401 -74.840904
-625.93182 182.56357 -74.841133
-625.93182 156.48312 -74.841087
-625.93182 130.40256 -74.84111
-625.93182 104.32209 -74.841057
-625.93182 78.241531 -74.84108
-625.93182 52.161072 -74.841034
-625.93182 26.080513 -74.841057
-625.93182 5.5797445e-05 -74.841011
-625.93182 -26.0804 -74.840958
-625.93182 -52.160965 -74.840981
-625.93182 -78.241425 -74.840935
-625.93182 -104.32198 -74.840958
-625.93182 -130.40244 -74.840912
-625.93182 -156.48288 -74.841148
-626.54492 -182.74222 -71.757706
-621.07874 405.05139 36.566406
-616.39679 375.19812 11.994208
-618.14777 349.38794 21.183977
-619.90869 323.43073 30.425911
-597.37726 285.70224 -87.825691
-596.3822 259.2966 -93.048103
-596.3822 233.367 -93.048111
-596.3822 207.43741 -93.048126
-596.3822 181.50769 -93.048203
-596.3822 155.57809 -93.04821
-596.3822 129.64839 -93.048279
-596.3822 103.71867 -93.04808
-596.3822 77.78907 -93.048088
-596.3822 51.859364 -93.048164
-596.3822 25.929764 -93.048172
-596.3822 5.7511519e-05 -93.048248
-596.3822 -25.929541 -93.048256
-596.3822 -51.859268 -93.04805
-596.3822 -77.788971 -93.048126
-596.3822 -103.71857 -93.048134
-596.3822 -129.64828 -93.04821
-596.3822 -155.57788 -93.048218
-596.7984 -181.63429 -90.8638
-586.77106 400.07123 -3.5107617
-586.33173 373.12024 -5.9213066
-587.98535 347.44604 3.1518049
-589.65106 321.6279 12.291334
-567.93738 283.96878 -106.84851
-567.16986 257.8046 -111.05974
-567.16986 232.02415 -111.05967
-567.16986 206.24362 -111.05966
-567.16986 180.4632 -111.05961
-567.16986 154.68275 -111.05954
-567.16986 128.90233 -111.05975
-567.16986 103.1219 -111.0597
-567.16986 77.341461 -111.05963
-567.16986 51.560917 -111.05963
-567.16986 25.780476 -111.05956
-567.16986 0.00017480283 -111.05972
-567.16986 -25.780371 -111.05972
-567.16986 -51.560802 -111.05965
-567.16986 -77.341248 -111.05959
-567.16986 -103.12179 -111.05959
-567.16986 -128.90222 -111.05952
-567.16986 -154.68253 -111.05967
-567.40796 -180.53883 -109.75334
-556.6358 397.59695 -23.421705
-556.59534 371.06366 -23.654154
-558.159 345.52695 -14.66617
-559.72882 319.84515 -5.6421843
-538.85498 282.25751 -125.62811
-538.29419 256.33069 -128.85155
-538.29419 230.69759 -128.85135
-538.29419 205.06453 -128.85143
-538.29419 179.43147 -128.8515
-538.29419 153.79852 -128.85152
-538.29419 128.16534 -128.85138
-538.29419 102.53229 -128.85146
-538.29419 76.899338 -128.85147
-538.29419 51.266148 -128.85135
-538.29419 25.633095 -128.85143
-538.29419 3.7378413e-05 -128.8515
-538.29419 -25.632912 -128.8515
-538.29419 -51.266102 -128.85138
-538.29419 -76.899162 -128.85146
-538.29419 -102.5321 -128.85147
-538.29419 -128.1653 -128.85133
-538.29419 -153.79836 -128.85143
-538.44318 -179.48097 -127.99514
-526.87091 395.15323 -43.088043
-527.18488 369.02957 -41.192673
-528.65778 343.62762 -32.302986
-530.13892 318.0835 -23.363729
-510.11206 280.56177 -144.23651
-509.7446 254.87242 -146.45444
-509.7446 229.38515 -146.45447
-509.7446 203.89799 -146.45442
-509.7446 178.41072 -146.45447
-509.7446 152.92346 -146.45448
-509.7446 127.4363 -146.45445
-509.7446 101.94904 -146.45448
-509.7446 76.461769 -146.45451
-509.7446 50.974609 -146.45448
-509.7446 25.487211 -146.45428
-509.7446 5.3215786e-05 -146.45425
-509.7446 -25.487211 -146.45428
-509.7446 -50.974476 -146.45432
-509.7446 -76.461639 -146.45428
-509.7446 -101.9489 -146.4543
-509.7446 -127.43616 -146.45435
-509.7446 -152.92332 -146.4543
-509.86258 -178.45186 -145.74234
-673.47974 -269.39175 841.77472
-673.47974 -303.0658 841.77472
-673.47974 -336.73981 841.77472
-497.4697 392.73929 -62.514069
-498.09744 367.01929 -58.525497
-499.47919 341.74899 -49.746899
-500.87091 316.33957 -40.905083
-481.69785 278.87778 -162.71553
-481.51797 253.43059 -163.85823
-481.51797 228.08755 -163.85831
-481.51797 202.74449 -163.85809
-481.51797 177.40144 -163.85815
-481.51797 152.05841 -163.85822
-481.51797 126.71537 -163.85828
-481.51797 101.3722 -163.85814
-481.51797 76.029259 -163.85812
-481.51797 50.686222 -163.8582
-481.51797 25.343178 -163.85826
-481.51797 9.159643e-06 -163.85811
-481.51797 -25.343029 -163.85817
-481.51797 -50.685963 -163.85817
-481.51797 -76.029007 -163.85823
-481.51797 -101.37218 -163.85808
-481.51797 -126.71523 -163.85815
-481.51797 -152.05826 -163.85822
-481.60788 -177.43449 -163.28697
-642.76459 -270.63757 860.57281
-642.76459 -304.46732 860.57281
-642.76459 -338.29706 860.57288
-468.39627 390.33032 -81.899963
-469.32309 365.02911 -75.684616
-470.62003 339.89236 -66.987114
-471.92209 314.61472 -58.255444
-453.73627 277.28339 -180.21243
-453.61087 252.00613 -181.05296
-453.61087 226.80551 -181.05301
-453.61087 201.60489 -181.05304
-453.61087 176.40427 -181.05307
-453.61087 151.20375 -181.05304
-453.61087 126.00314 -181.05309
-453.61087 100.80251 -181.05312
-453.61087 75.601891 -181.05316
-453.61087 50.401249 -181.05292
-453.61087 25.200626 -181.05296
-453.61087 9.8814417e-06 -181.05299
-453.61087 -25.200613 -181.05302
-453.61087 -50.401127 -181.05299
-453.61087 -75.601753 -181.05304
-453.61087 -100.80238 -181.05307
-453.61087 -126.00288 -181.05304
-453.61087 -151.20351 -181.05307
-453.67944 -176.43074 -180.5934
-439.67346 387.94727 -101.07735
-440.85907 363.06049 -92.658859
-442.07077 338.05426 -84.054909
-443.28918 312.9101 -75.403488
-426.11453 275.72116 -197.35429
-426.01392 250.59654 -198.06868
-426.01392 225.53688 -198.06871
-426.01392 200.47722 -198.06874
-426.01392 175.41757 -198.06879
-426.01392 150.358 -198.06873
-426.01392 125.29836 -198.06877
-426.01392 100.23856 -198.06859
-426.01392 75.178902 -198.0686
-426.01392 50.119347 -198.06857
-426.01392 25.059683 -198.06859
-426.01392 3.1435502e-05 -198.06863
-426.01392 -25.059635 -198.06866
-426.01392 -50.11919 -198.06862
-426.01392 -75.178841 -198.06865
-426.01392 -100.2385 -198.06868
-426.01392 -125.29816 -198.0687
-426.01392 -150.35771 -198.06866
-426.06512 -175.43848 -197.70503
-411.58014 385.85648 -117.90254
-412.70041 361.11298 -109.45081
-413.82864 336.23578 -100.93899
-414.96304 311.22241 -92.380661
-398.80228 274.17661 -214.30421
-398.72568 249.20369 -214.88219
-398.72568 224.28328 -214.88208
-398.72568 199.36292 -214.88225
-398.72568 174.4425 -214.88214
-398.72568 149.52225 -214.88225
-398.72568 124.60185 -214.88214
-398.72568 99.681458 -214.88203
-398.72568 74.761192 -214.88214
-398.72568 49.840687 -214.8821
-398.72568 24.920433 -214.88222
-398.72568 3.5331253e-05 -214.88211
-398.72568 -24.920235 -214.8822
-398.72568 -49.840633 -214.88211
-398.72568 -74.761009 -214.88228
-398.72568 -99.681404 -214.88217
-398.72568 -124.60165 -214.88226
-398.72568 -149.52206 -214.88216
-398.75974 -174.4574 -214.62524
-400.96152 427.69232 3.6541576
-383.80319 383.80322 -134.42557
-384.84396 359.18774 -126.05007
-385.8887 334.43698 -117.64258
-386.94086 309.55283 -109.17567
-371.7912 272.647 -231.09073
-371.73752 247.82498 -231.52243
-371.73752 223.04254 -231.52243
-371.73752 198.26007 -231.52242
-371.73752 173.4776 -231.5224
-371.73752 148.69504 -231.52246
-371.73752 123.91257 -231.52245
-371.73752 99.130112 -231.52245
-371.73752 74.347542 -231.52248
-371.73752 49.565086 -231.52248
-371.73752 24.782625 -231.52246
-371.73752 5.6447036e-05 -231.52252
-371.73752 -24.782404 -231.52251
-371.73752 -49.564869 -231.52249
-371.73752 -74.347443 -231.52255
-371.73752 -99.129898 -231.52254
-371.73752 -123.91237 -231.52252
-371.73752 -148.69492 -231.52258
-371.75806 -173.48712 -231.3573
-375.48038 -200.25615 -201.40221
-368.66489 421.33148 -44.336071
-356.32028 381.77173 -150.77354
-357.28137 357.28149 -142.48666
-358.24774 332.65872 -134.15486
-359.21771 307.901 -125.79137
-345.07401 271.12961 -247.74106
-345.04779 246.46272 -247.96712
-345.04779 221.8165 -247.96709
-345.04779 197.17017 -247.96709
-345.04779 172.52394 -247.96706
-345.04779 147.87761 -247.96707
-345.04779 123.23139 -247.96704
-345.04779 98.58506 -247.96706
-345.04779 73.938965 -247.96724
-345.04779 49.292641 -247.96725
-345.04779 24.646416 -247.96721
-345.04779 7.2783369e-05 -247.96722
-345.04779 -24.646145 -247.96718
-345.04779 -49.29248 -247.96721
-345.04779 -73.938698 -247.96716
-345.04779 -98.58503 -247.96719
-345.04779 -123.23125 -247.96715
-345.04779 -147.87758 -247.96716
-345.05505 -172.52744 -247.90433
-347.61765 -198.63853 -225.80927
-337.31635 415.15863 -90.905518
-329.12817 379.76331 -166.93629
-330.00983 355.3952 -158.74962
-330.89767 330.89771 -150.50577
-320.93265 296.24561 -243.03522
-318.65118 269.62796 -264.21948
-318.64853 245.11424 -264.24435
-318.64853 220.60294 -264.24451
-318.64853 196.09149 -264.24448
-318.64853 171.58003 -264.24442
-318.64853 147.06859 -264.24435
-318.64853 122.55727 -264.24451
-318.64853 98.04583 -264.24445
-318.64853 73.534386 -264.24442
-318.64853 49.022835 -264.24442
-318.64853 24.511385 -264.24435
-318.64853 6.6681205e-05 -264.24451
-318.64853 -24.511374 -264.24445
-318.64853 -49.022816 -264.24438
-318.64853 -73.534271 -264.24435
-318.64853 -98.045578 -264.24451
-318.64853 -122.55704 -264.24445
-318.64853 -147.06847 -264.24438
-318.64853 -171.57993 -264.24435
-320.56934 -197.27333 -246.40878
-306.87173 409.16238 -136.14389
-302.21936 377.77429 -182.94283
-303.02603 353.53046 -174.82887
-303.83566 329.15536 -166.68449
-294.1976 294.19769 -263.63556
-292.53656 268.15863 -280.34454
-292.53656 243.78049 -280.34448
-292.53656 219.4025 -280.34467
-292.53656 195.02448 -280.34454
-292.53656 170.64633 -280.34448
-292.53656 146.26834 -280.34464
-292.53656 121.89032 -280.34451
-292.53656 97.512192 -280.34448
-292.53656 73.134193 -280.34464
-292.53656 48.75618 -280.34454
-292.53656 24.378042 -280.34448
-292.53656 4.3430839e-05 -280.34464
-292.53656 -24.377974 -280.34451
-292.53656 -48.756104 -280.34448
-292.53656 -73.134094 -280.34464
-292.53656 -97.512123 -280.34451
-292.53656 -121.89012 -280.3447
-292.53656 -146.26823 -280.34464
-292.53656 -170.64627 -280.34451
-293.97662 -195.98438 -265.85855
-277.29404 403.33685 -180.09401
-275.591 375.80591 -198.7827
-276.32272 351.6835 -190.75291
-277.05835 327.43271 -182.68062
-267.89447 292.24866 -283.24188
-266.70834 266.70834 -296.25827
-266.70834 242.46217 -296.25818
-266.70834 218.21603 -296.25836
-266.70834 193.96977 -296.25836
-266.70834 169.72351 -296.25833
-266.70834 145.47734 -296.25824
-266.70834 121.23107 -296.25821
-266.70834 96.984924 -296.25839
-266.70834 72.738762 -296.2583
-266.70834 48.492493 -296.25827
-266.70834 24.246225 -296.25824
-266.70834 -4.6937494e-05 -296.25824
-266.70834 -24.246082 -296.25836
-266.70834 -48.49234 -296.25833
-266.70834 -72.738609 -296.2583
-266.70834 -96.984772 -296.25821
-266.70834 -121.23103 -296.25818
-266.70834 -145.47719 -296.25839
-266.70834 -169.72346 -296.25836
-267.86096 -194.80798 -283.60977
-249.46127 399.13803 -211.77122
-249.23972 373.85968 -214.44559
-249.89697 349.85583 -206.5117
-250.55878 325.72644 -198.52299
-242.02383 290.42862 -301.54892
-241.15698 265.27274 -312.01285
-241.15698 241.15697 -312.01282
-241.15698 217.04143 -312.01288
-241.15698 192.92566 -312.01285
-241.15698 168.80991 -312.01282
-241.15698 144.69427 -312.013
-241.15698 120.57861 -312.01288
-241.15698 96.462845 -312.01282
-241.15698 72.347084 -312.01279
-241.15698 48.23156 -312.01288
-241.15698 24.115801 -312.01285
-241.15698 1.3278411e-05 -312.01279
-241.15698 -24.115608 -312.01297
-241.15698 -48.23127 -312.01285
-241.15698 -72.347031 -312.01282
-241.15698 -96.462791 -312.01276
-241.15698 -120.57844 -312.01294
-241.15698 -144.69409 -312.01285
-241.15698 -168.80986 -312.01279
-242.08707 -193.66963 -300.78568
-223.21594 396.82846 -229.19661
-223.15906 371.93192 -229.95959
-223.74544 348.04852 -222.09488
-224.33395 324.03799 -214.20137
-216.50374 288.67169 -319.22256
-215.88011 263.85355 -327.58688
-215.88011 239.86693 -327.58679
-215.88011 215.88019 -327.58673
-215.88011 191.89348 -327.58667
-215.88011 167.90689 -327.58685
-215.88011 143.92018 -327.58679
-215.88011 119.93346 -327.58676
-215.88011 95.946747 -327.58673
-215.88011 71.960159 -327.58688
-215.88011 47.973423 -327.58682
-215.88011 23.986708 -327.58679
-215.88011 -7.2370094e-06 -327.58673
-215.88011 -23.986593 -327.58691
-215.88011 -47.973316 -327.58685
-215.88011 -71.96003 -327.58682
-215.88011 -95.946754 -327.58676
-215.88011 -119.93324 -327.58685
-215.88011 -143.91995 -327.58682
-215.88011 -167.90668 -327.58676
-216.61264 -192.54446 -317.7619
-197.34264 394.6853 -245.36467
-197.33929 370.01126 -245.41507
-197.85933 346.25394 -237.56812
-198.38045 322.36835 -229.70537
-191.30309 286.95471 -336.49445
-190.87149 262.44843 -343.00684
-190.87149 238.58942 -343.00674
-190.87149 214.73051 -343.00684
-190.87149 190.87148 -343.00674
-190.87149 167.0127 -343.00681
-190.87149 143.15367 -343.00671
-190.87149 119.29478 -343.00687
-190.87149 95.43576 -343.00674
-190.87149 71.576859 -343.00687
-190.87149 47.717934 -343.00668
-190.87149 23.859058 -343.00684
-190.87149 2.4592988e-05 -343.00671
-190.87149 -23.858879 -343.00684
-190.87149 -47.717781 -343.00668
-190.87149 -71.576683 -343.00681
-190.87149 -95.435707 -343.00671
-190.87149 -119.29462 -343.00684
-190.87149 -143.15364 -343.00674
-190.87149 -167.01241 -343.00677
-191.43484 -191.4348 -334.50638
-173.38182 396.3013 -233.17253
-172.46417 369.56622 -248.99677
-172.73976 345.47958 -244.24445
-173.01624 321.31601 -239.47701
-166.43637 285.31961 -352.94269
-166.12782 261.05817 -358.2634
-166.12782 237.32561 -358.26343
-166.12782 213.59305 -358.26343
-166.12782 189.86037 -358.26324
-166.12782 166.12782 -358.26331
-166.12782 142.39526 -358.26331
-166.12782 118.66271 -358.26334
-166.12782 94.93026 -358.26328
-166.12782 71.197716 -358.26331
-166.12782 47.465157 -358.26334
-166.12782 23.732601 -358.26337
-166.12782 4.5818739e-05 -358.26337
-166.12782 -23.732506 -358.26343
-166.12782 -47.465061 -358.26343
-166.12782 -71.197517 -358.2634
-166.12782 -94.930061 -358.2634
-166.12782 -118.66263 -358.26343
-166.12782 -142.39516 -358.26346
-166.12782 -166.12773 -358.26349
-166.54559 -190.3378 -351.05917
-146.297 390.1254 -279.76682
-146.51364 366.28412 -275.40848
-146.90508 342.77859 -267.53302
-147.28749 319.12292 -259.83981
-141.86754 283.73517 -368.88077
-141.64551 259.6835 -373.3476
-141.64551 236.07594 -373.34775
-141.64551 212.46828 -373.34769
-141.64551 188.8607 -373.34756
-141.64551 165.25317 -373.34775
-141.64551 141.64561 -373.34763
-141.64551 118.03793 -373.34756
-141.64551 94.430389 -373.34775
-141.64551 70.822823 -373.3476
-141.64551 47.215157 -373.34756
-141.64551 23.607702 -373.34766
-141.64551 3.404772e-05 -373.34763
-141.64551 -23.60751 -373.34775
-141.64551 -47.215073 -373.34766
-141.64551 -70.822746 -373.3476
-141.64551 -94.430199 -373.34769
-141.64551 -118.03786 -373.34763
-141.64551 -141.64552 -373.3476
-141.64551 -165.25298 -373.34769
-141.93941 -189.25238 -367.43491
-121.22502 387.92014 -296.40408
-121.50258 364.50781 -289.70352
-121.80122 341.04355 -282.49356
-122.11666 317.50345 -274.87814
-117.57005 282.16812 -384.6427
-117.41918 258.3223 -388.28546
-117.41918 234.83847 -388.28537
-117.41918 211.35457 -388.28534
-117.41918 187.87076 -388.28522
-117.41918 164.38699 -388.28543
-117.41918 140.90308 -388.2854
-117.41918 117.41927 -388.28528
-117.41918 93.935364 -388.28528
-117.41918 70.451584 -388.28546
-117.41918 46.967777 -388.28534
-117.41918 23.483877 -388.28534
-117.41918 6.675515e-05 -388.28525
-117.41918 -23.483849 -388.28522
-117.41918 -46.967606 -388.2854
-117.41918 -70.451416 -388.28531
-117.41918 -93.935333 -388.28528
-117.41918 -117.41912 -388.28519
-117.41918 -140.90291 -388.28537
-117.41918 -164.38681 -388.28534
-117.63687 -188.21895 -383.02963
-96.460007 385.84 -312.09702
-96.706894 362.65088 -304.64639
-96.951027 339.32867 -297.27917
-97.200439 315.90143 -289.75232
-93.535355 280.60617 -400.3562
-93.445885 256.9762 -403.05591
-93.445885 233.6147 -403.05588
-93.445885 210.25333 -403.05603
-93.445885 186.89185 -403.05597
-93.445885 163.53033 -403.05591
-93.445885 140.16885 -403.05588
-93.445885 116.80734 -403.05582
-93.445885 93.445976 -403.056
-93.445885 70.08448 -403.05594
-93.445885 46.722992 -403.05591
-93.445885 23.361488 -403.05585
-93.445885 0.00012605029 -403.056
-93.445885 -23.361364 -403.05597
-93.445885 -46.72287 -403.05591
-93.445885 -70.084373 -403.05588
-93.445885 -93.445862 -403.05582
-93.445885 -116.80721 -403.05597
-93.445885 -140.16873 -403.05594
-93.445885 -163.53021 -403.05588
-93.599472 -187.19888 -398.42136
-75.048126 425.27271 -203.33165
-71.984291 383.91626 -326.61087
-72.167915 360.83966 -319.22256
-72.352478 337.64487 -311.79633
-72.533775 314.31308 -304.50125
-69.765579 279.06244 -415.88538
-69.720848 255.6433 -417.6846
-69.720848 232.40288 -417.68451
-69.720848 209.16267 -417.68454
-69.720848 185.92236 -417.68463
-69.720848 162.68202 -417.68445
-69.720848 139.44173 -417.68454
-69.720848 116.20152 -417.68457
-69.720848 92.961212 -417.68466
-69.720848 69.720879 -417.68448
-69.720848 46.48056 -417.68457
-69.720848 23.240379 -417.6846
-69.720848 0.00016846029 -417.68463
-69.720848 -23.240261 -417.68451
-69.720848 -46.480473 -417.68454
-69.720848 -69.720772 -417.68466
-69.720848 -92.961105 -417.68448
-69.720848 -116.20142 -417.68457
-69.720848 -139.4416 -417.68457
-69.720848 -162.6819 -417.68469
-69.82148 -186.19054 -413.63574
-49.337326 419.36731 -245.26402
-47.751438 382.01169 -340.98077
-47.872643 359.04489 -333.66556
-47.994461 335.9613 -326.31332
-48.1171 312.76117 -318.91129
-46.256634 277.53983 -431.2002
-46.240879 254.32489 -432.15103
-46.240879 231.20453 -432.15118
-46.240879 208.08403 -432.15109
-46.240879 184.96367 -432.15121
-46.240879 161.84319 -432.15115
-46.240879 138.72269 -432.15106
-46.240879 115.60231 -432.15115
-46.240879 92.481834 -432.15109
-46.240879 69.361465 -432.15121
-46.240879 46.240955 -432.15112
-46.240879 23.120474 -432.15106
-46.240879 0.00010668406 -432.15118
-46.240879 -23.12039 -432.15109
-46.240879 -46.240753 -432.15121
-46.240879 -69.361252 -432.15112
-46.240879 -92.481743 -432.15103
-46.240879 -115.6021 -432.15118
-46.240879 -138.7226 -432.15109
-46.240879 -161.84296 -432.15118
-46.298088 -185.19229 -428.69809
-24.3309 413.62534 -286.03564
-23.757948 380.12723 -355.19699
-23.817854 357.26791 -347.96573
-23.878162 334.29428 -340.68588
-23.938774 311.20413 -333.36923
-23.008715 276.10458 -445.63754
-23.001734 253.01904 -446.48019
-23.001734 230.01738 -446.48026
-23.001734 207.01572 -446.48029
-23.001734 184.01392 -446.48013
-23.001734 161.01215 -446.48026
-23.001734 138.01048 -446.48029
-23.001734 115.00869 -446.48013
-23.001734 92.007027 -446.48016
-23.001734 69.005249 -446.48029
-23.001734 46.003586 -446.48035
-23.001734 23.001781 -446.48019
-23.001734 1.4067859e-05 -446.48029
-23.001734 -23.001648 -446.48035
-23.001734 -46.003441 -446.48016
-23.001734 -69.005104 -446.48022
-23.001734 -92.006897 -446.48035
-23.001734 -115.00869 -446.48016
-23.001734 -138.01035 -446.48022
-23.001734 -161.01201 -446.48026
-23.025595 -184.20473 -443.59982
3.7138259e-23 408.03693 -325.71768
2.5247285e-22 378.25989 -369.28522
3.8593514e-22 355.50977 -362.11325
-3.8163379e-22 332.64395 -354.91693
3.4151341e-23 309.66382 -347.67233
5.0852776e-22 274.68414 -459.9263
-1.7882682e-22 251.72678 -460.66296
2.090909e-22 228.84245 -460.6629
-6.3077419e-22 205.95825 -460.66302
3.9241824e-22 183.07393 -460.66293
-5.7444992e-22 160.18976 -460.66309
-1.8653221e-22 137.30554 -460.66296
-1.0372726e-23 114.42122 -460.66287
-3.2048705e-24 91.537025 -460.66299
1.7295461e-22 68.652695 -460.66293
-5.6103136e-22 45.768608 -460.66299
-2.7899276e-22 22.884289 -460.6629
-2.7182491e-22 9.7346565e-05 -460.66302
1.0213691e-23 -22.884222 -460.66296
-9.5665447e-22 -45.768398 -460.66312
1.7241707e-22 -68.652611 -460.66296
3.4857656e-22 -91.536934 -460.66287
-3.8540942e-22 -114.42112 -460.66299
-2.0924994e-22 -137.30547 -460.66293
-9.6202963e-23 -160.18956 -460.66299
-8.4300625e-22 -183.21887 -458.47382
23.682287 402.59903 -364.3302
23.525667 376.4108 -383.23587
23.584503 353.76761 -376.13382
23.643631 331.01096 -368.99625
23.702963 308.13858 -361.83456
22.772738 273.27295 -474.12259
22.76803 250.44843 -474.69092
22.76803 227.6803 -474.69077
22.76803 204.91234 -474.69089
22.76803 182.14426 -474.69077
22.76803 159.3763 -474.69089
22.76803 136.60818 -474.69077
22.76803 113.84024 -474.69089
22.76803 91.072151 -474.6908
22.76803 68.304192 -474.69092
22.76803 45.536098 -474.69077
22.76803 22.768137 -474.69089
22.76803 4.7123114e-05 -474.6908
22.76803 -22.767931 -474.69089
22.76803 -45.536018 -474.6908
22.76803 -68.303978 -474.69092
22.76803 -91.07206 -474.69077
22.76803 -113.84002 -474.69089
22.76803 -136.60811 -474.6908
22.76803 -159.37608 -474.69089
22.780378 -182.24295 -473.20004
46.867554 398.37436 -394.32803
46.822445 374.57962 -397.05069
46.938972 352.04236 -390.01767
47.05608 329.39258 -382.94974
45.832623 297.91217 -456.79169
45.312492 271.87506 -488.18427
45.305809 249.18202 -488.58746
45.305809 226.52905 -488.58746
45.305809 203.8763 -488.58755
45.305809 181.22333 -488.58752
45.305809 158.57034 -488.58752
45.305809 135.91747 -488.5874
45.305809 113.26462 -488.58759
45.305809 90.611641 -488.58755
45.305809 67.958786 -488.58746
45.305809 45.305809 -488.58743
45.305809 22.653065 -488.58755
45.305809 7.3223673e-05 -488.58752
45.305809 -22.652889 -488.58746
45.305809 -45.305775 -488.5874
45.305809 -67.958611 -488.58759
45.305809 -90.611618 -488.58752
45.305809 -113.26447 -488.58743
45.305809 -135.91743 -488.5874
45.305809 -158.5703 -488.58759
45.321289 -181.28502 -487.65338
69.918213 396.20337 -409.74368
69.893929 372.76761 -410.72034
70.06675 350.33383 -403.76666
70.240715 327.79004 -396.76715
68.084473 295.03281 -483.52713
67.622826 270.49142 -502.10278
67.617081 247.92929 -502.3338
67.617081 225.39034 -502.33395
67.617081 202.8513 -502.33377
67.617081 180.31233 -502.33395
67.617081 157.77324 -502.33389
67.617081 135.23422 -502.33374
67.617081 112.69523 -502.33389
67.617081 90.156136 -502.33383
67.617081 67.617142 -502.33395
67.617081 45.07814 -502.3338
67.617081 22.539164 -502.33398
67.617081 4.2726566e-05 -502.33389
67.617081 -22.539062 -502.33386
67.617081 -45.077923 -502.33389
67.617081 -67.617043 -502.33383
67.617081 -90.156021 -502.33398
67.617081 -112.69504 -502.33386
67.617081 -135.23416 -502.33377
67.617081 -157.77313 -502.33392
67.637192 -180.36584 -501.52472
92.721565 394.0668 -424.91434
92.742928 370.97171 -424.26968
92.971504 348.64325 -417.37189
93.20121 326.20422 -410.43973
90.20417 293.1636 -500.88345
89.707214 269.1218 -515.88037
89.704803 246.68829 -515.95312
89.704803 224.26201 -515.953
89.704803 201.83591 -515.95319
89.704803 179.40967 -515.95312
89.704803 156.98355 -515.95325
89.704803 134.55728 -515.95319
89.704803 112.13102 -515.95306
89.704803 89.704903 -515.95325
89.704803 67.278641 -515.95319
89.704803 44.852394 -515.95306
89.704803 22.426279 -515.95325
89.704803 4.1234798e-06 -515.95312
89.704803 -22.426241 -515.95306
89.704803 -44.852333 -515.95325
89.704803 -67.278488 -515.95306
89.704803 -89.70475 -515.953
89.704803 -112.13087 -515.95312
89.704803 -134.55713 -515.95306
89.704803 -156.98337 -515.953
89.727898 -179.45584 -515.25604
115.28122 391.95624 -439.90039
115.37281 369.19312 -437.68915
115.6558 346.9675 -430.8573
115.94017 324.63251 -423.99182
112.06772 291.37616 -517.48108
111.57292 267.77515 -529.42639
111.57292 245.46051 -529.42645
111.57292 223.14587 -529.42627
111.57292 200.83124 -529.42633
111.57292 178.51675 -529.42639
111.57292 156.20226 -529.42645
111.57292 133.88762 -529.42651
111.57292 111.57298 -529.42633
111.57292 89.258369 -529.42645
111.57292 66.943871 -529.42645
111.57292 44.62925 -529.42651
111.57292 22.314606 -529.42633
111.57292 9.1113128e-05 -529.42639
111.57292 -22.314528 -529.42645
111.57292 -44.629044 -529.42651
111.57292 -66.943794 -529.42639
111.57292 -89.258278 -529.42639
111.57292 -111.57278 -529.42639
111.57292 -133.88741 -529.42651
111.57292 -156.20204 -529.42633
111.59682 -178.55484 -528.84961
137.60051 389.86823 -454.72678
137.78726 367.4328 -450.96964
138.12306 345.30765 -444.21365
138.46104 323.07584 -437.41391
133.71782 289.72192 -532.84052
133.22394 266.44791 -542.77643
133.22394 244.24399 -542.77637
133.22394 222.03996 -542.77637
133.22394 199.83595 -542.77637
133.22394 177.63196 -542.77643
133.22394 155.42795 -542.77643
133.22394 133.22392 -542.77643
133.22394 111.02002 -542.77637
133.22394 88.816002 -542.77637
133.22394 66.611992 -542.77637
133.22394 44.407993 -542.77637
133.22394 22.203978 -542.77643
133.22394 5.3478736e-05 -542.77637
133.22394 -22.203932 -542.77637
133.22394 -44.407959 -542.77637
133.22394 -66.611961 -542.77637
133.22394 -88.815987 -542.77637
133.22394 -111.01987 -542.77631
133.22394 -133.22389 -542.77631
133.22394 -155.42792 -542.77637
133.24725 -177.66298 -542.30731
159.68324 387.80225 -469.39597
159.98834 365.68768 -464.1347
160.37703 343.66516 -457.43219
160.76698 321.53412 -450.70786
155.14467 288.12582 -547.66101
154.66141 265.13382 -555.99469
154.66141 243.03943 -555.99469
154.66141 220.94489 -555.99469
154.66141 198.85037 -555.99475
154.66141 176.75595 -555.99469
154.66141 154.66144 -555.99475
154.66141 132.56689 -555.99475
154.66141 110.4725 -555.99475
154.66141 88.37796 -555.99475
154.66141 66.283554 -555.99475
154.66141 44.18903 -555.99475
154.66141 22.094521 -555.99475
154.66141 0.00010119004 -555.99475
154.66141 -22.094421 -555.99475
154.66141 -44.188946 -555.99481
154.66141 -66.283363 -555.99475
154.66141 -88.377884 -555.99481
154.66141 -110.47231 -555.99475
154.66141 -132.56683 -555.99475
154.66141 -154.66135 -555.99481
154.68248 -176.78001 -555.63129
155.98386 -200.55064 -533.18976
181.54167 385.77612 -483.78275
181.97957 363.95914 -477.17542
182.41959 342.03671 -470.53604
182.86172 320.00812 -463.86465
176.33609 286.5462 -562.32922
175.88911 263.83374 -569.07343
175.88911 241.84755 -569.0733
175.88911 219.86151 -569.07343
175.88911 197.87521 -569.0733
175.88911 175.88918 -569.07343
175.88911 153.90302 -569.0733
175.88911 131.91684 -569.07343
175.88911 109.93069 -569.0733
175.88911 87.944664 -569.07343
175.88911 65.958359 -569.0733
175.88911 43.972328 -569.07343
175.88911 21.986282 -569.07349
175.88911 0.00011052682 -569.07336
175.88911 -21.986063 -569.07349
175.88911 -43.972237 -569.07336
175.88911 -65.958267 -569.07349
175.88911 -87.944542 -569.07336
175.88911 -109.93059 -569.07349
175.88911 -131.91678 -569.07336
175.88911 -153.90291 -569.07349
175.90567 -175.90567 -568.82343
177.08632 -199.22209 -551.00885
211.28313 422.56631 -389.24298
203.27664 383.96701 -496.62833
203.76387 362.24692 -490.09351
204.25423 340.4238 -483.51645
204.74696 318.49539 -476.9079
197.30602 284.99762 -576.70801
196.90891 262.54526 -582.0343
196.90891 240.66653 -582.03424
196.90891 218.78773 -582.0343
196.90891 196.90903 -582.03424
196.90891 175.03023 -582.0343
196.90891 153.15141 -582.0343
196.90891 131.27272 -582.03424
196.90891 109.39388 -582.03424
196.90891 87.515091 -582.0343
196.90891 65.636375 -582.03424
196.90891 43.757584 -582.0343
196.90891 21.878881 -582.03424
196.90891 7.3932213e-05 -582.0343
196.90891 -21.878733 -582.0343
196.90891 -43.757435 -582.03424
196.90891 -65.636269 -582.0343
196.90891 -87.514969 -582.03424
196.90891 -109.39378 -582.0343
196.90891 -131.27258 -582.0343
196.90891 -153.15129 -582.03424
196.92072 -175.04056 -581.87592
197.96696 -197.96695 -567.84326
231.85272 417.33493 -424.32529
224.80785 382.17334 -509.36438
225.34503 360.55212 -502.88
225.88391 338.82596 -496.37512
226.42625 316.99692 -489.82849
218.10591 283.53781 -590.26373
217.72522 261.27039 -594.85938
217.72522 239.4978 -594.85931
217.72522 217.7252 -594.85931
217.72522 195.95271 -594.85925
217.72522 174.18016 -594.85931
217.72522 152.40781 -594.85944
217.72522 130.63522 -594.85944
217.72522 108.86272 -594.85938
217.72522 87.090141 -594.85938
217.72522 65.317551 -594.85938
217.72522 43.54509 -594.85931
217.72522 21.77252 -594.85931
217.72522 2.8288072e-05 -594.85925
217.72522 -21.772438 -594.85944
217.72522 -43.544914 -594.85944
217.72522 -65.317482 -594.85938
217.72522 -87.089973 -594.85931
217.72522 -108.86256 -594.85931
217.72522 -130.63515 -594.85931
217.72522 -152.40762 -594.85925
217.7317 -174.18536 -594.78094
218.71225 -196.841 -582.94464
251.86685 412.14581 -459.12427
246.13882 380.39642 -521.98206
246.72423 358.87167 -515.5578
247.31244 337.24432 -509.10309
247.90346 315.51364 -502.61749
238.68761 282.08545 -603.74945
238.33943 260.00674 -607.57019
238.33943 238.33955 -607.57025
238.33943 216.67227 -607.57013
238.33943 195.00502 -607.57013
238.33943 173.33791 -607.57031
238.33943 151.67061 -607.57019
238.33943 130.00336 -607.57019
238.33943 108.33608 -607.57013
238.33943 86.668961 -607.57025
238.33943 65.001717 -607.57025
238.33943 43.334438 -607.57013
238.33943 21.667189 -607.57013
238.33943 6.9876754e-05 -607.57031
238.33943 -21.667107 -607.57013
238.33943 -43.334354 -607.57013
238.33943 -65.001488 -607.57025
238.33943 -86.668777 -607.57019
238.33943 -108.33604 -607.57013
238.33943 -130.0033 -607.57013
238.33943 -151.67043 -607.57025
238.34032 -173.33832 -607.56061
239.3201 -195.80737 -596.80853
271.26852 406.90277 -494.28436
267.27338 378.6373 -534.4726
267.90509 357.20691 -528.11816
268.54083 335.67603 -521.72308
269.17957 314.04291 -515.29779
259.05664 280.64468 -617.12653
258.75522 258.75531 -620.15863
258.75522 237.19226 -620.15863
258.75522 215.62932 -620.15857
258.75522 194.0665 -620.15869
258.75522 172.50357 -620.15863
258.75522 150.94063 -620.15857
258.75522 129.3777 -620.15881
258.75522 107.81475 -620.15875
258.75522 86.251778 -620.15863
258.75522 64.688835 -620.15857
258.75522 43.125919 -620.15875
258.75522 21.562977 -620.15869
258.75522 3.586759e-05 -620.15863
258.75522 -21.562777 -620.15875
258.75522 -43.125736 -620.15869
258.75522 -64.688805 -620.15869
258.75522 -86.251747 -620.15863
258.75522 -107.81456 -620.15875
258.75522 -129.37752 -620.15869
258.75522 -150.94057 -620.15863
258.75522 -172.50351 -620.15857
259.71265 -194.78444 -610.52777
290.18167 401.79004 -528.57147
288.21228 376.89301 -546.85834
288.89142 355.55878 -540.55212
289.57269 334.12234 -534.22626
290.25827 312.58591 -527.86047
279.21869 279.21881 -630.36768
278.97644 257.51682 -632.61707
278.97644 236.05707 -632.61707
278.97644 214.59734 -632.61707
278.97644 193.13748 -632.61694
278.97644 171.67784 -632.61688
278.97644 150.21811 -632.61688
278.97644 128.75836 -632.61694
278.97644 107.29874 -632.61713
278.97644 85.839005 -632.61713
278.97644 64.379356 -632.61713
278.97644 42.919609 -632.61713
278.97644 21.45986 -632.61713
278.97644 7.852391e-05 -632.61713
278.97644 -21.459671 -632.61713
278.97644 -42.919392 -632.61713
278.97644 -64.379036 -632.61707
278.97644 -85.838783 -632.61707
278.97644 -107.29854 -632.61707
278.97644 -128.7583 -632.61707
278.97644 -150.21805 -632.61713
278.97644 -171.67767 -632.61707
279.89218 -193.77141 -624.11389
309.31927 397.69632 -556.02509
308.95914 375.16473 -559.13043
309.68381 353.9245 -552.88202
310.41193 332.58426 -546.60425
311.14224 311.14224 -540.30695
299.17578 277.80609 -643.48444
299.00391 256.28918 -644.96619
299.00391 234.93164 -644.96606
299.00391 213.57431 -644.96606
299.00391 192.21686 -644.96619
299.00391 170.85953 -644.96619
299.00391 149.50204 -644.96619
299.00391 128.14462 -644.96625
299.00391 106.78714 -644.96606
299.00391 85.429665 -644.96606
299.00391 64.072327 -644.96606
299.00391 42.714893 -644.96619
299.00391 21.357531 -644.96613
299.00391 6.9170048e-05 -644.96619
299.00391 -21.357262 -644.96619
299.00391 -42.714825 -644.96606
299.00391 -64.072296 -644.96606
299.00391 -85.429626 -644.96606
299.00391 -106.7871 -644.96613
299.00391 -128.14444 -644.96613
299.00391 -149.50189 -644.96619
299.00391 -170.85922 -644.96619
299.86404 -192.76976 -637.54993
329.71136 395.65366 -569.72302
329.51657 373.45215 -571.29059
330.28592 352.30508 -565.09912
331.05893 331.05905 -558.87872
331.83554 309.7132 -552.62897
318.95752 276.42993 -656.26343
318.8425 255.07414 -657.18878
318.8425 233.8179 -657.18878
318.8425 212.56177 -657.18872
318.8425 191.30557 -657.18878
318.8425 170.04944 -657.18872
318.8425 148.79323 -657.1886
318.8425 127.53709 -657.18878
318.8425 106.2809 -657.1886
318.8425 85.024719 -657.18872
318.8425 63.768532 -657.1886
318.8425 42.512375 -657.18878
318.8425 21.256187 -657.1886
318.8425 0.00012669622 -657.18866
318.8425 -21.256159 -657.18866
318.8425 -42.512218 -657.18872
318.8425 -63.768513 -657.1886
318.8425 -85.024567 -657.18872
318.8425 -106.28086 -657.18866
318.8425 -127.53694 -657.18872
318.8425 -148.79323 -657.18866
318.8425 -170.04929 -657.18872
319.63165 -191.77893 -650.83844
349.89374 393.63049 -583.29077
349.88849 371.75656 -583.33038
350.70041 350.70047 -577.2049
351.51743 329.54767 -571.04108
352.33823 308.29599 -564.84845
338.60187 275.11407 -668.4812
338.49265 253.86958 -669.30518
338.49265 232.71379 -669.30511
338.49265 211.55795 -669.30524
338.49265 190.40219 -669.30524
338.49265 169.2464 -669.30518
338.49265 148.09056 -669.30524
338.49265 126.93484 -669.3053
338.49265 105.77901 -669.30518
338.49265 84.623215 -669.30511
338.49265 63.467449 -669.3053
338.49265 42.311626 -669.30518
338.49265 21.155836 -669.30511
338.49265 0.00017289966 -669.30524
338.49265 -21.155722 -669.30524
338.49265 -42.311546 -669.30511
338.49265 -63.467335 -669.30505
338.49265 -84.6231 -669.3053
338.49265 -105.77892 -669.30518
338.49265 -126.93472 -669.30505
338.49265 -148.09041 -669.30524
338.49265 -169.24631 -669.30524
339.19952 -190.79965 -663.97253
369.87213 391.62936 -596.71063
370.07489 370.07489 -595.271
370.93112 349.11169 -589.1911
371.78995 328.04999 -583.09302
372.65414 306.89172 -576.95654
358.05368 273.80579 -680.62909
357.95941 252.67728 -681.29858
357.95941 231.62085 -681.29865
357.95941 210.56444 -681.29865
357.95941 189.50801 -681.29865
357.95941 168.45158 -681.29865
357.95941 147.39517 -681.29865
357.95941 126.33871 -681.29858
357.95941 105.28222 -681.29852
357.95941 84.225807 -681.29852
357.95941 63.169373 -681.29852
357.95941 42.112965 -681.29852
357.95941 21.056425 -681.29865
357.95941 1.6599652e-05 -681.29865
357.95941 -21.056417 -681.29865
357.95941 -42.112827 -681.29865
357.95941 -63.169262 -681.29865
357.95941 -84.2257 -681.29858
357.95941 -105.28214 -681.29865
357.95941 -126.33855 -681.29865
357.95941 -147.39497 -681.29865
357.95941 -168.45139 -681.29865
358.63336 -189.86459 -676.513
389.64841 389.6485 -609.995
390.07947 368.40848 -607.10419
390.97794 347.53598 -601.07892
391.88052 326.56717 -595.02588
380.25714 295.75552 -672.97412
377.32135 272.50992 -692.66211
377.24277 251.49527 -693.18896
377.24277 230.53732 -693.18903
377.24277 209.57932 -693.18896
377.24277 188.62148 -693.18896
377.24277 167.66353 -693.18903
377.24277 146.70563 -693.1889
377.24277 125.74768 -693.18896
377.24277 104.78972 -693.18909
377.24277 83.831825 -693.18896
377.24277 62.873871 -693.18903
377.24277 41.915905 -693.18903
377.24277 20.958052 -693.18903
377.24277 -9.7312895e-06 -693.1889
377.24277 -20.957865 -693.1889
377.24277 -41.915794 -693.18896
377.24277 -62.873753 -693.18903
377.24277 -83.831581 -693.18903
377.24277 -104.78954 -693.18909
377.24277 -125.7476 -693.1889
377.24277 -146.70546 -693.18896
377.24277 -167.66341 -693.18896
377.88449 -188.94217 -688.88556
409.23773 387.69901 -623.0686
409.90469 366.75696 -618.83124
410.8446 345.97446 -612.85992
411.78879 325.0965 -606.86127
399.01007 294.00754 -688.04688
396.40747 271.22617 -704.5816
396.34659 250.32422 -704.96869
396.34659 229.4639 -704.96863
396.34659 208.6035 -704.96863
396.34659 187.74316 -704.96857
396.34659 166.8828 -704.96869
396.34659 146.02245 -704.96857
396.34659 125.16219 -704.96863
396.34659 104.30177 -704.96857
396.34659 83.441483 -704.96863
396.34659 62.581028 -704.96857
396.34659 41.720768 -704.96863
396.34659 20.860407 -704.96869
396.34659 -1.053447e-05 -704.96851
396.34659 -20.860373 -704.96857
396.34659 -41.720654 -704.96863
396.34659 -62.580914 -704.96869
396.34659 -83.441307 -704.96869
396.34659 -104.30169 -704.96851
396.34659 -125.16206 -704.96863
396.34659 -146.02231 -704.96863
396.34659 -166.88272 -704.96875
396.94803 -188.02795 -701.14752
447.44623 425.07397 -522.45813
428.63199 385.76889 -636.01227
429.55457 365.12149 -630.44403
430.53506 344.42819 -624.52606
431.51849 323.63898 -618.59058
417.54861 292.28415 -702.90631
415.31317 269.95364 -716.39832
415.27478 249.16496 -716.63013
415.27478 228.40118 -716.63007
415.27478 207.63751 -716.63019
415.27478 186.87372 -716.63019
415.27478 166.10994 -716.63013
415.27478 145.34627 -716.63025
415.27478 124.58248 -716.63019
415.27478 103.81872 -716.63013
415.27478 83.054955 -716.63019
415.27478 62.291252 -716.63019
415.27478 41.527565 -716.63013
415.27478 20.763895 -716.63025
415.27478 3.810112e-05 -716.63007
415.27478 -20.763664 -716.63013
415.27478 -41.527359 -716.63025
415.27478 -62.291191 -716.63013
415.27478 -83.054916 -716.63019
415.27478 -103.81859 -716.63031
415.27478 -124.58244 -716.63013
415.27478 -145.34615 -716.63019
415.27478 -166.10985 -716.63007
415.82794 -187.12259 -713.29138
464.2724 420.056 -554.33826
448.01248 384.0108 -647.80206
449.02832 363.49918 -641.96313
450.04874 342.89426 -636.09772
451.07376 322.19571 -630.20557
435.9501 290.63348 -717.13824
434.04382 268.69382 -728.09589
434.02695 248.01543 -728.19299
434.02695 227.3475 -728.19305
434.02695 206.67952 -728.19299
434.02695 186.01158 -728.19305
434.02695 165.34357 -728.19299
434.02695 144.67563 -728.19305
434.02695 124.00782 -728.19305
434.02695 103.33984 -728.19299
434.02695 82.67186 -728.19299
434.02695 62.003944 -728.19305
434.02695 41.335964 -728.19299
434.02695 20.66802 -728.19305
434.02695 7.13345e-05 -728.19305
434.02695 -20.667871 -728.19312
434.02695 -41.335918 -728.19293
434.02695 -62.003834 -728.19299
434.02695 -82.671776 -728.19305
434.02695 -103.33962 -728.19299
434.02695 -124.00754 -728.19305
434.02695 -144.67561 -728.19293
434.02695 -165.34352 -728.19299
434.52692 -186.22578 -725.31897
480.7059 415.15524 -585.47443
467.27667 382.31732 -659.15863
468.32977 361.8912 -653.38043
469.38934 341.37408 -647.56683
470.45367 320.76401 -641.72687
454.35703 289.13644 -730.04663
452.60846 267.45047 -739.64099
452.60846 246.8774 -739.64093
452.60846 226.30434 -739.64093
452.60846 205.73117 -739.64093
452.60846 185.1581 -739.64093
452.60846 164.58492 -739.64099
452.60846 144.01187 -739.64093
452.60846 123.43873 -739.64081
452.60846 102.86556 -739.64087
452.60846 82.292488 -739.64087
452.60846 61.719315 -739.64093
452.60846 41.146248 -739.64087
452.60846 20.57324 -739.64099
452.60846 6.7788489e-05 -739.64099
452.60846 -20.573002 -739.64099
452.60846 -41.146149 -739.64105
452.60846 -61.719219 -739.64099
452.60846 -82.29229 -739.64099
452.60846 -102.86559 -739.64081
452.60846 -123.43866 -739.64081
452.60846 -144.01183 -739.64087
452.60846 -164.5849 -739.64081
453.04913 -185.3382 -737.22302
496.76038 410.36737 -615.8924
486.36993 380.63742 -670.42456
487.46298 360.29883 -664.68793
488.55917 339.86728 -658.93469
489.66211 319.34488 -653.14618
472.58197 287.65863 -742.78784
471.01859 266.22797 -750.99292
471.01859 245.74893 -750.99292
471.01859 225.26978 -750.99298
471.01859 204.79076 -750.99292
471.01859 184.31172 -750.99292
471.01859 163.8326 -750.99304
471.01859 143.35358 -750.99304
471.01859 122.87447 -750.99292
471.01859 102.39543 -750.99286
471.01859 81.91629 -750.99292
471.01859 61.437252 -750.99292
471.01859 40.958214 -750.99292
471.01859 20.479073 -750.99292
471.01859 9.9996105e-05 -750.99304
471.01859 -20.479002 -750.99292
471.01859 -40.957973 -750.99298
471.01859 -61.43718 -750.99292
471.01859 -81.916283 -750.9928
471.01859 -102.39526 -750.99292
471.01859 -122.87446 -750.99286
471.01859 -143.35344 -750.99292
471.01859 -163.83257 -750.99286
471.39395 -184.45848 -749.02283
512.44879 405.68866 -645.61676
505.29611 378.97211 -681.59192
506.42673 358.7189 -675.9054
507.56241 338.37506 -670.19336
508.70132 317.93842 -664.46497
490.62326 286.19696 -755.39062
489.26114 265.01651 -762.24158
489.26114 244.63066 -762.24164
489.26114 224.24477 -762.24164
489.26114 203.85892 -762.2417
489.26114 183.47302 -762.24164
489.26114 163.08713 -762.24164
489.26114 142.70125 -762.24164
489.26114 122.31533 -762.24164
489.26114 101.92944 -762.24158
489.26114 81.543602 -762.24164
489.26114 61.157688 -762.24164
489.26114 40.771801 -762.24158
489.26114 20.385956 -762.24164
489.26114 4.3684518e-05 -762.24164
489.26114 -20.385777 -762.2417
489.26114 -40.77169 -762.2417
489.26114 -61.1576 -762.24164
489.26114 -81.543488 -762.24158
489.26114 -101.9294 -762.24158
489.26114 -122.31518 -762.24176
489.26114 -142.7011 -762.24164
489.26114 -163.08698 -762.24164
489.56546 -183.5871 -760.711
527.7243 401.07053 -674.95673
524.05743 377.32144 -692.66205
525.22485 357.15305 -687.02509
526.39758 336.89453 -681.36285
527.5755 316.54538 -675.67529
508.48038 284.74905 -767.87469
507.34021 263.81696 -773.37994
507.34021 243.52345 -773.37994
507.34021 223.22975 -773.37982
507.34021 202.93616 -773.37982
507.34021 182.64252 -773.37982
507.34021 162.34892 -773.37988
507.34021 142.05533 -773.37988
507.34021 121.76169 -773.37988
507.34021 101.46809 -773.37994
507.34021 81.174461 -773.37988
507.34021 60.880856 -773.37994
507.34021 40.58736 -773.37994
507.34021 20.293663 -773.37982
507.34021 6.3373598e-05 -773.37982
507.34021 -20.29357 -773.37982
507.34021 -40.58717 -773.37988
507.34021 -60.880772 -773.37988
507.34021 -81.1744 -773.37988
507.34021 -101.468 -773.37994
507.34021 -121.76163 -773.37988
507.34021 -142.05524 -773.37994
507.34021 -162.34882 -773.37994
507.55548 -182.71989 -772.34039
543.38843 397.09158 -700.23566
542.65796 375.68634 -703.62714
543.85962 355.60062 -698.04797
545.06866 335.42694 -692.43488
546.28308 315.16336 -686.79675
526.25073 283.36584 -779.80115
525.25452 262.62738 -784.42621
525.25452 242.42531 -784.42621
525.25452 222.22319 -784.42621
525.25452 202.02107 -784.42615
525.25452 181.819 -784.42621
525.25452 161.61691 -784.42621
525.25452 141.41478 -784.42615
525.25452 121.21266 -784.42615
525.25452 101.0106 -784.42621
525.25452 80.80851 -784.42621
525.25452 60.606384 -784.42621
525.25452 40.404289 -784.42615
525.25452 20.202229 -784.42621
525.25452 0.00010469075 -784.42621
525.25452 -20.202019 -784.42615
525.25452 -40.404079 -784.42621
525.25452 -60.606174 -784.42621
525.25452 -80.808296 -784.42615
525.25452 -101.01039 -784.42615
525.25452 -121.21252 -784.42615
525.25452 -141.41464 -784.42609
525.25452 -161.61664 -784.42627
525.44006 -181.88301 -783.56512
561.54578 395.16187 -712.49567
561.09595 374.06396 -714.50659
562.33514 354.0629 -708.96655
563.57977 333.97324 -703.40204
564.82794 313.79337 -697.82172
543.88684 282.01544 -791.44446
543.00995 261.44925 -795.36499
543.00995 241.33781 -795.36499
543.00995 221.22635 -795.36499
543.00995 201.1149 -795.36499
543.00995 181.00333 -795.36505
543.00995 160.89186 -795.36505
543.00995 140.78043 -795.36505
543.00995 120.66888 -795.36493
543.00995 100.55745 -795.36499
543.00995 80.445984 -795.36493
543.00995 60.334454 -795.36505
543.00995 40.222965 -795.36505
543.00995 20.111534 -795.36505
543.00995 7.1614246e-05 -795.36505
543.00995 -20.111385 -795.36505
