# .PCD v0.7 - Point Cloud Data file format
VERSION 0.7
FIELDS x y z
SIZE 4 4 4
TYPE F F F
COUNT 1 1 1
WIDTH 1512
HEIGHT 1
VIEWPOINT 0 0 0 1 0 0 0
POINTS 1512
DATA ascii
-12.238523 -44.058685 -42.601566
-12.142174 -46.140274 -44.927624
-12.047379 -48.189529 -47.21619
-11.953679 -50.205463 -49.478317
-11.867161 -52.215527 -51.567036
-11.783424 -54.203766 -53.5886
-11.700817 -56.163937 -55.58292
-11.619404 -58.097034 -57.548409
-11.539247 -60.004101 -59.483582
-11.462371 -61.89682 -61.339523
-11.391798 -63.79409 -63.043285
-11.322215 -65.668869 -64.723175
-11.2536 -67.521614 -66.379684
-11.193118 -69.397346 -67.839882
-11.138982 -71.28949 -69.146843
-11.097036 -73.240448 -70.159492
-10.842184 -73.726868 -76.312164
-10.79879 -75.591545 -77.359802
-10.796927 -77.737877 -77.40477
-10.795863 -79.889397 -77.430458
-10.795217 -82.043671 -77.44603
-10.796091 -84.209534 -77.424934
-10.794837 -86.358719 -77.455215
-10.795977 -88.527031 -77.427689
-10.797649 -90.700272 -77.387337
-10.799853 -92.878754 -77.334106
-10.801755 -95.055466 -77.2882
-11.516496 89.252808 9.4753571
-11.466187 85.996391 7.957149
-11.457461 83.066582 7.6938214
-11.474496 80.321442 8.2079086
-11.50532 77.660904 9.1380978
-11.554015 75.101067 10.607602
-11.632988 72.706169 12.990862
-11.806191 70.837135 18.217722
-12.051132 69.293991 25.60944
-11.99078 65.949272 23.788128
-11.93718 62.670174 22.170631
-11.901635 59.50816 21.097996
-11.870894 56.386738 20.170277
-11.846598 53.309685 19.437071
-11.827073 50.265038 18.847864
-11.190905 44.763611 -0.3502124
-11.009522 41.285683 -5.8239183
-10.918126 38.213428 -8.5820045
-10.852801 35.271591 -10.553391
-10.797936 32.393787 -12.209083
-10.75794 29.584326 -13.416101
-10.725218 26.81303 -14.403553
-10.693672 24.060757 -15.355523
-10.664768 21.329521 -16.227772
-10.647602 18.633289 -16.745819
-10.6416 15.962394 -16.926954
-10.640216 13.300258 -16.968712
-10.646309 10.646297 -16.784849
-10.661526 7.9961252 -16.325647
-10.697029 5.3484993 -15.254229
-10.76379 2.6909349 -13.239523
-11.263943 -1.2149639e-05 1.8539116
-11.164179 -2.7910588 -1.1567637
-11.066165 -5.533093 -4.1145678
-10.970839 -8.2281361 -6.9913039
-10.284528 -10.284544 -27.702532
-10.223137 -12.778936 -29.555195
-10.176168 -15.264266 -30.972593
-10.172415 -17.801737 -31.085867
-10.180136 -20.360285 -30.852842
-10.213692 -22.980822 -29.840246
-10.288452 -25.72114 -27.584137
-10.253119 -28.196096 -28.650396
-10.168284 -30.504866 -31.210516
-10.0848 -32.775616 -33.729881
-10.003777 -35.013237 -36.17498
-9.9238434 -37.214432 -38.587177
-9.8446646 -39.37867 -40.976624
-9.766777 -41.508816 -43.327061
-9.6900759 -43.605347 -45.64175
-9.6146431 -45.669571 -47.918102
-9.5426769 -47.713409 -50.089867
-9.4748526 -49.742992 -52.136673
-9.4082727 -51.745518 -54.145878
-9.3425875 -53.719891 -56.128128
-9.2778473 -55.667091 -58.081829
-9.2145519 -57.590961 -59.991943
-9.1543341 -59.503181 -61.809177
-9.0962114 -61.399441 -63.56316
-9.0401545 -63.281097 -65.254822
-8.9862652 -65.150444 -66.881073
-8.935812 -67.018608 -68.403648
-8.8896875 -68.895096 -69.795586
-8.8512783 -70.810242 -70.954704
-8.8199129 -72.76429 -71.901222
-8.80021 -74.801796 -72.495827
-8.694582 -76.077606 -75.683426
-8.6884861 -78.196388 -75.867355
-8.6877489 -80.361702 -75.889626
-8.6877489 -82.53363 -75.889633
-8.6878099 -84.706169 -75.887764
-8.6886101 -86.886108 -75.863647
-8.6874104 -89.045975 -75.899841
-8.6893482 -91.238174 -75.841362
-8.6903324 -93.421089 -75.811661
-8.6919336 -95.611282 -75.763351
-8.5817976 91.539146 7.2392302
-8.5342484 88.187218 5.3259892
-8.5264597 85.26458 5.01262
-8.5227098 82.386177 4.8617005
-8.5286722 79.600922 5.1016307
-8.5494308 76.944862 5.936873
-8.5742025 74.309723 6.93361
-8.604866 71.707214 8.1674299
-8.6414671 69.131721 9.6401577
-8.6858749 66.591705 11.426985
-8.7958698 64.503029 15.85283
-8.9591608 62.71413 22.423128
-8.9405775 59.603832 21.675438
-8.9247551 56.523441 21.038776
-8.9175777 53.505451 20.749962
-8.9118347 50.500397 20.518906
-8.9087296 47.51321 20.39395
-8.3109035 41.554504 -3.6607099
-8.2226152 38.372192 -7.2131405
-8.1633911 35.37468 -9.5961428
-8.1226826 32.490715 -11.234114
-8.0876341 29.654648 -12.644365
-8.0595169 26.865044 -13.775736
-8.0344334 24.103287 -14.785004
-8.0144224 21.37178 -15.590178
-8.0016708 18.670551 -16.10327
-7.995831 15.991645 -16.338228
-7.9927411 13.321218 -16.462563
-7.9944077 10.659195 -16.395529
-8.0004883 8.0004845 -16.150852
-8.0167608 5.3445034 -15.496075
-8.0488739 2.6829481 -14.204003
-8.3517818 -4.4416943e-06 -2.0159066
-8.2793522 -2.7597923 -4.9302444
-8.2082052 -5.4721417 -7.7929935
-8.1382332 -8.1382399 -10.608413
-7.763793 -10.351734 -25.674738
-7.701777 -12.836312 -28.170053
-7.6882977 -15.376609 -28.712418
-7.6935034 -17.951521 -28.50296
-7.7344317 -20.625156 -26.856152
-7.7345619 -23.203699 -26.850918
-7.6704202 -25.568089 -29.431774
-7.6070814 -27.892649 -31.98031
-7.5450282 -30.180126 -34.477135
-7.484375 -32.432304 -36.917652
-7.4243588 -34.647011 -39.332508
-7.3652987 -36.826508 -41.708927
-7.3072281 -38.971901 -44.045498
-7.2500653 -41.083725 -46.345512
-7.1954222 -43.172546 -48.544212
-7.1434531 -45.24189 -50.635265
-7.0926671 -47.284454 -52.678772
-7.0426512 -49.29858 -54.691219
-6.9935751 -51.286236 -56.665901
-6.9457293 -53.250603 -58.591084
-6.8986626 -55.189316 -60.484886
-6.8542194 -57.118511 -62.273144
-6.8107738 -59.02673 -64.021248
-6.7690701 -60.92165 -65.699272
-6.7289567 -62.803612 -67.313332
-6.6922097 -64.691376 -68.791916
-6.660655 -66.60656 -70.061584
-6.630065 -68.510689 -71.292404
-6.6062212 -70.466385 -72.251816
-6.5902085 -72.492302 -72.896141
-6.5703773 -74.464287 -73.694077
-6.5632315 -76.571053 -73.981583
-6.5567322 -78.680809 -74.243103
-6.5557513 -80.854279 -74.282578
-6.5564518 -83.048409 -74.254395
-6.5542574 -85.205353 -74.342697
-6.5551443 -87.401939 -74.306999
-6.5550508 -89.585709 -74.310768
-6.5558681 -91.782173 -74.27787
-6.5569658 -93.983185 -74.233719
-6.5569191 -96.168159 -74.235596
-6.5586944 -98.380432 -74.164162
-5.6885228 93.860619 5.2671037
-5.6577048 90.523254 3.4070663
-5.6369648 87.372955 2.1552804
-5.6404366 84.606529 2.3648429
-5.637742 81.747238 2.2021625
-5.6406703 78.969376 2.3789234
-5.6528573 76.313576 3.1144767
-5.6664834 73.664268 3.9368851
-5.6814909 71.018608 4.8426466
-5.6963129 68.355751 5.7372479
-5.7211981 65.793755 7.2392278
-5.7541976 63.29615 9.2308941
-5.7867603 60.760979 11.196251
-5.8217378 58.217365 13.307303
-5.9777489 56.788616 22.723423
-5.9746346 53.771709 22.535461
-5.9737329 50.776726 22.481033
-5.9732389 47.785904 22.451199
-5.5915766 41.93681 -0.58412182
-5.508616 38.560299 -5.5912485
-5.4626603 35.50729 -8.3649378
-5.427145 32.562855 -10.508488
-5.402462 29.713526 -11.998203
-5.3818717 26.909353 -13.240955
-5.3670654 24.151785 -14.134584
-5.3570371 21.428139 -14.739848
-5.3498201 18.724352 -15.175428
-5.3435998 16.030783 -15.550845
-5.3403673 13.350904 -15.745945
-5.3416691 10.683318 -15.667379
-5.345695 8.0185347 -15.424415
-5.3549333 5.3549194 -14.866838
-5.3700485 2.6850188 -13.954564
-5.4116111 -1.6241611e-05 -11.446007
-5.4588933 -2.7294669 -8.5922747
-5.4116111 -5.4116154 -11.446009
-5.3649063 -8.047369 -14.264882
-5.3191624 -10.638339 -17.025766
-5.170301 -12.925772 -26.010365
-5.1873493 -15.562053 -24.981424
-5.1863189 -18.152134 -25.043606
-5.1430831 -20.57234 -27.653112
-5.1005411 -22.952454 -30.220736
-5.0586972 -25.293501 -32.746243
-5.0175753 -27.59668 -35.22818
-4.9771566 -29.862963 -37.667641
-4.9373846 -32.093014 -40.06813
-4.8982425 -34.287712 -42.430531
-4.8597164 -36.447895 -44.755795
-4.8230047 -38.584057 -46.971565
-4.7874966 -40.693733 -49.114639
-4.7533002 -42.77972 -51.178612
-4.7195697 -44.835922 -53.214405
-4.6863327 -46.863342 -55.220436
-4.6539493 -48.866489 -57.174969
-4.6222358 -50.844612 -59.089012
-4.5910382 -52.796955 -60.971966
-4.5618014 -54.741638 -62.736576
-4.5340066 -56.675095 -64.414139
-4.5067639 -58.587948 -66.058395
-4.4811711 -60.495823 -67.603035
-4.4578753 -62.410263 -69.009087
-4.4381886 -64.353745 -70.197289
-4.4204893 -66.307358 -71.265503
-4.4072323 -68.312119 -72.065636
-4.3996944 -70.395126 -72.520584
-4.3943691 -72.507103 -72.841995
-4.3907056 -74.642014 -73.06311
-4.3879108 -76.78846 -73.231781
-4.4019518 -79.235138 -72.384369
-4.3976922 -81.357315 -72.641441
-4.3968725 -83.540596 -72.690903
-4.3963213 -85.728271 -72.724182
-4.3961639 -87.923294 -72.733665
-4.3969669 -90.13784 -72.685188
-4.3965735 -92.328056 -72.708961
-4.3976293 -94.549049 -72.645233
-4.3976607 -96.74855 -72.643349
-4.398417 -98.964409 -72.597672
-2.8373559 96.470093 4.4335051
-2.8132873 92.838463 1.5281557
-2.7973309 89.514587 -0.39793476
-2.7973309 86.717239 -0.39795223
-2.7983005 83.949013 -0.28090915
-2.7973053 81.121849 -0.40102845
-2.8000116 78.400322 -0.074327797
-2.8054659 75.747574 0.58405715
-2.8109543 73.084801 1.2465434
-2.8181069 70.45266 2.1099629
-2.8241518 67.779633 2.8396401
-2.8336735 65.174461 3.9890158
-2.8437605 62.562714 5.2066083
-2.8580272 60.018578 6.9287829
-2.8748338 57.49667 8.9575157
-2.8929574 54.96619 11.1452
-2.91804 52.524719 14.172955
-3.004359 51.074108 24.592575
-3.0040503 48.064785 24.555296
-3.0040209 45.060287 24.551746
-2.7710896 38.795242 -3.565558
-2.7438011 35.669395 -6.8595219
-2.7251551 32.701855 -9.1103258
-2.7096655 29.806301 -10.980082
-2.7016237 27.016224 -11.950808
-2.6991873 24.292675 -12.244935
-2.6947176 21.557735 -12.78443
-2.6891313 18.823906 -13.458776
-2.684566 16.107389 -14.009865
-2.6825941 13.412953 -14.247896
-2.6838145 10.735244 -14.100578
-2.6823947 8.0471792 -14.271972
-2.6837323 5.3674502 -14.1105
-2.691963 2.6919467 -13.116966
-2.7034926 -4.7182316e-06 -11.725216
-2.698807 -2.6988168 -12.290788
-2.675575 -5.3511648 -15.095173
-2.6529 -7.9587169 -17.832281
-2.6305609 -10.522251 -20.528852
-2.6083174 -13.041603 -23.213863
-2.5864365 -15.518632 -25.855146
-2.5649195 -17.954443 -28.452492
-2.5437257 -20.349825 -31.010775
-2.5230038 -22.707052 -33.512135
-2.5025456 -25.025463 -35.981678
-2.4824364 -27.306814 -38.40905
-2.4626477 -29.551785 -40.797756
-2.4431722 -31.761253 -43.148655
-2.4246728 -33.945438 -45.381729
-2.4067159 -36.10075 -47.549332
-2.3892088 -38.227356 -49.662624
-2.3721657 -40.326836 -51.719906
-2.3553729 -42.396729 -53.74696
-2.3390393 -44.441761 -55.718628
-2.3229306 -46.458626 -57.663113
-2.3070509 -48.44809 -59.579952
-2.2917035 -50.417484 -61.432556
-2.2778945 -52.391586 -63.099449
-2.2642925 -54.343033 -64.741364
-2.2514467 -56.286182 -66.291969
-2.2399149 -58.237804 -67.684006
-2.2295613 -60.198162 -68.9338
-2.2224381 -62.228275 -69.79364
-2.2149684 -64.234108 -70.695297
-2.2119501 -66.358513 -71.059662
-2.2092817 -68.487755 -71.381752
-2.2079778 -70.655304 -71.539154
-2.2070007 -72.831039 -71.657074
-2.2062469 -75.012413 -71.748077
-2.2054143 -77.189522 -71.848595
-2.2052319 -79.388359 -71.870613
-2.2126198 -81.866951 -70.978798
-2.2119577 -84.054413 -71.058716
-2.2119021 -86.264198 -71.065445
-2.2114158 -88.456642 -71.124161
-2.2116947 -90.679504 -71.090469
-2.2115831 -92.886513 -71.103928
-2.2119658 -95.114555 -71.057739
-2.2124603 -97.348274 -70.998039
-2.2126279 -99.568268 -70.977829
-2.2134261 -101.81763 -70.881454
1.2172919e-23 94.945175 -0.98041463
-1.7550508e-23 91.701897 -2.629287
2.9751447e-23 88.827309 -2.9904711
1.0024362e-22 86.093513 -2.826654
5.8355373e-23 83.279366 -2.9752913
1.1758066e-23 80.542381 -2.8130155
1.2767367e-23 77.871155 -2.3556004
-1.4303077e-23 75.239433 -1.6877482
5.7873663e-23 72.583321 -1.0816405
-2.7468787e-23 69.902016 -0.54876065
-6.8439193e-23 67.258919 0.22053318
4.9028273e-24 64.641563 1.1921376
-7.8759431e-24 62.014584 2.1990466
2.6906326e-23 59.45277 3.6765158
5.8705356e-24 56.884163 5.2607083
-5.4718737e-23 54.326057 7.0782995
-1.8685e-23 51.753563 9.0014114
8.7062558e-23 49.209721 11.354451
1.9042823e-23 46.791656 14.95031
8.4520186e-23 45.383595 27.153547
5.0925626e-23 39.033241 -1.5134813
3.7316664e-23 35.904953 -4.6722975
-4.5003631e-23 32.877239 -7.3461294
2.090186e-23 29.997488 -8.8822374
-5.0038107e-23 27.221315 -9.4752064
-5.6925497e-23 24.423225 -10.494003
8.1057616e-23 21.645861 -11.454644
5.6707108e-23 18.947472 -11.327841
-2.1295347e-23 16.24048 -11.332182
-2.1875226e-23 13.521865 -11.618776
3.4754703e-24 10.819772 -11.54969
5.0357251e-23 8.1329622 -10.819656
8.5854755e-23 5.4782453 -7.4228888
3.6931826e-23 2.7153335 -10.293936
-2.285544e-23 -9.8742375e-06 -13.132647
-2.4290463e-24 -2.6687701 -15.918408
5.9974779e-23 -5.2923355 -18.645773
4.6023455e-23 -7.8709364 -21.363935
6.6818816e-23 -10.406038 -24.036224
9.6926282e-24 -12.898434 -26.670334
1.8191063e-23 -15.349297 -29.261917
-1.6712482e-23 -17.760956 -31.789183
7.0960689e-24 -20.133705 -34.271679
4.5402195e-23 -22.467213 -36.728966
-3.345638e-24 -24.763254 -39.146824
2.9777701e-23 -27.022978 -41.5238
-5.1234824e-23 -29.255978 -43.773285
-2.9691895e-23 -31.457979 -45.964695
1.8916443e-24 -33.627422 -48.123703
1.7856425e-23 -35.770172 -50.209644
1.2328066e-24 -37.883621 -52.255856
4.5330907e-23 -39.970768 -54.248169
2.3390505e-23 -42.029179 -56.21183
-1.6621848e-23 -44.059464 -58.147442
5.4786201e-23 -46.065865 -60.03368
2.5044743e-23 -48.072281 -61.74012
-4.2151931e-23 -50.056629 -63.412514
7.0786042e-23 -52.038033 -64.955025
5.5962518e-23 -54.024628 -66.342819
1.4076191e-23 -56.019146 -67.581314
9.5066164e-24 -58.061661 -68.501808
2.6534719e-23 -60.13567 -69.213211
9.1739172e-23 -62.284912 -69.549492
5.2757802e-23 -64.444183 -69.820831
7.6435598e-23 -66.620796 -70.004341
2.6240243e-23 -68.82354 -70.074188
3.7947722e-23 -71.011803 -70.194366
8.9361463e-23 -73.208412 -70.276688
2.3959571e-23 -75.415123 -70.318329
-1.736658e-23 -77.6203 -70.362862
3.2495241e-23 -79.833412 -70.378326
2.9276963e-23 -82.157906 -70.029564
4.1701775e-23 -84.592697 -69.348793
8.4059724e-23 -86.787018 -69.447235
4.6744328e-23 -89.017166 -69.432625
3.2021177e-23 -91.245575 -69.423859
6.2037113e-23 -93.464981 -69.441391
5.1634916e-23 -95.700043 -69.414108
4.7835049e-23 -97.949791 -69.347824
-9.2723815e-25 -100.18246 -69.330284
7.4700174e-23 -102.43513 -69.261024
2.7730808 97.057808 -3.3251631
2.7593124 93.816612 -4.9871602
2.7552357 90.922752 -5.4792762
2.756201 88.198418 -5.3627286
2.7552233 85.411903 -5.4807653
2.7557306 82.671913 -5.4195142
2.7589276 80.008904 -5.0336046
2.7633886 77.374878 -4.4951081
2.7686887 74.754585 -3.8553605
2.773294 72.105629 -3.2994571
2.7777135 69.442841 -2.7659626
2.783586 66.806068 -2.0570607
2.7899022 64.16774 -1.2946483
2.796706 61.527527 -0.47336799
2.8073785 58.954945 0.81492466
2.8206074 56.412136 2.4117808
2.8334773 53.836067 3.9653141
2.8506839 51.312294 6.0423541
2.8704493 48.797615 8.4282341
2.8906538 46.250443 10.867153
2.9157796 43.736694 13.9001
2.9647837 41.506962 19.815422
2.780483 36.146271 -2.4316552
2.7567089 33.080494 -5.3014498
2.7483735 30.232094 -6.3076038
2.7376184 27.376181 -7.6058426
2.7356656 24.620975 -7.8415895
2.7323031 21.858402 -8.2474661
2.7315369 19.12075 -8.3399782
2.7369714 16.42182 -7.6839695
2.7576628 13.788307 -5.186286
2.7556813 11.02271 -5.4254875
2.7317071 8.1951094 -8.3194399
2.7081466 5.4162774 -11.163425
2.6849065 2.6849027 -13.96874
2.6619351 -1.092305e-05 -16.741629
2.6391265 -2.6391408 -19.494881
2.6166606 -5.2333384 -22.206755
2.5945849 -7.7837663 -24.871532
2.5728679 -10.291491 -27.493
2.5517023 -12.758528 -30.047905
2.5310183 -15.186129 -32.544724
2.5104506 -17.573168 -35.027451
2.4901946 -19.921572 -37.472569
2.4702628 -22.232376 -39.878548
2.4514699 -24.514711 -42.147045
2.4331055 -26.764179 -44.363804
2.415024 -28.980297 -46.546463
2.3973119 -31.165066 -48.684475
2.3802087 -33.322941 -50.74902
2.3635392 -35.453106 -52.761208
2.3471284 -37.55407 -54.742168
2.3309882 -39.626823 -56.690479
2.3152695 -41.674866 -58.58791
2.30077 -43.714638 -60.338139
2.286741 -45.73484 -62.031574
2.2738676 -47.751236 -63.585541
2.2623723 -49.772202 -64.973167
2.2522156 -51.800976 -66.199181
2.2450209 -53.880508 -67.067642
2.2401192 -56.002995 -67.659332
2.2373338 -58.170692 -67.995575
2.2354753 -60.357845 -68.219933
2.2338717 -62.548431 -68.413467
2.2331967 -64.762726 -68.494934
2.2325792 -66.977394 -68.569481
2.2318809 -69.188324 -68.653786
2.231272 -71.400726 -68.72728
2.2306638 -73.611908 -68.800728
2.2305257 -75.837883 -68.817375
2.2305014 -78.067574 -68.82029
2.2304852 -80.297478 -68.822258
2.2306716 -82.534866 -68.799751
2.2399802 -85.119255 -67.676109
2.2395141 -87.341064 -67.732361
2.2393997 -89.576012 -67.74617
2.2392526 -91.80938 -67.763924
2.2393508 -94.052742 -67.752098
2.2397022 -96.307205 -67.709671
2.2397268 -98.547997 -67.706703
2.2403483 -100.81569 -67.631691
2.2406018 -103.06771 -67.601051
2.2415433 -105.35255 -67.487427
5.5107436 99.19339 -5.462842
5.4818411 95.93222 -7.2072425
5.4738207 93.054939 -7.6913447
5.4720631 90.289032 -7.7974205
5.469039 87.504608 -7.9799309
5.4707704 84.796936 -7.8754435
5.4767523 82.151268 -7.5143867
5.4839239 79.516884 -7.0815558
5.4946055 76.924461 -6.4368591
5.5022926 74.280945 -5.9728937
5.5089378 71.616158 -5.5718431
5.518898 68.986221 -4.9706903
5.5328579 66.394287 -4.1281362
5.5437813 63.753468 -3.4688432
5.5575404 61.132946 -2.6383905
5.5771165 58.559704 -1.4568835
5.6030407 56.030396 0.10776775
5.6344543 53.527309 2.0037487
5.6680536 51.012478 4.0316896
5.7119308 48.551407 6.6798682
5.7570047 46.056038 9.4003592
5.8141241 43.605919 12.847792
5.8920417 41.244286 17.550537
5.60496 36.432228 0.22361912
5.556006 33.336018 -2.7310257
5.5362277 30.449245 -3.9247351
5.5341802 27.670893 -4.0483117
5.5411782 24.935293 -3.625977
5.5831814 22.332703 -1.09084
5.5939474 19.578804 -0.44105741
5.5448337 16.634483 -3.4053221
5.4963284 13.74081 -6.3328729
5.4486403 10.897262 -9.2111025
5.4017725 8.1026392 -12.039824
5.3556108 5.3555913 -14.825935
5.3094497 2.6547081 -17.611971
5.263988 -1.0285175e-05 -20.355867
5.2193198 -2.6096795 -23.051813
5.1753817 -5.1753983 -25.703712
5.132585 -7.6988907 -28.286734
5.090744 -10.181494 -30.812069
5.0493922 -12.623497 -33.307858
5.0084414 -15.025335 -35.779472
4.9681292 -17.388475 -38.212509
4.930243 -19.720993 -40.499153
4.893086 -22.018896 -42.741764
4.8564854 -24.282442 -44.950829
4.8204465 -26.512472 -47.125942
4.7856674 -28.714014 -49.225079
4.7520666 -30.888441 -51.253052
4.7189889 -33.032932 -53.24947
4.6863685 -35.147774 -55.218288
4.6547608 -37.238106 -57.125961
4.6250057 -39.312569 -58.921844
4.5969372 -41.372456 -60.615925
4.5711989 -43.426407 -62.16938
4.548696 -45.486977 -63.527538
4.5292034 -47.556656 -64.70401
4.5148554 -49.663429 -65.57
4.5062838 -51.822285 -66.087357
4.5012584 -54.01511 -66.390663
4.4978099 -56.222637 -66.598785
4.4950747 -58.435989 -66.763863
4.4937253 -60.665306 -66.845329
4.491817 -62.885448 -66.96051
4.490962 -65.118965 -67.012093
4.4898939 -67.348427 -67.076553
4.4887114 -69.575043 -67.147942
4.4886951 -71.81913 -67.148926
4.4887938 -74.065102 -67.142982
4.4887772 -76.309227 -67.143967
4.4882684 -78.544716 -67.174683
4.4888754 -80.799782 -67.138016
4.4895492 -83.056679 -67.097374
4.4931655 -85.370171 -66.879089
4.5073757 -87.893852 -66.021416
4.5066476 -90.132965 -66.065392
4.5066476 -92.386299 -66.065384
4.5070448 -94.647957 -66.04142
4.5068793 -96.897926 -66.051399
4.5083866 -99.184502 -65.960464
4.5090489 -101.45361 -65.920464
4.5089498 -103.70586 -65.926468
4.5109386 -106.00707 -65.806412
8.2312937 101.51928 -6.8639741
8.1804428 98.165298 -8.9100304
8.1598444 95.198166 -9.7388659
8.1503782 92.370941 -10.119777
8.1492949 89.642235 -10.163331
8.1511717 86.945831 -10.087824
8.1585789 84.305298 -9.7897844
8.1707468 81.707451 -9.3001614
8.181716 79.089912 -8.8588047
8.193078 76.468712 -8.4016151
8.2012548 73.811295 -8.0725985
8.2148714 71.195541 -7.5247235
8.2302628 68.585518 -6.9054456
8.2462654 65.970108 -6.2615352
8.2583265 63.313839 -5.7762227
8.2782726 60.707314 -4.9736772
8.3184528 58.229168 -3.3569329
8.3718386 55.81226 -1.208866
8.411129 53.270466 0.37203661
8.4657917 50.794735 2.5715325
8.5363855 48.372833 5.4119716
8.6047459 45.891979 8.1625853
8.7116518 43.55825 12.464138
8.8302612 41.207859 17.236622
8.7475471 37.906017 13.908463
8.4205942 33.682365 0.75291318
8.4190531 30.869846 0.69093049
8.5049086 28.349684 4.145494
8.4426489 25.327934 1.6403043
8.3681087 22.314947 -1.3589433
8.294425 19.35364 -4.3237476
8.2221003 16.44418 -7.2338362
8.1510992 13.585155 -10.09073
8.0809946 10.774646 -12.911515
8.0112486 8.0112305 -15.717887
7.9424219 5.2949419 -18.487278
7.8746996 2.6248889 -21.212193
7.8080568 -1.3577942e-05 -23.893677
7.7431517 -2.5810642 -26.50528
7.6797004 -5.1198163 -29.058329
7.61725 -7.6172748 -31.571161
7.5551858 -10.073597 -34.068405
7.4940348 -12.490064 -36.528988
7.4367781 -14.87356 -38.832817
7.3804188 -17.220999 -41.100506
7.3249078 -19.533098 -43.334103
7.270226 -21.810686 -45.53434
7.2170339 -24.056793 -47.674633
7.1661201 -26.275789 -49.723251
7.1159739 -28.463905 -51.74094
7.0665255 -30.621624 -53.730598
7.0188303 -32.754547 -55.649712
6.9730687 -34.86536 -57.491016
6.931108 -36.965927 -59.179371
6.8926172 -39.058178 -60.72813
6.859405 -41.156448 -62.064495
6.8325925 -43.273109 -63.143337
6.8106232 -45.404171 -64.027344
6.7988997 -47.592312 -64.499046
6.792376 -49.810768 -64.761528
6.7874422 -52.037071 -64.96006
6.78374 -54.269936 -65.109024
6.7808156 -56.506813 -65.226685
6.7782435 -58.744789 -65.330177
6.7772202 -60.994991 -65.371353
6.7756739 -63.239632 -65.433586
6.774601 -65.487823 -65.476738
6.7749257 -67.749268 -65.463684
6.7751002 -70.009377 -65.456673
6.775125 -72.268005 -65.455666
6.7749257 -74.5242 -65.463676
6.7747011 -76.779961 -65.472717
6.7751002 -79.042854 -65.456657
6.7764473 -81.317383 -65.402473
6.7776699 -83.59127 -65.353279
6.778718 -85.863777 -65.311089
6.804882 -88.463478 -64.258331
6.8028703 -90.704941 -64.339302
6.8028951 -92.972908 -64.338287
6.8046556 -95.26519 -64.267456
6.8042784 -97.528008 -64.282616
6.8044543 -99.798683 -64.275543
6.8078518 -102.1178 -64.138832
6.8088841 -104.40292 -64.09729
6.8136735 -106.74756 -63.904602
11.002956 104.52808 -6.0220332
10.856499 100.42259 -10.441836
10.820884 97.387955 -11.516571
10.805971 94.552238 -11.966627
10.805686 91.84832 -11.975226
10.809588 89.179092 -11.857465
10.817784 86.542252 -11.61013
10.828619 83.921791 -11.283165
10.839141 81.293549 -10.965625
10.854817 78.697411 -10.49254
10.863707 76.045937 -10.224278
10.87314 73.393684 -9.9396067
10.891816 70.796776 -9.3760319
10.9091 68.181854 -8.8544312
10.924397 65.546349 -8.3928118
10.945786 62.938255 -7.747324
10.983113 60.40712 -6.6208892
11.059233 58.060963 -4.3237457
11.114024 55.570114 -2.6702795
11.167073 53.043587 -1.0693892
11.264667 50.691006 1.8757493
11.343653 48.21051 4.2593727
11.464794 45.859154 7.9151096
11.656305 43.711128 13.694476
11.632713 40.714485 12.982538
11.528614 37.467987 9.8410444
11.426361 34.279068 6.7553034
11.326743 31.14852 3.7490649
11.226124 28.065292 0.71262127
11.126823 25.035345 -2.2840569
11.029313 22.058601 -5.226665
10.933449 19.133526 -8.119647
10.838853 16.258268 -10.974297
10.745034 13.431276 -13.805545
10.65227 10.652253 -16.604956
10.561003 7.9207358 -19.359165
10.471287 5.2356262 -22.066599
10.383961 2.5959737 -24.701897
10.298338 -4.1124763e-06 -27.285793
10.214117 -2.5535393 -29.827408
10.130968 -5.0654907 -32.336639
10.04871 -7.5365505 -34.818993
9.9715433 -9.9715614 -37.147697
9.8955536 -12.369449 -39.440907
9.8205938 -14.730908 -41.702999
9.7465305 -17.05645 -43.938072
9.6749477 -19.349913 -46.098255
9.6061764 -21.613911 -48.173637
9.5385599 -23.846413 -50.214119
9.4718542 -26.047604 -52.227177
9.4079123 -28.223755 -54.156773
9.3454685 -30.37278 -56.041176
9.2898226 -32.514404 -57.720417
9.2395649 -34.64838 -59.237125
9.1949768 -36.779915 -60.582664
9.1746616 -38.992329 -61.195721
9.1337557 -41.101921 -62.430176
9.1193314 -43.316841 -62.865479
9.1109352 -45.554695 -63.118851
9.1043444 -47.797829 -63.317738
9.0998878 -50.049408 -63.452217
9.0955715 -52.299545 -63.5825
9.0923367 -54.554035 -63.680115
9.0909548 -56.818489 -63.721779
9.0893393 -59.080719 -63.770573
9.0884972 -61.347366 -63.795963
9.0889015 -63.622326 -63.783775
9.0891037 -65.896019 -63.777668
9.0895081 -68.171326 -63.765476
9.0893726 -70.442657 -63.769543
9.0891037 -72.712852 -63.777668
9.0892382 -74.986244 -63.773602
9.0901804 -77.266548 -63.745171
9.0914946 -79.550591 -63.705528
9.0940208 -81.846207 -63.629269
9.0973921 -84.150887 -63.527561
9.0976286 -86.427475 -63.520432
9.1059656 -88.783188 -63.268818
9.1302214 -91.302231 -62.536831
9.1294746 -93.577133 -62.559372
9.1303577 -95.868774 -62.532722
9.1328716 -98.178391 -62.456856
9.1338911 -100.47282 -62.426083
9.1417847 -102.8451 -62.187862
9.2206802 -106.03783 -59.806999
13.52378 102.78072 -11.572715
13.470868 99.684395 -12.850126
13.45704 96.890671 -13.183948
13.451317 94.159203 -13.322128
13.454915 91.493408 -13.23525
13.45887 88.828529 -13.139759
13.467733 86.193481 -12.925806
13.481879 83.587646 -12.584302
13.493146 80.958855 -12.312284
13.505322 78.330864 -12.018312
13.516451 75.692108 -11.749671
13.533803 73.08252 -11.330741
13.555092 70.486465 -10.816783
13.563063 67.815308 -10.624339
13.587392 65.219467 -10.036971
13.616038 62.633774 -9.3454037
13.690536 60.23835 -7.5468488
13.773025 57.846684 -5.5554361
13.823419 55.293667 -4.338788
13.927788 52.925583 -1.8190955
14.031243 50.512466 0.67851806
14.163331 48.155315 3.8674197
14.350232 45.920731 8.3796129
14.504866 43.514587 12.11278
14.375382 40.251064 8.9867773
14.247066 37.042362 5.8889322
14.119914 33.887783 2.8192489
13.994183 30.78718 -0.21617858
13.870733 27.741451 -3.1965048
13.749505 24.749098 -6.1232414
13.629771 21.807625 -9.0138645
13.511093 18.91552 -11.879015
13.39423 16.073065 -14.700336
13.278796 13.278788 -17.48715
13.165336 10.532257 -20.226326
13.055074 7.8330379 -22.88826
12.947083 5.1788087 -25.495415
12.840701 2.56812 -28.063692
12.736001 -1.0475399e-05 -30.591375
12.632578 -2.5265222 -33.088234
12.53502 -5.0140157 -35.443501
12.438654 -7.4632058 -37.769958
12.34356 -9.8748627 -40.065739
12.249959 -12.249978 -42.325478
12.159838 -14.591827 -44.501183
12.072648 -16.901718 -46.606136
11.987169 -19.179487 -48.669769
11.902892 -21.425217 -50.704411
11.822433 -23.644884 -52.646862
11.743504 -25.835732 -54.55238
11.673923 -28.017426 -56.232201
11.611883 -30.190907 -57.729984
11.55633 -32.357731 -59.071167
11.517628 -34.552906 -60.005493
11.484556 -36.750599 -60.803921
11.467727 -38.990288 -61.210209
11.457577 -41.247292 -61.455276
11.449793 -43.509235 -61.643177
11.44471 -45.778858 -61.765892
11.439247 -48.044857 -61.897778
11.435665 -50.31694 -61.984245
11.43345 -52.593872 -62.037766
11.431233 -54.869934 -62.091244
11.430808 -57.15406 -62.101517
11.430893 -59.440662 -62.099461
11.431021 -61.727528 -62.09639
11.431703 -64.017548 -62.079929
11.432171 -66.306602 -62.068626
11.432001 -68.592018 -62.072735
11.432682 -70.882637 -62.056274
11.433918 -73.177094 -62.026443
11.435111 -75.471748 -61.997627
11.437755 -77.776741 -61.933819
11.440784 -80.085495 -61.860699
11.444453 -82.400085 -61.772076
11.44834 -84.717735 -61.678257
11.452486 -87.03891 -61.578175
11.460273 -89.390144 -61.390175
11.492128 -91.937042 -60.621117
11.48989 -94.21711 -60.675156
11.493291 -96.543655 -60.593056
11.508122 -98.969864 -60.234993
11.562123 -101.74669 -58.931301
16.165041 105.07275 -12.850139
16.108242 102.01885 -13.992855
16.094227 99.247719 -14.274794
16.088108 96.528641 -14.397894
16.090429 93.860809 -14.351212
16.09486 91.204193 -14.262065
16.099859 88.54921 -14.161511
16.111696 85.929047 -13.923354
16.115082 83.26123 -13.855229
16.130547 80.65271 -13.544119
16.142853 78.023788 -13.296498
16.159081 75.409027 -12.970034
16.1747 72.78614 -12.655799
16.190779 70.160019 -12.332334
16.209599 67.539986 -11.953701
16.243359 64.973419 -11.274506
16.285252 62.426777 -10.431675
16.384188 60.075333 -8.4412298
16.456846 57.598946 -6.979475
16.536242 55.120785 -5.3821664
16.668922 52.784912 -2.7128077
16.808123 50.424366 0.08769463
17.006441 48.184898 4.0775061
17.351526 46.270721 11.020115
17.203699 43.009228 8.0460939
17.049839 39.782948 4.9506526
16.897388 36.610989 1.8835622
16.747181 33.49435 -1.1383615
16.599771 30.432898 -4.104032
16.454346 27.423893 -7.0297709
16.310217 24.465311 -9.9294205
16.168591 21.558119 -12.778719
16.028706 18.700142 -15.592991
15.890946 15.890933 -18.364504
15.757152 13.130955 -21.056223
15.626058 10.417356 -23.693638
15.497126 7.7485476 -26.287565
15.37024 5.1234026 -28.840309
15.24611 2.5410135 -31.337616
15.127075 -2.0155703e-05 -33.732376
15.009947 -2.5016811 -36.088818
14.894619 -4.9648876 -38.409065
14.780989 -7.3905129 -40.695103
14.672062 -9.7813921 -42.886543
14.565882 -12.138254 -45.02272
14.462251 -14.462257 -47.107658
14.360024 -16.753376 -49.164234
14.262882 -19.017195 -51.118591
14.167427 -21.251158 -53.039005
14.083901 -23.473185 -54.71941
14.010041 -25.685083 -56.205399
13.944447 -27.888906 -57.525028
13.898643 -30.113747 -58.44651
13.86326 -32.347626 -59.158363
13.844492 -34.611237 -59.535976
13.832891 -36.887726 -59.769367
13.824475 -39.169365 -59.938663
13.818508 -41.455528 -60.058731
13.811871 -43.737614 -60.192238
13.808349 -46.027836 -60.26313
13.805656 -48.319809 -60.317287
13.803119 -50.61145 -60.368328
13.802653 -52.910187 -60.377701
13.802239 -55.208973 -60.386021
13.801825 -57.507622 -60.394348
13.802861 -59.812412 -60.373531
13.803999 -62.118011 -60.350616
13.803999 -64.418671 -60.350628
13.805293 -66.725609 -60.324581
13.806794 -69.033989 -60.29438
13.808969 -71.346359 -60.250626
13.811716 -73.662498 -60.195377
13.815137 -75.983269 -60.12656
13.819649 -78.311363 -60.035767
13.825566 -80.649139 -59.916744
13.832423 -82.994553 -59.778782
13.838559 -85.337791 -59.655342
13.848294 -87.705879 -59.459476
13.864567 -90.119705 -59.132092
13.889206 -92.594711 -58.636417
13.984387 -95.55999 -56.721481
13.954754 -97.683304 -57.317646
18.834652 107.62656 -13.273722
18.753887 104.48594 -14.666433
18.731558 101.68559 -15.051501
18.726574 98.983322 -15.137424
18.727472 96.312698 -15.121918
18.734253 93.671257 -15.005021
18.723146 90.940994 -15.196549
18.738913 88.340569 -14.924671
18.733273 85.63781 -15.021912
18.752659 83.04747 -14.687625
18.765114 80.421898 -14.47285
18.781279 77.808128 -14.194089
18.798952 75.195808 -13.889287
18.81048 72.554703 -13.690517
18.826063 69.925377 -13.421774
18.856977 67.346352 -12.888686
18.893147 64.776482 -12.26501
18.953428 62.275555 -11.225476
19.056618 59.892212 -9.4460249
19.126974 57.380924 -8.2327843
19.258715 55.024879 -5.960989
19.3978 52.651165 -3.5625319
19.610554 50.427124 0.10622522
19.916847 48.369473 5.3880868
20.015888 45.750595 7.0959868
19.83709 42.50803 4.0127244
19.659657 39.319294 0.95298713
19.485369 36.187092 -2.0524824
19.313274 33.108459 -5.0201087
19.143002 30.081842 -7.9563923
18.975788 27.108253 -10.83989
18.811304 24.185959 -13.676313
18.648676 21.312761 -16.480722
18.490826 18.490822 -19.202759
18.336096 15.716651 -21.870989
18.183935 12.988511 -24.494934
18.033821 10.305032 -27.083515
17.887434 7.6660333 -29.607887
17.74795 5.0708356 -32.013203
17.610191 2.5157251 -34.388763
17.474127 -8.4618068e-06 -36.7351
17.340151 -2.4771755 -39.045441
17.212074 -4.9177456 -41.254047
17.086828 -7.3229518 -43.413822
16.964128 -9.6937981 -45.52972
16.844103 -12.031521 -47.59948
16.729673 -14.339734 -49.572742
16.618011 -16.618029 -51.498314
16.520208 -18.880257 -53.184814
16.435181 -21.130959 -54.651115
16.360176 -23.371696 -55.944473
16.308119 -25.62706 -56.842194
16.270864 -27.892927 -57.484642
16.250177 -30.178915 -57.841347
16.237951 -32.47591 -58.052181
16.228746 -34.775913 -58.210899
16.221699 -37.078186 -58.332447
16.214045 -39.376976 -58.464466
16.2108 -41.684933 -58.520393
16.207802 -43.992611 -58.572102
16.205296 -46.30085 -58.615337
16.204866 -48.614616 -58.622711
16.204378 -50.928059 -58.631149
16.204012 -53.241776 -58.637466
16.204622 -55.558727 -58.626919
16.205235 -57.875851 -58.616383
16.206028 -60.19384 -58.602673
16.208597 -62.518902 -58.55838
16.21129 -64.845169 -58.511955
16.21386 -67.171722 -58.467625
16.216494 -69.499268 -58.422237
16.220228 -71.832451 -58.357819
16.22562 -74.174294 -58.264812
16.231508 -76.519981 -58.163307
16.240162 -78.880798 -58.014072
16.251347 -81.256744 -57.821213
16.264702 -83.647057 -57.590889
16.282274 -86.063461 -57.287865
16.300629 -88.489143 -56.971359
21.501648 107.50821 -13.630843
21.450529 104.57131 -14.402144
21.405067 101.67406 -15.08814
21.398815 98.969498 -15.182469
21.399 96.295502 -15.179659
21.358681 93.444199 -15.788033
21.373842 90.838814 -15.559273
21.36742 88.140594 -15.656152
21.379147 85.516571 -15.479213
21.398815 82.920387 -15.182466
21.405067 80.268982 -15.088144
21.4202 77.648209 -14.859803
21.428429 74.999474 -14.735624
21.443781 72.372749 -14.503965
21.461784 69.750786 -14.232309
21.496092 67.175278 -13.714682
21.534855 64.604546 -13.129795
21.598629 62.09605 -12.167504
21.70858 59.698578 -10.508479
21.797174 57.217567 -9.1716661
21.963375 54.908417 -6.6638966
22.163811 52.639042 -3.6395581
22.456049 50.526104 0.76996475
22.812363 48.476242 6.1463127
22.608513 45.21701 3.0704718
22.406843 42.012814 0.027498461
22.207632 38.863346 -2.978337
22.010454 35.766979 -5.9535551
21.816648 32.724949 -8.8778353
21.626608 29.736578 -11.745352
21.439098 26.798872 -14.574629
21.256746 23.913837 -17.326101
21.077652 21.077642 -20.028427
20.900839 18.288216 -22.696344
20.726967 15.545222 -25.319881
20.558374 12.848968 -27.863743
20.396994 10.198476 -30.298777
20.238293 7.5893397 -32.693375
20.082043 5.0205016 -35.051003
19.927784 2.4909546 -37.37859
19.780418 -1.2222028e-05 -39.602169
19.635611 -2.4544554 -41.787178
19.493292 -4.8733363 -43.934559
19.355312 -7.2582545 -46.016533
19.223789 -9.6119089 -48.001053
19.095825 -11.934896 -49.931911
18.983124 -14.237352 -51.63242
18.886633 -16.525814 -53.088371
18.806452 -18.806456 -54.298195
18.746834 -21.090208 -55.19775
18.708321 -23.385426 -55.778873
18.685884 -25.693098 -56.117401
18.673019 -28.009541 -56.31155
18.663008 -30.327408 -56.462593
18.65485 -32.646015 -56.58567
18.647266 -34.963642 -56.7001
18.643726 -37.287472 -56.753529
18.640327 -39.610699 -56.804825
18.638134 -41.93581 -56.837921
18.637638 -44.264404 -56.845394
18.637072 -46.592697 -56.853947
18.637001 -48.922138 -56.855015
18.637709 -51.253712 -56.844345
18.638416 -53.585453 -56.83366
18.639267 -55.917805 -56.820843
18.642946 -58.259228 -56.765289
18.646772 -60.602024 -56.707581
18.649818 -62.94315 -56.661617
18.652512 -65.283798 -56.620987
18.656624 -67.630272 -56.558933
18.663363 -69.987625 -56.457241
18.671883 -72.353561 -56.328682
18.681902 -74.727631 -56.177494
18.697132 -77.125687 -55.947697
18.713385 -79.531914 -55.702465
18.72945 -81.941368 -55.460037
18.761953 -84.42881 -54.969608
24.309261 105.34012 -12.022598
24.192003 102.14401 -13.595302
24.14229 99.251625 -14.262047
24.071566 96.286255 -15.210608
24.051228 93.532524 -15.483427
24.027262 90.769653 -15.80486
24.014513 88.053215 -15.975856
24.042953 85.486053 -15.59439
24.039396 82.802338 -15.642126
24.05217 80.173889 -15.470795
24.055418 77.511887 -15.427231
24.047457 74.814308 -15.534009
24.0744 72.223183 -15.172622
24.087107 69.584961 -15.002193
24.127628 67.021164 -14.45871
24.163525 64.436058 -13.977234
24.238939 61.943951 -12.965749
24.347527 59.516171 -11.509368
24.482246 57.12524 -9.7024698
24.673576 54.830158 -7.1362677
24.968788 52.711868 -3.1768222
25.416197 50.832394 2.8239472
25.36471 47.91111 2.1334069
25.137812 44.689426 -0.90982592
24.913137 41.521881 -3.9232183
24.692554 38.410629 -6.881741
24.475735 35.353825 -9.7897921
24.262691 32.35025 -12.647222
24.054579 29.400026 -15.438455
23.849907 26.499889 -18.183609
23.648685 23.648672 -20.882446
23.450832 20.845175 -23.536106
23.259592 18.09078 -26.101055
23.075882 15.383908 -28.565054
22.895336 12.719619 -30.986595
22.71759 10.096691 -33.370541
22.54277 7.5142512 -35.715294
22.376785 4.9726019 -37.941547
22.212688 2.4680696 -40.142448
22.050453 -2.0990545e-05 -42.31839
21.894043 -2.4326806 -44.416229
21.745743 -4.832407 -46.405251
21.601637 -7.200563 -48.338074
21.472944 -9.5435429 -50.064125
21.365601 -11.869783 -51.50386
21.285873 -14.190593 -52.573154
21.214157 -16.499912 -53.535061
21.176083 -18.8232 -54.045719
21.153206 -21.153227 -54.352531
21.138792 -23.487566 -54.545864
21.128197 -25.82336 -54.687977
21.118742 -28.15835 -54.814774
21.111637 -30.494595 -54.910088
21.107681 -32.83419 -54.963116
21.103811 -35.173023 -55.015053
21.102037 -37.514748 -55.038841
21.101473 -39.858349 -55.046429
21.100906 -42.201836 -55.053982
21.101149 -44.546879 -55.050743
21.101955 -46.893246 -55.039936
21.102922 -49.240173 -55.026943
21.103971 -51.587502 -55.012897
21.107441 -53.941254 -54.966354
21.111799 -56.298138 -54.907925
21.115835 -58.655109 -54.853779
21.119793 -61.012749 -54.800701
21.125933 -63.377815 -54.718338
21.13588 -65.756081 -54.584938
21.145187 -68.134506 -54.460106
21.153854 -70.512863 -54.343838
21.171862 -72.925301 -54.102352
21.192905 -75.35257 -53.820076
21.212526 -77.779282 -53.556923
21.268822 -80.348892 -52.801872
28.903135 109.83189 10.826061
27.035641 100.03185 -11.716576
26.888367 96.798119 -13.494349
26.799929 93.799736 -14.561893
26.717884 90.840797 -15.552263
26.727543 88.20089 -15.435653
26.714973 85.4879 -15.587371
26.709393 82.799103 -15.654762
26.713812 80.141411 -15.601414
26.689756 77.400291 -15.891779
26.680239 74.704659 -16.006666
26.699978 72.089935 -15.768396
26.710091 69.44622 -15.646338
26.757383 66.893448 -15.075443
26.792553 64.302109 -14.650898
26.863173 61.785282 -13.798453
26.979053 59.353905 -12.399665
27.164196 57.044796 -10.164778
27.412636 54.825249 -7.1658397
27.823492 52.864628 -2.2063813
28.104391 50.587894 1.1843693
27.851656 47.347809 -1.8663996
27.603054 44.164875 -4.8672795
27.358242 41.03735 -7.8224387
27.117733 37.964817 -10.725639
26.884596 34.94997 -13.539861
26.654509 31.985399 -16.317261
26.428324 29.07114 -19.047544
26.205948 26.205938 -21.731888
25.991795 23.392603 -24.316929
25.785339 20.628262 -26.809055
25.582245 17.907558 -29.260633
25.382534 15.229508 -31.671349
25.187056 12.593519 -34.030975
25.000473 10.000175 -36.283241
24.816732 7.4450064 -38.501183
24.635574 4.9270978 -40.687927
24.462114 2.4461966 -42.781803
24.295696 -1.6927905e-05 -44.790649
24.135324 -2.4135511 -46.726498
23.992901 -4.7985959 -48.445694
23.873589 -7.1620879 -49.885937
23.822699 -9.5291004 -50.500237
23.713957 -11.856995 -51.812878
23.676527 -14.205933 -52.26466
23.651974 -16.556396 -52.561062
23.635756 -18.908617 -52.756813
23.624744 -21.262287 -52.889744
23.614197 -23.614206 -53.017075
23.607563 -25.968328 -53.097145
23.603205 -28.323866 -53.149757
23.598846 -30.678518 -53.202351
23.597757 -33.03688 -53.215508
23.597122 -35.395691 -53.223186
23.596487 -37.754395 -53.230835
23.597214 -40.115276 -53.222073
23.598301 -42.476955 -53.208946
23.5993 -44.838688 -53.196873
23.600662 -47.201332 -53.180447
23.603659 -49.567703 -53.144272
23.608562 -51.938858 -53.085068
23.613014 -54.309948 -53.03133
23.617741 -56.682594 -52.974285
23.625927 -59.064827 -52.875477
23.638853 -61.461029 -52.71944
23.650242 -63.855667 -52.581959
23.659546 -66.246742 -52.469677
23.677898 -68.665916 -52.248135
23.70681 -71.120445 -51.899136
23.739647 -73.592926 -51.502739
31.349365 108.29781 5.9528503
30.992771 104.24841 2.0396647
30.677904 100.40041 -1.4155862
29.757824 94.683968 -11.512248
29.566319 91.386803 -13.613791
29.48649 88.459457 -14.489825
29.426834 85.605324 -15.144464
29.420931 82.913536 -15.209215
29.381611 80.131653 -15.640728
29.347752 77.371346 -16.01226
29.329134 74.65596 -16.216595
29.321743 71.971535 -16.297709
29.341246 69.352028 -16.083679
29.391848 66.799637 -15.52838
29.42247 64.194481 -15.192333
29.493706 61.66864 -14.410631
29.609772 59.219547 -13.136928
29.840715 56.968636 -10.602631
30.167377 54.84977 -7.0179324
30.824041 53.241528 0.1880856
30.546551 49.985252 -2.8570073
30.273876 46.786892 -5.8492661
30.006426 43.645702 -8.7841654
29.747725 40.565067 -11.623087
29.492029 37.535301 -14.429028
29.240313 34.556725 -17.191296
28.992977 31.628696 -19.905464
28.755428 28.755413 -22.512245
28.525719 25.932459 -25.033024
28.29965 23.154242 -27.513836
28.07737 20.419893 -29.953094
27.860851 17.72961 -32.329048
27.653316 15.083615 -34.606529
27.448957 12.476789 -36.849064
27.248589 9.9085598 -39.047852
27.058607 7.3796082 -41.132671
26.873716 4.8861141 -43.161579
26.697355 2.4270103 -45.096916
26.540815 -1.826864e-05 -46.81472
26.409851 -2.4009101 -48.251907
26.322092 -4.7858486 -49.214931
26.244301 -7.1575513 -50.068596
26.208122 -9.5302372 -50.465614
26.182602 -11.901194 -50.745667
26.165041 -14.271852 -50.93837
26.153179 -16.642946 -51.068554
26.141731 -19.012173 -51.194176
26.135658 -21.38373 -51.260834
26.1308 -23.755283 -51.314129
26.12635 -26.126354 -51.362976
26.125742 -28.500828 -51.369637
26.125034 -30.875044 -51.377403
26.12463 -33.249538 -51.381851
26.125843 -35.626163 -51.36853
26.127056 -38.002995 -51.355209
26.12817 -40.379913 -51.342999
26.129787 -42.757854 -51.32523
26.132217 -45.137478 -51.298573
26.13748 -47.522709 -51.240833
26.142643 -49.908695 -51.184177
26.148619 -52.297249 -51.118591
26.158348 -54.69474 -51.011826
26.172754 -57.104206 -50.853748
26.184633 -59.51054 -50.723373
26.198864 -61.924606 -50.567215
26.2181 -64.353539 -50.356121
26.25543 -66.832016 -49.94648
26.30619 -69.352699 -49.389439
33.70628 106.73654 0.99333066
33.345245 102.81448 -2.6383977
33.002804 99.0084 -6.0830507
32.707672 95.397377 -9.0518723
32.63258 92.458961 -9.8072586
32.469666 89.291573 -11.446002
32.273678 86.063126 -13.417505
32.188454 83.153488 -14.274804
32.102139 80.255333 -15.143039
32.055317 77.467003 -15.614048
32.003067 74.673798 -16.139658
31.95986 71.909676 -16.574268
31.996391 69.3255 -16.206818
32.029522 66.728149 -15.873551
32.056435 64.112846 -15.60282
32.133808 61.589783 -14.824509
32.251766 59.128231 -13.637936
32.531357 56.929867 -10.825445
33.023087 55.038464 -5.8790708
33.224712 52.605774 -3.8508384
32.929588 49.394382 -6.8195381
32.644154 46.245876 -9.6908188
32.363194 43.150909 -12.517039
32.085354 40.106689 -15.311927
31.812239 37.114273 -18.059214
31.551037 34.180286 -20.686716
31.297417 31.2974 -23.237942
31.04797 28.460629 -25.747177
30.802727 25.668926 -28.214151
30.564751 22.923555 -30.607977
30.335926 20.223944 -32.909805
30.111732 17.565165 -35.165024
29.891191 14.945582 -37.383492
29.684027 12.36832 -39.467392
29.480066 9.8266783 -41.519066
29.287745 7.3219304 -43.453693
29.118052 4.8529968 -45.160648
28.979031 2.4149051 -46.55909
28.884441 -2.0075817e-05 -47.510578
28.809505 -2.4008133 -48.264378
28.771229 -4.7952189 -48.649422
28.745619 -7.1864138 -48.907063
28.727222 -9.5757446 -49.092098
28.71434 -11.964321 -49.221699
28.702026 -14.351027 -49.34557
28.696543 -16.739664 -49.4007
28.691175 -19.12747 -49.454697
28.687374 -21.515541 -49.492928
28.686592 -23.9055 -49.500805
28.685808 -26.295341 -49.508675
28.685699 -28.685717 -49.509789
28.687151 -31.077765 -49.495171
28.688604 -33.470058 -49.480553
28.690281 -35.862873 -49.463688
28.69207 -38.256107 -49.44569
28.693748 -40.64949 -49.428837
28.699562 -43.049366 -49.370312
28.706167 -45.451447 -49.303898
28.713442 -47.855755 -49.230701
28.72431 -50.267563 -49.121395
28.739672 -52.689411 -48.966892
28.752802 -55.109554 -48.834782
28.77314 -57.546295 -48.630188
28.795874 -59.991413 -48.401539
28.842915 -62.492992 -47.928322
28.921089 -65.072464 -47.141941
36.418934 109.2568 0.10004701
36.008713 105.25622 -3.7090113
35.641842 101.44215 -7.1155739
35.298298 97.749115 -10.305543
35.039024 94.335831 -12.712968
34.999817 91.537979 -13.077051
35.098541 89.096275 -12.160334
35.257259 86.787086 -10.686584
35.525635 84.714958 -8.1945906
34.951046 80.656265 -13.529892
34.827885 77.69297 -14.673489
34.714046 74.7687 -15.730523
34.645893 71.956856 -16.36339
34.676018 69.352028 -16.083679
34.665318 66.664055 -16.183039
34.689137 64.041473 -15.961838
34.780048 61.533932 -15.117703
34.909897 59.078274 -13.911994
35.243862 56.932392 -10.810987
35.888008 55.212315 -4.8298016
35.574913 51.994102 -7.7370181
35.267239 48.831551 -10.593935
34.963764 45.721836 -13.411827
34.664413 42.663876 -16.19142
34.379185 39.66827 -18.839903
34.101376 36.724548 -21.419447
33.827885 33.827869 -23.958969
33.55888 30.977415 -26.456776
33.299263 28.176283 -28.867405
33.050209 25.423222 -31.179995
32.805119 22.711227 -33.455757
32.563507 20.03907 -35.699234
32.338665 17.413113 -37.786999
32.115612 14.822579 -39.858162
31.907356 12.272052 -41.791908
31.726622 9.7620325 -43.470097
31.58078 7.2878523 -44.824306
31.477457 4.8426723 -45.783703
31.407055 2.4159126 -46.437401
31.366791 -2.1234518e-05 -46.811287
31.341522 -2.4108946 -47.045918
31.322567 -4.8188696 -47.221909
31.308796 -7.225121 -47.349785
31.296881 -9.6298189 -47.46043
31.290865 -12.034956 -47.516296
31.284975 -14.439227 -47.570999
31.281906 -16.844118 -47.599461
31.28117 -19.249966 -47.6063
31.279943 -21.655369 -47.617695
31.280312 -24.061796 -47.614285
31.281906 -26.469326 -47.599461
31.283501 -28.877087 -47.58466
31.285465 -31.28548 -47.566441
31.287676 -33.694431 -47.54591
31.289761 -36.103577 -47.526546
31.296144 -38.518349 -47.46727
31.303392 -40.935215 -47.399975
31.312731 -43.356094 -47.313259
31.324659 -45.782207 -47.202499
31.339798 -48.215084 -47.061928
31.36235 -50.66227 -46.852528
31.382463 -53.108791 -46.66576
31.41695 -55.583858 -46.345509
31.467896 -58.094585 -45.872501
38.650364 107.66886 -4.8148303
38.264854 103.86173 -8.1387529
37.870758 100.08698 -11.536727
37.518421 96.475945 -14.574628
37.33902 93.347542 -16.121454
37.358833 90.7286 -15.950621
37.499096 88.390724 -14.741273
37.705845 86.184776 -12.958618
37.990013 84.120743 -10.508488
38.387981 82.259956 -7.0771203
37.81424 78.329491 -12.024049
37.561573 75.123123 -14.202597
37.426224 72.179146 -15.369583
37.396568 69.450752 -15.62529
37.344215 66.686089 -16.076654
37.346813 64.023102 -16.05427
37.439598 61.507896 -15.254242
37.59182 59.072842 -13.941794
38.021961 57.032921 -10.232989
38.205624 54.579456 -8.6494265
37.876102 51.403263 -11.490652
37.550079 48.27866 -14.301687
37.240593 45.220718 -16.970108
36.93792 42.214748 -19.579832
36.639965 39.257107 -22.148832
36.347553 36.347542 -24.670086
36.067795 33.491501 -27.082205
35.79604 30.682301 -29.425348
35.528934 27.915583 -31.728378
35.266079 25.190044 -33.994789
35.023067 22.514812 -36.090057
34.780846 19.874752 -38.178528
34.559326 17.279657 -40.088509
34.365479 14.728052 -41.759918
34.213814 12.219207 -43.0676
34.104458 9.744112 -44.010468
34.036484 7.2935243 -44.596584
33.995937 4.8565426 -44.946175
33.970119 2.4264245 -45.168762
33.952126 -6.7036817e-06 -45.323895
33.937103 -2.4240913 -45.453423
33.92598 -4.8465734 -45.549358
33.919281 -7.268435 -45.607109
33.912853 -9.689395 -45.662544
33.910843 -12.111029 -45.679852
33.909641 -14.532719 -45.690235
33.908432 -16.954229 -45.700634
33.90937 -19.376808 -45.692543
33.910843 -21.799845 -45.679852
33.91272 -24.223383 -45.663696
33.914993 -26.647511 -45.644066
33.917404 -29.072069 -45.623283
33.920486 -31.49761 -45.596706
33.928257 -33.928276 -45.529709
33.935764 -36.359764 -45.464985
33.947029 -38.796619 -45.367851
33.959782 -41.236885 -45.257923
33.980602 -43.689373 -45.078369
34.007778 -46.153435 -44.844048
34.027447 -48.610657 -44.674477
34.072124 -51.108212 -44.289246
34.140381 -53.649185 -43.700752
41.315918 110.17576 -5.5808029
40.856636 106.22724 -9.2768011
40.42485 102.4096 -12.751572
40.020535 98.717316 -16.005262
39.694122 95.265862 -18.632006
39.623199 92.454117 -19.202765
39.708679 90.006317 -18.514864
39.878677 87.733063 -17.146811
40.136776 85.625099 -15.069819
40.4846 83.668167 -12.270726
40.879326 81.758636 -9.0942631
41.361412 79.965385 -5.2146907
41.874241 78.165237 -1.0877875
40.428761 72.771759 -12.720116
40.233459 69.737984 -14.29178
40.121727 66.869537 -15.190901
40.058159 64.093056 -15.702466
40.116306 61.51165 -15.234541
40.291054 59.093525 -13.828269
40.824379 57.154121 -9.5363998
40.470001 53.959999 -12.388207
40.135727 50.83857 -15.07826
39.808647 47.770363 -17.7104
39.486855 44.751755 -20.299974
39.170223 41.781567 -22.848024
38.871269 38.871258 -25.253813
38.576035 36.00428 -27.629694
38.284294 33.179707 -29.977421
