# .PCD v0.7 - Point Cloud Data file format
VERSION 0.7
FIELDS x y z
SIZE 4 4 4
TYPE F F F
COUNT 1 1 1
WIDTH 1445
HEIGHT 1
VIEWPOINT 0 0 0 1 0 0 0
POINTS 1445
DATA ascii
-1206.6439 416.08408 838.02484
-1206.6439 374.47583 838.0249
-1206.6439 332.86743 838.02478
-1206.6439 291.25894 838.02466
-1196.9703 247.64934 797.7594
-1192.5862 205.61845 779.51056
-1191.5 164.34483 774.98932
-1190.145 123.11854 769.34924
-1190.2482 82.086182 769.7785
-1190.3835 41.047863 770.3421
-1190.6866 0.00012696504 771.60364
-1190.906 -41.065655 772.51697
-1191.1707 -82.149551 773.61816
-1191.4095 -123.24908 774.61273
-1191.7068 -164.37323 775.84985
-1191.1255 -205.36644 773.43024
-1192.4438 -246.71248 778.91797
-1130.3927 242.22707 688.67676
-1127.8694 201.40547 677.79803
-1126.923 160.98912 673.71802
-1127.1984 120.77134 674.90521
-1127.1384 80.510086 674.64691
-1127.342 40.262268 675.52484
-1128.0312 9.4581359e-05 678.49597
-1128.8594 -40.316242 682.06592
-1129.9353 -80.709496 686.70441
-1130.8325 -121.16055 690.57251
-1133.0546 -161.86476 700.15179
-1135.3401 -202.73917 710.00458
-1137.8055 -243.81532 720.63361
-1145.0441 -286.26099 751.84015
-1067.3579 237.19089 587.35266
-1065.4017 197.29668 578.60706
-1065.5626 157.86113 579.32635
-1059.7679 117.75214 553.41968
-1055.5312 78.187538 534.47833
-1056.1959 39.118511 537.44989
-1085.3097 0.00017015109 667.6109
-1087.5593 -40.279919 677.66864
-1089.8765 -80.731491 688.02765
-1092.3608 -121.37326 699.13489
-1094.9913 -162.22073 710.8952
-1097.7346 -203.28398 723.15979
-1100.5391 -244.56424 735.69788
-1107.6761 -287.1752 767.6062
-1005.6935 232.08322 484.59702
-1004.8524 193.24094 480.69205
-1005.2369 154.6519 482.47705
-996.42737 114.97255 441.577
-994.85773 76.527641 434.28952
-996.09998 38.311653 440.05698
-1013.5775 0.00016937914 521.20013
-1050.5122 -40.404213 692.67773
-1052.9598 -80.996834 704.04114
-1055.5546 -121.79467 716.08771
-1058.1052 -162.78523 727.92987
-1061.131 -204.06358 741.97766
-1064.0419 -245.54805 755.49225
-1072.696 -288.80273 795.67096
-947.4809 227.3956 390.2879
-946.70447 189.341 386.53891
-947.19196 151.55077 388.89285
-940.08588 112.81052 354.58154
-938.4469 75.07589 346.66748
-938.47943 37.539322 346.82468
-953.54645 5.6718924e-05 419.5751
-1013.946 -40.557793 711.20972
-1016.3283 -81.306107 722.71222
-1018.6999 -122.24377 734.16339
-1021.3853 -163.42154 747.12976
-1024.4449 -204.88887 761.90277
-1027.4059 -246.57724 776.19946
-1036.0012 -290.08011 817.70154
-891.44666 222.86171 299.07571
-890.80927 185.58536 295.86957
-891.31122 148.55199 298.39444
-883.53082 110.44138 259.26242
-882.11682 73.509773 252.15028
-883.41498 36.809097 258.67966
-897.35321 -8.6486598e-06 328.78354
-977.27405 -40.719616 730.75397
-979.59521 -81.632759 742.42859
-982.10236 -122.76263 755.0387
-984.46783 -164.07794 766.93622
-987.50909 -205.73093 782.23242
-990.50995 -247.62727 797.32526
-999.18335 -291.42844 840.94946
-837.69165 218.52826 211.89439
-837.16864 181.99344 209.14922
-837.66754 145.6813 211.76758
-830.51532 108.32821 174.23044
-829.46796 72.127708 168.73393
-830.43219 36.105835 173.79465
-839.75391 0.00017290446 222.7175
-940.36896 -40.885445 750.7749
-942.64221 -81.96875 762.70538
-945.12622 -123.27723 775.74231
-947.4328 -164.77081 787.8479
-950.42908 -206.61497 803.57312
-953.46521 -248.72995 819.50775
-962.78156 -293.02039 868.4024
-786.00946 214.36627 128.1606
-785.61322 178.54861 125.98627
-786.05389 142.91911 128.40451
-779.50507 106.29624 92.471756
-778.97333 70.816017 89.554237
-779.46136 35.430191 92.231964
-787.90759 6.5646585e-05 138.57501
-903.32355 -41.059967 771.8454
-905.49695 -82.317764 783.77008
-907.78448 -123.78864 796.32178
-910.21777 -165.49409 809.67303
-913.039 -207.50877 825.15271
-916.10931 -249.8479 841.99866
-925.9541 -294.6217 896.01575
-736.46021 210.41736 48.712322
-736.18427 175.28203 47.126274
-736.59656 140.30414 49.496006
-729.8775 104.2683 10.874111
-729.81384 69.506104 10.508604
-729.86749 34.755733 10.816341
-740.4657 -5.4467873e-06 71.736702
-784.87811 -37.375099 327.02515
-868.06708 -82.672997 805.20557
-870.26007 -124.32271 817.8111
-872.73206 -166.23454 832.02057
-875.37225 -208.42177 847.19641
-878.51306 -251.00368 865.25061
-888.65253 -296.21738 923.5332
-688.7066 206.61211 -27.842798
-688.53131 172.13297 -28.900288
-688.90686 137.78139 -26.633663
-682.3476 102.35229 -66.222763
-682.26465 68.226593 -66.723297
-682.50116 34.125187 -65.295425
-690.85376 4.3639913e-05 -14.883775
-732.02289 -36.601009 233.59436
-813.80908 -81.380661 727.21765
-816.38208 -122.45723 742.74719
-820.4787 -164.09561 767.47198
-825.05646 -206.26396 795.1015
-827.57013 -248.27084 810.27271
-830.80896 -290.78296 829.82068
-839.73383 -335.8934 883.68707
-644.49609 237.44594 -89.946075
-642.66956 202.94838 -101.5508
-642.54047 169.08965 -102.37079
-642.9278 135.35321 -99.910057
-636.66528 100.52612 -139.69678
-635.99603 66.947083 -143.9487
-636.85394 33.518669 -138.4982
-646.03729 2.7751368e-05 -80.154434
-685.28436 -36.067505 169.18987
-769.8244 -81.034027 706.28876
-769.84503 -121.55439 706.4198
-770.87122 -162.2886 712.93933
-772.79913 -203.36823 725.18811
-774.82849 -244.68262 738.08063
-778.34247 -286.75763 760.40552
-783.85486 -330.04407 795.42706
-795.40277 -376.76962 868.79303
-599.05377 232.96539 -167.21123
-598.15802 199.38611 -173.21814
-598.08459 166.1347 -173.71054
-598.61737 133.02621 -170.1377
-592.5896 98.765083 -210.56073
-592.48151 65.831322 -211.28549
-592.69775 32.927826 -209.83557
-602.0838 0.00015345908 -146.89137
-641.35406 -35.630642 116.46118
-727.79761 -80.86628 696.16455
-727.06445 -121.17725 691.24799
-727.52979 -161.67311 694.36847
-729.00336 -202.50079 704.25018
-730.65503 -243.55162 715.32654
-733.81506 -285.37238 736.51831
-738.30688 -328.13638 766.64136
-746.30444 -373.1521 820.27399
-555.75934 228.84207 -238.31448
-555.15582 195.93747 -242.59964
-555.15582 163.28131 -242.59962
-556.00635 130.82516 -236.56044
-549.96362 97.052467 -279.46762
-549.89551 64.693848 -279.9512
-550.40295 32.376793 -276.34808
-557.78766 0.0001114504 -223.91173
-600.71588 -35.335991 80.905205
-686.37573 -80.749992 689.1441
-685.21844 -120.92084 680.92712
-685.48102 -161.28954 682.79089
-686.58423 -201.93645 690.62445
-688.62823 -243.04524 705.13879
-691.2738 -284.64212 723.92358
-694.77051 -326.95081 748.7522
-701.16443 -371.2045 794.15308
-513.84229 224.80615 -307.91415
-513.34192 192.50319 -311.68878
-513.67682 160.52419 -309.16241
-514.46582 128.61658 -303.21024
-509.29498 95.492928 -342.22113
-509.23294 63.654182 -342.68906
-509.86243 31.866413 -337.93964
-520.05695 0.00011070367 -261.02792
-562.27557 -35.142094 57.486706
-644.84637 -80.60569 680.43542
-643.89099 -120.72952 673.22791
-643.8158 -160.95383 672.6604
-644.70233 -201.46936 679.34918
-646.40015 -242.39981 692.15771
-649.00183 -283.9382 711.78601
-652.22742 -326.11362 736.12115
-656.76691 -369.43127 770.36884
-671.0918 -419.43231 878.44189
-473.64444 221.03415 -372.95847
-473.12598 189.25053 -377.1308
-473.57733 157.85916 -373.4985
-474.74423 126.59858 -364.10822
-469.18152 93.83651 -408.8735
-469.54587 62.606224 -405.94168
-469.77094 31.31818 -404.13025
-487.17941 5.721112e-05 -264.03751
-521.6712 -34.777996 13.531132
-603.2666 -80.435379 670.15997
-602.35242 -120.47045 662.80322
-602.21198 -160.58977 661.67328
-602.91785 -200.9725 667.3537
-604.51776 -241.80692 680.22852
-606.90277 -283.22113 699.42157
-609.93762 -325.29987 723.84442
-614.09912 -368.45935 757.33356
-623.31171 -415.54102 831.47052
-434.81961 217.40997 -435.45703
-434.36212 186.15526 -439.40146
-434.78754 155.28137 -435.73358
-435.91473 124.54704 -426.01465
-430.76108 92.306 -470.45023
-430.70514 61.529373 -470.93265
-431.17419 30.798239 -466.88806
-436.82104 0.00017463238 -418.20035
-468.91446 -33.493793 -141.48444
-561.7699 -80.2528 659.13293
-560.98871 -120.21178 652.39746
-560.99469 -160.28406 652.44849
-561.60638 -200.57372 657.72296
-562.89655 -241.24136 668.84674
-565.00073 -282.50034 686.98993
-567.69128 -324.39493 710.18817
-571.61829 -367.46872 744.04779
-578.29816 -413.06992 801.6427
-397.25705 213.90776 -495.84952
-396.88577 183.1781 -499.29675
-397.24585 152.78693 -495.9537
-398.1384 122.50417 -487.66583
-393.52969 90.814682 -530.45959
-393.51083 60.540237 -530.6347
-394.04755 30.31142 -525.65118
-399.79605 0.00010044658 -472.27383
-437.59628 -33.661133 -121.2818
-520.75018 -80.11528 650.83807
-519.71729 -119.93459 641.24701
-519.6076 -159.87907 640.22894
-520.23047 -200.08852 646.01221
-521.51099 -240.69725 657.9024
-523.42548 -281.8443 675.67969
-525.90942 -323.63632 698.74377
-529.52466 -366.59372 732.31274
-536.04749 -412.34412 792.88
-360.90125 210.5258 -554.16876
-360.57068 180.28539 -557.49359
-360.89264 150.3721 -554.25519
-361.04166 120.34733 -552.75647
-357.63412 89.408638 -587.03345
-357.59476 59.599194 -587.42926
-357.68051 29.806881 -586.56635
-363.17258 0.00014800532 -531.32056
-405.98712 -33.832222 -100.63943
-479.50125 -79.916718 638.85541
-478.73138 -119.68276 631.11133
-478.68857 -159.5627 630.68024
-479.40012 -199.74986 637.8382
-480.55783 -240.27876 649.48364
-482.21921 -281.29443 666.1958
-484.51343 -323.00888 689.2738
-487.3252 -365.49374 717.55823
-492.86081 -410.71716 773.24219
-325.67838 207.25005 -610.65869
-325.33014 177.45297 -614.48016
-325.67963 148.03633 -610.64484
-326.30173 118.65528 -603.81818
-322.7381 88.019562 -642.92438
-322.69937 58.672703 -643.34912
-322.79059 29.344683 -642.34821
-326.26724 0.00016232683 -604.19666
-376.13443 -34.193958 -56.968952
-438.48398 -79.724297 627.23572
-437.87592 -119.42061 620.56329
-438.07611 -159.30038 622.76019
-438.88101 -199.49115 631.59277
-440.05557 -240.03023 644.48242
-441.63849 -281.04263 661.85297
-443.52292 -322.56195 682.53192
-445.89282 -364.82129 708.5387
-450.28586 -409.35068 756.74622
-292.21497 233.77219 -657.20837
-291.42838 203.99994 -666.703
-291.17755 174.70653 -669.73059
-291.54385 145.77208 -665.30927
-291.56177 116.62482 -665.09259
-288.67978 86.604004 -699.88159
-288.87344 57.774799 -697.54382
-289.12363 28.912439 -694.52405
-291.68521 5.7700934e-05 -663.6026
-308.10931 -30.810846 -465.34662
-397.68469 -79.536873 615.92395
-397.64502 -119.29346 615.44537
-398.29077 -159.31622 623.24017
-399.26019 -199.63 634.94214
-400.37601 -240.22556 648.41119
-401.82803 -281.27957 665.93872
-403.36575 -322.69247 684.50061
-405.11447 -364.60297 705.60913
-408.246 -408.24585 743.41071
-258.74243 229.99339 -714.2243
-258.29172 200.89355 -720.26941
-258.17047 172.11369 -721.89532
-258.43753 143.57645 -718.31354
-257.08258 114.25893 -736.48657
-256.01724 85.339256 -750.77502
-256.01147 56.891594 -750.85229
-256.16052 28.462313 -748.85352
-258.71298 0.00016691646 -714.61914
-274.28201 -30.475677 -505.80276
-357.64783 -79.47718 612.32434
-358.39764 -119.46571 622.3811
-359.48947 -159.77289 637.0249
-360.53268 -200.29575 651.01678
-361.70276 -241.1351 666.71051
-363.06784 -282.38596 685.01917
-364.23306 -323.7626 700.64752
-365.6683 -365.66818 719.89722
-367.89505 -408.77228 749.76343
-226.55894 226.5591 -766.04443
-226.16847 197.89752 -771.93597
-226.13304 169.59999 -772.47064
-226.30438 141.44034 -769.88538
-224.76073 112.38058 -793.17737
-224.16406 84.061577 -802.18042
-224.1624 56.040543 -802.20526
-224.34155 28.042778 -799.50195
-226.76909 -2.5330801e-05 -762.87335
-238.07074 -29.758886 -592.34473
-320.19086 -80.047623 646.75201
-321.35849 -120.50931 664.37054
-321.11511 -160.55743 660.69806
-321.65683 -201.03545 668.87244
-323.00549 -242.25401 689.22186
-325.06116 -284.42841 720.23926
-326.79926 -326.79913 746.46527
-327.57971 -368.52701 758.24115
-329.25012 -411.56253 783.44623
-195.1981 223.0836 -818.48376
-194.98502 194.98508 -822.15826
-194.98001 167.12578 -822.24487
-195.09473 139.35345 -820.26636
-193.92159 110.81236 -840.49652
-193.18295 82.792755 -853.23413
-193.1956 55.198833 -853.01569
-193.36671 27.623827 -850.06482
-195.30376 5.6730067e-05 -816.66211
-202.38034 -28.911345 -694.63074
-278.2785 -79.508018 614.18616
-277.23148 -118.81333 596.13062
-276.63873 -158.07916 585.9093
-277.23148 -198.02226 596.13055
-278.40118 -238.62953 616.30188
-279.90533 -279.90536 642.2403
-282.15329 -322.46072 681.0047
-285.15472 -366.62738 732.76227
-291.27328 -416.10461 838.27295
-164.85001 219.80011 -868.02875
-164.71506 192.16776 -870.7439
-164.70312 164.70314 -870.98376
-164.79683 137.33078 -869.09857
-163.80011 109.20023 -889.15106
-163.18172 81.590965 -901.59192
-163.17059 54.390236 -901.81586
-163.34761 27.224548 -898.25439
-164.69656 0.00015398121 -871.11609
-170.81024 -28.468384 -748.11786
-235.37965 -78.459839 550.91815
-234.07951 -117.03959 524.76111
-233.96748 -155.9781 522.50763
-234.29901 -195.24916 529.17767
-235.24449 -235.24438 548.19885
-236.39777 -275.7973 571.40106
-238.13969 -317.51935 606.44574
-240.51022 -360.76526 654.13715
-244.77487 -407.95804 739.93561
-135.37749 216.60416 -916.25305
-135.3069 189.42976 -917.95691
-135.28905 162.34686 -918.38843
-135.43459 135.43468 -914.87457
-134.30508 107.44406 -942.14313
-134.04379 80.426285 -948.45154
-134.04758 53.619141 -948.36005
-134.21469 26.843077 -944.32513
-135.3562 0.00021483615 -916.76685
-139.27605 -27.855114 -822.13361
-193.04002 -77.215958 475.84372
-192.98302 -115.7896 474.4671
-193.23001 -154.58392 480.43036
-193.67444 -193.67435 491.15994
-194.19852 -233.03809 503.81198
-194.89769 -272.85675 520.69202
-195.86583 -313.38516 544.06445
-197.42921 -355.37247 581.80835
-200.30653 -400.61285 651.27246
-106.7746 213.54922 -962.34619
-106.73136 186.77992 -963.65088
-106.71409 160.07129 -964.17242
-106.85966 133.5746 -959.77917
-105.8681 105.86818 -989.70245
-105.77907 79.334427 -992.38904
-105.78128 52.890804 -992.3222
-105.87327 26.468407 -989.54608
-106.84384 0.00022657881 -960.25665
-109.41448 -27.353514 -882.68066
-153.72874 -76.864243 454.6207
-154.02635 -115.51968 463.60138
-154.29369 -154.29361 471.66907
-154.56273 -193.20322 479.78815
-154.82402 -232.23592 487.67334
-155.14096 -271.49652 497.23788
-155.54854 -311.09702 509.53766
-156.2565 -351.57693 530.90253
-158.00923 -395.02292 583.79584
-78.964523 210.57217 -1007.2677
-78.930809 184.17195 -1008.6243
-78.948349 157.89682 -1007.9186
-79.027657 131.71294 -1004.7275
-78.280212 104.37379 -1034.8024
-78.222031 78.222046 -1037.1431
-78.225266 52.150211 -1037.0132
-78.326591 26.109043 -1032.936
-79.187019 1.57629e-05 -998.31494
-80.991249 -26.996984 -925.71863
-115.64197 -77.094437 468.51898
-115.72085 -115.72083 471.69266
-115.82047 -154.4272 475.70135
-115.94392 -193.23982 480.66833
-116.04334 -232.08656 484.66864
-116.17438 -271.07343 489.94131
-116.3587 -310.28973 497.35767
-116.64883 -349.94635 509.03177
-117.22138 -390.73795 532.06964
-52.038631 234.17386 -1043.7455
-51.92009 207.68053 -1050.9
-51.899288 181.64766 -1052.1555
-51.92881 155.78645 -1050.374
-51.976173 129.94058 -1047.5151
-51.462112 102.92429 -1078.5414
-51.429108 77.143806 -1080.5332
-51.448139 51.448273 -1079.3849
-51.514236 25.757204 -1075.3956
-52.102493 3.5454348e-05 -1039.8911
-53.486958 -26.743391 -956.33112
-74.15892 -74.158798 291.33191
-73.912292 -110.86827 276.44635
-73.781685 -147.56319 268.56393
-73.866539 -184.66623 273.68542
-74.360115 -223.08015 303.47482
-77.542297 -271.39792 495.53711
-77.580803 -310.32315 497.86087
-77.670647 -349.51779 503.28369
-77.84137 -389.20667 513.58752
-78.715363 -432.93442 566.33771
-25.657621 230.91872 -1087.406
-25.609589 204.87674 -1093.2041
-25.59886 179.19214 -1094.4989
-25.611059 153.66641 -1093.0265
-25.648502 128.24258 -1088.5066
-25.387394 101.54969 -1120.0253
-25.373028 76.119209 -1121.7593
-25.379742 50.759586 -1120.9489
-25.398115 25.398327 -1118.7313
-25.649544 2.520582e-05 -1088.3809
-26.427429 -26.427248 -994.48187
-36.629803 -73.259384 237.05362
-36.476948 -109.43079 218.60242
-36.388676 -145.55458 207.9469
-36.419624 -182.09811 211.68306
-36.487133 -218.92265 219.83188
-36.68317 -256.78204 243.49562
-36.937233 -295.49777 274.16373
-37.294956 -335.65451 317.34482
-38.954895 -389.54883 517.7171
-38.98275 -428.81012 521.07916
9.1773407e-22 227.7625 -1129.7367
1.0075068e-21 202.16 -1134.1981
1.6425285e-21 176.81209 -1135.54
1.9259289e-21 151.61388 -1134.3201
5.7458094e-22 126.55502 -1129.2469
7.5877544e-22 100.16547 -1161.7947
1.3866829e-21 75.105576 -1162.5436
1.1356929e-21 50.072182 -1162.4338
5.954625e-22 25.065577 -1158.8854
1.8406255e-21 5.5586162e-05 -1127.9607
9.7128442e-22 -25.896708 -1058.5348
7.1672474e-22 -72.29686 178.95013
3.1363469e-22 -107.87862 156.15439
7.9155853e-22 -143.56648 147.95218
4.995453e-22 -179.51602 149.34775
-2.7984789e-22 -215.91838 159.39043
4.3702344e-22 -253.02946 178.78362
-1.0675093e-23 -291.05328 207.10324
8.5885278e-22 -330.11652 243.06711
9.1272423e-22 -370.91977 292.84354
24.972876 224.756 -1170.0619
24.939428 199.51553 -1174.0992
24.92737 174.49173 -1175.5548
24.937706 149.62633 -1174.3074
24.980532 124.90273 -1169.1379
24.713423 98.853729 -1201.3806
24.706978 74.121063 -1202.1586
24.708508 49.417126 -1201.9739
24.739319 24.739376 -1198.2548
25.060658 3.8172195e-05 -1159.4657
25.714554 -25.714479 -1080.5333
35.546719 -71.093346 106.31396
35.44315 -106.32928 93.811996
35.414001 -141.65591 90.293274
35.445969 -177.22983 94.152252
35.519398 -213.11621 103.01572
35.67775 -249.74413 122.13064
35.859734 -286.87775 144.09802
36.137596 -325.23828 177.63907
36.542377 -365.42371 226.50023
37.311481 -410.42624 319.33981
49.274841 221.73692 -1210.5551
49.239464 196.9579 -1212.6901
49.237865 172.3325 -1212.7867
49.254345 147.76321 -1211.7921
49.334988 123.33752 -1206.9249
48.783051 97.566208 -1240.2371
48.772533 73.158989 -1240.8718
48.77866 48.778667 -1240.5023
48.906929 24.453552 -1232.7604
49.631908 0.00010092506 -1189.0042
51.286072 -25.642946 -1089.1665
70.034706 -70.034584 42.414032
69.991379 -104.98689 39.798336
70.018211 -140.03638 41.418144
70.09301 -175.23244 45.932434
70.273369 -210.81987 56.818039
70.510376 -246.78622 71.12278
70.864761 -283.45895 92.511917
71.325615 -320.96518 120.32693
72.018661 -360.0932 162.15634
73.329071 -403.30984 241.24648
72.994148 218.98254 -1247.4967
72.952225 194.53947 -1249.1838
72.951523 170.22026 -1249.212
73.005875 146.01184 -1247.0253
73.056313 121.76063 -1244.9958
72.431168 96.574959 -1270.1498
72.408791 72.408844 -1271.05
72.43924 48.292889 -1269.8246
72.76358 24.254597 -1256.7745
74.16494 6.2684689e-05 -1200.3882
76.698135 -25.566021 -1098.4601
104.18269 -69.455101 7.4329658
104.28161 -104.28152 11.413116
104.397 -139.19603 16.056349
104.56168 -174.26935 22.682537
104.73364 -209.46716 29.601633
105.02392 -245.05571 41.28162
105.35242 -280.93967 54.499119
105.80247 -317.40726 72.608162
106.5537 -355.17896 102.83498
108.23473 -396.86066 170.47493
95.99749 215.99434 -1287.5743
96.001442 192.00294 -1287.4551
95.915474 167.85226 -1290.0492
95.975601 143.9635 -1288.2346
95.941589 119.92713 -1289.2615
95.971649 95.971779 -1288.3539
96.014816 72.011162 -1287.0513
96.065933 48.033035 -1285.5088
96.196411 24.049093 -1281.5713
98.931122 2.9994717e-05 -1199.0441
102.04902 -25.512259 -1104.9531
138.52242 -69.261215 -4.2710075
138.78369 -104.08771 3.613811
138.99432 -138.99428 9.9701691
139.16022 -173.95013 14.976407
139.34894 -209.02324 20.671257
139.61269 -244.3222 28.631243
139.9162 -279.83231 37.790329
140.21843 -315.4913 46.910873
140.74706 -351.86765 62.863762
142.33241 -391.41409 110.70581
118.49514 213.29132 -1323.8292
118.39295 189.42877 -1326.296
118.27987 165.59186 -1329.026
118.31606 141.97935 -1328.1525
118.28172 118.28184 -1328.9816
118.2448 94.595924 -1329.8727
118.27434 70.964691 -1329.1597
118.26732 47.307003 -1329.3291
118.29021 23.658045 -1328.7765
118.29353 5.0247079e-05 -1328.6963
118.33343 -23.66663 -1327.7332
118.38556 -47.35408 -1326.4746
118.43587 -71.061447 -1325.2596
118.47513 -94.779999 -1324.3121
118.59935 -118.59917 -1321.3132
118.67885 -142.41454 -1319.3939
174.41386 -244.1792 26.168173
174.63571 -279.41702 31.524334
174.8436 -314.71829 36.543282
175.25116 -350.50223 46.382469
176.19643 -387.63211 69.203392
140.67996 234.46672 -1354.2926
140.44922 210.67389 -1358.9346
140.24088 186.98785 -1363.1262
140.12289 163.47675 -1365.4999
140.09009 140.09016 -1366.1599
140.14017 116.78367 -1365.1523
140.13023 93.420158 -1365.3521
140.1203 70.060158 -1365.552
140.14621 46.71545 -1365.0308
140.1501 23.358458 -1364.9526
140.13455 9.6009193e-05 -1365.2654
140.14578 -23.357563 -1365.0394
140.18379 -46.727863 -1364.2745
140.15572 -70.077744 -1364.8394
140.12247 -93.414932 -1365.5085
140.17128 -116.80919 -1364.5266
140.21147 -140.21133 -1363.718
140.25471 -163.63043 -1362.8478
140.2599 -187.0132 -1362.7433
140.29236 -210.43852 -1362.0903
140.35774 -233.92957 -1360.7748
140.4731 -257.53394 -1358.4545
162.12083 231.60129 -1388.881
161.80339 208.03305 -1394.3552
161.55258 184.63165 -1398.6802
161.49849 161.49854 -1399.613
161.47047 138.40334 -1400.0962
161.42477 115.30358 -1400.8843
161.43263 92.247383 -1400.7488
161.41986 69.180008 -1400.969
161.40218 46.114952 -1401.2738
161.37665 23.053883 -1401.7141
161.40611 0.00010329024 -1401.2061
161.43411 -23.061916 -1400.7234
161.4174 -46.11919 -1401.0112
161.42577 -69.182343 -1400.8673
161.4454 -92.254417 -1400.5284
161.43509 -115.3107 -1400.7063
161.412 -138.35309 -1401.1045
161.44049 -161.44044 -1400.613
161.47293 -184.54045 -1400.0538
161.5157 -207.66293 -1399.3163
161.53734 -230.76759 -1398.9431
161.53931 -253.84735 -1398.9092
161.8177 -277.40167 -1394.1084
183.18503 251.87958 -1420.5063
183.03571 228.79471 -1422.7593
182.70586 205.54422 -1427.7363
182.45787 182.45793 -1431.4779
182.34648 159.55318 -1433.1588
182.30646 136.72984 -1433.7627
182.30426 113.94022 -1433.7959
182.30865 91.154366 -1433.7297
182.29768 68.36171 -1433.8951
182.29111 45.572849 -1433.9944
182.28946 22.78631 -1434.0193
182.27357 0.00019397591 -1434.259
182.24947 -22.781097 -1434.6228
182.2796 -45.569881 -1434.168
182.30208 -68.363197 -1433.8289
182.31085 -91.15535 -1433.6967
182.28616 -113.92876 -1434.0687
182.25056 -136.68782 -1434.6062
182.28781 -159.50175 -1434.0439
182.31303 -182.31299 -1433.6636
182.36348 -205.15883 -1432.9023
182.50621 -228.13269 -1430.7487
182.52269 -250.96855 -1430.5
182.6987 -274.04794 -1427.8442
203.5894 429.79999 -1453.953
203.5894 407.17886 -1453.953
203.5894 384.55786 -1453.953
203.5894 361.93686 -1453.953
203.5894 339.31586 -1453.953
203.5894 316.69473 -1453.953
203.5894 294.0737 -1453.953
203.5894 271.45273 -1453.953
203.57057 248.80867 -1454.2056
203.39333 225.99266 -1456.583
203.21696 203.21715 -1458.9482
203.11108 180.54335 -1460.3687
203.10986 157.97435 -1460.3849
203.0748 135.38339 -1460.8553
203.06813 112.81571 -1460.9443
203.06752 90.252296 -1460.9525
203.04941 67.683289 -1461.1959
203.04457 45.12109 -1461.2606
203.05241 22.56147 -1461.1553
203.05363 0.00013247447 -1461.139
203.0488 -22.560848 -1461.204
203.07056 -45.126713 -1460.912
203.0899 -67.696609 -1460.6525
203.10382 -90.268272 -1460.4658
203.10199 -112.8344 -1460.4902
203.09294 -135.39513 -1460.6119
203.12619 -157.98701 -1460.1658
203.1516 -180.57909 -1459.8251
203.1964 -203.1963 -1459.2244
203.16551 -225.73935 -1459.6383
203.23151 -248.394 -1458.7533
203.31995 -271.09317 -1457.5671
225.82759 248.41048 -1458.5747
225.33408 225.33415 -1464.532
225.34947 202.81456 -1464.3459
225.41449 180.3317 -1463.561
225.43729 157.80615 -1463.2858
225.41516 135.24915 -1463.5529
225.39774 112.69904 -1463.7633
225.46144 90.184662 -1462.9944
225.46278 67.638901 -1462.9783
225.37093 45.074242 -1464.0869
225.36356 22.536379 -1464.176
225.36288 9.9247241e-05 -1464.1842
225.35953 -22.535902 -1464.2246
225.41048 -45.081951 -1463.6096
225.44803 -67.634232 -1463.1564
225.46413 -90.185539 -1462.962
225.43797 -112.71886 -1463.2778
225.38701 -135.23216 -1463.8928
225.40578 -157.78397 -1463.6663
225.42387 -180.3391 -1463.4478
225.40779 -202.86687 -1463.6421
225.38835 -225.38832 -1463.8766
225.46881 -248.01555 -1462.9054
225.76503 -270.91788 -1459.3298
249.74019 249.74025 -1443.9812
249.22725 226.57028 -1449.61
249.23694 203.92128 -1449.5037
249.2511 181.27362 -1449.3484
249.2511 158.61438 -1449.3483
249.26825 135.96448 -1449.1603
249.23396 113.28828 -1449.5365
249.22577 90.627663 -1449.6265
249.23172 67.972366 -1449.5608
249.26006 45.32008 -1449.2502
249.25409 22.659485 -1449.3156
249.26079 0.00013403168 -1449.2422
249.27495 -22.661291 -1449.0867
249.24962 -45.317944 -1449.3647
249.24141 -67.974777 -1449.4547
249.26453 -90.641548 -1449.2012
249.26601 -113.3026 -1449.1848
249.24739 -135.953 -1449.3893
249.30328 -158.64746 -1448.7758
249.31819 -181.32224 -1448.6122
249.26974 -203.94789 -1449.1438
249.23024 -226.57289 -1449.5773
249.25931 -249.25912 -1449.2585
249.69756 -272.39725 -1444.4492
273.93085 251.10332 -1429.0233
273.35776 227.7982 -1434.788
273.33969 205.00485 -1434.97
273.33722 182.22487 -1434.9946
273.39392 159.47995 -1434.4244
273.39719 136.69865 -1434.3912
273.39719 113.91563 -1434.3912
273.38898 91.129776 -1434.474
273.37256 68.343246 -1434.6393
273.3931 45.565548 -1434.4326
273.38406 22.781952 -1434.5234
273.37994 9.3283721e-05 -1434.5649
273.38242 -22.781757 -1434.5402
273.36844 -45.561371 -1434.6807
273.36844 -68.342087 -1434.6807
273.40131 -91.133659 -1434.3499
273.41116 -113.92118 -1434.2507
273.40787 -136.7039 -1434.2838
273.3898 -159.47737 -1434.4657
273.37503 -182.24994 -1434.6145
273.37091 -205.02806 -1434.6559
273.39227 -227.82678 -1434.4409
273.38321 -250.60117 -1434.5319
273.94815 -273.94809 -1428.849
298.38699 252.4814 -1413.9014
297.73773 229.02924 -1419.9299
297.73325 206.12305 -1419.9717
297.75302 183.23273 -1419.7878
297.79352 160.35046 -1419.4117
297.80075 137.44653 -1419.345
297.79892 114.53812 -1419.3616
297.78363 91.625854 -1419.5038
297.76202 68.714394 -1419.7042
297.78903 45.813782 -1419.4535
297.78812 22.90682 -1419.4619
297.7944 0.00011852386 -1419.4033
297.79984 -22.90761 -1419.3533
297.77643 -45.811687 -1419.5706
297.76562 -68.715126 -1419.6709
297.78903 -91.627319 -1419.4535
297.79984 -114.53831 -1419.3533
297.80615 -137.4489 -1419.2948
297.78183 -160.34393 -1419.5205
297.76562 -183.24036 -1419.6708
297.78452 -206.1584 -1419.4955
297.79263 -229.07115 -1419.4202
297.78903 -251.97531 -1419.4535
298.45929 -275.50085 -1413.2297
419.99924 -419.99908 -284.6785
323.11304 253.87457 -1398.6123
322.41003 230.29289 -1404.6737
322.3963 207.25481 -1404.792
322.43649 184.24947 -1404.4456
322.46786 161.23412 -1404.1753
322.47372 138.20309 -1404.1245
322.47372 115.16931 -1404.1245
322.44824 92.128212 -1404.3442
322.43353 69.093079 -1404.4711
322.46295 46.066204 -1404.2177
322.46588 23.033304 -1404.1921
322.47275 0.00015916483 -1404.1331
322.47571 -23.033829 -1404.1077
322.45609 -46.065041 -1404.2767
322.44531 -69.095276 -1404.3696
322.4649 -92.132744 -1404.2004
322.47665 -115.17007 -1404.0992
322.48257 -138.20673 -1404.0485
322.45511 -161.22746 -1404.285
322.44434 -184.25386 -1404.3781
322.4649 -207.29877 -1404.2006
322.46786 -230.33412 -1404.1753
322.46982 -253.36917 -1404.1583
323.39471 -277.19537 -1396.1837
360.63519 -334.87537 -1075.0892
347.39438 231.59644 -1388.9408
347.33914 208.40361 -1389.3849
347.39224 185.27589 -1388.9579
347.42938 162.13387 -1388.6588
347.41983 138.96794 -1388.7357
347.42728 115.8091 -1388.6759
347.39752 92.639465 -1388.915
347.39438 69.478958 -1388.9407
347.41983 46.322647 -1388.7357
347.41345 23.160999 -1388.787
347.4209 0.00014351825 -1388.7272
347.40714 -23.160496 -1388.8383
347.4209 -46.32275 -1388.7272
347.41028 -69.481979 -1388.8126
347.40817 -92.641991 -1388.8297
347.43155 -115.81036 -1388.6417
347.44424 -138.9776 -1388.5392
347.41983 -162.12915 -1388.7358
347.40714 -185.28377 -1388.8383
347.41562 -208.4493 -1388.7699
347.42194 -231.61449 -1388.7186
347.42728 -254.77989 -1388.676
348.62701 -278.90152 -1379.0212
381.19016 -330.36465 -1116.9735
384.84735 -359.1908 -1087.5424
372.67572 232.92238 -1372.9337
372.56464 209.56764 -1373.7716
372.62418 186.31219 -1373.3225
372.67114 163.04366 -1372.9683
372.64362 139.74141 -1373.1755
372.6608 116.45651 -1373.046
372.63336 93.15847 -1373.2533
372.63104 69.868515 -1373.2708
372.65393 46.58176 -1373.0979
372.64709 23.29052 -1373.1497
372.63217 8.9861591e-05 -1373.262
372.61731 -23.288542 -1373.3743
372.63449 -46.579193 -1373.2446
372.63904 -69.869652 -1373.2102
372.62988 -93.157402 -1373.2793
372.65622 -116.45499 -1373.0807
372.68488 -139.75667 -1372.8646
372.66428 -163.04048 -1373.0201
372.65048 -186.32516 -1373.1238
372.64594 -209.61325 -1373.1583
372.6528 -232.90794 -1373.1066
372.66196 -256.20505 -1373.0374
374.06564 -280.54913 -1362.4473
403.64941 -327.96509 -1139.2549
404.66647 -354.08313 -1131.5819
398.21005 234.24124 -1357.0132
398.06732 210.74167 -1358.0266
398.13867 187.35951 -1357.5199
398.17682 163.95528 -1357.2491
398.14606 140.52219 -1357.4675
398.17807 117.11125 -1357.2404
398.15469 93.683525 -1357.4064
398.14484 70.260948 -1357.4762
398.16577 46.843128 -1357.3278
398.15961 23.421139 -1357.3713
398.15225 6.0068607e-05 -1357.4238
398.13745 -23.419743 -1357.5288
398.15591 -46.841812 -1357.3976
398.15839 -70.263107 -1357.3801
398.14606 -93.681313 -1357.4677
398.17682 -117.1107 -1357.2491
398.19531 -140.5394 -1357.118
398.16452 -163.95001 -1357.3365
398.15097 -187.36519 -1357.4325
398.15591 -210.78838 -1357.3976
398.1633 -234.21355 -1357.3453
398.17807 -257.64447 -1357.2404
399.87738 -282.26624 -1345.1743
427.20938 -326.68936 -1151.1
426.9588 -351.61307 -1152.879
428.58362 -378.16193 -1141.3418
424.53143 235.85088 -1337.5839
423.85736 211.92874 -1342.1041
423.94431 188.41977 -1341.5211
423.96674 164.87601 -1341.371
423.93643 141.31235 -1341.5741
423.98517 117.7737 -1341.2472
423.97067 94.21579 -1341.3445
423.93771 70.656357 -1341.5653
423.96674 47.107559 -1341.371
423.96933 23.553867 -1341.3533
423.96146 0.00012971065 -1341.4062
423.94693 -23.552576 -1341.5034
423.96933 -47.107529 -1341.3533
423.97067 -70.661629 -1341.3444
423.95224 -94.211624 -1341.4681
423.9812 -117.77242 -1341.2737
423.9957 -141.33186 -1341.1765
423.9509 -164.86975 -1341.4769
423.94037 -188.41789 -1341.5475
423.9509 -211.97537 -1341.4769
423.96146 -235.53407 -1341.4062
423.99438 -259.10764 -1341.1853
426.06552 -284.04367 -1327.2958
451.37546 -325.99332 -1157.5637
450.26254 -350.20407 -1165.0272
449.49847 -374.58185 -1170.1514
449.9382 213.12874 -1326.0101
450.03381 189.48793 -1325.4027
450.04507 165.80612 -1325.3312
450.01834 142.11119 -1325.501
450.07745 118.44154 -1325.1256
450.08307 94.754456 -1325.0898
450.03104 71.05748 -1325.4205
450.06335 47.375202 -1325.2151
450.06619 23.687691 -1325.1971
450.05774 5.0799521e-05 -1325.2507
450.05209 -23.686892 -1325.2866
450.07883 -47.376656 -1325.1167
450.07883 -71.064903 -1325.1167
450.05496 -94.748276 -1325.2687
450.07181 -118.43984 -1325.1615
450.08307 -142.13148 -1325.0898
450.03244 -165.80136 -1325.4116
450.02679 -189.48486 -1325.4473
450.03946 -213.17653 -1325.3669
450.05209 -236.86946 -1325.2865
450.09998 -260.58414 -1324.9825
452.57565 -285.83713 -1309.254
475.87399 -325.5979 -1161.2352
473.86945 -349.16678 -1173.9707
472.50726 -373.03198 -1182.6248
481.23685 -405.25211 -1127.1638
476.30258 214.33621 -1309.8143
476.37894 190.55171 -1309.3535
476.42386 166.7484 -1309.0824
476.39691 142.91908 -1309.245
476.44482 119.11131 -1308.9558
476.49124 95.298347 -1308.6757
476.46729 71.470276 -1308.8203
476.46878 47.647068 -1308.8112
476.43283 23.82172 -1309.0282
476.42386 1.1030195e-05 -1309.0824
476.48227 -23.824015 -1308.7299
476.49576 -47.649509 -1308.6486
476.49576 -71.47419 -1308.6486
476.48679 -95.297272 -1308.7028
476.43433 -119.10845 -1309.0192
476.44482 -142.9333 -1308.9558
476.43585 -166.75249 -1309.0103
476.41187 -190.56464 -1309.1547
476.42685 -214.39201 -1309.0643
476.41788 -238.20888 -1309.1185
476.47479 -262.06107 -1308.775
479.41962 -287.65167 -1291.0013
501.75241 -326.13895 -1156.2111
497.68637 -348.38034 -1180.7518
495.99747 -371.99802 -1190.9451
502.9722 215.55957 -1293.4064
503.03104 191.63098 -1293.0682
503.09781 167.69934 -1292.6844
503.07874 143.73682 -1292.7941
503.10416 119.78686 -1292.6478
503.20279 95.848289 -1292.0809
503.21393 71.887764 -1292.017
503.1503 47.919125 -1292.3827
503.0994 23.95709 -1292.6752
503.10098 0.00014315646 -1292.6661
503.22189 -23.962894 -1291.9712
503.22031 -47.925598 -1291.9803
503.21872 -71.888306 -1291.9894
503.22668 -95.852661 -1291.9437
503.12009 -119.79037 -1292.5564
503.10577 -143.7444 -1292.6385
503.18054 -167.72672 -1292.209
503.11212 -191.6617 -1292.6021
503.12805 -215.62621 -1292.5106
503.10895 -239.57562 -1292.6205
503.16461 -263.56238 -1292.3003
506.88895 -289.65076 -1270.8923
536.38208 -332.0459 -1101.3621
523.2218 -348.81436 -1177.0093
532.23309 -380.16638 -1125.2111
529.95807 216.80113 -1276.7548
530.00024 192.72739 -1276.5236
530.07605 168.66064 -1276.1075
530.06934 144.56442 -1276.1445
530.06763 120.47002 -1276.1538
530.24634 96.408432 -1275.1733
530.25812 72.308022 -1275.1086
530.13843 48.194431 -1275.7653
530.08112 24.094713 -1276.0798
530.14685 0.00010836011 -1275.7191
530.27332 -24.103264 -1275.0253
530.26825 -48.206146 -1275.053
530.27161 -72.309746 -1275.0344
530.28174 -96.414757 -1274.979
530.16534 -120.49208 -1275.6174
530.11646 -144.57722 -1275.8856
530.23956 -168.71251 -1275.2103
530.15863 -192.78484 -1275.6543
530.18219 -216.89272 -1275.5249
530.13165 -240.96886 -1275.8024
530.15186 -265.07584 -1275.6914
534.6142 -291.60767 -1251.2073
578.22772 -341.67993 -1011.9067
576.74561 -367.01978 -1020.039
557.29053 218.07031 -1259.7323
557.32794 193.85327 -1259.5361
557.40454 169.6449 -1259.1338
557.40454 145.40999 -1259.1337
557.39923 121.17384 -1259.1619
557.5329 96.962418 -1258.4601
557.54718 72.723732 -1258.3853
557.47052 48.47583 -1258.7876
557.40991 24.235298 -1259.1057
557.42773 0.00012244777 -1259.0121
557.55792 -24.241564 -1258.329
557.55432 -48.482944 -1258.3478
557.56677 -72.725998 -1258.2822
557.57751 -96.96994 -1258.2262
557.4527 -121.18525 -1258.8811
557.41705 -145.41315 -1259.0684
557.5401 -169.68599 -1258.4226
557.44202 -193.89272 -1258.9373
557.47766 -218.1433 -1258.7502
557.39563 -242.34584 -1259.1805
557.54541 -266.65207 -1258.3947
562.71295 -293.58923 -1231.2738
655.84674 -370.69598 -742.48041
664.81433 -404.66946 -695.41589
584.94861 219.35588 -1242.4907
584.98431 194.99481 -1242.3109
585.05957 170.64256 -1241.9324
585.06708 146.2668 -1241.8945
585.06335 121.88818 -1241.9133
585.133 97.522209 -1241.5631
585.14612 73.143318 -1241.4969
585.12921 48.760914 -1241.582
585.07275 24.378254 -1241.8661
585.05957 0.00017265567 -1241.9323
585.15179 -24.381302 -1241.4685
585.15369 -48.762806 -1241.459
585.17065 -73.14621 -1241.3738
585.18195 -97.530235 -1241.3169
585.09161 -121.89391 -1241.7715
585.09161 -146.27281 -1241.7714
585.14807 -170.66809 -1241.4874
585.08215 -195.0273 -1241.8187
585.08032 -219.40504 -1241.8281
585.04639 -243.76918 -1241.9987
585.48523 -268.34732 -1239.7915
591.70203 -295.85092 -1208.5233
681.26025 -369.0159 -758.08026
685.78876 -400.04337 -735.30353
612.93463 220.65662 -1225.0446
612.96832 196.14995 -1224.8817
613.03979 171.65125 -1224.537
613.05957 147.1344 -1224.441
613.05957 122.61196 -1224.4412
613.05365 98.088646 -1224.4698
613.0636 73.567696 -1224.4221
613.09131 49.047447 -1224.288
613.07147 24.522936 -1224.3837
613.0556 5.8098434e-05 -1224.4604
613.06555 -24.522503 -1224.4124
613.0755 -49.045918 -1224.3646
613.09332 -73.571159 -1224.2784
613.10522 -98.096748 -1224.2208
613.0993 -122.61987 -1224.2496
613.09528 -147.14279 -1224.2687
613.07941 -171.66206 -1224.3453
613.0675 -196.18158 -1224.4028
613.05957 -220.70139 -1224.4413
613.03381 -245.21353 -1224.5657
613.7865 -270.06595 -1220.9314
621.3877 -298.26602 -1184.2295
707.91205 -368.11423 -766.453
710.60693 -397.93979 -753.44104
641.26294 221.97569 -1207.3514
641.25256 197.30861 -1207.3998
641.32562 172.66475 -1207.0607
641.39032 148.01323 -1206.7601
641.39032 123.34443 -1206.7603
641.34644 98.668709 -1206.9637
641.34015 74.000885 -1206.9929
641.36945 49.336235 -1206.8572
641.40283 24.669445 -1206.702
641.38818 0.00013588853 -1206.7699
641.34644 -24.667109 -1206.9639
641.3548 -49.334942 -1206.925
641.3736 -74.004562 -1206.8379
641.39862 -98.676605 -1206.7214
641.42993 -123.35186 -1206.576
641.42371 -148.02072 -1206.6051
641.36731 -172.67566 -1206.8668
641.39032 -197.35078 -1206.7603
641.37988 -222.01607 -1206.8087
641.36316 -246.67801 -1206.8864
642.48407 -271.8201 -1201.6823
651.93933 -300.89508 -1157.7841
736.48163 -368.24078 -765.27771
737.0271 -396.86057 -762.74561
669.9408 223.31375 -1189.4062
669.83118 198.46858 -1189.8966
669.95618 173.69255 -1189.3376
670.06366 148.90314 -1188.8571
670.06586 124.08629 -1188.8473
670.04175 99.265564 -1188.9551
669.99567 74.444092 -1189.161
670.03076 49.631996 -1189.0042
670.07025 24.817532 -1188.8275
670.05707 0.00012295732 -1188.8865
670.02637 -24.815752 -1189.0237
670.01538 -49.630653 -1189.0728
670.03516 -74.448196 -1188.9845
670.07025 -99.269501 -1188.8275
670.08777 -124.09019 -1188.7491
670.07465 -148.9054 -1188.8079
670.03296 -173.7121 -1188.9944
670.05707 -198.53542 -1188.8864
670.04828 -223.34941 -1188.9257
670.04608 -248.16522 -1188.9355
671.30127 -273.49307 -1183.3239
683.39471 -303.73083 -1129.2572
768.5191 -370.02756 -748.68579
767.97681 -398.21008 -751.11017
698.96643 224.66786 -1171.2434
698.7616 199.64622 -1172.1267
698.93427 174.73369 -1171.3826
699.09308 149.80574 -1170.6975
699.08856 124.83733 -1170.7173
699.08618 99.869568 -1170.7273
699.00562 74.89357 -1171.0747
699.04248 49.931725 -1170.9159
699.08618 24.967402 -1170.7273
699.07465 6.8133115e-05 -1170.7769
699.05627 -24.966192 -1170.8564
699.02173 -49.93 -1171.0054
699.047 -74.897766 -1170.896
699.08856 -99.869598 -1170.7174
699.08856 -124.83705 -1170.7174
699.07703 -149.80214 -1170.767
699.04248 -174.76047 -1170.9159
699.07013 -199.73425 -1170.7968
699.07703 -224.70312 -1170.767
699.08392 -249.67274 -1170.7372
700.58643 -275.23035 -1164.2595
718.15082 -307.77872 -1088.5381
728.34631 226.03859 -1152.859
728.04712 200.84071 -1154.1044
728.26178 175.78743 -1153.2107
728.47424 150.7188 -1152.3264
728.47906 125.59993 -1152.3064
728.48395 100.48061 -1152.2863
728.38007 75.349747 -1152.7184
728.40668 50.234974 -1152.6079
728.45496 25.119274 -1152.407
728.45972 0.00012261859 -1152.3868
728.44049 -25.118628 -1152.4673
728.39697 -50.234161 -1152.6481
728.4187 -75.353569 -1152.5576
728.46216 -100.47749 -1152.3768
728.46216 -125.59683 -1152.3767
728.43805 -150.71132 -1152.4773
728.40668 -175.82228 -1152.6079
728.43561 -200.94771 -1152.4874
728.45734 -226.07291 -1152.397
728.46698 -251.19547 -1152.3567
730.27753 -277.00177 -1144.8202
757.99585 227.3989 -1134.6151
757.82147 202.08577 -1135.3165
757.91498 176.84692 -1134.9406
758.14996 151.63007 -1133.9948
758.1424 126.35719 -1134.0251
758.14996 101.08668 -1133.9948
758.06158 75.806305 -1134.3507
758.08435 50.539051 -1134.2592
758.13232 25.271252 -1134.0659
758.13989 0.0001833494 -1134.0354
758.11969 -25.27067 -1134.1168
758.07666 -50.538311 -1134.2897
758.07166 -75.807076 -1134.3099
758.11462 -101.08175 -1134.1371
758.11969 -126.35311 -1134.1167
758.08435 -151.61673 -1134.2592
758.05396 -176.87914 -1134.3812
758.09943 -202.15974 -1134.1981
758.13739 -227.44122 -1134.0455
758.16516 -252.72156 -1133.9337
760.56445 -278.87366 -1124.2795
788.0202 228.78017 -1116.0885
787.96997 203.34724 -1116.2841
787.94623 177.92348 -1116.3766
788.18414 152.55182 -1115.4502
788.18146 127.12612 -1115.4604
788.17358 101.69989 -1115.4915
788.11017 76.268814 -1115.7385
788.12073 50.846676 -1115.6973
788.17889 25.425173 -1115.4708
788.18677 4.7434674e-05 -1115.4399
788.15765 -25.424314 -1115.5531
788.1286 -50.846947 -1115.6664
788.10217 -76.267838 -1115.7694
788.1286 -101.69398 -1115.6664
788.1709 -127.12431 -1115.5017
788.11017 -152.53738 -1115.7385
788.05981 -177.9489 -1115.934
788.13654 -203.39005 -1115.6355
788.17621 -228.82526 -1115.4811
788.22638 -254.26649 -1115.2854
791.23944 -280.76239 -1103.553
818.41162 230.17836 -1097.3353
818.34259 204.58583 -1097.5958
818.43097 179.0318 -1097.2625
818.58295 153.48428 -1096.6892
818.58569 127.90408 -1096.6788
818.56635 102.32087 -1096.7517
818.5415 76.73838 -1096.8455
818.547 51.159206 -1096.8247
818.59674 25.581276 -1096.6372
818.60504 0.00010129721 -1096.6058
818.56635 -25.580069 -1096.7518
818.54974 -51.159191 -1096.8143
818.52216 -76.736382 -1096.9186
818.51111 -102.31382 -1096.9602
818.59119 -127.90478 -1096.658
818.51941 -153.47227 -1096.929
818.43927 -179.0336 -1097.2311
818.5415 -204.63538 -1096.8455
818.58569 -230.22722 -1096.6787
818.65753 -255.83032 -1096.4078
822.24921 -282.64807 -1082.8593
849.24023 231.61101 -1078.1194
849.13928 205.85205 -1078.4888
849.24597 180.1431 -1078.0985
849.38727 154.43416 -1077.5815
849.38446 128.69475 -1077.592
849.33539 102.94988 -1077.7715
849.34985 77.213776 -1077.7186
849.35559 51.476219 -1077.6976
849.37573 25.738779 -1077.6238
849.38727 6.9802954e-05 -1077.5814
849.36713 -25.738314 -1077.6554
849.35266 -51.47591 -1077.708
849.32385 -77.211227 -1077.8136
849.30652 -102.94614 -1077.8768
849.38153 -128.69403 -1077.6025
849.30365 -154.41879 -1077.8875
849.24597 -180.14293 -1078.0985
849.34692 -205.90216 -1077.7292
849.35266 -231.64169 -1077.708
849.47388 -257.41617 -1077.2649
853.96985 -284.65656 -1060.819
880.53925 233.08395 -1058.3639
880.34064 207.13914 -1059.0688
880.42792 181.26468 -1058.7592
880.58734 155.39792 -1058.193
880.57233 129.49605 -1058.2463
880.49109 103.58728 -1058.5349
880.52423 77.693436 -1058.4174
880.54529 51.796879 -1058.3427
880.53625 25.898251 -1058.3746
880.54224 0.00012333941 -1058.3533
880.54224 -25.898247 -1058.3533
880.53925 -51.79631 -1058.364
880.50909 -77.691902 -1058.4707
880.49408 -103.58743 -1058.5242
880.55731 -129.49352 -1058.2999
880.48505 -155.37967 -1058.5562
880.46399 -181.27196 -1058.6309
880.54529 -207.18703 -1058.3427
880.49408 -233.07188 -1058.5243
880.68073 -259.02365 -1057.8617
886.26031 -286.73117 -1038.0524
912.24829 234.57825 -1038.3229
911.91901 208.43869 -1039.4587
911.99738 182.39967 -1039.1884
912.17926 156.37372 -1038.561
912.15106 130.30734 -1038.6584
912.04443 104.23376 -1039.0262
912.06952 78.177399 -1038.9396
912.12598 52.121609 -1038.7449
912.11658 26.060553 -1038.7773
912.10712 7.9414473e-05 -1038.8099
912.10712 -26.060133 -1038.8098
912.1134 -52.120705 -1038.7881
912.08838 -78.17894 -1038.8748
912.07574 -104.23712 -1038.9181
912.12598 -130.30368 -1038.7449
912.09143 -156.35854 -1038.8638
912.07574 -182.41507 -1038.9178
912.11975 -208.48447 -1038.7666
912.02563 -234.52075 -1039.0912
912.27655 -260.65036 -1038.2256
919.23822 -288.90332 -1014.2155
944.9259 236.23154 -1016.1481
943.83728 209.74165 -1019.7981
944.06592 183.56839 -1019.0315
944.04633 157.34117 -1019.0972
944.19006 131.1377 -1018.6152
944.08875 104.89883 -1018.9548
944.09534 78.674667 -1018.9329
944.15417 52.453068 -1018.7358
944.14435 26.226404 -1018.7687
944.14758 0.00016639943 -1018.7576
944.14758 -26.226231 -1018.7577
944.14758 -52.452541 -1018.7577
944.13782 -78.678055 -1018.7906
944.12799 -104.90306 -1018.8234
944.16064 -131.1333 -1018.7139
944.09534 -157.34927 -1018.9329
944.08551 -183.57204 -1018.9658
944.14435 -209.80977 -1018.7684
944.06268 -236.01569 -1019.0424
944.32727 -262.31296 -1018.155
953.88556 -291.46481 -986.10559
978.29932 237.96475 -992.90137
976.0722 211.04277 -1000.1672
976.58551 184.75948 -998.49249
976.25909 158.3123 -999.55743
976.64337 131.97891 -998.30389
976.55835 105.57397 -998.58124
976.53113 79.178268 -998.6701
976.59235 52.788902 -998.47034
976.56854 26.393915 -998.54797
976.5719 2.5990132e-05 -998.53693
976.60254 -26.394632 -998.43707
976.5957 -52.788986 -998.45917
976.58893 -79.182922 -998.48132
976.58893 -105.57708 -998.48157
976.59912 -131.97267 -998.44824
976.5141 -158.3535 -998.72559
976.52087 -184.74722 -998.70331
976.58215 -211.15286 -998.50348
976.52771 -237.53363 -998.68103
976.86108 -264.01639 -997.59357
993.06219 -295.23462 -944.73816
1012.9601 239.91165 -966.78894
1009.0594 212.43369 -979.17981
1009.2186 185.90883 -978.67426
1009.0418 159.32251 -979.23584
1009.4768 132.82593 -977.854
1009.399 106.25266 -978.10126
1009.3636 79.686684 -978.2135
1009.4273 53.127892 -978.01129
1009.4202 26.563768 -978.03381
1009.4273 0.00010415697 -978.01129
1009.4025 -26.563175 -978.09003
1009.406 -53.126625 -978.07867
1009.4096 -79.690208 -978.06738
1009.4592 -106.25867 -977.91016
1009.4768 -132.82574 -977.85406
1009.3954 -159.37819 -978.11249
1009.3707 -185.93672 -978.19098
1009.4131 -212.50797 -978.05609
1009.36 -239.05887 -978.22491
1010.0185 -265.79413 -976.13324
1044.7433 241.09468 -950.92224
1042.5396 213.85437 -957.74316
1042.3521 187.089 -958.32355
1042.4036 160.36992 -958.16425
1042.7529 133.68631 -957.08282
1042.6719 106.94083 -957.33337
1042.6388 80.203079 -957.43567
1042.683 53.471043 -957.29907
1042.6793 26.735395 -957.31049
1042.6205 0.00011406816 -957.49286
1042.5911 -26.733059 -957.58368
1042.6315 -53.468212 -957.45837
1042.7124 -80.208664 -957.20801
1042.7603 -106.94962 -957.05994
1042.6057 -133.6673 -957.53815
1042.6866 -160.41328 -957.28778
1042.6646 -187.14487 -957.35583
1042.683 -213.88361 -957.29926
1042.6315 -240.60728 -957.45837
1043.6144 -267.59348 -954.41602
1080.7341 432.29376 -923.15106
1080.7341 405.27533 -923.15094
1080.7341 378.25711 -923.15088
1080.7341 351.23877 -923.15094
1080.7341 324.22034 -923.15088
1080.7341 297.202 -923.15094
1080.6995 270.1749 -923.25555
1078.4811 242.65834 -929.95032
1076.1532 215.23082 -936.97498
1076.2412 188.34229 -936.70972
1076.2832 161.44255 -936.58301
1076.3175 134.53973 -936.47913
1076.3022 107.63035 -936.52533
1076.2335 80.717682 -936.73285
1076.1953 53.809944 -936.84814
1076.2488 26.90633 -936.68677
1076.2297 0.00012829999 -936.74432
1076.2106 -26.905182 -936.80212
1076.2183 -53.810734 -936.77905
1076.2755 -80.720665 -936.6059
1076.2755 -107.62752 -936.6059
1076.1418 -134.51767 -937.00958
1076.1799 -161.42705 -936.89423
1076.2297 -188.34009 -936.74432
1076.2985 -215.25958 -936.53693
1076.3137 -242.17061 -936.49054
1078.0208 -269.50519 -931.33905
