# .PCD v0.7 - Point Cloud Data file format
VERSION 0.7
FIELDS x y z
SIZE 4 4 4
TYPE F F F
COUNT 1 1 1
WIDTH 1489
HEIGHT 1
VIEWPOINT 0 0 0 1 0 0 0
POINTS 1489
DATA ascii
-22.457848 6.2881985 -11.673837
-22.457848 5.3898792 -11.673836
-22.457848 4.491569 -11.67384
-22.457848 3.5932546 -11.673836
-22.457848 2.6949444 -11.67384
-22.457848 1.7966257 -11.67384
-22.457848 0.89831072 -11.673835
-22.457848 3.2215024e-07 -11.673839
-22.457848 -0.89831418 -11.673836
-22.457848 -1.7966282 -11.673841
-22.500418 -2.7000494 -11.468287
-22.495977 -3.5993552 -11.489728
-22.494406 -4.4988828 -11.497315
-22.494221 -5.3986125 -11.498208
-22.494221 -6.2983813 -11.498209
-22.494221 -7.1981502 -11.49821
-22.494221 -8.0979185 -11.498211
-22.494221 -8.9976873 -11.498212
-22.494221 -9.8974562 -11.498213
-22.494221 -10.79723 -11.498205
-22.494963 -11.697384 -11.494637
-22.497551 -12.598629 -11.482133
-22.506155 -13.503695 -11.440585
-22.527653 -14.4177 -11.336787
-22.618162 -15.380355 -10.899767
-23.601522 -16.993097 -6.1516838
-23.593891 -17.931356 -6.1885381
-23.608042 -18.886431 -6.1202197
-23.703043 -19.910555 -5.6615033
-21.559532 10.779767 -11.673838
-21.559532 9.8814516 -11.673834
-21.559532 8.9831381 -11.67384
-21.559532 8.0848236 -11.673837
-21.559532 7.1865134 -11.673841
-21.559532 6.2881985 -11.673837
-21.559532 5.3898792 -11.673836
-21.559532 4.491569 -11.67384
-21.559532 3.5932546 -11.673836
-21.559532 2.6949444 -11.67384
-21.559532 1.7966257 -11.67384
-21.559532 0.89831072 -11.673835
-21.559532 3.2215024e-07 -11.673839
-21.559532 -0.89831418 -11.673836
-21.559532 -1.7966282 -11.673841
-21.600403 -2.7000494 -11.468287
-21.59614 -3.5993552 -11.489728
-21.594629 -4.4988828 -11.497315
-21.594454 -5.3986125 -11.498208
-21.594454 -6.2983813 -11.498209
-21.594454 -7.1981502 -11.49821
-21.594454 -8.0979185 -11.498211
-21.594454 -8.9976873 -11.498212
-21.594364 -9.8974199 -11.498654
-21.594454 -10.79723 -11.498205
-21.595161 -11.697384 -11.494637
-21.597649 -12.598629 -11.482133
-21.605909 -13.503695 -11.440585
-21.626545 -14.4177 -11.336787
-21.713434 -15.380355 -10.899767
-22.657755 -16.993319 -6.150209
-22.650526 -17.931671 -6.1865692
-22.664989 -18.887493 -6.1138253
-22.755512 -19.911077 -5.6585264
-20.661221 10.779767 -11.673838
-20.661221 9.8814516 -11.673834
-20.661221 8.9831381 -11.67384
-20.661221 8.0848236 -11.673837
-20.661221 7.1865134 -11.673841
-20.661221 6.2881985 -11.673837
-20.661221 5.3898792 -11.673836
-20.661221 4.491569 -11.67384
-20.661221 3.5932546 -11.673836
-20.661221 2.6949444 -11.67384
-20.661221 1.7966257 -11.67384
-20.661221 0.89831072 -11.673835
-20.661221 3.2215024e-07 -11.673839
-20.661221 -0.89831418 -11.673836
-20.661221 -1.7966282 -11.673841
-20.700386 -2.7000494 -11.468287
-20.696301 -3.5993552 -11.489728
-20.694855 -4.4988828 -11.497315
-20.694683 -5.3986125 -11.498208
-20.694683 -6.2983813 -11.498209
-20.694683 -7.1981502 -11.49821
-20.694683 -8.0979185 -11.498211
-20.694683 -8.9976873 -11.498212
-20.694599 -9.8974199 -11.498654
-20.694599 -10.797185 -11.498652
-20.695364 -11.697384 -11.494637
-20.697746 -12.598629 -11.482133
-20.705664 -13.503695 -11.440585
-20.725441 -14.4177 -11.336787
-20.808708 -15.380355 -10.899767
-21.713963 -16.993536 -6.1487327
-21.707129 -17.931976 -6.184607
-21.722115 -18.888796 -6.1059566
-21.81852 -19.921257 -5.6000004
-19.762905 10.779767 -11.673838
-19.762905 9.8814516 -11.673834
-19.762905 8.9831381 -11.67384
-19.762905 8.0848236 -11.673837
-19.762905 7.1865134 -11.673841
-19.762905 6.2881985 -11.673837
-19.762905 5.3898792 -11.673836
-19.762905 4.491569 -11.67384
-19.762905 3.5932546 -11.673836
-19.762905 2.6949444 -11.67384
-19.762905 1.7966257 -11.67384
-19.762905 0.89831072 -11.673835
-19.762905 3.2215024e-07 -11.673839
-19.762905 -0.89831418 -11.673836
-19.762905 -1.7966282 -11.673841
-19.800367 -2.7000494 -11.468287
-19.796461 -3.5993552 -11.489728
-19.795078 -4.4988828 -11.497315
-19.794914 -5.3986125 -11.498208
-19.794914 -6.2983813 -11.498209
-19.794914 -7.1981502 -11.49821
-19.794914 -8.0979185 -11.498211
-19.794914 -8.9976873 -11.498212
-19.794834 -9.8974199 -11.498654
-19.794834 -10.797185 -11.498652
-19.795567 -11.697384 -11.494637
-19.797844 -12.598629 -11.482133
-19.805418 -13.503695 -11.440585
-19.824333 -14.4177 -11.336787
-19.903984 -15.380355 -10.899767
-20.769609 -16.993319 -6.150209
-20.763699 -17.932291 -6.1826377
-20.778034 -18.889122 -6.1039848
-20.870249 -19.921606 -5.5980096
-18.864592 10.779767 -11.673838
-18.864592 9.8814516 -11.673834
-18.864592 8.9831381 -11.67384
-18.864592 8.0848236 -11.673837
-18.864592 7.1865134 -11.673841
-18.864592 6.2881985 -11.673837
-18.864592 5.3898792 -11.673836
-18.864592 4.491569 -11.67384
-18.864592 3.5932546 -11.673836
-18.864592 2.6949444 -11.67384
-18.864592 1.7966257 -11.67384
-18.864592 0.89831072 -11.673835
-18.864592 3.2215024e-07 -11.673839
-18.864592 -0.89831418 -11.673836
-18.864592 -1.7966282 -11.673841
-18.900351 -2.7000494 -11.468287
-18.896622 -3.5993552 -11.489728
-18.895302 -4.4988828 -11.497315
-18.895147 -5.3986125 -11.498208
-18.895147 -6.2983813 -11.498209
-18.895147 -7.1981502 -11.49821
-18.895147 -8.0979185 -11.498211
-18.895147 -8.9976873 -11.498212
-18.895147 -9.8974562 -11.498213
-18.895147 -10.79723 -11.498205
-18.895767 -11.697384 -11.494637
-18.897943 -12.598629 -11.482133
-18.905172 -13.503695 -11.440585
-18.923227 -14.4177 -11.336787
-18.999256 -15.380355 -10.899767
-19.825706 -16.993462 -6.1492271
-19.820236 -17.932598 -6.180676
-19.83392 -18.889452 -6.1020145
-19.921947 -19.921949 -5.5960255
-17.966278 10.779767 -11.673838
-17.966278 9.8814516 -11.673834
-17.966278 8.9831381 -11.67384
-17.966278 8.0848236 -11.673837
-17.966278 7.1865134 -11.673841
-17.966278 6.2881985 -11.673837
-17.966278 5.3898792 -11.673836
-17.966278 4.491569 -11.67384
-17.966278 3.5932546 -11.673836
-17.966278 2.6949444 -11.67384
-17.966278 1.7966257 -11.67384
-17.966278 0.89831072 -11.673835
-17.966278 3.2215024e-07 -11.673839
-17.966278 -0.89831418 -11.673836
-17.966278 -1.7966282 -11.673841
-18.000336 -2.7000494 -11.468287
-17.996782 -3.5993552 -11.489728
-17.995525 -4.4988828 -11.497315
-17.995377 -5.3986125 -11.498208
-17.995377 -6.2983813 -11.498209
-17.995377 -7.1981502 -11.49821
-17.995377 -8.0979185 -11.498211
-17.995377 -8.9976873 -11.498212
-17.995377 -9.8974562 -11.498213
-17.995377 -10.79723 -11.498205
-17.99597 -11.697384 -11.494637
-17.998041 -12.598629 -11.482133
-18.004925 -13.503695 -11.440585
-18.022121 -14.4177 -11.336787
-18.09453 -15.380355 -10.899767
-18.881626 -16.993462 -6.1492271
-18.876659 -17.932827 -6.1791964
-18.891241 -18.891241 -6.0911922
-18.973448 -19.922117 -5.5950375
-17.067965 10.779767 -11.673838
-17.067965 9.8814516 -11.673834
-17.067965 8.9831381 -11.67384
-17.067965 8.0848236 -11.673837
-17.067965 7.1865134 -11.673841
-17.067965 6.2881985 -11.673837
-17.067965 5.3898792 -11.673836
-17.067965 4.491569 -11.67384
-17.067965 3.5932546 -11.673836
-17.067965 2.6949444 -11.67384
-17.067965 1.7966257 -11.67384
-17.067965 0.89831072 -11.673835
-17.067965 3.2215024e-07 -11.673839
-17.067965 -0.89831418 -11.673836
-17.067965 -1.7966282 -11.673841
-17.100248 -2.7000384 -11.468732
-17.096943 -3.5993552 -11.489728
-17.095819 -4.4988971 -11.496872
-17.095608 -5.3986125 -11.498208
-17.095608 -6.2983813 -11.498209
-17.095608 -7.1981502 -11.49821
-17.095608 -8.0979185 -11.498211
-17.095608 -8.9976873 -11.498212
-17.095608 -9.8974562 -11.498213
-17.095608 -10.79723 -11.498205
-17.09617 -11.697384 -11.494637
-17.098139 -12.598629 -11.482133
-17.10475 -13.503753 -11.440136
-17.121016 -14.4177 -11.336787
-17.189804 -15.380355 -10.899767
-17.937622 -16.993536 -6.1487327
-17.932903 -17.932901 -6.1787114
-17.946756 -18.891323 -6.0907016
-18.03525 -19.933699 -5.5284843
-16.169651 10.779767 -11.673838
-16.169651 9.8814516 -11.673834
-16.169651 8.9831381 -11.67384
-16.169651 8.0848236 -11.673837
-16.169651 7.1865134 -11.673841
-16.169651 6.2881985 -11.673837
-16.169651 5.3898792 -11.673836
-16.169651 4.491569 -11.67384
-16.169651 3.5932546 -11.673836
-16.169651 2.6949444 -11.67384
-16.169651 1.7966257 -11.67384
-16.169651 0.89831072 -11.673835
-16.169651 3.2215024e-07 -11.673839
-16.169651 -0.89831418 -11.673836
-16.169651 -1.7966282 -11.673841
-16.200235 -2.7000384 -11.468732
-16.197105 -3.5993552 -11.489728
-16.196039 -4.4988971 -11.496872
-16.195841 -5.3986125 -11.498208
-16.195841 -6.2983813 -11.498209
-16.195841 -7.1981502 -11.49821
-16.195841 -8.0979185 -11.498211
-16.195841 -8.9976873 -11.498212
-16.195841 -9.8974562 -11.498213
-16.195841 -10.79723 -11.498205
-16.196373 -11.697384 -11.494637
-16.198236 -12.598629 -11.482133
-16.204432 -13.503695 -11.440585
-16.21991 -14.4177 -11.336787
-16.285076 -15.380355 -10.899767
-16.993536 -16.993536 -6.1487327
-16.989067 -17.932901 -6.1787114
-17.00219 -18.891323 -6.0907016
-17.086025 -19.933699 -5.5284843
-15.271337 10.779767 -11.673838
-15.271337 9.8814516 -11.673834
-15.271337 8.9831381 -11.67384
-15.271337 8.0848236 -11.673837
-15.271337 7.1865134 -11.673841
-15.271337 6.2881985 -11.673837
-15.271337 5.3898792 -11.673836
-15.271337 4.491569 -11.67384
-15.271337 3.5932546 -11.673836
-15.271337 2.6949444 -11.67384
-15.271337 1.7966257 -11.67384
-15.271337 0.89831072 -11.673835
-15.271337 3.2215024e-07 -11.673839
-15.271337 -0.89831418 -11.673836
-15.271337 -1.7966282 -11.673841
-15.300221 -2.7000384 -11.468732
-15.297266 -3.5993552 -11.489728
-15.296259 -4.4988971 -11.496872
-15.29607 -5.3986125 -11.498208
-15.29607 -6.2983813 -11.498209
-15.29607 -7.1981502 -11.49821
-15.29607 -8.0979185 -11.498211
-15.29607 -8.9976873 -11.498212
-15.296008 -9.8974199 -11.498654
-15.296008 -10.797185 -11.498652
-15.296512 -11.697334 -11.495082
-15.298335 -12.598629 -11.482133
-15.304186 -13.503695 -11.440585
-15.318804 -14.4177 -11.336787
-15.38035 -15.380355 -10.899767
-16.049381 -16.993462 -6.1492271
-16.04516 -17.932827 -6.1791964
-16.057625 -18.891323 -6.0907016
-16.12834 -19.923243 -5.5885825
-14.373023 10.779767 -11.673838
-14.373023 9.8814516 -11.673834
-14.373023 8.9831381 -11.67384
-14.373023 8.0848236 -11.673837
-14.373023 7.1865134 -11.673841
-14.373023 6.2881985 -11.673837
-14.373023 5.3898792 -11.673836
-14.373023 4.491569 -11.67384
-14.373023 3.5932546 -11.673836
-14.373023 2.6949444 -11.67384
-14.373023 1.7966257 -11.67384
-14.373023 0.89831072 -11.673835
-14.373023 3.2215024e-07 -11.673839
-14.373023 -0.89831418 -11.673836
-14.373023 -1.7966282 -11.673841
-14.400208 -2.7000384 -11.468732
-14.397426 -3.5993552 -11.489728
-14.396479 -4.4988971 -11.496872
-14.396302 -5.3986125 -11.498208
-14.396302 -6.2983813 -11.498209
-14.396302 -7.1981502 -11.49821
-14.396243 -8.097888 -11.498655
-14.396243 -8.9976521 -11.498653
-14.396243 -9.8974199 -11.498654
-14.396243 -10.797185 -11.498652
-14.396716 -11.697334 -11.495082
-14.398433 -12.598629 -11.482133
-14.40394 -13.503695 -11.440585
-14.417697 -14.4177 -11.336787
-14.475624 -15.380355 -10.899767
-15.105366 -16.993536 -6.1487327
-15.101197 -17.932674 -6.1801834
-15.111558 -18.889452 -6.1020145
-15.178627 -19.921949 -5.5960255
-13.474709 10.779767 -11.673838
-13.474709 9.8814516 -11.673834
-13.474709 8.9831381 -11.67384
-13.474709 8.0848236 -11.673837
-13.474709 7.1865134 -11.673841
-13.474709 6.2881985 -11.673837
-13.474709 5.3898792 -11.673836
-13.474709 4.491569 -11.67384
-13.474709 3.5932546 -11.673836
-13.474709 2.6949444 -11.67384
-13.474709 1.7966257 -11.67384
-13.474709 0.89831072 -11.673835
-13.474709 3.2215024e-07 -11.673839
-13.474709 -0.89831418 -11.673836
-13.474709 -1.7966282 -11.673841
-13.500196 -2.7000384 -11.468732
-13.497587 -3.5993552 -11.489728
-13.4967 -4.4988971 -11.496872
-13.496533 -5.3986125 -11.498208
-13.496477 -6.2983584 -11.498658
-13.496477 -7.198123 -11.498656
-13.496477 -8.097888 -11.498655
-13.496477 -8.9976521 -11.498653
-13.496533 -9.8974562 -11.498213
-13.496533 -10.79723 -11.498205
-13.496922 -11.697334 -11.495082
-13.49853 -12.598629 -11.482133
-13.503694 -13.503695 -11.440585
-13.516591 -14.4177 -11.336787
-13.570897 -15.380355 -10.899767
-14.161158 -16.993393 -6.1497145
-14.157128 -17.932364 -6.1821532
-14.166842 -18.889122 -6.1039848
-14.229654 -19.921518 -5.5985069
-12.576395 10.779767 -11.673838
-12.576395 9.8814516 -11.673834
-12.576395 8.9831381 -11.67384
-12.576395 8.0848236 -11.673837
-12.576395 7.1865134 -11.673841
-12.576395 6.2881985 -11.673837
-12.576395 5.3898792 -11.673836
-12.576395 4.491569 -11.67384
-12.576395 3.5932546 -11.673836
-12.576395 2.6949444 -11.67384
-12.576395 1.7966257 -11.67384
-12.576395 0.89831072 -11.673835
-12.576395 3.2215024e-07 -11.673839
-12.576395 -0.89831418 -11.673836
-12.576395 -1.7966282 -11.673841
-12.600183 -2.7000384 -11.468732
-12.597748 -3.5993552 -11.489728
-12.59692 -4.4988971 -11.496872
-12.596764 -5.3986125 -11.498208
-12.596712 -6.2983584 -11.498658
-12.596712 -7.198123 -11.498656
-12.596712 -8.097888 -11.498655
-12.596712 -8.9976521 -11.498653
-12.596764 -9.8974562 -11.498213
-12.596764 -10.79723 -11.498205
-12.597126 -11.697334 -11.495082
-12.598628 -12.598629 -11.482133
-12.603448 -13.503695 -11.440585
-12.615485 -14.4177 -11.336787
-12.666171 -15.380355 -10.899767
-13.217253 -16.993614 -6.1482401
-13.213035 -17.931976 -6.184607
-13.221929 -18.888474 -6.1079197
-13.280894 -19.921345 -5.599503
-11.678082 10.779767 -11.673838
-11.678082 9.8814516 -11.673834
-11.678082 8.9831381 -11.67384
-11.678082 8.0848236 -11.673837
-11.678082 7.1865134 -11.673841
-11.678082 6.2881985 -11.673837
-11.678082 5.3898792 -11.673836
-11.678082 4.491569 -11.67384
-11.678082 3.5932546 -11.673836
-11.678082 2.6949444 -11.67384
-11.678082 1.7966257 -11.67384
-11.678082 0.89831072 -11.673835
-11.678082 3.2215024e-07 -11.673839
-11.678082 -0.89831418 -11.673836
-11.678082 -1.7966282 -11.673841
-11.700171 -2.7000384 -11.468732
-11.697861 -3.5993412 -11.490172
-11.69714 -4.4988971 -11.496872
-11.696995 -5.3986125 -11.498208
-11.696947 -6.2983584 -11.498658
-11.696947 -7.198123 -11.498656
-11.696995 -8.0979185 -11.498211
-11.696995 -8.9976873 -11.498212
-11.696995 -9.8974562 -11.498213
-11.696995 -10.79723 -11.498205
-11.697331 -11.697334 -11.495082
-11.698727 -12.598629 -11.482133
-11.7032 -13.503695 -11.440585
-11.714379 -14.4177 -11.336787
-11.761444 -15.380355 -10.899767
-12.273004 -16.993393 -6.1497145
-12.269088 -17.931749 -6.1860766
-12.277293 -18.888144 -6.10989
-12.325903 -19.911077 -5.6585264
-10.779766 10.779767 -11.673838
-10.779766 9.8814516 -11.673834
-10.779766 8.9831381 -11.67384
-10.779766 8.0848236 -11.673837
-10.779766 7.1865134 -11.673841
-10.779766 6.2881985 -11.673837
-10.779766 5.3898792 -11.673836
-10.779766 4.491569 -11.67384
-10.779766 3.5932546 -11.673836
-10.779766 2.6949444 -11.67384
-10.779766 1.7966257 -11.67384
-10.779766 0.89831072 -11.673835
-10.779766 3.2215024e-07 -11.673839
-10.779766 -0.89831418 -11.673836
-10.779766 -1.7966282 -11.673841
-10.800157 -2.7000384 -11.468732
-10.798026 -3.5993412 -11.490172
-10.797359 -4.4988971 -11.496872
-10.797227 -5.3986125 -11.498208
-10.797182 -6.2983584 -11.498658
-10.797182 -7.198123 -11.498656
-10.797227 -8.0979185 -11.498211
-10.797227 -8.9976873 -11.498212
-10.797227 -9.8974562 -11.498213
-10.797227 -10.79723 -11.498205
-10.797538 -11.697334 -11.495082
-10.798824 -12.598629 -11.482133
-10.802999 -13.503753 -11.440136
-10.813272 -14.4177 -11.336787
-10.856717 -15.380355 -10.899767
-11.32878 -16.99317 -6.1511884
-11.325116 -17.931435 -6.188046
-11.331908 -18.886518 -6.1197214
-11.374701 -19.905727 -5.6892619
-9.8814526 10.779767 -11.673838
-9.8814526 9.8814516 -11.673834
-9.8814526 8.9831381 -11.67384
-9.8814526 8.0848236 -11.673837
-9.8814526 7.1865134 -11.673841
-9.8814526 6.2881985 -11.673837
-9.8814526 5.3898792 -11.673836
-9.8814526 4.491569 -11.67384
-9.8814526 3.5932546 -11.673836
-9.8814526 2.6949444 -11.67384
-9.8814526 1.7966257 -11.67384
-9.8814526 0.89831072 -11.673835
-9.8814526 3.2215024e-07 -11.673839
-9.8814526 -0.89831418 -11.673836
-9.8814526 -1.7966282 -11.673841
-9.9001436 -2.7000384 -11.468732
-9.8982306 -3.5993552 -11.489728
-9.8975801 -4.4988971 -11.496872
-9.8974571 -5.3986125 -11.498208
-9.8974171 -6.2983584 -11.498658
-9.8974171 -7.198123 -11.498656
-9.8974571 -8.0979185 -11.498211
-9.8974571 -8.9976873 -11.498212
-9.8974571 -9.8974562 -11.498213
-9.8974571 -10.79723 -11.498205
-9.8977423 -11.697334 -11.495082
-9.898922 -12.598629 -11.482133
-9.90275 -13.503753 -11.440136
-9.9121666 -14.4177 -11.336787
-9.951992 -15.380355 -10.899767
-10.384669 -16.993097 -6.1516838
-10.381089 -17.930973 -6.1909928
-10.387 -18.885458 -6.1261172
-10.424823 -19.901936 -5.711062
-8.983139 10.779767 -11.673838
-8.983139 9.8814516 -11.673834
-8.983139 8.9831381 -11.67384
-8.983139 8.0848236 -11.673837
-8.983139 7.1865134 -11.673841
-8.983139 6.2881985 -11.673837
-8.983139 5.3898792 -11.673836
-8.983139 4.491569 -11.67384
-8.983139 3.5932546 -11.673836
-8.983139 2.6949444 -11.67384
-8.983139 1.7966257 -11.67384
-8.983139 0.89831072 -11.673835
-8.983139 3.2215024e-07 -11.673839
-8.983139 -0.89831418 -11.673836
-8.983139 -1.7966282 -11.673841
-9.0001307 -2.7000384 -11.468732
-8.9983912 -3.5993552 -11.489728
-8.9977989 -4.4988971 -11.496872
-8.9976883 -5.3986125 -11.498208
-8.9976511 -6.2983584 -11.498658
-8.9976511 -7.198123 -11.498656
-8.9976883 -8.0979185 -11.498211
-8.9976883 -8.9976873 -11.498212
-8.9976883 -9.8974562 -11.498213
-8.9976883 -10.79723 -11.498205
-8.9979477 -11.697334 -11.495082
-8.9990206 -12.598629 -11.482133
-9.0024996 -13.503753 -11.440136
-9.0110607 -14.4177 -11.336787
-9.0472651 -15.380355 -10.899767
-9.4404469 -16.992805 -6.1536441
-9.4371901 -17.930664 -6.1929541
-9.4420757 -18.884153 -6.1339846
-9.4753475 -19.89823 -5.7323523
-8.0848255 10.779767 -11.673838
-8.0848255 9.8814516 -11.673834
-8.0848255 8.9831381 -11.67384
-8.0848255 8.0848236 -11.673837
-8.0848255 7.1865134 -11.673841
-8.0848255 6.2881985 -11.673837
-8.0848255 5.3898792 -11.673836
-8.0848255 4.491569 -11.67384
-8.0848255 3.5932546 -11.673836
-8.0848255 2.6949444 -11.67384
-8.0848255 1.7966257 -11.67384
-8.0848255 0.89831072 -11.673835
-8.0848255 3.2215024e-07 -11.673839
-8.0848255 -0.89831418 -11.673836
-8.0848255 -1.7966282 -11.673841
-8.1001177 -2.7000384 -11.468732
-8.0985527 -3.5993552 -11.489728
-8.0980196 -4.4988971 -11.496872
-8.0979204 -5.3986125 -11.498208
-8.0978861 -6.2983584 -11.498658
-8.0979204 -7.1981502 -11.49821
-8.0978861 -8.097888 -11.498655
-8.0978861 -8.9976521 -11.498653
-8.0979204 -9.8974562 -11.498213
-8.0979204 -10.79723 -11.498205
-8.0981531 -11.697334 -11.495082
-8.0991516 -12.598677 -11.481688
-8.1022491 -13.503753 -11.440136
-8.1099548 -14.4177 -11.336787
-8.1425381 -15.380355 -10.899767
-8.4965124 -16.993023 -6.1521783
-8.4933243 -17.930351 -6.1949239
-8.4976473 -18.883663 -6.1369367
-8.5241232 -19.889618 -5.7818499
-7.1865115 10.779767 -11.673838
-7.1865115 9.8814516 -11.673834
-7.1865115 8.9831381 -11.67384
-7.1865115 8.0848236 -11.673837
-7.1865115 7.1865134 -11.673841
-7.1865115 6.2881985 -11.673837
-7.1865115 5.3898792 -11.673836
-7.1865115 4.491569 -11.67384
-7.1865115 3.5932546 -11.673836
-7.1865115 2.6949444 -11.67384
-7.1865115 1.7966257 -11.67384
-7.1865115 0.89831072 -11.673835
-7.1865115 3.2215024e-07 -11.673839
-7.1865115 -0.89831418 -11.673836
-7.1865115 -1.7966282 -11.673841
-7.2001638 -2.7000601 -11.467841
-7.1987429 -3.599375 -11.489277
-7.1982393 -4.4988971 -11.496872
-7.1981807 -5.3986368 -11.49776
-7.1981807 -6.2984095 -11.497763
-7.1982102 -7.1982093 -11.497319
-7.1981807 -8.0979548 -11.497759
-7.1981807 -8.9977274 -11.497762
-7.1981807 -9.8974962 -11.497763
-7.1981807 -10.797275 -11.497758
-7.1983881 -11.697384 -11.494637
-7.1993051 -12.598783 -11.480794
-7.2020001 -13.503753 -11.440136
-7.2088785 -14.417761 -11.33634
-7.237812 -15.380355 -10.899767
-7.5523572 -16.992805 -6.1536441
-7.5494595 -17.929966 -6.1973777
-7.5529432 -18.88236 -6.144805
-7.5768342 -19.889191 -5.7843213
-6.2881975 10.779767 -11.673838
-6.2881975 9.8814516 -11.673834
-6.2881975 8.9831381 -11.67384
-6.2881975 8.0848236 -11.673837
-6.2881975 7.1865134 -11.673841
-6.2881975 6.2881985 -11.673837
-6.2881975 5.3898792 -11.673836
-6.2881975 4.491569 -11.67384
-6.2881975 3.5932546 -11.673836
-6.2881975 2.6949444 -11.67384
-6.2881975 1.7966257 -11.67384
-6.2881975 0.89831072 -11.673835
-6.2881975 3.2215024e-07 -11.673839
-6.2881975 -0.89831418 -11.673836
-6.2881975 -1.7966282 -11.673841
-6.3002725 -2.7001188 -11.465604
-6.2990294 -3.5994458 -11.487048
-6.298563 -4.4989738 -11.495088
-6.2985373 -5.3987451 -11.495531
-6.2985373 -6.2985396 -11.495526
-6.2985373 -7.1983285 -11.495528
-6.2985115 -8.0980864 -11.495975
-6.2985373 -8.9979124 -11.495526
-6.2985373 -9.8977022 -11.495529
-6.2985373 -10.797492 -11.495532
-6.2987185 -11.697623 -11.492402
-6.2994957 -12.598996 -11.479006
-6.3018794 -13.50403 -11.437901
-6.3078728 -14.417994 -11.334554
-6.333138 -15.380474 -10.89887
-6.6082845 -16.992733 -6.1541395
-6.6056633 -17.929659 -6.1993399
-6.6085405 -18.881546 -6.1497192
-6.6288695 -19.886608 -5.7991567
-5.389883 10.779767 -11.673838
-5.389883 9.8814516 -11.673834
-5.389883 8.9831381 -11.67384
-5.389883 8.0848236 -11.673837
-5.389883 7.1865134 -11.673841
-5.389883 6.2881985 -11.673837
-5.389883 5.3898792 -11.673836
-5.389883 4.491569 -11.67384
-5.389883 3.5932546 -11.673836
-5.389883 2.6949444 -11.67384
-5.389883 1.7966257 -11.67384
-5.389883 0.89831072 -11.673835
-5.389883 3.2215024e-07 -11.673839
-5.389883 -0.89831418 -11.673836
-5.389883 -1.7966282 -11.673841
-5.400456 -2.7002299 -11.461138
-5.3994122 -3.599611 -11.482129
-5.3990569 -4.4992156 -11.489278
-5.399013 -5.399014 -11.490169
-5.399013 -6.2988491 -11.490167
-5.399013 -7.1986809 -11.490173
-5.399013 -8.0985165 -11.490172
-5.399013 -8.998353 -11.49017
-5.399013 -9.8981895 -11.490169
-5.399013 -10.798026 -11.490168
-5.3991899 -11.698247 -11.486597
-5.3998342 -12.599614 -11.473649
-5.4018774 -13.50469 -11.432538
-5.4069705 -14.418588 -11.330076
-5.4284263 -15.380541 -10.898415
-5.6641703 -16.99251 -6.1556129
-5.6619234 -17.929424 -6.2008166
-5.664341 -18.88114 -6.1521716
-5.6807079 -19.882483 -5.8228912
-4.4915695 10.779767 -11.673838
-4.4915695 9.8814516 -11.673834
-4.4915695 8.9831381 -11.67384
-4.4915695 8.0848236 -11.673837
-4.4915695 7.1865134 -11.673841
-4.4915695 6.2881985 -11.673837
-4.4915695 5.3898792 -11.673836
-4.4915695 4.491569 -11.67384
-4.4915695 3.5932546 -11.673836
-4.4915695 2.6949444 -11.67384
-4.4915695 1.7966257 -11.67384
-4.4915695 0.89831072 -11.673835
-4.4915695 3.2215024e-07 -11.673839
-4.4915695 -0.89831418 -11.673836
-4.4915695 -1.7966282 -11.673841
-4.5007315 -2.700439 -11.452649
-4.4998989 -3.599921 -11.472754
-4.4996028 -4.4996061 -11.479897
-4.4995656 -5.3994799 -11.480791
-4.4995475 -6.2993679 -11.481241
-4.4995656 -7.1993074 -11.480795
-4.4995656 -8.0992193 -11.480797
-4.4995656 -8.9991312 -11.480798
-4.4995656 -9.8990479 -11.480791
-4.4995842 -10.799005 -11.480345
-4.499732 -11.699306 -11.476769
-4.5003242 -12.600912 -11.462479
-4.5019536 -13.505862 -11.423143
-4.5063467 -14.420312 -11.317083
-4.5237446 -15.38073 -10.897064
-4.720325 -16.99317 -6.1511884
-4.7184324 -17.930044 -6.1968851
-4.7204065 -18.881624 -6.1492267
-4.7334733 -19.880587 -5.8337693
-3.5932558 10.779767 -11.673838
-3.5932558 9.8814516 -11.673834
-3.5932558 8.9831381 -11.67384
-3.5932558 8.0848236 -11.673837
-3.5932558 7.1865134 -11.673841
-3.5932558 6.2881985 -11.673837
-3.5932558 5.3898792 -11.673836
-3.5932558 4.491569 -11.67384
-3.5932558 3.5932546 -11.673836
-3.5932558 2.6949444 -11.67384
-3.5932558 1.7966257 -11.67384
-3.5932558 0.89831072 -11.673835
-3.5932558 3.2215024e-07 -11.673839
-3.5932558 -0.89831418 -11.673836
-3.5932558 -1.7966282 -11.673841
-3.601074 -2.7008038 -11.437901
-3.6004224 -3.6004269 -11.457562
-3.6002004 -4.5002532 -11.464264
-3.6001706 -5.4002566 -11.46516
-3.6001706 -6.3002996 -11.465155
-3.6001706 -7.2003417 -11.465159
-3.6001706 -8.1003838 -11.465163
-3.6002004 -9.0004997 -11.464264
-3.600215 -9.9005957 -11.463816
-3.60023 -10.800692 -11.463368
-3.6003928 -11.701278 -11.458456
-3.6008222 -12.602878 -11.445498
-3.6021554 -13.508082 -11.405261
-3.6055524 -14.422211 -11.302743
-3.6207466 -15.388176 -10.844219
-3.7769933 -16.996468 -6.1290708
-3.7754133 -17.933214 -6.1767426
-3.7766509 -18.883257 -6.139389
-3.7870896 -19.882223 -5.8243747
-2.6949415 10.779767 -11.673838
-2.6949415 9.8814516 -11.673834
-2.6949415 8.9831381 -11.67384
-2.6949415 8.0848236 -11.673837
-2.6949415 7.1865134 -11.673841
-2.6949415 6.2881985 -11.673837
-2.6949415 5.3898792 -11.673836
-2.6949415 4.491569 -11.67384
-2.6949415 3.5932546 -11.673836
-2.6949415 2.6949444 -11.67384
-2.6949415 1.7966257 -11.67384
-2.6949415 0.89831072 -11.673835
-2.6949415 3.2215024e-07 -11.673839
-2.6949415 -0.89831418 -11.673836
-2.6949415 -1.7966282 -11.673841
-2.7014501 -2.7014523 -11.411972
-2.7009943 -3.601325 -11.4303
-2.7008388 -4.5013986 -11.436558
-2.7008057 -5.4016099 -11.437903
-2.7008057 -6.3018761 -11.437902
-2.7008057 -7.2021465 -11.437904
-2.7008057 -8.1024179 -11.437896
-2.7008388 -9.0027952 -11.436563
-2.7008834 -9.9032393 -11.434774
-2.7009275 -10.803713 -11.432981
-2.7010829 -11.704696 -11.426725
-2.701472 -12.60687 -11.411077
-2.7024283 -13.512144 -11.372603
-2.7048883 -14.426073 -11.273615
-2.7174144 -15.398685 -10.76961
-2.8342366 -17.005421 -6.0690484
-2.8330991 -17.942963 -6.1148062
-2.8338451 -18.892302 -6.0847964
-2.841325 -19.889277 -5.783823
-1.7966279 10.779767 -11.673838
-1.7966279 9.8814516 -11.673834
-1.7966279 8.9831381 -11.67384
-1.7966279 8.0848236 -11.673837
-1.7966279 7.1865134 -11.673841
-1.7966279 6.2881985 -11.673837
-1.7966279 5.3898792 -11.673836
-1.7966279 4.491569 -11.67384
-1.7966279 3.5932546 -11.673836
-1.7966279 2.6949444 -11.67384
-1.7966279 1.7966257 -11.67384
-1.7966279 0.89831072 -11.673835
-1.7966279 3.2215024e-07 -11.673839
-1.7966279 -0.89831418 -11.673836
-1.7966279 -1.7966282 -11.673841
-1.8018413 -2.7027609 -11.359175
-1.8015817 -3.6031649 -11.374841
-1.8014854 -4.503716 -11.380655
-1.8014854 -5.4044542 -11.380659
-1.8014706 -6.3051496 -11.381553
-1.8014706 -7.205883 -11.381554
-1.8015299 -8.1068859 -11.37797
-1.8015299 -9.0076532 -11.37797
-1.8015447 -9.9084969 -11.377079
-1.8016114 -10.809669 -11.373049
-1.8017745 -11.711536 -11.363201
-1.8020787 -12.614552 -11.344851
-1.8027837 -13.520881 -11.302296
-1.8043218 -14.434575 -11.209462
-1.8200455 -15.470388 -10.260454
-1.8922844 -17.030561 -5.9004521
-1.8912624 -17.966995 -5.962132
-1.8915484 -18.915485 -5.9448729
-1.8967118 -19.915474 -5.6332383
-0.89831394 10.779767 -11.673838
-0.89831394 9.8814516 -11.673834
-0.89831394 8.9831381 -11.67384
-0.89831394 8.0848236 -11.673837
-0.89831394 7.1865134 -11.673841
-0.89831394 6.2881985 -11.673837
-0.89831394 5.3898792 -11.673836
-0.89831394 4.491569 -11.67384
-0.89831394 3.5932546 -11.673836
-0.89831394 2.6949444 -11.67384
-0.89831394 1.7966257 -11.67384
-0.89831394 0.89831072 -11.673835
-0.89831394 3.2215024e-07 -11.673839
-0.89831394 -0.89831418 -11.673836
-0.89831394 -1.7966282 -11.673841
-0.90277117 -2.7083149 -11.135803
-0.90268928 -3.6107574 -11.145689
-0.90248454 -4.5124245 -11.1704
-0.90247339 -5.4148402 -11.171749
-0.90245849 -6.3172078 -11.173544
-0.9024511 -7.2196102 -11.174444
-0.90259618 -8.1233654 -11.156925
-0.90257382 -9.0257397 -11.159618
-0.90264457 -9.9290943 -11.151076
-0.90279347 -10.833523 -11.133102
-0.90300947 -11.739124 -11.107025
-0.90348291 -12.648761 -11.049886
-0.9043116 -13.564677 -10.949851
-0.90591729 -14.494678 -10.756033
-0.95091856 -16.165617 -5.3238902
-0.95040655 -17.107321 -5.3856916
-0.94969726 -18.044252 -5.4713154
-0.94983333 -18.996668 -5.4548936
9.5834483e-24 10.779767 -11.673838
1.5512532e-23 9.8814516 -11.673834
-1.8246845e-23 8.9831381 -11.67384
1.6800617e-23 8.0848236 -11.673837
-1.695876e-23 7.1865134 -11.673841
-1.16898e-23 6.2881985 -11.673837
2.7326508e-23 5.3898792 -11.673836
-6.4328688e-24 4.491569 -11.67384
-1.163909e-24 3.5932546 -11.673836
-3.4923286e-23 2.6949444 -11.67384
1.2417617e-25 1.7966257 -11.67384
6.0532595e-24 0.89831072 -11.673835
-2.4397395e-23 3.2215024e-07 -11.673839
1.0650067e-23 -0.89831418 -11.673836
-2.3109309e-23 -1.7966282 -11.673841
8.5937718e-25 -2.7078326 -11.155125
1.6211483e-23 -3.6101046 -11.165456
1.0486932e-23 -4.512444 -11.169949
-1.6384319e-23 -5.4148402 -11.171749
-6.8519314e-24 -6.3172359 -11.173098
-2.2664187e-24 -7.2196102 -11.174444
-2.741847e-23 -8.1219263 -11.176241
-1.0873738e-23 -9.02425 -11.177589
-9.2054664e-24 -9.9282303 -11.160518
1.4642995e-23 -10.831513 -11.153322
1.2003123e-23 -11.737093 -11.125907
1.4802648e-23 -12.646675 -11.067884
-2.4138349e-23 -13.562937 -10.963838
-1.0028639e-24 -14.493897 -10.761917
-4.1006319e-24 -16.162668 -5.3448319
-1.447352e-23 -17.098185 -5.4469376
-1.8608888e-23 -18.044252 -5.4713154
2.730855e-25 -18.996668 -5.4548936
0.89831394 10.779767 -11.673838
0.89831394 9.8814516 -11.673834
0.89831394 8.9831381 -11.67384
0.89831394 8.0848236 -11.673837
0.89831394 7.1865134 -11.673841
0.89831394 6.2881985 -11.673837
0.89831394 5.3898792 -11.673836
0.89831394 4.491569 -11.67384
0.89831394 3.5932546 -11.673836
0.89831394 2.6949444 -11.67384
0.89831394 1.7966257 -11.67384
0.89831394 0.89831072 -11.673835
0.89831394 3.2215024e-07 -11.673839
0.89831394 -0.89831418 -11.673836
0.89831394 -1.7966282 -11.673841
0.90090215 -2.7027063 -11.361415
0.90077609 -3.6031041 -11.376635
0.90072793 -4.5036387 -11.38245
0.90072417 -5.404345 -11.382897
0.90072417 -6.3050704 -11.382895
0.90072042 -7.2057643 -11.383345
0.90073895 -8.1066532 -11.381104
0.9007501 -9.0075006 -11.379762
0.90077233 -9.9084969 -11.377079
0.90079832 -10.809581 -11.373942
0.90086502 -11.711246 -11.365891
0.90102822 -12.614398 -11.346189
0.90138811 -13.520824 -11.302746
0.90212744 -14.434039 -11.2135
0.90956515 -15.462605 -10.315695
0.94606858 -17.029232 -5.9093418
0.94563121 -17.966995 -5.962132
0.94571292 -18.914257 -5.9522686
0.94824493 -19.913145 -5.6466293
1.7966279 10.779767 -11.673838
1.7966279 9.8814516 -11.673834
1.7966279 8.9831381 -11.67384
1.7966279 8.0848236 -11.673837
1.7966279 7.1865134 -11.673841
1.7966279 6.2881985 -11.673837
1.7966279 5.3898792 -11.673836
1.7966279 4.491569 -11.67384
1.7966279 3.5932546 -11.673836
1.7966279 2.6949444 -11.67384
1.7966279 1.7966257 -11.67384
1.7966279 0.89831072 -11.673835
1.7966279 3.2215024e-07 -11.673839
1.7966279 -0.89831418 -11.673836
1.7966279 -1.7966282 -11.673841
1.8009665 -2.7014523 -11.411972
1.8006628 -3.601325 -11.4303
1.8005518 -4.5013785 -11.437009
1.800537 -5.4016099 -11.437903
1.800537 -6.3018761 -11.437902
1.800537 -7.2021465 -11.437904
1.800537 -8.1024179 -11.437896
1.800537 -9.0026884 -11.437898
1.8005813 -9.9031954 -11.435221
1.8006183 -10.803713 -11.432981
1.8006999 -11.70455 -11.42807
1.8009592 -12.606715 -11.412416
1.801604 -13.512034 -11.373496
1.8032367 -14.425893 -11.27496
1.811617 -15.398746 -10.769152
1.889491 -17.005421 -6.0690484
1.888635 -17.942034 -6.1207094
1.8891323 -18.891323 -6.0907016
1.8942167 -19.889277 -5.783823
2.6949415 10.779767 -11.673838
2.6949415 9.8814516 -11.673834
2.6949415 8.9831381 -11.67384
2.6949415 8.0848236 -11.673837
2.6949415 7.1865134 -11.673841
2.6949415 6.2881985 -11.673837
2.6949415 5.3898792 -11.673836
2.6949415 4.491569 -11.67384
2.6949415 3.5932546 -11.673836
2.6949415 2.6949444 -11.67384
2.6949415 1.7966257 -11.67384
2.6949415 0.89831072 -11.673835
2.6949415 3.2215024e-07 -11.673839
2.6949415 -0.89831418 -11.673836
2.6949415 -1.7966282 -11.673841
2.7008057 -2.7008038 -11.437901
2.7003169 -3.6004269 -11.457562
2.700139 -4.5002332 -11.464715
2.7001169 -5.4002333 -11.46561
2.7001169 -6.3002768 -11.465604
2.7001281 -7.2003417 -11.465159
2.7001281 -8.1003838 -11.465163
2.7001281 -9.0004272 -11.465158
2.7001503 -9.9005508 -11.464263
2.7001722 -10.800692 -11.463368
2.7002723 -11.701185 -11.459348
2.7006056 -12.602829 -11.445942
2.7015944 -13.507976 -11.406155
2.7041645 -14.422211 -11.302743
2.715549 -15.388114 -10.844667
2.8326838 -16.996101 -6.1315265
2.8315601 -17.933214 -6.1767426
2.8324881 -18.883257 -6.139389
2.8403051 -19.882135 -5.824872
3.5932558 10.779767 -11.673838
3.5932558 9.8814516 -11.673834
3.5932558 8.9831381 -11.67384
3.5932558 8.0848236 -11.673837
3.5932558 7.1865134 -11.673841
3.5932558 6.2881985 -11.673837
3.5932558 5.3898792 -11.673836
3.5932558 4.491569 -11.67384
3.5932558 3.5932546 -11.673836
3.5932558 2.6949444 -11.67384
3.5932558 1.7966257 -11.67384
3.5932558 0.89831072 -11.673835
3.5932558 3.2215024e-07 -11.673839
3.5932558 -0.89831418 -11.673836
3.5932558 -1.7966282 -11.673841
3.6005702 -2.7004285 -11.453094
3.5998895 -3.5998869 -11.473648
3.5996377 -4.499548 -11.481241
3.5996082 -5.3994141 -11.482129
3.5996232 -6.2993398 -11.481688
3.5996377 -7.199276 -11.481239
3.5996377 -8.0991879 -11.481241
3.5996525 -8.9991312 -11.480798
3.5996377 -9.899003 -11.481237
3.5996673 -10.799005 -11.480345
3.5997858 -11.699306 -11.476769
3.60023 -12.600805 -11.463373
3.601563 -13.505862 -11.423143
3.6050625 -14.420251 -11.317532
3.6189957 -15.38073 -10.897064
3.7762437 -16.993097 -6.1516838
3.7747297 -17.929966 -6.1973777
3.776325 -18.881624 -6.1492267
3.7867785 -19.880587 -5.8337693
4.4915695 10.779767 -11.673838
4.4915695 9.8814516 -11.673834
4.4915695 8.9831381 -11.67384
4.4915695 8.0848236 -11.673837
4.4915695 7.1865134 -11.673841
4.4915695 6.2881985 -11.673837
4.4915695 5.3898792 -11.673836
4.4915695 4.491569 -11.67384
4.4915695 3.5932546 -11.673836
4.4915695 2.6949444 -11.67384
4.4915695 1.7966257 -11.67384
4.4915695 0.89831072 -11.673835
4.4915695 3.2215024e-07 -11.673839
4.4915695 -0.89831418 -11.673836
4.4915695 -1.7966282 -11.673841
4.5003614 -2.7002201 -11.461583
4.4994917 -3.5995913 -11.48258
4.4991956 -4.4991956 -11.489729
4.4991403 -5.3989658 -11.491067
4.4991589 -6.2988262 -11.490617
4.4991403 -7.1986256 -11.491067
4.4991589 -8.0984859 -11.490617
4.499177 -8.998353 -11.49017
4.4991589 -9.8981495 -11.490619
4.499177 -10.798026 -11.490168
4.4993067 -11.698199 -11.487042
4.4998617 -12.599614 -11.473649
4.5015459 -13.504639 -11.432981
4.5058088 -14.418588 -11.330076
4.5236697 -15.380474 -10.89887
4.7201624 -16.992588 -6.1551204
4.7182698 -17.929424 -6.2008166
4.7202845 -18.88114 -6.1521716
4.7339234 -19.882483 -5.8228912
5.389883 10.779767 -11.673838
5.389883 9.8814516 -11.673834
5.389883 8.9831381 -11.67384
5.389883 8.0848236 -11.673837
5.389883 7.1865134 -11.673841
5.389883 6.2881985 -11.673837
5.389883 5.3898792 -11.673836
5.389883 4.491569 -11.67384
5.389883 3.5932546 -11.673836
5.389883 2.6949444 -11.67384
5.389883 1.7966257 -11.67384
5.389883 0.89831072 -11.673835
5.389883 3.2215024e-07 -11.673839
5.389883 -0.89831418 -11.673836
5.389883 -1.7966282 -11.673841
5.4002113 -2.7001076 -11.46605
5.3991685 -3.5994458 -11.487048
5.3987904 -4.4989939 -11.494637
5.3987241 -5.3987255 -11.495972
5.3987465 -6.2985396 -11.495526
5.3987465 -7.1983285 -11.495528
5.3987465 -8.0981188 -11.495531
5.3987465 -8.9979124 -11.495526
5.3987465 -9.8977022 -11.495529
5.3987689 -10.797537 -11.495085
5.3989019 -11.697623 -11.492402
5.39959 -12.599045 -11.47856
5.4016113 -13.50403 -11.437901
5.4067478 -14.417994 -11.334554
5.4283814 -15.380413 -10.899318
5.664268 -16.992805 -6.1536441
5.6619968 -17.929659 -6.1993399
5.6644635 -18.881546 -6.1497192
5.6820602 -19.887211 -5.7957001
6.2881975 10.779767 -11.673838
6.2881975 9.8814516 -11.673834
6.2881975 8.9831381 -11.67384
6.2881975 8.0848236 -11.673837
6.2881975 7.1865134 -11.673841
6.2881975 6.2881985 -11.673837
6.2881975 5.3898792 -11.673836
6.2881975 4.491569 -11.67384
6.2881975 3.5932546 -11.673836
6.2881975 2.6949444 -11.67384
6.2881975 1.7966257 -11.67384
6.2881975 0.89831072 -11.673835
6.2881975 3.2215024e-07 -11.673839
6.2881975 -0.89831418 -11.673836
6.2881975 -1.7966282 -11.673841
6.3001428 -2.7000601 -11.467841
6.2988997 -3.599375 -11.489277
6.2984858 -4.4989209 -11.496424
6.298408 -5.3986368 -11.49776
6.2984338 -6.2984366 -11.497316
6.298408 -7.1981821 -11.497766
6.298408 -8.0979548 -11.497759
6.298408 -8.9977274 -11.497762
6.298408 -9.8974962 -11.497763
6.298408 -10.797275 -11.497758
6.2985897 -11.697384 -11.494637
6.2993922 -12.598783 -11.480794
6.3017497 -13.503753 -11.440136
6.3077946 -14.417819 -11.335891
6.3331113 -15.380413 -10.899318
6.6083126 -16.992805 -6.1536441
6.6057768 -17.929966 -6.1973777
6.6088538 -18.882439 -6.1443124
6.6297297 -19.889191 -5.7843213
7.1865115 10.779767 -11.673838
7.1865115 9.8814516 -11.673834
7.1865115 8.9831381 -11.67384
7.1865115 8.0848236 -11.673837
7.1865115 7.1865134 -11.673841
7.1865115 6.2881985 -11.673837
7.1865115 5.3898792 -11.673836
7.1865115 4.491569 -11.67384
7.1865115 3.5932546 -11.673836
7.1865115 2.6949444 -11.67384
7.1865115 1.7966257 -11.67384
7.1865115 0.89831072 -11.673835
7.1865115 3.2215024e-07 -11.673839
7.1865115 -0.89831418 -11.673836
7.1865115 -1.7966282 -11.673841
7.2001338 -2.7000494 -11.468287
7.1987128 -3.5993552 -11.489728
7.1982393 -4.4988971 -11.496872
7.1981511 -5.3986125 -11.498208
7.1981511 -6.2983813 -11.498209
7.1981215 -7.198123 -11.498656
7.1981511 -8.0979185 -11.498211
7.1981511 -8.9976873 -11.498212
7.1981215 -9.8974199 -11.498654
7.1981215 -10.797185 -11.498652
7.1983881 -11.697384 -11.494637
7.1992164 -12.598629 -11.482133
7.2019701 -13.503695 -11.440585
7.2088485 -14.4177 -11.336787
7.237812 -15.380355 -10.899767
7.5524549 -16.993023 -6.1521783
7.5496216 -17.930351 -6.1949239
7.5534973 -18.883743 -6.136445
7.5770311 -19.889706 -5.7813525
8.0848255 10.779767 -11.673838
8.0848255 9.8814516 -11.673834
8.0848255 8.9831381 -11.67384
8.0848255 8.0848236 -11.673837
8.0848255 7.1865134 -11.673841
8.0848255 6.2881985 -11.673837
8.0848255 5.3898792 -11.673836
8.0848255 4.491569 -11.67384
8.0848255 3.5932546 -11.673836
8.0848255 2.6949444 -11.67384
8.0848255 1.7966257 -11.67384
8.0848255 0.89831072 -11.673835
8.0848255 3.2215024e-07 -11.673839
8.0848255 -0.89831418 -11.673836
8.0848255 -1.7966282 -11.673841
8.1001511 -2.7000494 -11.468287
8.0985527 -3.5993552 -11.489728
8.0980196 -4.4988971 -11.496872
8.0979204 -5.3986125 -11.498208
8.0979204 -6.2983813 -11.498209
8.0978861 -7.198123 -11.498656
8.0979204 -8.0979185 -11.498211
8.0979204 -8.9976873 -11.498212
8.0978861 -9.8974199 -11.498654
8.0978861 -10.797185 -11.498652
8.0981865 -11.697384 -11.494637
8.0991182 -12.598629 -11.482133
8.1022158 -13.503695 -11.440585
8.1099548 -14.4177 -11.336787
8.1425381 -15.380355 -10.899767
8.4963655 -16.992733 -6.1541395
8.4934711 -17.930664 -6.1929541
8.4978676 -18.884153 -6.1339846
8.5279236 -19.898489 -5.7308683
8.983139 10.779767 -11.673838
8.983139 9.8814516 -11.673834
8.983139 8.9831381 -11.67384
8.983139 8.0848236 -11.673837
8.983139 7.1865134 -11.673841
8.983139 6.2881985 -11.673837
8.983139 5.3898792 -11.673836
8.983139 4.491569 -11.67384
8.983139 3.5932546 -11.673836
8.983139 2.6949444 -11.67384
8.983139 1.7966257 -11.67384
8.983139 0.89831072 -11.673835
8.983139 3.2215024e-07 -11.673839
8.983139 -0.89831418 -11.673836
8.983139 -1.7966282 -11.673841
9.0001678 -2.7000494 -11.468287
8.9983912 -3.5993552 -11.489728
8.9977989 -4.4988971 -11.496872
8.9976883 -5.3986125 -11.498208
8.9976883 -6.2983813 -11.498209
8.9976511 -7.198123 -11.498656
8.9976883 -8.0979185 -11.498211
8.9976883 -8.9976873 -11.498212
8.9976511 -9.8974199 -11.498654
8.9976511 -10.797185 -11.498652
8.9979849 -11.697384 -11.494637
8.9990206 -12.598629 -11.482133
9.0024624 -13.503695 -11.440585
9.0110607 -14.4177 -11.336787
9.0472651 -15.380355 -10.899767
9.4406099 -16.993097 -6.1516838
9.4373531 -17.930973 -6.1909928
9.4427271 -18.885458 -6.1261172
9.4771938 -19.902111 -5.7100663
9.8814526 10.779767 -11.673838
9.8814526 9.8814516 -11.673834
9.8814526 8.9831381 -11.67384
9.8814526 8.0848236 -11.673837
9.8814526 7.1865134 -11.673841
9.8814526 6.2881985 -11.673837
9.8814526 5.3898792 -11.673836
9.8814526 4.491569 -11.67384
9.8814526 3.5932546 -11.673836
9.8814526 2.6949444 -11.67384
9.8814526 1.7966257 -11.67384
9.8814526 0.89831072 -11.673835
9.8814526 3.2215024e-07 -11.673839
9.8814526 -0.89831418 -11.673836
9.8814526 -1.7966282 -11.673841
9.9001837 -2.7000494 -11.468287
9.8982306 -3.5993552 -11.489728
9.8975801 -4.4988971 -11.496872
9.8974571 -5.3986125 -11.498208
9.8974571 -6.2983813 -11.498209
9.8974171 -7.198123 -11.498656
9.8974571 -8.0979185 -11.498211
9.8974571 -8.9976873 -11.498212
9.8974171 -9.8974199 -11.498654
9.8974171 -10.797185 -11.498652
9.8977833 -11.697384 -11.494637
9.898922 -12.598629 -11.482133
9.902709 -13.503695 -11.440585
9.9121666 -14.4177 -11.336787
9.951992 -15.380355 -10.899767
10.384715 -16.99317 -6.1511884
10.381356 -17.931435 -6.188046
10.387582 -18.886518 -6.1197214
10.426809 -19.905727 -5.6892619
10.779766 10.779767 -11.673838
10.779766 9.8814516 -11.673834
10.779766 8.9831381 -11.67384
10.779766 8.0848236 -11.673837
10.779766 7.1865134 -11.673841
10.779766 6.2881985 -11.673837
10.779766 5.3898792 -11.673836
10.779766 4.491569 -11.67384
10.779766 3.5932546 -11.673836
10.779766 2.6949444 -11.67384
10.779766 1.7966257 -11.67384
10.779766 0.89831072 -11.673835
10.779766 3.2215024e-07 -11.673839
10.779766 -0.89831418 -11.673836
10.779766 -1.7966282 -11.673841
10.800201 -2.7000494 -11.468287
10.79807 -3.5993552 -11.489728
10.797359 -4.4988971 -11.496872
10.797227 -5.3986125 -11.498208
10.797227 -6.2983813 -11.498209
10.797182 -7.198123 -11.498656
10.797227 -8.0979185 -11.498211
10.797227 -8.9976873 -11.498212
10.797182 -9.8974199 -11.498654
10.797182 -10.797185 -11.498652
10.797581 -11.697384 -11.494637
10.798824 -12.598629 -11.482133
10.802955 -13.503695 -11.440585
10.813272 -14.4177 -11.336787
10.856717 -15.380355 -10.899767
11.328927 -16.993393 -6.1497145
11.325312 -17.931749 -6.1860766
11.332838 -18.888065 -6.1103826
11.377756 -19.911077 -5.6585264
11.678082 10.779767 -11.673838
11.678082 9.8814516 -11.673834
11.678082 8.9831381 -11.67384
11.678082 8.0848236 -11.673837
11.678082 7.1865134 -11.673841
11.678082 6.2881985 -11.673837
11.678082 5.3898792 -11.673836
11.678082 4.491569 -11.67384
11.678082 3.5932546 -11.673836
11.678082 2.6949444 -11.67384
11.678082 1.7966257 -11.67384
11.678082 0.89831072 -11.673835
11.678082 3.2215024e-07 -11.673839
11.678082 -0.89831418 -11.673836
11.678082 -1.7966282 -11.673841
11.700218 -2.7000494 -11.468287
11.697909 -3.5993552 -11.489728
11.69714 -4.4988971 -11.496872
11.696995 -5.3986125 -11.498208
11.696995 -6.2983813 -11.498209
11.696947 -7.198123 -11.498656
11.696995 -8.0979185 -11.498211
11.696995 -8.9976873 -11.498212
11.696947 -9.8974199 -11.498654
11.696947 -10.797185 -11.498652
11.69738 -11.697384 -11.494637
11.698727 -12.598629 -11.482133
11.7032 -13.503695 -11.440585
11.714379 -14.4177 -11.336787
11.761444 -15.380355 -10.899767
12.273109 -16.993536 -6.1487327
12.269247 -17.931976 -6.184607
12.277506 -18.888474 -6.1079197
12.33226 -19.921345 -5.599503
12.576395 10.779767 -11.673838
12.576395 9.8814516 -11.673834
12.576395 8.9831381 -11.67384
12.576395 8.0848236 -11.673837
12.576395 7.1865134 -11.673841
12.576395 6.2881985 -11.673837
12.576395 5.3898792 -11.673836
12.576395 4.491569 -11.67384
12.576395 3.5932546 -11.673836
12.576395 2.6949444 -11.67384
12.576395 1.7966257 -11.67384
12.576395 0.89831072 -11.673835
12.576395 3.2215024e-07 -11.673839
12.576395 -0.89831418 -11.673836
12.576395 -1.7966282 -11.673841
12.600234 -2.7000494 -11.468287
12.597748 -3.5993552 -11.489728
12.59692 -4.4988971 -11.496872
12.596764 -5.3986125 -11.498208
12.596764 -6.2983813 -11.498209
12.596712 -7.198123 -11.498656
12.596764 -8.0979185 -11.498211
12.596764 -8.9976873 -11.498212
12.596712 -9.8974199 -11.498654
12.596712 -10.797185 -11.498652
12.597179 -11.697384 -11.494637
12.598628 -12.598629 -11.482133
12.603448 -13.503695 -11.440585
12.615485 -14.4177 -11.336787
12.666171 -15.380355 -10.899767
13.217081 -16.993393 -6.1497145
13.21332 -17.932364 -6.1821532
13.222384 -18.889122 -6.1039848
13.28101 -19.921518 -5.5985069
13.474709 10.779767 -11.673838
13.474709 9.8814516 -11.673834
13.474709 8.9831381 -11.67384
13.474709 8.0848236 -11.673837
13.474709 7.1865134 -11.673841
13.474709 6.2881985 -11.673837
13.474709 5.3898792 -11.673836
13.474709 4.491569 -11.67384
13.474709 3.5932546 -11.673836
13.474709 2.6949444 -11.67384
13.474709 1.7966257 -11.67384
13.474709 0.89831072 -11.673835
13.474709 3.2215024e-07 -11.673839
13.474709 -0.89831418 -11.673836
13.474709 -1.7966282 -11.673841
13.500252 -2.7000494 -11.468287
13.497587 -3.5993552 -11.489728
13.4967 -4.4988971 -11.496872
13.496533 -5.3986125 -11.498208
13.496533 -6.2983813 -11.498209
13.496477 -7.198123 -11.498656
13.496533 -8.0979185 -11.498211
13.496533 -8.9976873 -11.498212
13.496477 -9.8974199 -11.498654
13.496477 -10.797185 -11.498652
13.496977 -11.697384 -11.494637
13.49853 -12.598629 -11.482133
13.503694 -13.503695 -11.440585
13.516591 -14.4177 -11.336787
13.570897 -15.380355 -10.899767
14.16128 -16.993536 -6.1487327
14.157372 -17.932674 -6.1801834
14.167086 -18.889452 -6.1020145
14.229962 -19.921949 -5.5960255
14.373023 10.779767 -11.673838
14.373023 9.8814516 -11.673834
14.373023 8.9831381 -11.67384
14.373023 8.0848236 -11.673837
14.373023 7.1865134 -11.673841
14.373023 6.2881985 -11.673837
14.373023 5.3898792 -11.673836
14.373023 4.491569 -11.67384
14.373023 3.5932546 -11.673836
14.373023 2.6949444 -11.67384
14.373023 1.7966257 -11.67384
14.373023 0.89831072 -11.673835
14.373023 3.2215024e-07 -11.673839
14.373023 -0.89831418 -11.673836
14.373023 -1.7966282 -11.673841
14.400268 -2.7000494 -11.468287
14.397426 -3.5993552 -11.489728
14.396479 -4.4988971 -11.496872
14.396302 -5.3986125 -11.498208
14.396302 -6.2983813 -11.498209
14.396243 -7.198123 -11.498656
14.396302 -8.0979185 -11.498211
14.396302 -8.9976873 -11.498212
14.396243 -9.8974199 -11.498654
14.396243 -10.797185 -11.498652
14.396776 -11.697384 -11.494637
14.398433 -12.598629 -11.482133
14.40394 -13.503695 -11.440585
14.417697 -14.4177 -11.336787
14.475624 -15.380355 -10.899767
15.1053 -16.993462 -6.1492271
15.101327 -17.932827 -6.1791964
15.113058 -18.891323 -6.0907016
15.179613 -19.923243 -5.5885825
15.271337 10.779767 -11.673838
15.271337 9.8814516 -11.673834
15.271337 8.9831381 -11.67384
15.271337 8.0848236 -11.673837
15.271337 7.1865134 -11.673841
15.271337 6.2881985 -11.673837
15.271337 5.3898792 -11.673836
15.271337 4.491569 -11.67384
15.271337 3.5932546 -11.673836
15.271337 2.6949444 -11.67384
15.271337 1.7966257 -11.67384
15.271337 0.89831072 -11.673835
15.271337 3.2215024e-07 -11.673839
15.271337 -0.89831418 -11.673836
15.271337 -1.7966282 -11.673841
15.300284 -2.7000494 -11.468287
15.297266 -3.5993552 -11.489728
15.296259 -4.4988971 -11.496872
15.29607 -5.3986125 -11.498208
15.29607 -6.2983813 -11.498209
15.296008 -7.198123 -11.498656
15.29607 -8.0979185 -11.498211
15.29607 -8.9976873 -11.498212
15.296008 -9.8974199 -11.498654
15.296008 -10.797185 -11.498652
15.296574 -11.697384 -11.494637
15.298335 -12.598629 -11.482133
15.304186 -13.503695 -11.440585
15.318804 -14.4177 -11.336787
15.38035 -15.380355 -10.899767
16.04945 -16.993536 -6.1487327
16.045229 -17.932901 -6.1787114
16.057625 -18.891323 -6.0907016
16.136873 -19.933786 -5.5279865
16.169651 10.779767 -11.673838
16.169651 9.8814516 -11.673834
16.169651 8.9831381 -11.67384
16.169651 8.0848236 -11.673837
16.169651 7.1865134 -11.673841
16.169651 6.2881985 -11.673837
16.169651 5.3898792 -11.673836
16.169651 4.491569 -11.67384
16.169651 3.5932546 -11.673836
16.169651 2.6949444 -11.67384
16.169651 1.7966257 -11.67384
16.169651 0.89831072 -11.673835
16.169651 3.2215024e-07 -11.673839
16.169651 -0.89831418 -11.673836
16.169651 -1.7966282 -11.673841
16.200302 -2.7000494 -11.468287
16.197105 -3.5993552 -11.489728
16.196039 -4.4988971 -11.496872
16.195841 -5.3986125 -11.498208
16.195841 -6.2983813 -11.498209
16.195772 -7.198123 -11.498656
16.195841 -8.0979185 -11.498211
16.195841 -8.9976873 -11.498212
16.195772 -9.8974199 -11.498654
16.195772 -10.797185 -11.498652
16.196373 -11.697384 -11.494637
16.198236 -12.598629 -11.482133
16.204432 -13.503695 -11.440585
16.21991 -14.4177 -11.336787
16.285076 -15.380355 -10.899767
16.993464 -16.993462 -6.1492271
16.989067 -17.932901 -6.1787114
17.00219 -18.891323 -6.0907016
17.0861 -19.933786 -5.5279865
