# .PCD v0.7 - Point Cloud Data file format
VERSION 0.7
FIELDS x y z
SIZE 4 4 4
TYPE F F F
COUNT 1 1 1
WIDTH 1505
HEIGHT 1
VIEWPOINT 0 0 0 1 0 0 0
POINTS 1505
DATA ascii
-994.65161 208.18301 -430.82416
-993.86792 184.90569 -433.02402
-993.86792 161.79251 -433.02411
-993.86792 138.67934 -433.02423
-993.86792 115.56602 -433.02411
-993.86792 92.452972 -433.02414
-993.86792 69.339661 -433.02402
-993.86792 46.226505 -433.02411
-993.86792 23.113314 -433.0242
-993.86792 9.7381471e-06 -433.02408
-993.86792 -23.11315 -433.0242
-993.86792 -46.226456 -433.02408
-993.86792 -69.339508 -433.02411
-993.86792 -92.45269 -433.0242
-993.86792 -115.56598 -433.02408
-993.86792 -138.67918 -433.0242
-993.86792 -161.79248 -433.02408
-993.86792 -184.90564 -433.02417
-993.86792 -208.01872 -433.0242
-993.86792 -231.132 -433.02408
-994.32855 -254.36314 -431.73099
-972.09802 208.30678 -429.16351
-972.09802 185.16154 -429.16339
-972.09802 162.01645 -429.16351
-972.09802 138.87123 -429.16339
-972.09802 115.72613 -429.16351
-972.09802 92.580795 -429.16348
-966.27081 69.019356 -445.91122
-964.28699 45.918488 -451.6127
-964.28699 22.959209 -451.61276
-964.28699 2.155077e-05 -451.61276
-964.28699 -22.959154 -451.61273
-968.48846 -46.118435 -439.53769
-992.14447 -70.867371 -371.5488
-992.14447 -94.489861 -371.5488
-992.14447 -118.11238 -371.54877
-992.14447 -141.73479 -371.54871
-992.14447 -165.35728 -371.54871
-992.14447 -188.97981 -371.54871
-992.14447 -212.60231 -371.54871
-992.03607 -236.19896 -371.86026
-991.24194 -259.61084 -374.14267
-948.32117 208.16814 -431.02316
-948.32117 185.03833 -431.02325
-948.32117 161.90863 -431.02328
-948.32117 138.77869 -431.02313
-948.32117 115.64899 -431.02316
-948.32117 92.51918 -431.02322
-942.71075 68.978828 -447.54108
-941.01318 45.903084 -452.53894
-941.01318 22.951553 -452.53894
-941.01318 0.00013811539 -452.53909
-941.01318 -22.951406 -452.53906
-944.42194 -46.069221 -442.50314
-992.47467 -72.620033 -301.02789
-992.47467 -96.826714 -301.02811
-992.47467 -121.03342 -301.02805
-992.47467 -145.24013 -301.02802
-992.47467 -169.44681 -301.02795
-992.24432 -193.60854 -301.70642
-991.65222 -217.67976 -303.44928
-991.58655 -241.85036 -303.64291
-993.70264 -266.60309 -297.41263
-925.19135 208.16814 -431.02316
-925.19135 185.03833 -431.02325
-925.19135 161.90863 -431.02328
-925.19135 138.77869 -431.02313
-925.19135 115.64899 -431.02316
-925.19135 92.51918 -431.02322
-919.71783 68.978828 -447.54108
-918.06165 45.903084 -452.53894
-918.06165 22.951553 -452.53894
-918.06165 0.00013811539 -452.53909
-918.06165 -22.951406 -452.53906
-921.38727 -46.069221 -442.50314
-992.82166 -74.461586 -226.93065
-992.82166 -99.28215 -226.93063
-992.82166 -124.10272 -226.93063
-992.50098 -148.87512 -227.89851
-992.08771 -173.61526 -229.14574
-992.02026 -198.40402 -229.34915
-991.95282 -223.18925 -229.55273
-991.88538 -247.97124 -229.75607
-902.06158 208.16814 -431.02316
-902.06158 185.03833 -431.02325
-902.06158 161.90863 -431.02328
-902.06158 138.77869 -431.02313
-902.06158 115.64899 -431.02316
-902.06158 92.51918 -431.02322
-896.72485 68.978828 -447.54108
-895.11011 45.903084 -452.53894
-895.11011 22.951553 -452.53894
-895.11011 0.00013811539 -452.53909
-895.11011 -22.951406 -452.53906
-898.3526 -46.069221 -442.50314
-993.19104 -76.399208 -148.96426
-992.91382 -101.8372 -149.8223
-992.5415 -127.2489 -150.97458
-992.47229 -152.68796 -151.18878
-992.40308 -178.12352 -151.40318
-992.33386 -203.55563 -151.6172
-992.26471 -228.98413 -151.83136
-992.1955 -254.40903 -152.04564
-878.93182 208.16814 -431.02316
-878.93182 185.03833 -431.02325
-878.93182 161.90863 -431.02328
-878.93182 138.77869 -431.02313
-878.93182 115.64899 -431.02316
-878.93182 92.51918 -431.02322
-873.73193 68.978828 -447.54108
-872.15857 45.903084 -452.53894
-872.15857 22.951553 -452.53894
-872.15857 0.00013811539 -452.53909
-872.15857 -22.951406 -452.53906
-875.31787 -46.069221 -442.50314
-993.02417 -78.396545 -68.597763
-992.95306 -104.52126 -68.823723
-992.8819 -130.64229 -69.049446
-992.81079 -156.75946 -69.275452
-992.73975 -182.87306 -69.501312
-992.6687 -208.98273 -69.727081
-992.5976 -235.08891 -69.952766
-992.52655 -261.19104 -70.178612
-855.802 208.16814 -431.02316
-855.802 185.03833 -431.02325
-855.802 161.90863 -431.02328
-855.802 138.77869 -431.02313
-855.802 115.64899 -431.02316
-855.802 92.51918 -431.02322
-850.73895 68.978828 -447.54108
-849.20697 45.903084 -452.53894
-849.20697 22.951553 -452.53894
-849.20697 0.00013811539 -452.53909
-849.20697 -22.951406 -452.53906
-852.28314 -46.069221 -442.50314
-993.38257 -80.544449 17.82667
-993.30951 -107.38475 17.588127
-993.23639 -134.22102 17.349716
-993.16333 -161.05347 17.111324
-993.09027 -187.88187 16.87306
-993.02179 -214.70735 16.649567
-992.94873 -241.528 16.411385
-1000.0148 -270.27423 39.464096
-832.67218 208.16814 -431.02316
-832.67218 185.03833 -431.02325
-832.67218 161.90863 -431.02328
-832.67218 138.77869 -431.02313
-832.67218 115.64899 -431.02316
-832.67218 92.51918 -431.02322
-827.74603 68.978828 -447.54108
-826.25549 45.903084 -452.53894
-826.25549 22.951553 -452.53894
-826.25549 0.00013811539 -452.53909
-826.25549 -22.951406 -452.53906
-829.24847 -46.069221 -442.50314
-993.76593 -82.813812 109.13603
-993.69073 -110.40996 108.88384
-993.61554 -138.00208 108.63181
-993.54034 -165.58992 108.37976
-993.46527 -193.17372 108.12785
-993.39008 -220.75337 107.87586
-993.315 -248.32864 107.62393
-1025.7355 380.98752 314.60004
-1025.7355 351.68082 314.59998
-1025.7355 322.37411 314.59991
-1025.7355 293.06726 314.60007
-809.54248 208.16814 -431.02316
-809.54248 185.03833 -431.02325
-809.54248 161.90863 -431.02328
-809.54248 138.77869 -431.02313
-809.54248 115.64899 -431.02316
-809.54248 92.51918 -431.02322
-804.75311 68.978828 -447.54108
-803.30396 45.903084 -452.53894
-803.30396 22.951553 -452.53894
-803.30396 0.00013811539 -452.53909
-803.30396 -22.951406 -452.53906
-806.21381 -46.069221 -442.50314
-966.49493 -82.842369 110.28673
-968.66229 -110.70419 117.76178
-970.84412 -138.69186 125.28619
-973.03571 -166.80605 132.84482
-975.23718 -195.04742 140.43758
-977.44867 -223.41678 148.06482
-980.06964 -252.01779 157.10423
-983.13983 -280.89697 167.69273
-986.22449 -309.95627 178.33151
-999.8421 382.29266 326.71832
-999.8421 352.88553 326.71832
-999.8421 323.4783 326.71854
-999.8421 294.07123 326.71851
-786.41266 208.16814 -431.02316
-786.41266 185.03833 -431.02325
-786.41266 161.90863 -431.02328
-786.41266 138.77869 -431.02313
-786.41266 115.64899 -431.02316
-786.41266 92.51918 -431.02322
-781.76013 68.978828 -447.54108
-780.35242 45.903084 -452.53894
-780.35242 22.951553 -452.53894
-780.35242 0.00013811539 -452.53909
-780.35242 -22.951406 -452.53906
-783.17914 -46.069221 -442.50314
-938.8808 -82.842369 110.28673
-940.99072 -110.70472 117.77763
-943.11017 -138.69263 125.30219
-945.2392 -166.80682 132.86082
-947.37323 -195.04742 140.43758
-949.52161 -223.41678 148.06482
-951.67969 -251.91515 155.72652
-953.8476 -280.54337 163.42334
-956.02539 -309.30234 171.15527
-958.21313 -338.19272 178.92253
-960.41565 -367.21771 186.74202
-963.46002 -396.71881 197.55064
-763.28284 208.16814 -431.02316
-763.28284 185.03833 -431.02325
-763.28284 161.90863 -431.02328
-763.28284 138.77869 -431.02313
-763.28284 115.64899 -431.02316
-763.28284 92.51918 -431.02322
-758.76721 68.978828 -447.54108
-757.40088 45.903084 -452.53894
-757.40088 22.951553 -452.53894
-757.40088 0.00013811539 -452.53909
-757.40088 -22.951406 -452.53906
-760.14447 -46.069221 -442.50314
-911.26666 -82.842369 110.28673
-913.31451 -110.70472 117.77763
-915.37158 -138.69263 125.30219
-917.43805 -166.80682 132.86082
-919.51373 -195.04829 140.45352
-921.59888 -223.41789 148.08092
-923.69354 -251.91638 155.74283
-925.79321 -280.54337 163.42334
-927.90698 -309.30234 171.15527
-930.0304 -338.19272 178.92253
-932.16815 -367.21771 186.74202
-935.14569 -396.72839 197.63358
-740.15308 208.16814 -431.02316
-740.15308 185.03833 -431.02325
-740.15308 161.90863 -431.02328
-740.15308 138.77869 -431.02313
-740.15308 115.64899 -431.02316
-740.15308 92.51918 -431.02322
-735.77423 68.978828 -447.54108
-734.44928 45.903084 -452.53894
-734.44928 22.951553 -452.53894
-734.44928 0.00013811539 -452.53909
-734.44928 -22.951406 -452.53906
-737.1098 -46.069221 -442.50314
-883.65674 -82.842766 110.30236
-885.64252 -110.70535 117.79342
-887.63733 -138.69328 125.31799
-889.63684 -166.80682 132.86082
-891.64966 -195.04829 140.45352
-893.67169 -223.41789 148.08092
-895.70282 -251.91638 155.74283
-897.74323 -280.54471 163.43959
-899.79291 -309.3038 171.17172
-901.85638 -338.19617 178.95546
-903.8681 -367.19635 186.5439
-906.80792 -396.72839 197.63358
-717.02332 208.16814 -431.02316
-717.02332 185.03833 -431.02325
-717.02332 161.90863 -431.02328
-717.02332 138.77869 -431.02313
-717.02332 115.64899 -431.02316
-717.02332 92.51918 -431.02322
-712.78131 68.978828 -447.54108
-711.4978 45.903084 -452.53894
-711.4978 22.951553 -452.53894
-711.4978 0.00013811539 -452.53909
-711.4978 -22.951406 -452.53906
-714.07513 -46.069221 -442.50314
-856.04248 -82.842766 110.30236
-857.96619 -110.70535 117.79342
-859.89862 -138.69328 125.31799
-861.83984 -166.80769 132.87677
-863.78979 -195.0493 140.46968
-865.74854 -223.4189 148.09708
-867.7121 -251.91638 155.74283
-869.68872 -280.54471 163.43959
-871.67438 -309.3038 171.17172
-873.6059 -338.16998 178.69264
-875.62219 -367.19635 186.5439
-878.47009 -396.72839 197.63358
-693.89349 208.16814 -431.02316
-693.89349 185.03833 -431.02325
-693.89349 161.90863 -431.02328
-693.89349 138.77869 -431.02313
-693.89349 115.64899 -431.02316
-693.89349 92.51918 -431.02322
-689.78833 68.978828 -447.54108
-688.54626 45.903084 -452.53894
-688.54626 22.951553 -452.53894
-688.54626 0.00013811539 -452.53909
-688.54626 -22.951406 -452.53906
-691.04041 -46.069221 -442.50314
-828.43207 -82.843056 110.31807
-830.28986 -110.70535 117.79342
-832.16003 -138.69328 125.31799
-834.03857 -166.80769 132.87677
-835.92554 -195.0493 140.46968
-837.82117 -223.4189 148.09708
-839.7254 -251.91751 155.75893
-841.63831 -280.54596 163.45586
-843.55591 -309.3038 171.17172
-845.44543 -338.17807 178.77475
-847.37634 -367.19635 186.5439
-850.13239 -396.72839 197.63358
-670.76373 208.16814 -431.02316
-670.76373 185.03833 -431.02325
-670.76373 161.90863 -431.02328
-670.76373 138.77869 -431.02313
-670.76373 115.64899 -431.02316
-670.76373 92.51918 -431.02322
-666.79541 68.978828 -447.54108
-665.59467 45.903084 -452.53894
-665.59467 22.951553 -452.53894
-665.59467 0.00013811539 -452.53909
-665.59467 -22.951406 -452.53906
-668.00574 -46.069221 -442.50314
-800.81769 -82.843056 110.31807
-802.61737 -110.70576 117.80907
-804.42517 -138.69392 125.33405
-806.24109 -166.80847 132.89278
-808.0614 -195.0493 140.46968
-809.8938 -223.4189 148.09708
-811.73456 -251.91751 155.75893
-813.58765 -280.5473 163.47211
-815.40198 -309.29031 171.0244
-817.26392 -338.17807 178.77475
-819.13043 -367.19635 186.5439
-821.79462 -396.72839 197.63358
-647.63391 208.16814 -431.02316
-647.63391 185.03833 -431.02325
-647.63391 161.90863 -431.02328
-647.63391 138.77869 -431.02313
-647.63391 115.64899 -431.02316
-647.63391 92.51918 -431.02322
-643.80249 68.978828 -447.54108
-642.64319 45.903084 -452.53894
-642.64319 22.951553 -452.53894
-642.64319 0.00013811539 -452.53909
-642.64319 -22.951406 -452.53906
-644.97107 -46.069221 -442.50314
-773.20331 -82.843056 110.31807
-774.94092 -110.70576 117.80907
-776.68634 -138.69392 125.33405
-778.43964 -166.80847 132.89278
-780.20093 -195.05006 140.48569
-781.97021 -223.42001 148.11316
-783.7475 -251.91875 155.77521
-785.48761 -280.53119 163.27698
-787.28473 -309.29031 171.0244
-789.08246 -338.17807 178.77475
-790.88458 -367.19635 186.5439
-793.45691 -396.72839 197.63358
-624.50415 208.16814 -431.02316
-624.50415 185.03833 -431.02325
-624.50415 161.90863 -431.02328
-624.50415 138.77869 -431.02313
-624.50415 115.64899 -431.02316
-624.50415 92.51918 -431.02322
-620.80951 68.978828 -447.54108
-619.69159 45.903084 -452.53894
-619.69159 22.951553 -452.53894
-619.69159 0.00013811539 -452.53909
-619.69159 -22.951406 -452.53906
-621.9364 -46.069221 -442.50314
-745.59241 -82.84359 110.33394
-747.26801 -110.70629 117.82494
-748.95111 -138.69458 125.34985
-750.63824 -166.80847 132.89278
-752.33661 -195.05006 140.48569
-754.04266 -223.42001 148.11316
-755.75287 -251.91751 155.75893
-757.44171 -280.53387 163.30942
-759.16736 -309.29031 171.0244
-760.90094 -338.17807 178.77475
-762.63873 -367.19635 186.5439
-765.11914 -396.72839 197.63358
-601.37439 208.16814 -431.02316
-601.37439 185.03833 -431.02325
-601.37439 161.90863 -431.02328
-601.37439 138.77869 -431.02313
-601.37439 115.64899 -431.02316
-601.37439 92.51918 -431.02322
-597.81659 68.978828 -447.54108
-596.74005 45.903084 -452.53894
-596.74005 22.951553 -452.53894
-596.74005 0.00013811539 -452.53909
-596.74005 -22.951406 -452.53906
-598.90173 -46.069221 -442.50314
-717.97784 -82.84359 110.33394
-719.59143 -110.70629 117.82494
-721.21216 -138.69458 125.34985
-722.84027 -166.80923 132.90878
-724.47577 -195.05107 140.50183
-726.11865 -223.42102 148.1293
-727.73755 -251.90907 155.64554
-729.38831 -280.53387 163.30942
-731.05005 -309.29031 171.0244
-732.71942 -338.17807 178.77475
-734.39282 -367.19635 186.5439
-736.78143 -396.72839 197.63358
-578.24457 208.16814 -431.02316
-578.24457 185.03833 -431.02325
-578.24457 161.90863 -431.02328
-578.24457 138.77869 -431.02313
-578.24457 115.64899 -431.02316
-578.24457 92.51918 -431.02322
-574.82361 68.978828 -447.54108
-573.78851 45.903084 -452.53894
-573.78851 22.951553 -452.53894
-573.78851 0.00013811539 -452.53909
-573.78851 -22.951406 -452.53906
-575.86707 -46.069221 -442.50314
-690.36658 -82.843887 110.34965
-691.91479 -110.70629 117.82494
-693.47321 -138.69458 125.34985
-695.03876 -166.80923 132.90878
-696.61133 -195.05107 140.50183
-698.19098 -223.42102 148.1293
-699.74768 -251.90907 155.64554
-701.3349 -280.53387 163.30942
-702.93274 -309.29031 171.0244
-704.53784 -338.17807 178.77475
-706.14697 -367.19635 186.5439
-708.44366 -396.72839 197.63358
-555.11487 208.16814 -431.02316
-555.11487 185.03833 -431.02325
-555.11487 161.90863 -431.02328
-555.11487 138.77869 -431.02313
-555.11487 115.64899 -431.02316
-555.11487 92.51918 -431.02322
-551.83069 68.978828 -447.54108
-550.83698 45.903084 -452.53894
-550.83698 22.951553 -452.53894
-550.83698 0.00013811539 -452.53909
-550.83698 -22.951406 -452.53906
-552.8324 -46.069221 -442.50314
-662.75195 -82.843887 110.34965
-664.24133 -110.70682 117.84079
-665.73749 -138.69524 125.36591
-667.24036 -166.81 132.92479
-668.75323 -195.05296 140.53392
-670.23773 -223.41254 148.00035
-671.75775 -251.90907 155.64554
-673.28156 -280.53387 163.30942
-674.81543 -309.29031 171.0244
-676.35638 -338.17807 178.77475
-677.90106 -367.19635 186.5439
-680.1059 -396.72839 197.63358
-531.98505 208.16814 -431.02316
-531.98505 185.03833 -431.02325
-531.98505 161.90863 -431.02328
-531.98505 138.77869 -431.02313
-531.98505 115.64899 -431.02316
-531.98505 92.51918 -431.02322
-528.83777 68.978828 -447.54108
-527.8855 45.903084 -452.53894
-527.8855 22.951553 -452.53894
-527.8855 0.00013811539 -452.53909
-527.8855 -22.951406 -452.53906
-529.79767 -46.069221 -442.50314
-635.13727 -82.843887 110.34965
-636.56464 -110.70682 117.84079
-637.99841 -138.69524 125.36591
-639.43872 -166.81 132.92479
-640.86102 -195.04453 140.38934
-642.31116 -223.41254 148.00035
-643.76788 -251.90907 155.64554
-645.22809 -280.53387 163.30942
-646.69812 -309.29031 171.0244
-648.17487 -338.17807 178.77475
-649.65515 -367.19635 186.5439
-651.76819 -396.72839 197.63358
-508.85526 208.16814 -431.02316
-508.85526 185.03833 -431.02325
-508.85526 161.90863 -431.02328
-508.85526 138.77869 -431.02313
-508.85526 115.64899 -431.02316
-508.85526 92.51918 -431.02322
-505.84482 68.978828 -447.54108
-504.9339 45.903084 -452.53894
-504.9339 22.951553 -452.53894
-504.9339 0.00013811539 -452.53909
-504.9339 -22.951406 -452.53906
-506.763 -46.069221 -442.50314
-607.52551 -82.844307 110.36557
-608.89075 -110.70734 117.85664
-610.26227 -138.69588 125.38171
-611.63403 -166.80923 132.90878
-612.99744 -195.04453 140.38934
-614.38452 -223.41254 148.00035
-615.77802 -251.90907 155.64554
-617.17474 -280.53387 163.30942
-618.58087 -309.29031 171.0244
-619.99335 -338.17807 178.77475
-621.4093 -367.19635 186.5439
-623.43042 -396.72839 197.63358
-485.72546 208.16814 -431.02316
-485.72546 185.03833 -431.02325
-485.72546 161.90863 -431.02328
-485.72546 138.77869 -431.02313
-485.72546 115.64899 -431.02316
-485.72546 92.51918 -431.02322
-482.85376 68.979195 -447.53024
-481.98239 45.903084 -452.53894
-481.98239 22.951553 -452.53894
-481.98239 0.00013811539 -452.53909
-481.98239 -22.951406 -452.53906
-483.7283 -46.069221 -442.50314
-579.91064 -82.844307 110.36557
-581.21393 -110.70734 117.85664
-582.52307 -138.69588 125.38171
-583.81866 -166.80528 132.82883
-585.13391 -195.04453 140.38934
-586.45795 -223.41254 148.00035
-587.78802 -251.90907 155.64554
-589.12134 -280.53387 163.30942
-590.4635 -309.29031 171.0244
-591.81177 -338.17807 178.77475
-593.16345 -367.19635 186.5439
-595.09271 -396.72839 197.63358
-462.59567 208.16814 -431.02316
-462.59567 185.03833 -431.02325
-462.59567 161.90863 -431.02328
-462.59567 138.77869 -431.02313
-462.59567 115.64899 -431.02316
-462.59567 92.51918 -431.02322
-459.86072 68.979195 -447.53024
-459.03082 45.903084 -452.53894
-459.03082 22.951553 -452.53894
-459.03082 0.00013811539 -452.53909
-459.03082 -22.951406 -452.53906
-460.69363 -46.069221 -442.50314
-552.29852 -82.844704 110.38122
-553.53705 -110.70734 117.85664
-554.75488 -138.68863 125.20667
-556.01776 -166.80528 132.82883
-557.27039 -195.04453 140.38934
-558.53143 -223.41254 148.00035
-559.79816 -251.90907 155.64554
-561.06793 -280.53387 163.30942
-562.34619 -309.29031 171.0244
-563.63031 -338.17807 178.77475
-564.9176 -367.19635 186.5439
-566.75494 -396.72839 197.63358
-439.46591 208.16814 -431.02316
-439.46591 185.03833 -431.02325
-439.46591 161.90863 -431.02328
-439.46591 138.77869 -431.02313
-439.46591 115.64899 -431.02316
-439.46591 92.51918 -431.02322
-436.86771 68.979195 -447.53024
-436.07928 45.903084 -452.53894
-436.07928 22.951553 -452.53894
-436.07928 0.00013811539 -452.53909
-436.07928 -22.951406 -452.53906
-437.65894 -46.069221 -442.50314
-524.68359 -82.844704 110.38122
-525.86523 -110.70841 117.88836
-527.0296 -138.69186 125.28619
-528.21686 -166.80528 132.82883
-529.40692 -195.04453 140.38934
-530.60486 -223.41254 148.00035
-531.80823 -251.90907 155.64554
-533.01453 -280.53387 163.30942
-534.22888 -309.29031 171.0244
-535.44879 -338.17807 178.77475
-536.67169 -367.19635 186.5439
-538.41718 -396.72839 197.63358
-416.33609 208.16814 -431.02316
-416.33609 185.03833 -431.02325
-416.33609 161.90863 -431.02328
-416.33609 138.77869 -431.02313
-416.33609 115.64899 -431.02316
-416.33609 92.51918 -431.02322
-413.87463 68.979195 -447.53024
-413.12775 45.903084 -452.53894
-413.12775 22.951553 -452.53894
-413.12775 0.00013811539 -452.53909
-413.12775 -22.951406 -452.53906
-414.62424 -46.069221 -442.50314
-497.06866 -82.844704 110.38122
-498.17154 -110.70472 117.77763
-499.29123 -138.69186 125.28619
-500.41599 -166.80528 132.82883
-501.54337 -195.04453 140.38934
-502.67828 -223.41254 148.00035
-503.81833 -251.90907 155.64554
-504.96115 -280.53387 163.30942
-506.11157 -309.29031 171.0244
-507.2673 -338.17807 178.77475
-508.42581 -367.19635 186.5439
-510.07944 -396.72839 197.63358
-393.20633 208.16814 -431.02316
-393.20633 185.03833 -431.02325
-393.20633 161.90863 -431.02328
-393.20633 138.77869 -431.02313
-393.20633 115.64899 -431.02316
-393.20633 92.51918 -431.02322
-390.88162 68.979195 -447.53024
-390.17621 45.903084 -452.53894
-390.17621 22.951553 -452.53894
-390.17621 0.00013811539 -452.53909
-390.17621 -22.951406 -452.53906
-391.58957 -46.069221 -442.50314
-469.45374 -82.844704 110.38122
-470.49536 -110.70472 117.77763
-471.55283 -138.69186 125.28619
-472.61508 -166.80528 132.82883
-473.67987 -195.04453 140.38934
-474.75171 -223.41254 148.00035
-475.82843 -251.90907 155.64554
-476.90775 -280.53387 163.30942
-477.99429 -309.29031 171.0244
-479.08575 -338.17807 178.77475
-480.17993 -367.19635 186.5439
-481.7417 -396.72839 197.63358
-370.07654 208.16814 -431.02316
-370.07654 185.03833 -431.02325
-370.07654 161.90863 -431.02328
-370.07654 138.77869 -431.02313
-370.07654 115.64899 -431.02316
-370.07654 92.51918 -431.02322
-367.88858 68.979195 -447.53024
-367.22464 45.903084 -452.53894
-367.22464 22.951553 -452.53894
-367.22464 0.00013811539 -452.53909
-367.22464 -22.951406 -452.53906
-368.5549 -46.069221 -442.50314
-441.83041 -82.843056 110.31807
-442.81918 -110.70472 117.77763
-443.81442 -138.69186 125.28619
-444.81418 -166.80528 132.82883
-445.81635 -195.04453 140.38934
-446.82513 -223.41254 148.00035
-447.8385 -251.90907 155.64554
-448.85437 -280.53387 163.30942
-449.87695 -309.29031 171.0244
-450.90427 -338.17807 178.77475
-451.93405 -367.19635 186.5439
-453.40396 -396.72839 197.63358
-346.94675 208.16814 -431.02316
-346.94675 185.03833 -431.02325
-346.94675 161.90863 -431.02328
-346.94675 138.77869 -431.02313
-346.94675 115.64899 -431.02316
-346.94675 92.51918 -431.02322
-344.89554 68.979195 -447.53024
-344.27313 45.903084 -452.53894
-344.27313 22.951553 -452.53894
-344.27313 0.00013811539 -452.53909
-344.27313 -22.951406 -452.53906
-345.5202 -46.069221 -442.50314
-414.21603 -82.843056 110.31807
-415.14297 -110.70472 117.77763
-416.07602 -138.69186 125.28619
-417.01331 -166.80528 132.82883
-417.95282 -195.04453 140.38934
-418.89859 -223.41254 148.00035
-419.8486 -251.90907 155.64554
-420.80093 -280.53387 163.30942
-421.75964 -309.29031 171.0244
-422.72272 -338.17807 178.77475
-423.68817 -367.19635 186.5439
-425.06619 -396.72839 197.63358
-323.81696 208.16814 -431.02316
-323.81696 185.03833 -431.02325
-323.81696 161.90863 -431.02328
-323.81696 138.77869 -431.02313
-323.81696 115.64899 -431.02316
-323.81696 92.51918 -431.02322
-321.9025 68.979195 -447.53024
-321.32159 45.903084 -452.53894
-321.32159 22.951553 -452.53894
-321.32159 0.00013811539 -452.53909
-321.32159 -22.951406 -452.53906
-322.48553 -46.069221 -442.50314
-386.60165 -82.843056 110.31807
-387.46677 -110.70472 117.77763
-388.33762 -138.69186 125.28619
-389.2124 -166.80528 132.82883
-390.08929 -195.04453 140.38934
-390.97198 -223.41254 148.00035
-391.8587 -251.90907 155.64554
-392.74756 -280.53387 163.30942
-393.64236 -309.29031 171.0244
-394.54123 -338.17807 178.77475
-395.44229 -367.19635 186.5439
-396.72845 -396.72839 197.63358
-300.68719 208.16814 -431.02316
-300.68719 185.03833 -431.02325
-300.68719 161.90863 -431.02328
-300.68719 138.77869 -431.02313
-300.68719 115.64899 -431.02316
-300.68719 92.51918 -431.02322
-298.90948 68.979195 -447.53024
-298.37003 45.903084 -452.53894
-298.37003 22.951553 -452.53894
-298.37003 0.00013811539 -452.53909
-298.37003 -22.951406 -452.53906
-299.45087 -46.069221 -442.50314
-358.98724 -82.843056 110.31807
-359.79056 -110.70472 117.77763
-360.59924 -138.69186 125.28619
-361.41153 -166.80528 132.82883
-362.22577 -195.04453 140.38934
-363.04541 -223.41254 148.00035
-363.86877 -251.90907 155.64554
-364.69415 -280.53387 163.30942
-365.52502 -309.29031 171.0244
-366.35971 -338.17807 178.77475
-367.19641 -367.19635 186.5439
-368.39072 -396.72839 197.63358
-277.55743 208.16814 -431.02316
-277.55743 185.03833 -431.02325
-277.55743 161.90863 -431.02328
-277.55743 138.77869 -431.02313
-277.55743 115.64899 -431.02316
-277.55743 92.51918 -431.02322
-275.91644 68.979195 -447.53024
-275.41849 45.903084 -452.53894
-275.41849 22.951553 -452.53894
-275.41849 0.00013811539 -452.53909
-275.41849 -22.951406 -452.53906
-276.4162 -46.069221 -442.50314
-331.37283 -82.843056 110.31807
-332.11438 -110.70472 117.77763
-332.86084 -138.69186 125.28619
-333.61066 -166.80528 132.82883
-334.36224 -195.04453 140.38934
-335.11887 -223.41254 148.00035
-335.87888 -251.90907 155.64554
-336.64078 -280.53387 163.30942
-337.40771 -309.29031 171.0244
-338.17819 -338.17807 178.77475
-338.95053 -367.19635 186.5439
-340.05295 -396.72839 197.63358
-254.42763 208.16814 -431.02316
-254.42763 185.03833 -431.02325
-254.42763 161.90863 -431.02328
-254.42763 138.77869 -431.02313
-254.42763 115.64899 -431.02316
-254.42763 92.51918 -431.02322
-252.9234 68.979195 -447.53024
-252.46695 45.903084 -452.53894
-252.46695 22.951553 -452.53894
-252.46695 0.00013811539 -452.53909
-252.46695 -22.951406 -452.53906
-253.3815 -46.069221 -442.50314
-303.75842 -82.843056 110.31807
-304.4382 -110.70472 117.77763
-305.12244 -138.69186 125.28619
-305.80975 -166.80528 132.82883
-306.49872 -195.04453 140.38934
-307.19226 -223.41254 148.00035
-307.88901 -251.90907 155.64554
-308.58737 -280.53387 163.30942
-309.29044 -309.29031 171.0244
-309.99667 -338.17807 178.77475
-310.70465 -367.19635 186.5439
-311.71521 -396.72839 197.63358
-231.29784 208.16814 -431.02316
-231.29784 185.03833 -431.02325
-231.29784 161.90863 -431.02328
-231.29784 138.77869 -431.02313
-231.29784 115.64899 -431.02316
-231.29784 92.51918 -431.02322
-229.93036 68.979195 -447.53024
-229.51541 45.903084 -452.53894
-229.51541 22.951553 -452.53894
-229.51541 0.00013811539 -452.53909
-229.51541 -22.951406 -452.53906
-230.34682 -46.069221 -442.50314
-276.14404 -82.843056 110.31807
-276.76196 -110.70472 117.77763
-277.38403 -138.69186 125.28619
-278.00888 -166.80528 132.82883
-278.63519 -195.04453 140.38934
-279.26572 -223.41254 148.00035
-279.89908 -251.90907 155.64554
-280.53397 -280.53387 163.30942
-281.1731 -309.29031 171.0244
-281.81516 -338.17807 178.77475
-282.4588 -367.19635 186.5439
-283.37747 -396.72839 197.63358
-208.16805 208.16814 -431.02316
-208.16805 185.03833 -431.02325
-208.16805 161.90863 -431.02328
-208.16805 138.77869 -431.02313
-208.16805 115.64899 -431.02316
-208.16805 92.51918 -431.02322
-206.93732 68.979195 -447.53024
-206.56387 45.903084 -452.53894
-206.56387 22.951553 -452.53894
-206.56387 0.00013811539 -452.53909
-206.56387 -22.951406 -452.53906
-207.31212 -46.069221 -442.50314
-248.52962 -82.843056 110.31807
-249.08577 -110.70472 117.77763
-249.64561 -138.69186 125.28619
-250.20799 -166.80528 132.82883
-250.77168 -195.04453 140.38934
-251.33914 -223.41254 148.00035
-251.90916 -251.90907 155.64554
-252.48058 -280.53387 163.30942
-253.05579 -309.29031 171.0244
-253.63365 -338.17807 178.77475
-254.21291 -367.19635 186.5439
-255.03972 -396.72839 197.63358
-185.03827 208.16814 -431.02316
-185.03827 185.03833 -431.02325
-185.03827 161.90863 -431.02328
-185.03827 138.77869 -431.02313
-185.03827 115.64899 -431.02316
-185.03827 92.51918 -431.02322
-183.94429 68.979195 -447.53024
-183.61232 45.903084 -452.53894
-183.61232 22.951553 -452.53894
-183.61232 0.00013811539 -452.53909
-183.61232 -22.951406 -452.53906
-184.27745 -46.069221 -442.50314
-220.91521 -82.843056 110.31807
-221.40959 -110.70472 117.77763
-221.90721 -138.69186 125.28619
-222.40709 -166.80528 132.82883
-222.90817 -195.04453 140.38934
-223.41257 -223.41254 148.00035
-223.91925 -251.90907 155.64554
-224.42719 -280.53387 163.30942
-224.93848 -309.29031 171.0244
-225.45213 -338.17807 178.77475
-225.96703 -367.19635 186.5439
-226.70198 -396.72839 197.63358
-161.90848 208.16814 -431.02316
-161.90848 185.03833 -431.02325
-161.90848 161.90863 -431.02328
-161.90848 138.77869 -431.02313
-161.90848 115.64899 -431.02316
-161.90848 92.51918 -431.02322
-160.95125 68.979195 -447.53024
-160.6608 45.903084 -452.53894
-160.6608 22.951553 -452.53894
-160.6608 0.00013811539 -452.53909
-160.6608 -22.951406 -452.53906
-161.24277 -46.069221 -442.50314
-193.30083 -82.843056 110.31807
-193.73338 -110.70472 117.77763
-194.16881 -138.69186 125.28619
-194.6062 -166.80528 132.82883
-195.04465 -195.04453 140.38934
-195.48599 -223.41254 148.00035
-195.92935 -251.90907 155.64554
-196.37378 -280.53387 163.30942
-196.82118 -309.29031 171.0244
-197.27061 -338.17807 178.77475
-197.72115 -367.19635 186.5439
-198.36423 -396.72839 197.63358
-138.77872 208.16814 -431.02316
-138.77872 185.03833 -431.02325
-138.77872 161.90863 -431.02328
-138.77872 138.77869 -431.02313
-138.77872 115.64899 -431.02316
-138.77872 92.51918 -431.02322
-137.95822 68.979195 -447.53024
-137.70924 45.903084 -452.53894
-137.70924 22.951553 -452.53894
-137.70924 0.00013811539 -452.53909
-137.70924 -22.951406 -452.53906
-138.2081 -46.069221 -442.50314
-165.68642 -82.843056 110.31807
-166.05719 -110.70472 117.77763
-166.43042 -138.69186 125.28619
-166.80533 -166.80528 132.82883
-167.18112 -195.04453 140.38934
-167.55943 -223.41254 148.00035
-167.93944 -251.90907 155.64554
-168.32039 -280.53387 163.30942
-168.70386 -309.29031 171.0244
-169.0891 -338.17807 178.77475
-169.47527 -367.19635 186.5439
-170.02647 -396.72839 197.63358
-115.64892 208.16814 -431.02316
-115.64892 185.03833 -431.02325
-115.64892 161.90863 -431.02328
-115.64892 138.77869 -431.02313
-115.64892 115.64899 -431.02316
-115.64892 92.51918 -431.02322
-114.96518 68.979195 -447.53024
-114.75771 45.903084 -452.53894
-114.75771 22.951553 -452.53894
-114.75771 0.00013811539 -452.53909
-114.75771 -22.951406 -452.53906
-115.17341 -46.069221 -442.50314
-138.07202 -82.843056 110.31807
-138.38098 -110.70472 117.77763
-138.69202 -138.69186 125.28619
-139.00444 -166.80528 132.82883
-139.3176 -195.04453 140.38934
-139.63286 -223.41254 148.00035
-139.94954 -251.90907 155.64554
-140.26698 -280.53387 163.30942
-140.58655 -309.29031 171.0244
-140.90758 -338.17807 178.77475
-141.2294 -367.19635 186.5439
-141.68874 -396.72839 197.63358
-92.519135 208.16814 -431.02316
-92.519135 185.03833 -431.02325
-92.519135 161.90863 -431.02328
-92.519135 138.77869 -431.02313
-92.519135 115.64899 -431.02316
-92.519135 92.51918 -431.02322
-91.972145 68.979195 -447.53024
-91.80616 45.903084 -452.53894
-91.80616 22.951553 -452.53894
-91.80616 0.00013811539 -452.53909
-91.80616 -22.951406 -452.53906
-92.138725 -46.069221 -442.50314
-110.4576 -82.843056 110.31807
-110.7048 -110.70472 117.77763
-110.95361 -138.69186 125.28619
-111.20354 -166.80528 132.82883
-111.45409 -195.04453 140.38934
-111.70628 -223.41254 148.00035
-111.95963 -251.90907 155.64554
-112.21359 -280.53387 163.30942
-112.46924 -309.29031 171.0244
-112.72607 -338.17807 178.77475
-112.98351 -367.19635 186.5439
-113.35099 -396.72839 197.63358
-69.389359 208.16814 -431.02316
-69.389359 185.03833 -431.02325
-69.389359 161.90863 -431.02328
-69.389359 138.77869 -431.02313
-69.389359 115.64899 -431.02316
-69.389359 92.51918 -431.02322
-68.979111 68.979195 -447.53024
-68.854622 45.903084 -452.53894
-68.854622 22.951553 -452.53894
-68.854622 0.00013811539 -452.53909
-68.854622 -22.951406 -452.53906
-69.10405 -46.069221 -442.50314
-82.843208 -82.843056 110.31807
-83.028595 -110.70472 117.77763
-83.21521 -138.69186 125.28619
-83.402664 -166.80528 132.82883
-83.590561 -195.04453 140.38934
-83.779716 -223.41254 148.00035
-83.969719 -251.90907 155.64554
-84.160194 -280.53387 163.30942
-84.351929 -309.29031 171.0244
-84.544548 -338.17807 178.77475
-84.737633 -367.19635 186.5439
-85.013237 -396.72839 197.63358
-46.259567 208.16814 -431.02316
-46.259567 185.03833 -431.02325
-46.259567 161.90863 -431.02328
-46.259567 138.77869 -431.02313
-46.259567 115.64899 -431.02316
-46.259567 92.51918 -431.02322
-45.986073 68.979195 -447.53024
-45.90308 45.903084 -452.53894
-45.90308 22.951553 -452.53894
-45.90308 0.00013811539 -452.53909
-45.90308 -22.951406 -452.53906
-46.069363 -46.069221 -442.50314
-55.228802 -82.843056 110.31807
-55.352398 -110.70472 117.77763
-55.476803 -138.69186 125.28619
-55.601772 -166.80528 132.82883
-55.727043 -195.04453 140.38934
-55.853142 -223.41254 148.00035
-55.979813 -251.90907 155.64554
-56.106796 -280.53387 163.30942
-56.234619 -309.29031 171.0244
-56.363033 -338.17807 178.77475
-56.491756 -367.19635 186.5439
-56.675495 -396.72839 197.63358
-23.129784 208.16814 -431.02316
-23.129784 185.03833 -431.02325
-23.129784 161.90863 -431.02328
-23.129784 138.77869 -431.02313
-23.129784 115.64899 -431.02316
-23.129784 92.51918 -431.02322
-23.124104 69.372375 -431.70889
-23.034498 46.069157 -442.52515
-23.034498 23.034531 -442.52496
-23.034409 0.00014609189 -442.53613
-23.034409 -23.034338 -442.53613
-27.565372 -55.130722 104.39985
-27.627211 -82.881653 111.86427
-27.689325 -110.75734 119.36224
-27.75172 -138.75848 126.89393
-27.8144 -166.88625 134.45978
-27.877226 -195.14043 142.04373
-27.940474 -223.52371 149.67827
-28.004005 -252.03603 157.34753
-28.067829 -280.67816 165.05162
-28.131674 -309.44846 172.75833
-28.195673 -338.3479 180.48352
-28.259962 -367.37946 188.24417
2.0572316e-22 208.16814 -431.02316
3.5726942e-23 185.03833 -431.02325
-8.5429915e-22 161.90863 -431.02328
3.3049051e-22 138.77869 -431.02313
1.6049429e-22 115.64899 -431.02316
3.2925938e-22 92.51918 -431.02322
-2.3901905e-23 69.372627 -431.69788
-8.6756827e-22 46.06929 -442.51419
1.5716836e-23 23.034531 -442.52496
1.4254638e-22 3.3774548e-05 -442.52499
-3.9206685e-22 -23.034338 -442.53613
-6.0240594e-22 -55.128593 104.27402
1.257549e-22 -82.878464 111.73794
1.6307989e-23 -110.7531 119.23538
2.3529845e-22 -138.75266 126.75069
-4.4061585e-22 -166.87912 134.31586
-5.2820622e-22 -195.1331 141.91524
-6.5296347e-22 -223.51509 149.54909
5.1583526e-23 -252.02635 157.21783
-2.572769e-22 -280.66745 164.92142
-7.7280197e-23 -309.43936 172.66005
-2.5727478e-22 -338.34311 180.43437
9.1760856e-23 -367.37946 188.24417
23.129784 208.16814 -431.02316
23.129784 185.03833 -431.02325
23.129784 161.90863 -431.02328
23.129784 138.77869 -431.02313
23.129784 115.64899 -431.02316
23.129784 92.51918 -431.02322
22.992945 68.978828 -447.54108
22.95154 45.903084 -452.53894
22.95154 22.951553 -452.53894
22.95154 0.00013811539 -452.53909
22.95154 -22.951406 -452.53906
23.034681 -46.069221 -442.50314
27.614141 -82.842369 110.28673
27.676199 -110.70472 117.77763
27.738535 -138.69263 125.30219
27.80102 -166.80605 132.84482
27.86392 -195.04742 140.43758
27.927105 -223.41678 148.06482
27.990578 -251.91515 155.72652
28.05434 -280.54337 163.42334
28.118393 -309.30234 171.15527
28.182741 -338.19272 178.92253
28.247654 -367.21954 186.75854
28.337748 -396.72839 197.63358
46.259567 208.16814 -431.02316
46.259567 185.03833 -431.02325
46.259567 161.90863 -431.02328
46.259567 138.77869 -431.02313
46.259567 115.64899 -431.02316
46.259567 92.51918 -431.02322
45.985889 68.978828 -447.54108
45.90308 45.903084 -452.53894
45.90308 22.951553 -452.53894
45.90308 0.00013811539 -452.53909
45.90308 -22.951406 -452.53906
46.069363 -46.069221 -442.50314
55.228283 -82.842369 110.28673
55.352398 -110.70472 117.77763
55.47707 -138.69263 125.30219
55.602303 -166.80682 132.86082
55.728104 -195.04829 140.45352
55.854481 -223.41789 148.08092
55.981426 -251.91638 155.74283
56.108681 -280.54337 163.42334
56.236786 -309.30234 171.15527
56.365482 -338.19272 178.92253
56.490391 -367.18744 186.46141
56.675495 -396.72839 197.63358
69.389359 208.16814 -431.02316
69.389359 185.03833 -431.02325
69.389359 161.90863 -431.02328
69.389359 138.77869 -431.02313
69.389359 115.64899 -431.02316
69.389359 92.51918 -431.02322
68.978836 68.978828 -447.54108
68.854622 45.903084 -452.53894
68.854622 22.951553 -452.53894
68.854622 0.00013811539 -452.53909
68.854622 -22.951406 -452.53906
69.10405 -46.069221 -442.50314
82.842819 -82.842766 110.30236
83.028595 -110.70472 117.77763
83.215607 -138.69263 125.30219
83.403458 -166.80682 132.86082
83.592155 -195.04829 140.45352
83.781715 -223.41789 148.08092
83.972137 -251.91638 155.74283
84.163422 -280.54471 163.43959
84.355591 -309.3038 171.17172
84.547401 -338.18958 178.88979
84.737633 -367.19635 186.5439
85.013237 -396.72839 197.63358
92.519135 208.16814 -431.02316
92.519135 185.03833 -431.02325
92.519135 161.90863 -431.02328
92.519135 138.77869 -431.02313
92.519135 115.64899 -431.02316
92.519135 92.51918 -431.02322
91.971779 68.978828 -447.54108
91.80616 45.903084 -452.53894
91.80616 22.951553 -452.53894
91.80616 0.00013811539 -452.53909
91.80616 -22.951406 -452.53906
92.138725 -46.069221 -442.50314
110.45709 -82.842766 110.30236
110.70531 -110.70535 117.79342
110.95467 -138.69328 125.31799
111.20514 -166.80769 132.87677
111.45674 -195.0493 140.46968
111.70896 -223.41789 148.08092
111.96285 -251.91638 155.74283
112.2179 -280.54471 163.43959
112.47411 -309.3038 171.17172
112.72607 -338.17807 178.77475
112.98351 -367.19635 186.5439
113.35099 -396.72839 197.63358
115.64892 208.16814 -431.02316
115.64892 185.03833 -431.02325
115.64892 161.90863 -431.02328
115.64892 138.77869 -431.02313
115.64892 115.64899 -431.02316
115.64892 92.51918 -431.02322
114.96473 68.978828 -447.54108
114.75771 45.903084 -452.53894
114.75771 22.951553 -452.53894
114.75771 0.00013811539 -452.53909
114.75771 -22.951406 -452.53906
115.17341 -46.069221 -442.50314
138.07137 -82.842766 110.30236
138.38164 -110.70535 117.79342
138.69333 -138.69328 125.31799
139.00642 -166.80769 132.87677
139.32092 -195.0493 140.46968
139.63686 -223.4189 148.09708
139.95422 -251.91751 155.75893
140.27306 -280.54596 163.45586
140.59399 -309.30676 171.20435
140.90758 -338.17807 178.77475
141.2294 -367.19635 186.5439
141.68874 -396.72839 197.63358
138.77872 208.16814 -431.02316
138.77872 185.03833 -431.02325
138.77872 161.90863 -431.02328
138.77872 138.77869 -431.02313
138.77872 115.64899 -431.02316
138.77872 92.51918 -431.02322
137.95767 68.978828 -447.54108
137.70924 45.903084 -452.53894
137.70924 22.951553 -452.53894
137.70924 0.00013811539 -452.53909
137.70924 -22.951406 -452.53906
138.2081 -46.069221 -442.50314
165.68642 -82.843056 110.31807
166.05878 -110.70576 117.80907
166.4328 -138.69392 125.33405
166.80771 -166.80769 132.87677
167.1851 -195.0493 140.46968
167.56424 -223.4189 148.09708
167.94508 -251.91751 155.75893
168.32927 -280.5488 163.48856
168.70386 -309.29031 171.0244
169.0891 -338.17807 178.77475
169.47527 -367.19635 186.5439
170.02647 -396.72839 197.63358
161.90848 208.16814 -431.02316
161.90848 185.03833 -431.02325
161.90848 161.90863 -431.02328
161.90848 138.77869 -431.02313
161.90848 115.64899 -431.02316
161.90848 92.51918 -431.02322
160.95062 68.978828 -447.54108
160.6608 45.903084 -452.53894
160.6608 22.951553 -452.53894
160.6608 0.00013811539 -452.53909
160.6608 -22.951406 -452.53906
161.24277 -46.069221 -442.50314
193.30083 -82.843056 110.31807
193.73523 -110.70576 117.80907
194.17159 -138.69392 125.33405
194.60991 -166.80847 132.89278
195.05023 -195.05006 140.48569
195.49255 -223.42001 148.11316
195.93687 -251.91875 155.77521
196.36906 -280.5271 163.22797
196.82118 -309.29031 171.0244
197.27061 -338.17807 178.77475
197.72115 -367.19635 186.5439
198.36423 -396.72839 197.63358
185.03827 208.16814 -431.02316
185.03827 185.03833 -431.02325
185.03827 161.90863 -431.02328
185.03827 138.77869 -431.02313
185.03827 115.64899 -431.02316
185.03827 92.51918 -431.02322
183.94356 68.978828 -447.54108
183.61232 45.903084 -452.53894
183.61232 22.951553 -452.53894
183.61232 0.00013811539 -452.53909
183.61232 -22.951406 -452.53906
184.27745 -46.069221 -442.50314
220.91626 -82.84359 110.33394
221.41168 -110.70576 117.80907
221.91037 -138.69392 125.33405
222.41133 -166.80847 132.89278
222.91455 -195.05006 140.48569
223.42004 -223.42001 148.11316
223.92679 -251.91751 155.75893
224.42719 -280.53387 163.30942
224.93848 -309.29031 171.0244
225.45213 -338.17807 178.77475
225.96703 -367.19635 186.5439
226.70198 -396.72839 197.63358
208.16805 208.16814 -431.02316
208.16805 185.03833 -431.02325
208.16805 161.90863 -431.02328
208.16805 138.77869 -431.02313
208.16805 115.64899 -431.02316
208.16805 92.51918 -431.02322
206.93651 68.978828 -447.54108
206.56387 45.903084 -452.53894
206.56387 22.951553 -452.53894
206.56387 0.00013811539 -452.53909
206.56387 -22.951406 -452.53906
207.31212 -46.069221 -442.50314
248.53081 -82.84359 110.33394
249.08932 -110.70629 117.82494
249.65038 -138.69458 125.34985
250.21394 -166.80923 132.90878
250.78006 -195.05107 140.50183
251.34756 -223.42001 148.11316
251.90916 -251.90907 155.64554
252.48058 -280.53387 163.30942
253.05579 -309.29031 171.0244
253.63365 -338.17807 178.77475
254.21291 -367.19635 186.5439
255.03972 -396.72839 197.63358
231.29784 208.16814 -431.02316
231.29784 185.03833 -431.02325
231.29784 161.90863 -431.02328
231.29784 138.77869 -431.02313
231.29784 115.64899 -431.02316
231.29784 92.51918 -431.02322
229.92946 68.978828 -447.54108
229.51541 45.903084 -452.53894
229.51541 22.951553 -452.53894
229.51541 0.00013811539 -452.53909
229.51541 -22.951406 -452.53906
230.34682 -46.069221 -442.50314
276.14532 -82.84359 110.33394
276.7659 -110.70629 117.82494
277.38928 -138.69458 125.34985
278.01547 -166.80923 132.90878
278.64453 -195.05107 140.50183
279.27771 -223.42213 148.14539
279.89908 -251.90907 155.64554
280.53397 -280.53387 163.30942
281.1731 -309.29031 171.0244
281.81516 -338.17807 178.77475
282.4588 -367.19635 186.5439
283.37747 -396.72839 197.63358
254.42763 208.16814 -431.02316
254.42763 185.03833 -431.02325
254.42763 161.90863 -431.02328
254.42763 138.77869 -431.02313
254.42763 115.64899 -431.02316
254.42763 92.51918 -431.02322
252.92241 68.978828 -447.54108
252.46695 45.903084 -452.53894
252.46695 22.951553 -452.53894
252.46695 0.00013811539 -452.53909
252.46695 -22.951406 -452.53906
253.3815 -46.069221 -442.50314
303.76129 -82.843887 110.34965
304.44394 -110.70682 117.84079
305.1297 -138.69524 125.36591
305.81702 -166.80923 132.90878
306.50897 -195.05107 140.50183
307.19226 -223.41254 148.00035
307.88901 -251.90907 155.64554
308.58737 -280.53387 163.30942
309.29044 -309.29031 171.0244
309.99667 -338.17807 178.77475
310.70465 -367.19635 186.5439
311.71521 -396.72839 197.63358
277.55743 208.16814 -431.02316
277.55743 185.03833 -431.02325
277.55743 161.90863 -431.02328
277.55743 138.77869 -431.02313
277.55743 115.64899 -431.02316
277.55743 92.51918 -431.02322
275.91534 68.978828 -447.54108
275.41849 45.903084 -452.53894
275.41849 22.951553 -452.53894
275.41849 0.00013811539 -452.53909
275.41849 -22.951406 -452.53906
276.4162 -46.069221 -442.50314
331.37598 -82.843887 110.34965
332.12067 -110.70682 117.84079
332.86874 -138.69524 125.36591
333.62018 -166.81 132.92479
334.35425 -195.03999 140.30914
335.11887 -223.41254 148.00035
335.87888 -251.90907 155.64554
336.64078 -280.53387 163.30942
337.40771 -309.29031 171.0244
338.17819 -338.17807 178.77475
338.95053 -367.19635 186.5439
340.05295 -396.72839 197.63358
300.68719 208.16814 -431.02316
300.68719 185.03833 -431.02325
300.68719 161.90863 -431.02328
300.68719 138.77869 -431.02313
300.68719 115.64899 -431.02316
300.68719 92.51918 -431.02322
298.90829 68.978828 -447.54108
298.37003 45.903084 -452.53894
298.37003 22.951553 -452.53894
298.37003 0.00013811539 -452.53909
298.37003 -22.951406 -452.53906
299.45087 -46.069221 -442.50314
358.99234 -82.844307 110.36557
359.79739 -110.70682 117.84079
360.60779 -138.69524 125.36591
361.42355 -166.81088 132.94073
362.22577 -195.04453 140.38934
363.04541 -223.41254 148.00035
363.86877 -251.90907 155.64554
364.69415 -280.53387 163.30942
365.52502 -309.29031 171.0244
366.35971 -338.17807 178.77475
367.19641 -367.19635 186.5439
368.39072 -396.72839 197.63358
323.81696 208.16814 -431.02316
323.81696 185.03833 -431.02325
323.81696 161.90863 -431.02328
323.81696 138.77869 -431.02313
323.81696 115.64899 -431.02316
323.81696 92.51918 -431.02322
321.90125 68.978828 -447.54108
321.32159 45.903084 -452.53894
321.32159 22.951553 -452.53894
321.32159 0.00013811539 -452.53909
321.32159 -22.951406 -452.53906
322.48553 -46.069221 -442.50314
386.60712 -82.844307 110.36557
387.47595 -110.70734 117.85664
388.34869 -138.69588 125.38171
389.2124 -166.80528 132.82883
390.08929 -195.04453 140.38934
390.97198 -223.41254 148.00035
391.8587 -251.90907 155.64554
392.74756 -280.53387 163.30942
393.64236 -309.29031 171.0244
394.54123 -338.17807 178.77475
395.44229 -367.19635 186.5439
396.72845 -396.72839 197.63358
346.94675 208.16814 -431.02316
346.94675 185.03833 -431.02325
346.94675 161.90863 -431.02328
346.94675 138.77869 -431.02313
346.94675 115.64899 -431.02316
346.94675 92.51918 -431.02322
344.89417 68.978828 -447.54108
344.27313 45.903084 -452.53894
344.27313 22.951553 -452.53894
344.27313 0.00013811539 -452.53909
344.27313 -22.951406 -452.53906
345.5202 -46.069221 -442.50314
414.22192 -82.844307 110.36557
415.1528 -110.70734 117.85664
416.08789 -138.69588 125.38171
417.01331 -166.80528 132.82883
417.95282 -195.04453 140.38934
418.89859 -223.41254 148.00035
419.8486 -251.90907 155.64554
420.80093 -280.53387 163.30942
421.75964 -309.29031 171.0244
422.72272 -338.17807 178.77475
423.68817 -367.19635 186.5439
425.06619 -396.72839 197.63358
370.07654 208.16814 -431.02316
370.07654 185.03833 -431.02325
370.07654 161.90863 -431.02328
370.07654 138.77869 -431.02313
370.07654 115.64899 -431.02316
370.07654 92.51918 -431.02322
367.88712 68.978828 -447.54108
367.22464 45.903084 -452.53894
367.22464 22.951553 -452.53894
367.22464 0.00013811539 -452.53909
367.22464 -22.951406 -452.53906
368.5549 -46.069221 -442.50314
441.83881 -82.844704 110.38122
442.83176 -110.70788 117.87251
443.81442 -138.69186 125.28619
444.81418 -166.80528 132.82883
445.81635 -195.04453 140.38934
446.82513 -223.41254 148.00035
447.8385 -251.90907 155.64554
448.85437 -280.53387 163.30942
449.87695 -309.29031 171.0244
450.90427 -338.17807 178.77475
451.93405 -367.19635 186.5439
453.40396 -396.72839 197.63358
393.20633 208.16814 -431.02316
393.20633 185.03833 -431.02325
393.20633 161.90863 -431.02328
393.20633 138.77869 -431.02313
393.20633 115.64899 -431.02316
393.20633 92.51918 -431.02322
390.88007 68.978828 -447.54108
390.17621 45.903084 -452.53894
390.17621 22.951553 -452.53894
390.17621 0.00013811539 -452.53909
390.17621 -22.951406 -452.53906
391.58957 -46.069221 -442.50314
469.45374 -82.844704 110.38122
470.48645 -110.7026 117.7142
471.55283 -138.69186 125.28619
472.61508 -166.80528 132.82883
473.67987 -195.04453 140.38934
474.75171 -223.41254 148.00035
475.82843 -251.90907 155.64554
476.90775 -280.53387 163.30942
477.99429 -309.29031 171.0244
479.08575 -338.17807 178.77475
480.17993 -367.19635 186.5439
481.7417 -396.72839 197.63358
416.33609 208.16814 -431.02316
416.33609 185.03833 -431.02325
416.33609 161.90863 -431.02328
416.33609 138.77869 -431.02313
416.33609 115.64899 -431.02316
416.33609 92.51918 -431.02322
413.87302 68.978828 -447.54108
413.12775 45.903084 -452.53894
413.12775 22.951553 -452.53894
413.12775 0.00013811539 -452.53909
413.12775 -22.951406 -452.53906
414.62424 -46.069221 -442.50314
497.07098 -82.845001 110.39693
498.17154 -110.70472 117.77763
499.29123 -138.69186 125.28619
500.41599 -166.80528 132.82883
501.54337 -195.04453 140.38934
502.67828 -223.41254 148.00035
503.81833 -251.90907 155.64554
504.96115 -280.53387 163.30942
506.11157 -309.29031 171.0244
507.2673 -338.17807 178.77475
508.42581 -367.19635 186.5439
510.07944 -396.72839 197.63358
439.46591 208.16814 -431.02316
439.46591 185.03833 -431.02325
439.46591 161.90863 -431.02328
439.46591 138.77869 -431.02313
439.46591 115.64899 -431.02316
439.46591 92.51918 -431.02322
436.86597 68.978828 -447.54108
436.07928 45.903084 -452.53894
436.07928 22.951553 -452.53894
436.07928 0.00013811539 -452.53909
436.07928 -22.951406 -452.53906
437.65894 -46.069221 -442.50314
524.67365 -82.843056 110.31807
525.84778 -110.70472 117.77763
527.0296 -138.69186 125.28619
528.21686 -166.80528 132.82883
529.40692 -195.04453 140.38934
530.60486 -223.41254 148.00035
531.80823 -251.90907 155.64554
533.01453 -280.53387 163.30942
534.22888 -309.29031 171.0244
535.44879 -338.17807 178.77475
536.67169 -367.19635 186.5439
538.41718 -396.72839 197.63358
462.59567 208.16814 -431.02316
462.59567 185.03833 -431.02325
462.59567 161.90863 -431.02328
462.59567 138.77869 -431.02313
462.59567 115.64899 -431.02316
462.59567 92.51918 -431.02322
459.85892 68.978828 -447.54108
459.03082 45.903084 -452.53894
459.03082 22.951553 -452.53894
459.03082 0.00013811539 -452.53909
459.03082 -22.951406 -452.53906
460.69363 -46.069221 -442.50314
552.28809 -82.843056 110.31807
553.52393 -110.70472 117.77763
554.76807 -138.69186 125.28619
556.01776 -166.80528 132.82883
557.27039 -195.04453 140.38934
558.53143 -223.41254 148.00035
559.79816 -251.90907 155.64554
561.06793 -280.53387 163.30942
