# .PCD v0.7 - Point Cloud Data file format
VERSION 0.7
FIELDS x y z
SIZE 4 4 4
TYPE F F F
COUNT 1 1 1
WIDTH 1491
HEIGHT 1
VIEWPOINT 0 0 0 1 0 0 0
POINTS 1491
DATA ascii
-19.495041 4.8737588 -2.4469383
-19.495041 3.899009 -2.4469459
-19.495041 2.9242582 -2.4469433
-19.495041 1.9495034 -2.4469428
-19.495041 0.97475272 -2.4469399
-19.495041 -2.0958471e-06 -2.4469395
-19.495041 -0.97475678 -2.4469392
-19.546923 -1.9546911 -2.1338122
-19.537325 -2.9306004 -2.1917286
-19.530615 -3.9061236 -2.2322369
-19.530005 -4.8824978 -2.2359185
-19.529917 -5.8589759 -2.2364426
-19.529917 -6.8354707 -2.2364473
-19.530005 -7.8120055 -2.235914
-19.529917 -8.7884607 -2.2364464
-19.529917 -9.7649612 -2.236443
-19.529917 -10.741452 -2.2364457
-19.530527 -11.718318 -2.2327621
-19.53532 -12.697962 -2.2038276
-19.547621 -13.683334 -2.1295941
-19.57962 -14.684717 -1.9364606
-20.694508 -16.555607 4.7924862
-20.683849 -17.581276 4.7281599
-20.692356 -18.623119 4.7794981
-20.790335 -19.750816 5.3708482
-18.418577 11.632788 -3.0931337
-18.415478 10.661596 -3.112824
-18.415478 9.692358 -3.1128235
-18.415478 8.7231207 -3.112823
-18.415478 7.7538872 -3.1128201
-18.415478 6.7846498 -3.1128197
-18.415478 5.8154125 -3.1128192
-18.415478 4.8461747 -3.1128182
-18.415478 3.8769462 -3.1128235
-18.415478 2.9077086 -3.1128228
-18.415478 1.9384711 -3.1128225
-18.415478 0.96923357 -3.1128221
-18.415478 5.3243156e-08 -3.112819
-18.415478 -0.96923745 -3.1128185
-18.464373 -1.9436194 -2.8021855
-18.455769 -2.9140687 -2.8568487
-18.448893 -3.8839777 -2.9005408
-18.4484 -4.8548388 -2.9036624
-18.448318 -5.8257875 -2.9041786
-18.448318 -6.7967482 -2.9041839
-18.448318 -7.7677135 -2.904181
-18.448236 -8.7386417 -2.9046953
-18.448318 -9.7096405 -2.9041836
-18.4484 -10.680654 -2.9036584
-18.448811 -11.651883 -2.9010599
-18.452084 -12.625113 -2.8802547
-18.464373 -13.60533 -2.8021846
-18.489904 -14.597295 -2.6399751
-19.550722 -16.46377 4.0996122
-19.538048 -17.481411 4.0190821
-19.544292 -18.515644 4.0587482
-19.622864 -19.622862 4.5579286
-17.348143 11.565429 -3.7706969
-17.348143 10.601641 -3.7706938
-17.348143 9.6378527 -3.7706909
-17.348143 8.6740732 -3.7706933
-17.348143 7.7102857 -3.7706902
-17.348143 6.7465029 -3.7706954
-17.348143 5.7827144 -3.7706926
-17.348143 4.8189263 -3.7706892
-17.348143 3.8551435 -3.7706945
-17.348143 2.8913555 -3.7706916
-17.348143 1.9275724 -3.7706964
-17.348143 0.96378458 -3.7706935
-17.348143 -3.428479e-06 -3.7706907
-17.348143 -0.96378636 -3.7706957
-17.348219 -1.9275827 -3.7701793
-17.386574 -2.8977635 -3.5129611
-17.384502 -3.8632233 -3.5268579
-17.38389 -4.8288617 -3.5309668
-17.38389 -5.7946348 -3.5309658
-17.38389 -6.7603989 -3.5309701
-17.38389 -7.726172 -3.5309694
-17.38389 -8.6919451 -3.5309682
-17.38389 -9.6577177 -3.5309672
-17.381435 -10.621989 -3.5474288
-17.378904 -11.585938 -3.5643964
-17.386421 -12.556858 -3.5139928
-17.392485 -13.527486 -3.4733293
-17.414549 -14.512126 -3.3253627
-17.582808 -15.629165 -2.1969917
-18.406219 -17.38365 3.3249247
-18.412153 -18.412155 3.3647323
-18.467649 -19.493628 3.7368827
-16.292744 11.500759 -4.421207
-16.292744 10.542362 -4.4212046
-16.292744 9.5839701 -4.4212103
-16.292744 8.6255684 -4.4212112
-16.292744 7.6671715 -4.4212084
-16.292744 6.7087746 -4.4212065
-16.292744 5.7503819 -4.4212117
-16.292744 4.791985 -4.4212098
-16.292744 3.8335879 -4.4212074
-16.292744 2.8751867 -4.4212074
-16.292744 1.9167895 -4.421205
-16.292744 0.95839745 -4.4212112
-16.292744 2.9613881e-07 -4.4212089
-16.292744 -0.95839697 -4.4212065
-16.292744 -1.9167941 -4.4212046
-16.32799 -2.881413 -4.1709323
-16.323978 -3.8409386 -4.1994123
-16.323477 -4.8010201 -4.2029781
-16.323477 -5.7612252 -4.2029786
-16.323406 -6.7214055 -4.2034831
-16.323406 -7.6816068 -4.2034812
-16.323477 -8.6418457 -4.2029729
-16.32362 -9.602129 -4.2019625
-16.323763 -10.562434 -4.2009439
-16.324409 -11.523111 -4.1963696
-16.326414 -12.484903 -4.1821241
-16.333652 -13.451243 -4.1307321
-16.355118 -14.430988 -3.9783053
-16.460388 -15.492131 -3.2308187
-17.28754 -17.287544 2.6424894
-17.287382 -18.304287 2.6413462
-17.330378 -19.369249 2.9466465
-15.249081 11.436808 -5.064487
-15.249081 10.483743 -5.0644884
-15.249081 9.5306778 -5.0644908
-15.249081 8.5776033 -5.0644865
-15.249081 7.6245384 -5.0644879
-15.249081 6.6714735 -5.0644898
-15.249081 5.7184086 -5.0644917
-15.249081 4.7653346 -5.0644879
-15.249081 3.8122692 -5.0644894
-15.249081 2.8592043 -5.0644908
-15.249081 1.9061304 -5.064487
-15.249081 0.95306557 -5.0644889
-15.249081 2.7639314e-07 -5.0644903
-15.249081 -0.95306474 -5.0644922
-15.249081 -1.9061385 -5.0644884
-15.282219 -2.8654146 -4.8144784
-15.278019 -3.8195045 -4.8461647
-15.277419 -4.7741933 -4.8506899
-15.277352 -5.7290092 -4.8511891
-15.277352 -6.6838446 -4.851192
-15.277352 -7.6386757 -4.851193
-15.277486 -8.5935888 -4.8501854
-15.277685 -9.5485554 -4.848681
-15.278152 -10.503729 -4.8451633
-15.278819 -11.459116 -4.8401337
-15.280885 -12.415724 -4.8245373
-15.288157 -13.377136 -4.769681
-15.303722 -14.347239 -4.6522455
-15.388521 -15.388523 -4.0124965
-16.182587 -17.193998 1.9782701
-16.18012 -18.202635 1.9596581
-16.212929 -19.252853 2.2071786
-14.216899 11.37352 -5.7011557
-14.216899 10.425728 -5.7011538
-14.216899 9.4779348 -5.7011523
-14.216899 8.530139 -5.7011533
-14.216899 7.5823455 -5.7011509
-14.216899 6.634553 -5.7011495
-14.216899 5.6867566 -5.7011504
-14.216899 4.7389641 -5.7011485
-14.216899 3.7911713 -5.7011466
-14.216899 2.8433797 -5.7011557
-14.216899 1.8955872 -5.7011542
-14.216899 0.94779444 -5.7011523
-14.216899 -1.8889872e-06 -5.7011533
-14.216899 -0.94779456 -5.7011514
-14.216899 -1.8955871 -5.7011495
-14.247438 -2.8494847 -5.4553967
-14.245583 -3.7988231 -5.4703197
-14.245027 -4.7483444 -5.4747963
-14.244965 -5.6979842 -5.475296
-14.244904 -6.6476207 -5.4757938
-14.245027 -7.5973487 -5.474793
-14.245213 -8.5471268 -5.4733033
-14.245521 -9.4970188 -5.4708142
-14.24169 -10.443907 -5.501647
-14.242803 -11.394242 -5.4927011
-14.245027 -12.345689 -5.4747972
-14.250034 -13.300033 -5.4344964
-14.266258 -14.26626 -5.3039403
-14.329144 -15.284422 -4.7978745
-15.085919 -17.097378 1.2921908
-15.084464 -18.101355 1.2804756
-15.106465 -19.134859 1.4575306
-15.320621 -20.427498 3.1809268
-13.196136 11.310972 -6.3303165
-13.196136 10.368393 -6.3303137
-13.196136 9.4258099 -6.3303142
-13.196136 8.4832268 -6.3303151
-13.196136 7.5406485 -6.3303132
-13.196136 6.5980659 -6.3303142
-13.196136 5.6554828 -6.3303146
-13.196136 4.712904 -6.3303127
-13.196136 3.7703209 -6.3303132
-13.196136 2.8277421 -6.3303118
-13.196136 1.8851591 -6.3303118
-13.196136 0.94257641 -6.3303127
-13.196136 2.3303026e-06 -6.3303189
-13.196136 -0.94258034 -6.3303194
-13.196136 -1.8851591 -6.3303175
-13.224953 -2.8339202 -6.0818424
-13.223126 -3.7780378 -6.0975885
-13.22267 -4.7223816 -6.1015244
-13.222613 -5.6668334 -6.1020179
-13.222613 -6.6113086 -6.1020188
-13.22267 -7.5558114 -6.1015286
-13.222898 -8.5004349 -6.0995574
-13.22113 -9.4436617 -6.1148081
-13.219761 -10.386954 -6.1266136
-13.221073 -11.33235 -6.1152983
-13.222956 -12.278461 -6.0990629
-13.227979 -13.22798 -6.055758
-13.239237 -14.184901 -5.9586773
-13.289939 -15.188503 -5.5215282
-14.004325 -17.005253 0.63804895
-14.000614 -18.000788 0.60605019
-14.015663 -19.021257 0.73580241
-14.131227 -20.187469 1.7322302
-12.186537 11.24911 -6.9525967
-12.186537 10.311687 -6.9525981
-12.186537 9.3742619 -6.952599
-12.186537 8.4368296 -6.9525952
-12.186537 7.4994054 -6.9525962
-12.186537 6.5619817 -6.9525971
-12.186537 5.624558 -6.9525986
-12.186537 4.68713 -6.9526024
-12.186537 3.7497013 -6.9525952
-12.186537 2.8122773 -6.9525967
-12.186537 1.8748534 -6.9525976
-12.186537 0.93742561 -6.9526014
-12.186537 -3.2070011e-06 -6.9525943
-12.186537 -0.93742698 -6.9525957
-12.186537 -1.874851 -6.9525967
-12.21421 -2.8186648 -6.6956458
-12.211117 -3.7572677 -6.7243595
-12.210593 -4.6963816 -6.7292233
-12.210593 -5.6356602 -6.7292228
-12.210541 -6.5749073 -6.7297111
-12.210647 -7.5142436 -6.7287421
-12.209284 -8.4525795 -6.7413902
-12.208917 -9.3914757 -6.7447948
-12.209912 -10.331466 -6.7355461
-12.20986 -11.270641 -6.7360339
-12.211484 -12.211486 -6.7209573
-12.213528 -13.153028 -6.7019753
-12.226018 -14.106945 -6.5860004
-12.26528 -15.095728 -6.221437
-12.933618 -16.913195 -0.015626645
-12.928035 -17.900358 -0.067466468
-12.93697 -18.907883 0.015498483
-13.004491 -20.006912 0.64246643
-11.187922 11.187919 -7.5681076
-11.187922 10.255595 -7.5681124
-11.187922 9.323267 -7.56811
-11.187922 8.3909426 -7.5681143
-11.187922 7.4586143 -7.5681109
-11.187922 6.5262861 -7.5681086
-11.187922 5.5939622 -7.5681129
-11.187922 4.661634 -7.5681105
-11.187922 3.7293053 -7.5681071
-11.187922 2.7969818 -7.5681119
-11.187922 1.8646533 -7.568109
-11.187922 0.93232965 -7.5681133
-11.187922 1.1639036e-06 -7.5681105
-11.187922 -0.93232751 -7.5681076
-11.187922 -1.8646508 -7.5681124
-11.214242 -2.8035591 -7.3033519
-11.211083 -3.7370305 -7.3351288
-11.210605 -4.6710868 -7.3399448
-11.210557 -5.6052814 -7.3404217
-11.210557 -6.5394931 -7.3404241
-11.2107 -7.4738016 -7.3389854
-11.210031 -8.4075203 -7.3457227
-11.209408 -9.3411722 -7.3519778
-11.210653 -10.276433 -7.3394642
-11.209887 -11.209888 -7.3471642
-11.211848 -12.146171 -7.3274255
-11.213094 -13.081945 -7.3149095
-11.222628 -14.028287 -7.2190032
-11.253256 -15.004341 -6.9109044
-11.874387 -16.822052 -0.66280508
-11.867413 -17.801119 -0.73296821
-11.87369 -18.800011 -0.66982657
-11.927881 -19.879805 -0.12469848
-10.200112 11.127392 -8.1769619
-10.200112 10.200112 -8.1769609
-10.200112 9.27283 -8.1769619
-10.200112 8.3455467 -8.1769638
-10.200112 7.4182639 -8.1769648
-10.200112 6.4909811 -8.1769667
-10.200112 5.5636983 -8.1769686
-10.200112 4.6364141 -8.176959
-10.200112 3.7091312 -8.17696
-10.200112 2.7818484 -8.1769619
-10.200112 1.8545651 -8.1769629
-10.200112 0.92728227 -8.1769648
-10.200112 -7.2127636e-07 -8.1769657
-10.200112 -0.92728388 -8.1769667
-10.200112 -1.8545625 -8.1769657
-10.223762 -2.7882986 -7.91745
-10.221375 -3.7168615 -7.943644
-10.220897 -4.6458635 -7.9488792
-10.220853 -5.5750093 -7.9493585
-10.220853 -6.5041804 -7.9493575
-10.221026 -7.4334722 -7.9474554
-10.221375 -8.3629417 -7.9436436
-10.222112 -9.2928305 -7.9355454
-10.221244 -10.221244 -7.9450731
-10.222069 -11.151348 -7.9360266
-10.222199 -12.08078 -7.934597
-10.226975 -13.016152 -7.882185
-10.231843 -13.952514 -7.8287625
-10.25529 -14.916783 -7.5714664
-10.827243 -16.733011 -1.2950301
-10.819506 -17.704651 -1.3799238
-10.823056 -18.69437 -1.3409626
-10.857074 -19.740137 -0.96766597
-9.2228947 11.067475 -8.7797337
-9.2228947 10.145183 -8.7797298
-9.2228947 9.2228947 -8.7797346
-9.2228947 8.300601 -8.7797308
-9.2228947 7.3783169 -8.7797327
-9.2228947 6.4560289 -8.7797365
-9.2228947 5.5337358 -8.7797327
-9.2228947 4.6114473 -8.7797365
-9.2228947 3.6891544 -8.7797327
-9.2228947 2.7668703 -8.7797346
-9.2228947 1.8445773 -8.7797298
-9.2228947 0.92228925 -8.7797346
-9.2228947 -3.7984407e-06 -8.7797308
-9.2228947 -0.92228806 -8.7797318
-9.2228947 -1.8445811 -8.7797279
-9.2471304 -2.774143 -8.4871778
-9.245841 -3.6983373 -8.502738
-9.245451 -4.6227298 -8.507452
-9.2453728 -5.5472212 -8.5083981
-9.2453728 -6.471765 -8.5083952
-9.2455292 -7.3964238 -8.5065098
-9.2459192 -8.3213291 -8.5017977
-9.2451391 -9.2451363 -8.5112257
-9.2452164 -10.16974 -8.5102777
-9.2447872 -11.093743 -8.5154686
-9.2455292 -12.019187 -8.5065098
-9.2476778 -12.946748 -8.4805756
-9.2549505 -13.882423 -8.392786
-9.2708263 -14.833326 -8.2011385
-9.7901602 -16.643274 -1.9322302
-9.784296 -17.611734 -2.0030217
-9.7854328 -18.592325 -1.9892936
-9.810257 -19.620518 -1.6896379
-8.2561798 11.008237 -9.375577
-8.2561798 10.090884 -9.375577
-8.2561798 9.1735363 -9.3755846
-8.2561798 8.2561827 -9.3755836
-8.2561798 7.3388295 -9.3755836
-8.2561798 6.421473 -9.3755856
-8.2561798 5.5041199 -9.3755846
-8.2561798 4.5867667 -9.3755846
-8.2561798 3.6694138 -9.3755846
-8.2561798 2.7520607 -9.3755836
-8.2561798 1.8347075 -9.3755827
-8.2561798 0.917355 -9.3755827
-8.2561798 1.7843566e-06 -9.3755817
-8.2561798 -0.91735119 -9.3755817
-8.2561798 -1.8347082 -9.3755836
-8.2842684 -2.7614214 -8.9988441
-8.2809601 -3.6804254 -9.0432186
-8.280612 -4.6003413 -9.0478811
-8.2805767 -5.5203876 -9.0483532
-8.2805767 -6.4404507 -9.0483503
-8.2807169 -7.36064 -9.046484
-8.281065 -8.281065 -9.0418158
-8.2817612 -9.2019577 -9.0324726
-8.2818308 -10.122236 -9.0315437
-8.2822828 -11.043045 -9.0254688
-8.2831888 -11.964607 -9.0133276
-8.2850351 -12.887835 -8.9885654
-8.289463 -13.815774 -8.9291763
-8.3019342 -14.758996 -8.7619019
-8.7656631 -16.557362 -2.5422342
-8.7589207 -17.517843 -2.6326678
-8.757597 -18.488262 -2.6504233
-8.7765207 -19.503382 -2.3966146
-7.2997575 10.949637 -9.9650888
-7.2997575 10.037165 -9.965085
-7.2997575 9.1246967 -9.9650879
-7.2997575 8.212224 -9.9650841
-7.2997575 7.2997565 -9.9650879
-7.2997575 6.3872838 -9.9650831
-7.2997575 5.4748158 -9.9650869
-7.2997575 4.5623436 -9.9650831
-7.2997575 3.6498799 -9.9650841
-7.2997575 2.7374122 -9.9650879
-7.2997575 1.82494 -9.9650841
-7.2997575 0.91247219 -9.9650879
-7.2997575 -4.4865655e-07 -9.9650831
-7.2997575 -0.91246808 -9.965086
-7.2997575 -1.8249408 -9.9650822
-7.3390107 -2.7521267 -9.3727989
-7.3382111 -3.6691082 -9.3848619
-7.337904 -4.5861902 -9.3895044
-7.337842 -5.5033836 -9.3904314
-7.33775 -6.4205308 -9.3918276
-7.3377805 -7.3377829 -9.3913555
-7.337996 -8.2552433 -9.3881111
-7.3383956 -9.1729965 -9.3820801
-7.3389187 -10.091015 -9.3741922
-7.3401489 -11.010223 -9.3556194
-7.3416877 -11.930243 -9.332406
-7.3440895 -12.852158 -9.2961626
-7.3489904 -13.779357 -9.2222147
-7.3593683 -14.71874 -9.0656204
-7.7502136 -16.469204 -3.1682289
-7.744523 -17.425179 -3.2540894
-7.7432904 -18.390316 -3.2726865
-7.7558088 -19.389524 -3.0838032
-7.8672113 -20.65143 -1.4028646
-6.3534646 10.891653 -10.548349
-6.3534646 9.9840155 -10.548347
-6.3534646 9.0763779 -10.548346
-6.3534646 8.1687393 -10.548344
-6.3534646 7.2611017 -10.548342
-6.3534646 6.3534646 -10.54835
-6.3534646 5.4458265 -10.548348
-6.3534646 4.5381889 -10.548347
-6.3534646 3.6305506 -10.548345
-6.3534646 2.7229125 -10.548343
-6.3534646 1.8152711 -10.548344
-6.3534646 0.90763754 -10.548349
-6.3534646 -1.5601569e-07 -10.548347
-6.3534646 -0.90763783 -10.548346
-6.3534646 -1.815276 -10.548344
-6.3833227 -2.7357111 -10.033456
-6.3828974 -3.6473699 -10.040794
-6.3827376 -4.5590959 -10.04355
-6.3826842 -5.4708743 -10.044463
-6.382658 -6.3826566 -10.044926
-6.3825517 -7.2943478 -10.046756
-6.3823123 -8.2058287 -10.050884
-6.3818607 -9.1169443 -10.058681
-6.3825779 -10.029766 -10.046302
-6.3840141 -10.944024 -10.021536
-6.3863826 -11.860428 -9.9806948
-6.3894453 -12.778894 -9.9278755
-6.4669533 -13.857759 -8.5913038
-6.4902382 -14.834833 -8.1897659
-6.7495313 -16.391722 -3.718415
-6.7440057 -17.341728 -3.8137083
-6.7428775 -18.302097 -3.8331535
-6.7497396 -19.284971 -3.7148268
-6.8026032 -20.407808 -2.8032274
-5.4171405 10.834279 -11.125463
-5.4171405 9.9314251 -11.125462
-5.4171405 9.0285664 -11.125463
-5.4171405 8.1257086 -11.125463
-5.4171405 7.2228546 -11.125463
-5.4171405 6.3199964 -11.125463
-5.4171405 5.4171429 -11.125463
-5.4171405 4.5142841 -11.125463
-5.4171405 3.6114266 -11.125465
-5.4171405 2.7085724 -11.125463
-5.4171405 1.8057145 -11.125465
-5.4171405 0.90285641 -11.125465
-5.4171405 2.5200525e-06 -11.125465
-5.4171405 -0.90285593 -11.125466
-5.4171405 -1.8057184 -11.12546
-5.4334345 -2.7167194 -10.797657
-5.4320865 -3.6213884 -10.824786
-5.4318619 -4.5265536 -10.829303
-5.4318166 -5.4318166 -10.830206
-5.4318166 -6.3371196 -10.830206
-5.4317489 -7.2423339 -10.831565
-5.4319291 -8.1478949 -10.82795
-5.4330974 -9.0551662 -10.80444
-5.432446 -9.9594851 -10.817548
-5.43294 -10.865878 -10.807607
-5.4327602 -11.770981 -10.811224
-5.4347615 -12.68111 -10.770964
-5.4366965 -13.591741 -10.732038
-5.4442916 -14.518113 -10.579233
-5.7619605 -16.325558 -4.1882253
-5.7574134 -17.27224 -4.2797089
-5.7548404 -18.223663 -4.3314743
-5.7588272 -19.196093 -4.2512612
-5.794323 -20.280132 -3.5371358
-4.4906111 10.777466 -11.696976
-4.4906111 9.8793449 -11.696974
-4.4906111 8.9812202 -11.696974
-4.4906111 8.0830994 -11.696971
-4.4906111 7.1849742 -11.696972
-4.4906111 6.2868581 -11.696977
-4.4906111 5.3887334 -11.696978
-4.4906111 4.4906125 -11.696975
-4.4906111 3.5924873 -11.696975
-4.4906111 2.6943665 -11.696973
-4.4906111 1.7962416 -11.696973
-4.4906111 0.89812088 -11.696971
-4.4906111 9.0651582e-07 -11.696979
-4.4906111 -0.89811993 -11.696977
-4.4906111 -1.7962447 -11.696977
-4.5017867 -2.7010715 -11.427175
-4.501009 -3.6008084 -11.445948
-4.5007687 -4.5007701 -11.451751
-4.5007315 -5.4008794 -11.452646
-4.5007501 -6.3010511 -11.4522
-4.5006948 -7.2011118 -11.453541
-4.5006762 -8.1012154 -11.453991
-4.501287 -9.0025749 -11.43924
-4.5012684 -9.9027929 -11.439684
-4.5014534 -10.803491 -11.435217
-4.5013051 -11.703392 -11.438797
-4.5017495 -12.604899 -11.428066
-4.5040469 -13.512144 -11.372603
-4.5093365 -14.429874 -11.244913
-4.5348792 -15.418592 -10.628247
-4.7877069 -17.235744 -4.5244546
-4.7855921 -18.185253 -4.5754995
-4.7862411 -19.144966 -4.5598359
-4.8113227 -20.207558 -3.9543114
-3.5737629 10.721285 -12.262084
-3.5737629 9.8278475 -12.262091
-3.5737629 8.9344091 -12.262085
-3.5737629 8.040967 -12.262082
-3.5737629 7.1475291 -12.262088
-3.5737629 6.254086 -12.262084
-3.5737629 5.3606439 -12.262082
-3.5737629 4.4672065 -12.262087
-3.5737629 3.5737641 -12.262085
-3.5737629 2.6803215 -12.262082
-3.5737629 1.7868836 -12.262087
-3.5737629 0.8934415 -12.262085
-3.5737629 -1.451756e-06 -12.262081
-3.5737629 -0.89343846 -12.262088
-3.5737629 -1.786881 -12.262084
-3.5826395 -2.6869826 -11.994205
-3.5813644 -3.5813682 -12.03268
-3.5811741 -4.4764714 -12.038425
-3.58113 -5.371695 -12.039755
-3.58113 -6.2669787 -12.039754
-3.5811155 -7.1622314 -12.040197
-3.5810716 -8.0574131 -12.041523
-3.5814672 -8.9536676 -12.029587
-3.5811887 -9.8482666 -12.03799
-3.5816722 -10.745022 -12.023394
-3.5812621 -11.639101 -12.035779
-3.5816281 -12.535699 -12.024728
-3.583725 -13.438968 -11.961457
-3.5867345 -14.346942 -11.870628
-3.601933 -15.30822 -11.411967
-3.8368459 -17.265808 -4.3228517
-3.8372664 -18.227015 -4.3101625
-3.8408184 -19.204092 -4.2029738
-3.8715084 -20.325417 -3.2768233
-2.666434 11.554548 -12.820895
-2.6664231 10.665693 -12.821335
-2.6664231 9.7768869 -12.821335
-2.6664231 8.8880768 -12.821338
-2.6664231 7.9992661 -12.821331
-2.6664231 7.1104608 -12.821332
-2.6664231 6.2216544 -12.821333
-2.6664231 5.3328447 -12.821336
-2.6664231 4.4440389 -12.821337
-2.6664231 3.555233 -12.821338
-2.6664231 2.6664219 -12.821329
-2.6664231 1.7776121 -12.821333
-2.6664231 0.88880628 -12.821333
-2.6664231 5.1797156e-07 -12.821335
-2.6664231 -0.88880575 -12.821335
-2.6664231 -1.7776151 -12.821339
-2.6723266 -2.6723242 -12.583805
-2.6718588 -3.5624819 -12.602617
-2.6716957 -4.4528241 -12.609183
-2.671674 -5.3433466 -12.610057
-2.671674 -6.233911 -12.610052
-2.6716523 -7.1244073 -12.610932
-2.6715982 -8.0147953 -12.613113
-2.6714675 -8.9048939 -12.618361
-2.6718481 -9.7967749 -12.603058
-2.6718371 -10.687349 -12.60349
-2.6714458 -11.576265 -12.619239
-2.6719348 -12.469033 -12.599553
-2.6733601 -13.366802 -12.542218
-2.6756151 -14.269949 -12.451484
-2.6847825 -15.213769 -12.082613
-2.8357296 -17.014378 -6.0089622
-2.8342366 -17.950165 -6.0690498
-2.8345056 -18.896706 -6.0582213
-2.8452401 -19.916681 -5.6262932
-1.7684451 11.494891 -13.37481
-1.7684451 10.610672 -13.374814
-1.7684451 9.7264519 -13.374815
-1.7684451 8.8422232 -13.374813
-1.7684451 7.958003 -13.374815
-1.7684451 7.0737777 -13.374809
-1.7684451 6.189558 -13.374811
-1.7684451 5.3053336 -13.374816
-1.7684451 4.4211087 -13.37481
-1.7684451 3.5368893 -13.374814
-1.7684451 2.6526692 -13.374816
-1.7684451 1.7684443 -13.37481
-1.7684451 0.88422012 -13.374815
-1.7684451 3.4708947e-07 -13.374817
-1.7684451 -0.88422483 -13.374811
-1.7684451 -1.7684447 -13.374814
-1.772498 -2.6587477 -13.130198
-1.7718236 -3.5436468 -13.170908
-1.771709 -4.429275 -13.177828
-1.7716874 -5.315063 -13.17913
-1.7716874 -6.2009058 -13.179132
-1.7716801 -7.0867229 -13.179558
-1.7716514 -7.9724355 -13.181289
-1.771594 -8.8579741 -13.184754
-1.7719671 -9.745822 -13.162248
-1.7718881 -10.631331 -13.167008
-1.7716945 -11.516015 -13.178697
-1.7721105 -12.404776 -13.153587
-1.7727349 -13.295512 -13.115907
-1.7742076 -14.193666 -13.027008
-1.7796824 -15.1273 -12.696588
-1.8780371 -16.902336 -6.7603564
-1.8765879 -17.827587 -6.8478198
-1.8772156 -18.772158 -6.8099318
-1.8822683 -19.763819 -6.5049677
-0.87968087 11.435853 -13.923038
-0.87968087 10.556171 -13.923038
-0.87968087 9.6764908 -13.923038
-0.87968087 8.7968102 -13.923038
-0.87968087 7.9171295 -13.923038
-0.87968087 7.0374484 -13.923038
-0.87968087 6.1577678 -13.923038
-0.87968087 5.2780867 -13.923037
-0.87968087 4.398406 -13.923037
-0.87968087 3.5187211 -13.923038
-0.87968087 2.63904 -13.923038
-0.87968087 1.7593592 -13.923038
-0.87968087 0.87967843 -13.923038
-0.87968087 -2.3948721e-06 -13.923038
-0.87968087 -0.87968361 -13.923038
-0.87968087 -1.759364 -13.923038
-0.88159782 -2.6447947 -13.691654
-0.88142025 -3.5256834 -13.713079
-0.88136703 -4.4068375 -13.719506
-0.88135993 -5.2881608 -13.720366
-0.88135642 -6.169497 -13.720794
-0.88135278 -7.0508256 -13.721216
-0.88134575 -7.9321146 -13.722077
-0.88132089 -8.8132067 -13.725079
-0.88128543 -9.6941404 -13.729362
-0.88132441 -10.575894 -13.724651
-0.88142377 -11.458512 -13.712651
-0.88142377 -12.339932 -13.712656
-0.88180017 -13.227003 -13.667214
-0.88248283 -14.119729 -13.584814
-0.88476586 -15.04102 -13.309233
-0.93373084 -16.807154 -7.3986382
-0.93314964 -17.729843 -7.4687943
-0.93341225 -18.668245 -7.4370914
-0.93557072 -19.646988 -7.1765351
-1.2910226e-23 11.377459 -14.465239
1.2357635e-23 10.502266 -14.465235
-2.0629628e-24 9.627079 -14.465239
-8.545869e-24 8.751895 -14.465239
1.6721993e-23 7.8767028 -14.465234
-3.4720451e-25 7.0015149 -14.465238
2.4920657e-23 6.1263227 -14.465233
1.4468905e-23 5.2511349 -14.465237
-3.3038918e-23 4.375948 -14.46524
-1.0419655e-23 3.5007551 -14.465236
-2.4840253e-23 2.6255679 -14.46524
4.3964544e-24 1.750375 -14.465235
-9.3640203e-24 0.87518746 -14.465238
-2.3784619e-23 4.331624e-07 -14.465241
2.1433666e-24 -0.87519211 -14.465237
-1.2277232e-23 -1.7503796 -14.46524
1.6323173e-23 -2.6312828 -14.235362
-1.5662297e-24 -3.5076859 -14.256145
-3.0629784e-23 -4.3843222 -14.262936
-8.9336368e-24 -5.2611284 -14.264205
2.2762881e-24 -6.1379848 -14.264202
-2.2893524e-23 -7.0148368 -14.264209
2.2680123e-23 -7.8916311 -14.26505
-1.4487361e-23 -8.768301 -14.267173
2.5747e-23 -9.6448221 -14.27056
-3.4225096e-23 -10.521199 -14.274808
1.8774623e-23 -11.400072 -14.255296
-3.3185447e-23 -12.277781 -14.248516
1.1047246e-23 -13.157301 -14.228146
-1.9563883e-23 -14.046275 -14.138969
-2.5007998e-23 -14.95644 -13.909808
-7.4774137e-24 -16.719854 -7.9841046
-1.2014348e-23 -17.639153 -8.044982
-3.3613833e-23 -18.569572 -8.0326204
-2.1409961e-23 -19.534595 -7.8225651
0.87074316 11.319659 -15.001929
0.87074316 10.448913 -15.001924
0.87074316 9.5781727 -15.001928
0.87074316 8.7074318 -15.001931
0.87074316 7.8366861 -15.001925
0.87074316 6.9659448 -15.001928
0.87074316 6.0951991 -15.001924
0.87074316 5.2244582 -15.001926
0.87074316 4.3537169 -15.001929
0.87074316 3.4829714 -15.001925
0.87074316 2.6122305 -15.001927
0.87074316 1.7414896 -15.00193
0.87074316 0.87073928 -15.001927
0.87074316 -1.5762564e-06 -15.00193
0.87074316 -0.87074697 -15.001925
0.87074316 -1.7414879 -15.001928
0.87261766 -2.6178558 -14.775647
0.87243336 -3.4897356 -14.797894
0.87237424 -4.3618727 -14.805037
0.87236035 -5.2341609 -14.806714
0.87236375 -6.1065507 -14.806291
0.87236375 -6.9789143 -14.806293
0.87235689 -7.8512101 -14.807136
0.87234992 -8.7234993 -14.807973
0.87233251 -9.5956612 -14.810068
0.87231165 -10.467743 -14.812588
0.87230122 -11.339912 -14.813848
0.87256896 -12.215966 -14.781528
0.87268382 -13.090255 -14.767667
0.8733837 -13.97414 -14.683181
0.87512976 -14.877204 -14.472417
0.92441231 -16.639427 -8.5234776
0.92376858 -17.551605 -8.6011848
0.92365938 -18.473192 -8.6143608
0.92520165 -19.429239 -8.4281988
0.93572277 -20.585901 -7.1581907
1.732684 11.262445 -15.533195
1.732684 10.396104 -15.533192
1.732684 9.5297594 -15.533193
1.732684 8.6634188 -15.533192
1.732684 7.7970777 -15.53319
1.732684 6.9307318 -15.53319
1.732684 6.0643911 -15.533188
1.732684 5.198051 -15.533196
1.732684 4.3317099 -15.533195
1.732684 3.4653687 -15.533193
1.732684 2.5990238 -15.533194
1.732684 1.7326831 -15.533192
1.732684 0.86634171 -15.53319
1.732684 -3.1007617e-06 -15.533191
1.732684 -0.86634439 -15.533189
1.732684 -1.7326807 -15.533195
1.7367328 -2.605099 -15.288826
1.7360028 -3.4720068 -15.332882
1.7358857 -4.3397164 -15.33995
1.7358581 -5.2075725 -15.341613
1.7358581 -6.0755024 -15.34161
1.7358513 -6.9434075 -15.342024
1.7358444 -7.8112998 -15.34244
1.7358376 -8.6791887 -15.342854
1.735817 -9.5469923 -15.344099
1.7357962 -10.414777 -15.345352
1.7360165 -11.284112 -15.33205
1.736292 -12.154042 -15.315431
1.7365537 -13.024156 -15.299631
1.7377739 -13.902194 -15.225986
1.7408699 -14.797394 -15.039128
1.8396178 -16.556564 -9.079155
1.8384513 -17.46529 -9.1495647
1.8381039 -18.381041 -9.1705322
1.8409021 -19.329473 -9.0016451
1.8564221 -20.420645 -8.0649357
2.5859551 11.205809 -16.059114
2.5859551 10.343821 -16.059114
2.5859551 9.4818344 -16.059114
2.5859551 8.6198511 -16.059111
2.5859551 7.7578645 -16.059111
2.5859551 6.8958764 -16.059111
2.5859551 6.0338984 -16.059114
2.5859551 5.1719117 -16.059114
2.5859551 4.3099246 -16.059114
2.5859551 3.4479377 -16.059114
2.5859551 2.5859547 -16.059113
2.5859551 1.7239677 -16.059111
2.5859551 0.86198074 -16.059111
2.5859551 2.8776508e-06 -16.059116
2.5859551 -0.86198401 -16.059116
2.5859551 -1.7239717 -16.059116
2.5918961 -2.5918965 -15.820079
2.5913744 -3.4551692 -15.841067
2.5911798 -4.318634 -15.848888
2.5911391 -5.182281 -15.850532
2.5911391 -6.0459909 -15.850536
2.5911288 -6.909678 -15.850947
2.5911288 -7.7733893 -15.850942
2.5911288 -8.6370964 -15.850945
2.5911186 -9.5007696 -15.851357
2.5910878 -10.364352 -15.852587
2.5910676 -11.22796 -15.853412
2.5911493 -12.092031 -15.85012
2.5915687 -12.957844 -15.833251
2.5933189 -13.831038 -15.762824
2.5976584 -14.720064 -15.588218
2.6365209 -15.819127 -14.024513
2.7436311 -17.376329 -9.7147264
2.7429092 -18.28606 -9.7437801
2.7465575 -19.225901 -9.596982
2.7656214 -20.281225 -8.8299093
3.4306738 11.14969 -16.580179
3.4306738 10.292022 -16.580179
3.4306738 9.4343557 -16.580179
3.4306738 8.576685 -16.580181
3.4306738 7.7190132 -16.580173
3.4306738 6.8613458 -16.580173
3.4306738 6.0036759 -16.580177
3.4306738 5.1460085 -16.580175
3.4306738 4.2883415 -16.580175
3.4306738 3.430671 -16.580179
3.4306738 2.5730045 -16.580179
3.4306738 1.7153376 -16.580179
3.4306738 0.85767061 -16.580177
3.4306738 2.5435213e-08 -16.580181
3.4306738 -0.85766691 -16.580181
3.4306738 -1.7153388 -16.580172
3.4382861 -2.5787132 -16.350464
3.4375842 -3.4375851 -16.371643
3.437341 -4.2966771 -16.378979
3.4372735 -5.1559091 -16.381016
3.4372735 -6.0152283 -16.381012
3.4372599 -6.8745189 -16.38142
3.4372735 -7.7338662 -16.381014
3.4372599 -8.593153 -16.381418
3.4372599 -9.452467 -16.381422
3.4372466 -10.311742 -16.38183
3.437233 -11.171006 -16.382233
3.4373679 -12.030786 -16.378164
3.4379079 -12.892156 -16.36187
3.440191 -13.760768 -16.292973
3.4452403 -14.642273 -16.140596
3.472584 -15.62663 -15.31543
3.6401968 -17.290936 -10.257264
3.6394403 -18.197201 -10.280093
3.6428626 -19.125031 -10.176819
3.6662016 -20.164112 -9.4724913
4.2669911 11.094178 -17.095648
4.2669911 10.240777 -17.09565
4.2669911 9.3873806 -17.095648
4.2669911 8.5339823 -17.095646
4.2669911 7.6805816 -17.095648
4.2669911 6.8271847 -17.095648
4.2669911 5.9737864 -17.095644
4.2669911 5.1203856 -17.095646
4.2669911 4.2669878 -17.095644
4.2669911 3.4135909 -17.095642
4.2669911 2.5601895 -17.095644
4.2669911 1.706797 -17.09565
4.2669911 0.85340023 -17.09565
4.2669911 -1.5054919e-06 -17.09565
4.2669911 -0.85339832 -17.095648
4.2669911 -1.7067961 -17.095646
4.2770634 -2.5662374 -16.852482
4.2759104 -3.4207289 -16.880314
4.2756095 -4.2756119 -16.887575
4.275526 -5.1306319 -16.889591
4.2755427 -5.9857597 -16.889193
4.275526 -6.8408442 -16.889593
4.275526 -7.6959491 -16.889587
4.2755094 -8.5510206 -16.889992
4.275526 -9.4061613 -16.889589
4.2755094 -10.261221 -16.889997
4.275526 -11.11637 -16.889589
4.2756929 -11.971942 -16.885557
4.2762947 -12.828883 -16.87104
4.2782335 -13.690351 -16.824219
4.283391 -14.56353 -16.699715
4.3115726 -15.521664 -16.019346
4.5272441 -17.203527 -10.812582
4.5269256 -18.107706 -10.820264
4.5306177 -19.028595 -10.731137
4.553256 -20.034327 -10.184595
5.0950208 11.03921 -17.606005
5.0950208 10.190041 -17.606007
5.0950208 9.3408709 -17.606007
5.0950208 8.4917011 -17.606009
5.0950208 7.6425319 -17.606009
5.0950208 6.7933621 -17.60601
5.0950208 5.9441924 -17.60601
5.0950208 5.0950232 -17.606012
5.0950208 4.2458534 -17.606012
5.0950208 3.3966789 -17.606005
5.0950208 2.5475094 -17.606007
5.0950208 1.6983393 -17.606007
5.0950208 0.84916973 -17.606007
5.0950208 2.0964592e-07 -17.606009
5.0950208 -0.84916931 -17.606009
5.0950208 -1.6983389 -17.60601
5.107286 -2.5536454 -17.359253
5.1049638 -3.4033098 -17.405981
5.1045866 -4.2538228 -17.413567
5.1044874 -5.1044903 -17.415564
5.1044874 -5.955236 -17.415567
5.1044874 -6.8059864 -17.415564
5.1044674 -7.6567006 -17.415968
5.1044674 -8.5074511 -17.415962
5.1044674 -9.3581915 -17.415964
5.1044674 -10.208935 -17.415966
5.1044674 -11.059679 -17.41597
5.1046858 -11.910932 -17.411573
5.10536 -12.763404 -17.398003
5.1087761 -13.623406 -17.329277
5.114367 -14.490709 -17.216799
5.1393852 -15.418156 -16.713472
5.4066143 -17.120945 -11.337239
5.4053235 -18.017748 -11.363203
5.4090419 -18.931646 -11.288404
5.4330974 -19.921358 -10.804436
5.9148874 10.984792 -18.111343
5.9148874 10.139808 -18.11134
5.9148874 9.2948227 -18.111336
5.9148874 8.4498396 -18.111343
5.9148874 7.6048541 -18.11134
5.9148874 6.7598701 -18.111336
5.9148874 5.9148898 -18.11134
5.9148874 5.0699015 -18.11134
5.9148874 4.2249165 -18.111336
5.9148874 3.3799372 -18.111341
5.9148874 2.5349517 -18.111336
5.9148874 1.6899642 -18.111336
5.9148874 0.84498376 -18.11134
5.9148874 -1.1062517e-06 -18.111336
5.9148874 -0.84498602 -18.111334
5.9148874 -1.6899699 -18.11134
5.9280462 -2.5405912 -17.88442
5.926785 -3.3867383 -17.906166
5.9263039 -4.233077 -17.914471
5.9261661 -5.0795712 -17.916845
5.9261661 -5.9261656 -17.916843
5.9261889 -6.7727871 -17.916451
5.9261889 -7.6193862 -17.916451
5.9261889 -8.4659901 -17.916443
5.9261889 -9.3125849 -17.916443
5.9261661 -10.159146 -17.91684
5.9261661 -11.005741 -17.916838
5.9263954 -11.852788 -17.912891
5.9271522 -12.70104 -17.899845
5.9292397 -13.552549 -17.863852
5.9362459 -14.416596 -17.743025
5.9578986 -15.320311 -17.36964
6.2772737 -17.038313 -11.862207
6.2747288 -17.927799 -11.906093
6.2795119 -18.838541 -11.823606
6.3053026 -19.816666 -11.378866
6.7267098 10.9309 -18.61171
6.7267098 10.090063 -18.611713
6.7267098 9.2492218 -18.61171
6.7267098 8.4083891 -18.611712
6.7267098 7.5675473 -18.611708
6.7267098 6.7267103 -18.61171
6.7267098 5.8858695 -18.611708
6.7267098 5.045033 -18.611712
6.7267098 4.2041907 -18.611708
6.7267098 3.363354 -18.611712
6.7267098 2.5225132 -18.611708
6.7267098 1.6816763 -18.611712
6.7267098 0.84083438 -18.611708
6.7267098 -2.4967355e-06 -18.611712
6.7267098 -0.84083885 -18.611715
6.7267098 -1.68168 -18.61171
6.7417307 -2.5281477 -18.385057
6.7402773 -3.3701389 -18.406984
6.739759 -4.2123528 -18.414814
6.739603 -5.0547009 -18.417164
6.7395768 -5.8971295 -18.417557
6.7395768 -6.7395778 -18.417551
6.739603 -7.5820513 -18.417166
6.7395768 -8.4244709 -18.417553
6.7395768 -9.266923 -18.417549
6.7395768 -10.109365 -18.417553
6.7395768 -10.951816 -18.417551
6.7398105 -11.79467 -18.414034
6.7405891 -12.638606 -18.402281
6.7426395 -13.485279 -18.371344
6.7502031 -14.344184 -18.257217
6.7727871 -15.238773 -17.916449
7.1390748 -16.955303 -12.3896
7.1354966 -17.838743 -12.443587
7.1394238 -18.74099 -12.384331
7.1656604 -19.705566 -11.988453
7.5305772 10.877495 -19.107582
7.5305772 10.040768 -19.107584
7.5305772 9.2040367 -19.10758
7.5305772 8.3673048 -19.107584
7.5305772 7.5305777 -19.107586
7.5305772 6.6938453 -19.10758
7.5305772 5.8571138 -19.107584
7.5305772 5.0203862 -19.107586
7.5305772 4.1836538 -19.10758
7.5305772 3.3469226 -19.107586
7.5305772 2.5101902 -19.107578
7.5305772 1.6734595 -19.107586
7.5305772 0.83673257 -19.107588
7.5305772 -1.6055361e-07 -19.107582
7.5305772 -0.83673114 -19.107586
7.5305772 -1.6734639 -19.10758
7.5476871 -2.5158956 -18.878101
7.5455475 -3.3535807 -18.90679
7.5448828 -4.1915989 -18.915712
7.5447092 -5.0298076 -18.91803
7.5447092 -5.8681068 -18.918034
7.5447092 -6.7064061 -18.918036
7.5447092 -7.5447106 -18.91803
7.5447092 -8.3830109 -18.918034
7.5447092 -9.2213087 -18.918036
7.5447092 -10.059614 -18.918032
7.5447092 -10.897913 -18.918034
7.54494 -11.736577 -18.914928
7.5457206 -12.576203 -18.904463
7.5484967 -13.419551 -18.867233
7.5556765 -14.271836 -18.770929
7.5778823 -15.155765 -18.473106
7.9929729 -16.874052 -12.905788
7.9890184 -17.753372 -12.958829
7.9922919 -18.648685 -12.914917
8.0164576 -19.595783 -12.59081
8.3266592 10.824655 -19.598251
8.3266592 9.9919901 -19.598248
8.3266592 9.1593256 -19.598253
8.3266592 8.3266582 -19.598253
8.3266592 7.4939928 -19.598249
8.3266592 6.6613288 -19.598255
8.3266592 5.82866 -19.598255
8.3266592 4.995995 -19.598249
8.3266592 4.1633272 -19.598249
8.3266592 3.3306668 -19.598255
8.3266592 2.4979982 -19.598253
8.3266592 1.665329 -19.598251
8.3266592 0.83266371 -19.598248
8.3266592 1.9508087e-07 -19.598253
8.3266592 -0.83266813 -19.598253
8.3266592 -1.6653326 -19.598249
8.3468542 -2.5040588 -19.354475
8.3430681 -3.3372264 -19.400179
8.3424006 -4.1712046 -19.408236
8.3421459 -5.0052905 -19.411306
8.3421459 -5.8395009 -19.411308
8.3421459 -6.6737213 -19.411306
8.3421459 -7.5079322 -19.41131
8.3421774 -8.3421774 -19.410925
8.3421459 -9.176363 -19.41131
8.3421459 -10.010578 -19.411304
8.3421459 -10.84479 -19.411308
8.3423691 -11.679315 -19.408625
8.343195 -12.514792 -19.398642
8.3475542 -13.356088 -19.346018
8.3529377 -14.199994 -19.281038
8.3739338 -15.073084 -19.027594
8.8379765 -16.792154 -13.426101
8.8342676 -17.668535 -13.470881
8.8367281 -18.557127 -13.441176
8.8584366 -19.488564 -13.179125
9.1150446 10.772326 -20.084177
9.1150446 9.9436827 -20.084173
9.1150446 9.1150427 -20.084173
9.1150446 8.2864046 -20.084177
9.1150446 7.4577651 -20.084179
9.1150446 6.6291213 -20.084173
9.1150446 5.8004818 -20.084175
9.1150446 4.9718423 -20.084177
9.1150446 4.1432037 -20.084179
9.1150446 3.3145595 -20.084173
9.1150446 2.4859209 -20.084175
9.1150446 1.6572815 -20.084177
9.1150446 0.82864302 -20.084181
9.1150446 -1.4480814e-06 -20.084173
9.1150446 -0.82864094 -20.084175
9.1150446 -1.6572794 -20.084177
9.1365938 -2.4917989 -19.847702
9.1339598 -3.3214443 -19.876606
9.1331968 -4.151453 -19.88497
9.1329546 -4.9816141 -19.887634
9.1329203 -5.8118587 -19.88801
9.1329203 -6.6421242 -19.888014
9.1329203 -7.4723868 -19.888016
9.1329203 -8.3026581 -19.88801
9.1329546 -9.1329546 -19.887634
9.1329546 -9.9632244 -19.88763
9.1329889 -10.793532 -19.887253
9.1331625 -11.624025 -19.885353
9.1340981 -12.455587 -19.87509
9.1369753 -13.290146 -19.843517
9.1437073 -14.131188 -19.76964
9.1651831 -14.997575 -19.533968
9.6753235 -16.711926 -13.935837
9.6704273 -17.582596 -13.989568
9.6731081 -18.466843 -13.960156
9.6944513 -19.388903 -13.725933
9.8979311 11.547587 -20.544418
9.8958435 10.720499 -20.565426
9.8958435 9.8958435 -20.565428
9.8958435 9.0711908 -20.565428
9.8958435 8.2465343 -20.565428
9.8958435 7.4218822 -20.565426
9.8958435 6.59723 -20.565424
9.8958435 5.7725739 -20.565426
9.8958435 4.9479218 -20.565426
9.8958435 4.1232662 -20.565426
9.8958435 3.2986138 -20.565426
9.8958435 2.4739609 -20.565424
9.8958435 1.6493055 -20.565424
9.8958435 0.82465345 -20.565424
9.8958435 -2.680177e-06 -20.565424
9.8958435 -0.82465476 -20.565424
9.8958435 -1.6493068 -20.565422
9.9199867 -2.4799986 -20.322552
9.9151564 -3.3050573 -20.371145
9.914258 -4.1309423 -20.380182
9.9139957 -4.9570012 -20.382814
9.9139585 -5.783144 -20.383196
9.9139585 -6.6093092 -20.38319
9.9139585 -7.4354696 -20.383196
9.9139585 -8.2616367 -20.383192
9.9139957 -9.0878305 -20.382818
9.9140711 -9.9140711 -20.382067
9.9141083 -10.740288 -20.381687
9.9142952 -11.566683 -20.379805
9.9153433 -12.394176 -20.369268
9.9187136 -13.22495 -20.335365
9.9259472 -14.061761 -20.262592
9.9434967 -14.915245 -20.086069
10.505169 -16.633183 -14.436086
10.499331 -17.498886 -14.494802
10.500842 -18.376478 -14.479595
10.518167 -19.283308 -14.305323
10.655654 -20.423338 -12.922315
10.669125 11.489827 -21.042437
10.669125 10.669125 -21.042435
10.669125 9.8484259 -21.042439
10.669125 9.0277185 -21.042437
10.669125 8.207016 -21.042435
10.669125 7.3863173 -21.042439
10.669125 6.5656147 -21.042437
10.669125 5.7449117 -21.042431
10.669125 4.9242139 -21.042437
10.669125 4.1035061 -21.042437
10.669125 3.2828026 -21.042433
10.669125 2.4621053 -21.042439
10.669125 1.6414021 -21.042433
10.669125 0.82070404 -21.042439
10.669125 8.1869206e-07 -21.042435
10.669125 -0.82070649 -21.042433
10.669125 -1.6414045 -21.042439
10.693181 -2.4676571 -20.819061
10.690731 -3.2894568 -20.841816
10.689727 -4.1114349 -20.851141
10.689405 -4.9335713 -20.85412
10.689405 -5.7558331 -20.85412
10.689405 -6.5780964 -20.85412
10.689405 -7.4003577 -20.85412
10.689405 -8.22262 -20.854122
10.689486 -9.0449543 -20.853373
10.689567 -9.8672962 -20.852627
10.689687 -10.68969 -20.851505
10.689967 -11.512275 -20.848902
10.691051 -12.335829 -20.838833
10.693542 -13.161284 -20.815702
10.699534 -13.991704 -20.760065
10.720012 -14.843094 -20.569921
11.328133 -16.556507 -14.923255
11.31939 -17.414448 -15.00444
11.31876 -18.284151 -15.01029
11.337522 -19.186573 -14.836084
11.437783 -20.23608 -13.905107
11.435074 11.435073 -21.51453
11.435074 10.618284 -21.51453
11.435074 9.8014879 -21.514528
11.435074 8.9847012 -21.514532
11.435074 8.1679096 -21.51453
11.435074 7.3511143 -21.514528
11.435074 6.534327 -21.514532
11.435074 5.717535 -21.514526
11.435074 4.9007483 -21.51453
11.435074 4.0839524 -21.514528
11.435074 3.2671616 -21.514526
11.435074 2.4503739 -21.51453
11.435074 1.6335779 -21.514528
11.435074 0.81679118 -21.514532
11.435074 -6.8696704e-07 -21.514526
11.435074 -0.81679159 -21.514534
11.435074 -1.6335824 -21.51453
11.461334 -2.456002 -21.288097
11.458507 -3.2738607 -21.312489
11.457392 -4.0919261 -21.3221
11.457048 -4.9101629 -21.325052
11.457006 -5.7285051 -21.325422
11.457006 -6.5468612 -21.325424
11.457006 -7.3652205 -21.325418
11.457048 -8.1836081 -21.325054
11.457134 -9.0020332 -21.324316
11.457264 -9.8205147 -21.323204
11.45752 -10.639124 -21.320992
11.457949 -11.457952 -21.317291
11.459191 -12.277707 -21.306583
11.461891 -13.099303 -21.283297
11.467769 -13.925149 -21.232624
11.485348 -14.766874 -21.081055
11.607249 -15.752694 -20.029999
12.132341 -17.331915 -15.502557
12.131717 -18.197577 -15.507938
12.146239 -19.086946 -15.382726
12.228495 -20.089674 -14.673498
12.193756 11.380838 -21.982143
12.193756 10.567923 -21.982145
12.193756 9.7550058 -21.982143
12.193756 8.9420853 -21.982145
12.193756 8.1291714 -21.982149
12.193756 7.3162532 -21.982145
12.193756 6.5033345 -21.982141
12.193756 5.6904211 -21.982145
12.193756 4.8774986 -21.982145
12.193756 4.0645857 -21.982149
12.193756 3.2516668 -21.982145
12.193756 2.4387488 -21.982141
12.193756 1.6258349 -21.982147
12.193756 0.81291693 -21.982141
12.193756 -4.1619369e-06 -21.982143
12.193756 -0.81291801 -21.982147
12.193756 -1.625836 -21.982143
12.221444 -2.4442878 -21.759329
12.218397 -3.2582393 -21.783854
12.217215 -4.0724072 -21.793362
12.216852 -4.8867431 -21.796288
12.216852 -5.7011943 -21.796293
12.216852 -6.5156565 -21.796293
12.216852 -7.330112 -21.796291
12.216943 -8.1446304 -21.795555
12.217078 -8.9591951 -21.794462
12.217306 -9.7738504 -21.792629
12.217669 -10.58865 -21.789705
12.218306 -11.403753 -21.784588
12.21967 -12.219672 -21.773603
12.222764 -13.037617 -21.748713
12.229046 -13.859587 -21.698149
12.244234 -14.693083 -21.575933
12.336385 -15.62609 -20.834352
12.938133 -17.250847 -15.991866
12.937674 -18.112741 -15.995562
12.94701 -18.988953 -15.920424
13.013208 -19.95359 -15.3877
12.945277 11.327116 -22.445345
12.945277 10.518036 -22.445349
12.945277 9.7089567 -22.445345
12.945277 8.8998775 -22.445347
12.945277 8.0907974 -22.445351
12.945277 7.2817187 -22.445345
12.945277 6.4726357 -22.445343
12.945277 5.663558 -22.445349
12.945277 4.8544793 -22.445345
12.945277 4.0453963 -22.445343
12.945277 3.2363198 -22.445351
12.945277 2.4272411 -22.445347
12.945277 1.6181585 -22.445345
12.945277 0.809075 -22.445343
12.945277 1.3895216e-06 -22.445347
12.945277 -0.80908132 -22.445345
12.945277 -1.618163 -22.445345
12.977178 -2.4332213 -22.204685
12.970592 -3.2426503 -22.254354
12.969199 -4.052875 -22.26487
12.968863 -4.8633265 -22.267401
12.968767 -5.6738353 -22.268127
12.968767 -6.4843855 -22.268127
12.968863 -7.294982 -22.267406
12.96896 -8.1056013 -22.266676
12.969151 -8.9162941 -22.26523
12.969536 -9.7271509 -22.262333
12.970063 -10.538178 -22.258347
12.970928 -11.349563 -22.251822
12.972274 -12.16151 -22.241673
12.972178 -12.972178 -22.242397
12.981602 -13.792953 -22.171289
12.99755 -14.622247 -22.050976
13.072069 -15.523086 -21.488766
13.737822 -17.172276 -16.466059
13.732974 -18.024529 -16.502636
13.744399 -18.89855 -16.416433
13.802252 -19.840738 -15.979972
13.689735 11.273897 -22.904194
13.689735 10.468623 -22.904194
13.689735 9.6633415 -22.904194
13.689735 8.8580637 -22.904196
13.689735 8.0527821 -22.904194
13.689735 7.247508 -22.904196
13.689735 6.4422283 -22.904196
13.689735 5.6369467 -22.904194
13.689735 4.8316708 -22.904192
13.689735 4.0263948 -22.904198
13.689735 3.2211132 -22.904196
13.689735 2.4158332 -22.904196
13.689735 1.6105556 -22.904192
13.689735 0.80527574 -22.904192
13.689735 -9.1174337e-07 -22.904198
13.689735 -0.80527771 -22.904194
13.689735 -1.6105576 -22.904194
13.722451 -2.4216115 -22.671896
13.718353 -3.2278523 -22.700991
13.716887 -4.0343804 -22.711407
13.716482 -4.8411136 -22.714277
13.716431 -5.6479425 -22.714638
13.716431 -6.4547958 -22.714638
13.716482 -7.2616673 -22.714283
13.716634 -8.0686092 -22.713202
13.716937 -8.8756695 -22.711046
13.714814 -9.6810493 -22.726124
13.714814 -10.487801 -22.726128
13.715977 -11.29551 -22.717873
13.718101 -12.104208 -22.702791
13.717999 -12.91106 -22.703508
13.725183 -13.725186 -22.652487
13.74318 -14.551605 -22.524706
13.808154 -15.432642 -22.063351
14.526516 -17.090021 -16.962526
14.524531 -17.942072 -16.976622
14.531112 -18.80497 -16.929901
14.57785 -19.722977 -16.598021
14.42718 11.221136 -23.359104
14.42718 10.41963 -23.359106
14.42718 9.6181202 -23.359108
14.42718 8.8166075 -23.359106
14.42718 8.0151005 -23.359106
14.42718 7.2135882 -23.359106
14.42718 6.4120755 -23.359104
14.42718 5.6105714 -23.359108
14.42718 4.8090582 -23.359106
14.42718 4.0075459 -23.359104
14.42718 3.2060425 -23.35911
14.42718 2.4045284 -23.359108
14.42718 1.603016 -23.359106
14.42718 0.80150765 -23.359102
14.42718 2.1755295e-07 -23.35911
14.42718 -0.80150813 -23.359106
14.42718 -1.6030223 -23.359102
14.46107 -2.4101791 -23.131824
14.456772 -3.2126162 -23.160654
14.455181 -4.0153289 -23.171326
14.454703 -4.818234 -23.174524
14.454651 -5.621254 -23.174881
14.454651 -6.4242883 -23.174881
14.454703 -7.2273531 -23.174526
14.454968 -8.0305395 -23.172745
14.45534 -8.8338242 -23.170254
14.455075 -9.6367188 -23.172031
14.452795 -10.438129 -23.187328
14.454438 -11.24234 -23.176304
14.456985 -12.047489 -23.159229
14.457356 -12.850986 -23.156733
14.465319 -13.661688 -23.103344
14.481162 -14.481162 -22.997091
14.536194 -15.343764 -22.628035
15.310962 -17.012184 -17.432327
15.304005 -17.854675 -17.478992
15.3112 -18.713688 -17.430731
15.348959 -19.612558 -17.177519
15.157808 11.16891 -23.809427
15.157808 10.37113 -23.809431
15.157808 9.5733519 -23.809429
15.157808 8.7755718 -23.809431
15.157808 7.9777937 -23.809427
15.157808 7.1800127 -23.809431
15.157808 6.3822346 -23.809429
15.157808 5.5844517 -23.809427
15.157808 4.786674 -23.809425
15.157808 3.9888957 -23.809433
15.157808 3.1911173 -23.809429
15.157808 2.3933337 -23.809427
15.157808 1.5955563 -23.809425
15.157808 0.79778194 -23.809429
15.157808 -6.5447375e-07 -23.809429
15.157808 -0.79777896 -23.809427
15.157808 -1.5955616 -23.809425
15.194415 -2.3991206 -23.576855
15.18881 -3.1976449 -23.612471
15.187146 -3.9966199 -23.623037
15.186647 -4.795785 -23.626209
15.186591 -5.5950627 -23.626558
15.186591 -6.3943539 -23.626562
15.186647 -7.1936765 -23.626213
15.186925 -7.9931183 -23.624447
15.187423 -8.7927227 -23.621277
15.188367 -9.5926542 -23.61529
15.185871 -10.390335 -23.631138
15.187368 -11.190695 -23.62163
15.187423 -11.990072 -23.621281
15.191473 -12.792822 -23.595549
15.196525 -13.596893 -23.563452
15.211422 -14.410822 -23.468811
15.260822 -15.260823 -23.154963
16.08898 -16.93577 -17.893517
16.079523 -17.772104 -17.953592
16.084499 -18.624155 -17.921982
16.116415 -19.509346 -17.719219
15.881667 11.117168 -24.255577
15.881667 10.323084 -24.255579
15.881667 9.5289974 -24.255579
15.881667 8.7349157 -24.255577
15.881667 7.9408321 -24.255579
15.881667 7.14675 -24.255575
15.881667 6.3526664 -24.255579
15.881667 5.5585799 -24.255579
15.881667 4.7644978 -24.255575
15.881667 3.9704168 -24.255581
15.881667 3.1763349 -24.255579
15.881667 2.3822486 -24.255577
15.881667 1.5881617 -24.255577
15.881667 0.79408473 -24.255581
15.881667 -1.4049396e-06 -24.255579
15.881667 -0.79408348 -24.255577
15.881667 -1.5881696 -24.255575
15.922392 -2.3883605 -24.009779
15.91666 -3.1833315 -24.044376
15.914866 -3.9787183 -24.055199
15.914347 -4.7743039 -24.058344
15.914288 -5.5700021 -24.058699
15.914288 -6.3657198 -24.058691
15.914347 -7.1614599 -24.058342
15.911685 -7.9558415 -24.074404
15.912321 -8.7517805 -24.07056
15.913362 -9.5480223 -24.064278
15.914751 -10.344587 -24.055901
15.913131 -11.139194 -24.065678
15.913883 -11.935414 -24.061136
15.91805 -12.73444 -24.035994
15.923203 -13.534722 -24.004889
15.938683 -14.344814 -23.911461
15.984136 -15.18493 -23.637131
16.856079 -16.856083 -18.374479
16.849396 -17.691868 -18.414816
16.848423 -18.533268 -18.420685
16.876484 -19.407957 -18.251329
17.072224 -20.48667 -17.069931
16.59885 11.065899 -24.697609
16.59885 10.275478 -24.697613
16.59885 9.4850569 -24.697613
16.59885 8.6946354 -24.697615
16.59885 7.904212 -24.697613
16.59885 7.1137915 -24.697615
16.59885 6.3233695 -24.697617
16.59885 5.5329504 -24.697611
16.59885 4.7425289 -24.697611
16.59885 3.952105 -24.697609
16.59885 3.1616869 -24.697615
16.59885 2.3712628 -24.697613
16.59885 1.5808396 -24.697611
16.59885 0.79042071 -24.697617
16.59885 -2.4966098e-06 -24.697615
16.59885 -0.79042345 -24.697609
16.59885 -1.5808417 -24.697615
16.642845 -2.3775494 -24.444733
16.636217 -3.1688042 -24.482817
16.634472 -3.9605913 -24.492847
16.633869 -4.7525358 -24.496313
16.633749 -5.5445867 -24.497007
16.633749 -6.3366704 -24.497005
16.63393 -7.1288261 -24.495966
16.632786 -7.9203768 -24.502542
16.633448 -8.7127571 -24.498737
16.633207 -9.5046911 -24.500122
16.633509 -10.296937 -24.498386
16.635374 -11.090253 -24.487659
16.633688 -11.881206 -24.497353
16.637663 -12.676314 -24.474514
16.643387 -13.473218 -24.441616
16.656113 -14.276669 -24.368462
16.696466 -15.106329 -24.136496
17.618763 -16.779774 -18.83503
17.608839 -17.608843 -18.892057
17.609852 -18.44842 -18.88624
17.633022 -19.312363 -18.753048
17.756247 -20.292856 -18.044744
17.309448 11.015103 -25.135588
17.309448 10.228308 -25.13559
17.309448 9.441515 -25.135588
17.309448 8.6547232 -25.135588
17.309448 7.8679323 -25.13559
17.309448 7.0811362 -25.135592
17.309448 6.2943435 -25.135592
17.309448 5.5075517 -25.13559
17.309448 4.7207584 -25.13559
17.309448 3.9339619 -25.13559
17.309448 3.1471701 -25.13559
17.309448 2.3603806 -25.135593
17.309448 1.5735852 -25.135588
17.309448 0.78679448 -25.13559
17.309448 -4.2007409e-06 -25.135588
17.309448 -0.78679383 -25.13559
17.309448 -1.5735892 -25.135586
17.358555 -2.3670776 -24.866148
17.352612 -3.1550205 -24.898752
