# .PCD v0.7 - Point Cloud Data file format
VERSION 0.7
FIELDS x y z
SIZE 4 4 4
TYPE F F F
COUNT 1 1 1
WIDTH 1522
HEIGHT 1
VIEWPOINT 0 0 0 1 0 0 0
POINTS 1522
DATA ascii
-395.99725 -98.999153 -201.12996
-388.63593 -129.54526 -275.17883
-385.38333 -160.57625 -307.89786
-383.83972 -191.91986 -323.42529
-385.6481 -224.96123 -305.23474
-397.14554 -264.76346 -189.57933
-410.9292 -308.19669 -50.926388
-425.82562 -354.85455 98.920242
-441.3324 -404.55466 254.90622
-459.32513 -459.32504 435.89929
-479.93146 523.56177 1082.0685
-478.52374 478.52377 1066.6204
-477.58893 434.17175 1056.3618
-466.23703 381.46674 931.78949
-457.11029 332.44388 831.6355
-451.26328 287.16769 767.47198
-445.5235 243.01303 704.48529
-441.13138 200.51443 656.28802
-436.67859 158.79248 607.42444
-432.50998 117.95728 561.67914
-356.5513 64.827644 -271.86841
-351.11209 31.919394 -331.55658
-349.91544 5.1817358e-05 -344.6886
-350.53928 -31.867174 -337.84262
-353.59021 -64.289009 -304.36252
-359.15039 -97.950081 -243.34674
-351.86346 -127.95038 -323.31119
-348.85526 -158.57051 -356.32224
-347.40582 -189.49397 -372.22809
-348.48196 -221.76117 -360.41907
-357.91068 -260.29868 -256.95123
-370.31326 -302.98355 -120.84876
-383.48456 -348.62216 23.688959
-397.24081 -397.24069 174.64604
-412.4386 -449.93292 341.42194
-430.02551 473.02835 1006.3126
-420.41656 420.4166 890.32251
-413.9003 372.51035 811.66406
-408.80319 327.04282 750.13586
-404.04315 282.83035 692.67786
-399.58228 239.74942 638.82983
-395.46835 197.73438 589.17041
-391.38773 156.55519 539.91296
-387.96954 116.39106 498.65179
-325.3468 65.069458 -257.27151
-320.89441 32.08955 -311.01663
-319.87317 -3.940173e-06 -323.34375
-320.383 -32.038311 -317.18997
-322.47971 -64.495865 -291.88028
-326.01859 -97.805435 -249.16217
-316.00128 -126.40034 -370.08206
-313.23108 -156.61543 -403.52094
-311.88147 -187.12883 -419.81216
-312.60062 -218.82025 -411.13177
-319.98663 -255.98932 -321.97437
-330.79138 -297.71216 -191.5497
-342.56946 -342.5694 -49.375443
-354.67038 -390.13733 96.695183
-368.18793 -441.82535 259.86682
-386.27994 515.04004 996.34662
-377.17392 460.99048 874.21417
-370.89786 412.10898 790.03802
-366.65509 366.65518 733.13214
-362.7338 322.43002 680.53882
-358.69543 278.98541 626.37543
-355.07288 236.71533 577.78864
-351.07407 195.04126 524.15521
-347.72003 154.54234 479.16983
-344.45905 114.81982 435.43259
-295.17795 65.595291 -225.54031
-290.92374 32.324883 -282.59903
-289.64752 0.00015485779 -299.71591
-289.84445 -32.204937 -297.0744
-291.28653 -64.730255 -277.73318
-293.47479 -97.824875 -248.38332
-281.04956 -124.9108 -415.03424
-278.47467 -154.70799 -449.56967
-277.23297 -184.82182 -466.22336
-277.55112 -215.87305 -461.95633
-283.29901 -251.82129 -384.86386
-292.69775 -292.6976 -258.80533
-303.05225 -336.72461 -119.92793
-313.48032 -383.14264 19.936832
-325.51468 -434.01944 181.34494
-336.89639 -486.62787 333.99985
-335.00635 502.50961 870.30096
-328.9393 452.29178 778.75641
-325.20587 406.5076 722.42273
-321.75244 361.97153 670.31464
-317.82419 317.82419 611.04193
-314.6817 275.34674 563.62531
-310.96942 233.22723 507.61136
-307.81497 192.38445 460.01447
-304.79892 152.3996 414.50583
-302.01584 113.25608 372.51221
-299.35553 74.838936 332.37122
-260.87997 32.610115 -248.18008
-259.30228 0.00016765093 -271.98553
-259.01758 -32.377056 -276.28137
-259.74554 -64.936272 -265.29739
-261.16766 -97.937767 -243.83926
-246.91507 -123.45747 -458.89392
-244.53687 -152.83533 -494.77832
-243.4274 -182.5705 -511.51892
-243.47432 -213.03989 -510.81076
-247.78593 -247.78587 -445.75348
-255.93851 -287.93079 -322.74072
-264.84695 -331.05856 -188.32295
-273.74994 -376.40613 -53.987217
-283.92099 -425.88132 99.482025
-294.11456 -477.9361 253.29105
-288.31778 494.25903 787.30731
-283.7439 445.88342 708.43402
-280.76901 401.09857 657.13342
-277.55347 356.85446 601.68317
-274.72336 313.96967 552.88
-271.3009 271.30106 493.86179
-268.16177 229.85306 439.72964
-265.82907 189.87801 399.50342
-263.44495 150.54019 358.39108
-260.87985 111.80579 314.15695
-258.95312 73.986755 280.93231
-230.35844 32.908501 -212.16551
-205.2072 0.00017632205 -645.88348
-227.86699 -32.552376 -255.12929
-228.09331 -65.169327 -251.22668
-229.03175 -98.156326 -235.04355
-213.56493 -122.03702 -501.75955
-211.42009 -151.01414 -538.74573
-210.44221 -180.379 -555.60895
-210.38962 -210.38942 -556.51562
-213.44205 -243.93359 -503.87854
-220.40869 -283.38242 -383.7431
-227.79164 -325.41663 -256.42834
-235.49071 -370.05679 -123.66281
-244.03452 -418.3447 23.66954
-252.80888 -469.50214 174.9785
-243.10506 486.2103 706.34113
-240.0658 440.12085 645.19611
-237.05339 395.08902 584.59131
-234.85205 352.27835 540.30334
-232.02391 309.36539 483.40588
-229.50839 267.75989 432.79761
-227.26472 227.26494 387.65839
-225.23282 187.69414 346.77994
-223.2238 148.8159 306.36124
-221.4464 110.72322 270.60251
-219.28493 73.095085 227.117
-174.86508 29.144331 -666.54071
-174.28 0.00013039341 -678.31213
-174.61462 -29.102297 -671.5799
-196.41895 -65.472847 -232.9108
-197.04709 -98.523521 -220.27324
-181.00081 -120.66701 -543.09943
-179.10089 -149.25061 -581.32294
-178.2437 -178.24355 -598.56873
-178.10057 -207.78397 -601.44794
-180.11754 -240.15657 -560.86993
-185.94052 -278.91077 -443.72009
-191.98874 -319.98117 -322.03964
-198.4783 -363.87677 -191.47998
-205.50822 -411.01648 -50.048141
-212.81615 -461.10165 96.975777
-199.7827 479.47873 638.62634
-197.10982 433.64166 574.09753
-194.98996 389.97995 522.91949
-192.67783 346.82025 467.09943
-190.88029 305.40857 423.70322
-188.99715 264.59607 378.24014
-187.07503 224.49013 331.83603
-185.38913 185.38928 291.13495
-184.03139 147.22539 258.35583
-182.1489 109.28944 212.90887
-180.52444 72.20977 173.69075
-144.31955 28.864086 -700.37274
-143.38843 0.00010010767 -722.85187
-144.12688 -28.825422 -705.02411
-164.62181 -65.848679 -210.23248
-164.91628 -98.949699 -203.12358
-149.15205 -119.32155 -583.70563
-147.52786 -147.52788 -622.91705
-146.79802 -176.15753 -640.53699
-146.5743 -205.20393 -645.93817
-147.81503 -236.504 -615.98431
-152.53348 -274.56021 -502.07092
-157.38377 -314.76736 -384.97437
-162.65175 -357.83371 -257.79431
-168.34889 -404.03729 -120.25293
-174.07254 -452.58856 17.928141
-157.7921 473.37637 577.24316
-155.51103 427.6554 508.40567
-153.82158 384.55405 457.42191
-152.34508 342.77649 412.86508
-151.03349 302.06711 373.28421
-149.44606 261.5307 325.37921
-148.05055 222.07593 283.26578
-146.90761 183.63457 248.77472
-145.51976 145.51993 206.8924
-144.15378 108.11544 165.67018
-115.63091 57.815632 -695.08337
-114.01184 28.503059 -743.94324
-113.61231 0.00015937982 -755.99994
-114.04314 -28.51074 -742.99841
-132.46687 -66.233284 -187.01323
-132.51088 -99.383118 -185.68498
-118.01173 -118.01153 -623.23608
-116.71407 -145.89252 -662.39618
-116.07989 -174.11984 -681.53412
-115.86293 -202.75987 -688.08142
-116.65613 -233.31226 -664.14453
-120.16117 -270.36261 -558.37067
-123.88892 -309.72229 -445.87573
-127.98601 -351.96136 -322.23541
-132.35872 -397.07599 -190.27701
-136.84346 -444.74115 -54.937962
-119.23907 516.70282 613.25531
-116.95847 467.83398 521.49078
-115.30592 422.78867 454.99722
-114.12117 380.40399 407.32651
-112.91901 338.75702 358.9552
-111.96036 298.5611 320.38205
-110.96475 258.91797 280.32196
-109.9585 219.91716 239.83363
-108.88527 181.47546 196.65036
-107.79802 143.73087 152.90262
-107.00806 107.00825 121.11707
-85.608688 57.072495 -739.92725
-84.705116 28.235041 -776.28418
-84.396965 0.00014191969 -788.68298
-84.614632 -28.204746 -779.92468
-85.762077 -57.174515 -733.75537
-99.849739 -99.849632 -166.91125
-87.547684 -116.73018 -661.90778
-86.571281 -144.28548 -701.19519
-86.064651 -172.12918 -721.58075
-85.881943 -200.39114 -728.93237
-86.33886 -230.23692 -710.5473
-88.763802 -266.29138 -612.97491
-91.500191 -305.00052 -502.87122
-94.407524 -346.1608 -385.88953
-97.565918 -390.26361 -258.80524
-100.86996 -437.10312 -125.86076
-104.38502 -487.13 15.574005
-78.421722 509.74146 548.61511
-76.899078 461.39465 456.71552
-76.050621 418.27863 405.50647
-75.144234 375.72128 350.80103
-74.475937 335.14178 310.46564
-73.766243 295.065 267.63196
-73.108719 255.88057 227.94708
-72.482224 217.44685 190.13448
-71.755798 179.38954 146.29091
-71.176567 142.35335 111.33105
-70.724228 106.08652 84.029915
-56.536633 56.536755 -772.26709
-56.006847 28.003519 -804.24243
-55.740532 6.0475486e-06 -820.31586
-55.815456 -27.90765 -815.79401
-56.440632 -56.440536 -778.06122
-66.894653 -100.34198 -147.1051
-57.738155 -115.47614 -699.7489
-57.079979 -142.69989 -739.47327
-56.735138 -170.20528 -760.28632
-56.594898 -198.08203 -768.75049
-56.839603 -227.35837 -753.98126
-58.29509 -262.32776 -666.13495
-60.07439 -300.37183 -558.74438
-61.936615 -340.65121 -446.34946
-63.967075 -383.80237 -323.80011
-66.153076 -429.99496 -191.86337
-68.414009 -478.89795 -55.404228
-38.56694 501.37039 470.88681
-37.962646 455.55206 397.94189
-37.551453 413.06613 348.30667
-37.144886 371.44907 299.22943
-36.774132 330.96725 254.47545
-36.4487 291.58981 215.19281
-36.168987 253.18307 181.42805
-35.870087 215.22066 145.34787
-35.576923 177.8848 109.95982
-35.307747 141.23117 77.467285
-35.106899 105.3208 53.222527
-27.999699 55.99963 -804.6922
-27.713722 27.713718 -839.21252
-27.602186 9.0627356e-05 -852.67609
-27.61808 -27.61799 -850.75775
-27.87488 -55.749527 -819.75922
-28.745342 -86.235992 -714.685
-28.562365 -114.24942 -736.77252
-28.232512 -141.16249 -776.58911
-28.059412 -168.35632 -797.48431
-27.976545 -195.83577 -807.48682
-28.070324 -224.56255 -796.16681
-28.713324 -258.41977 -718.54999
-29.57258 -295.72571 -614.82843
-30.493437 -335.42761 -503.67133
-31.46839 -377.62051 -385.9841
-32.518902 -422.74567 -259.17593
-33.623024 -470.72226 -125.89691
9.1547538e-22 493.96716 402.14642
6.6488206e-22 450.27835 344.89514
7.4723752e-22 408.34174 296.46213
1.3752932e-21 367.13559 247.16396
6.9693693e-22 327.34412 205.88092
5.3793713e-23 288.85718 173.96049
5.6227027e-22 250.83319 140.90527
4.3451009e-22 213.4687 110.10076
8.2837377e-22 176.60635 79.09613
1.2330694e-21 140.53705 56.523258
3.3255276e-22 85.870369 -729.40216
8.0925194e-22 55.443394 -838.25818
8.4083798e-22 27.402845 -876.75885
3.0509343e-22 0.00026172312 -887.96362
1.3071491e-21 -27.33112 -885.39551
4.4633442e-22 -55.114502 -858.0918
7.401864e-22 -84.817513 -771.75781
4.5719379e-22 -113.07025 -772.35608
1.3079866e-21 -139.66563 -812.72711
1.4611165e-21 -166.5479 -833.87024
6.3751179e-22 -193.69209 -844.45258
8.7655659e-22 -221.87447 -836.72729
1.5811085e-21 -254.63231 -769.34967
1.1503477e-21 -291.23572 -669.02832
1.3266509e-21 -330.36066 -559.27594
1.2747409e-22 -371.65756 -445.96747
1.5537852e-21 -416.25156 -319.47748
3.3373976e-22 -462.93195 -193.06541
37.537319 487.98514 346.60025
37.068035 444.81647 289.95282
36.635647 402.99228 237.75906
36.302914 363.02933 197.59456
36.065197 324.58691 168.89955
35.824306 286.59451 139.82169
35.59079 249.13567 111.6337
35.396633 212.38 88.196869
35.241581 176.20815 69.48024
35.137333 140.54935 56.896873
28.423958 85.271973 -753.47955
27.445549 54.891178 -871.58398
27.128513 27.128666 -909.85364
26.994295 0.00020686396 -926.05524
27.022303 -27.022234 -922.67426
27.297264 -54.594345 -889.48334
27.905466 -83.716232 -816.06702
27.979128 -111.91652 -807.17523
27.645784 -138.22884 -847.41327
27.463053 -164.77817 -869.47089
27.371008 -191.59688 -880.58185
27.404263 -219.23404 -876.5675
27.885239 -250.96713 -818.50867
28.699732 -286.99719 -720.19067
29.585972 -325.44556 -613.21198
30.488777 -365.86536 -504.23386
31.504496 -409.55838 -381.62589
32.499519 -454.99323 -261.51572
74.207932 482.35175 294.29019
73.08828 438.52969 226.71301
72.511696 398.81439 191.91335
72.042282 360.21152 163.58185
71.661148 322.47522 140.57817
71.26358 285.05441 116.58241
70.964958 248.37755 98.559265
70.751297 212.25406 85.663879
68.605064 171.51289 -43.872715
67.819839 135.63979 -91.265228
56.740658 85.11113 -759.953
54.33424 54.334309 -905.19312
53.658512 26.829277 -945.97693
53.401031 7.5608696e-05 -961.51752
53.483749 -26.741861 -956.52472
53.951691 -53.951744 -928.28198
55.160976 -82.741364 -855.29529
55.393005 -110.78591 -841.29102
54.732925 -136.83223 -881.13055
54.348465 -163.04529 -904.33472
54.156219 -189.54671 -915.93768
54.171318 -216.68518 -915.02661
54.987877 -247.44533 -865.7428
56.588348 -282.94159 -769.14581
58.305851 -320.68204 -665.48529
60.01968 -360.11792 -562.04657
61.980682 -402.87442 -443.68945
64.007591 -448.05298 -321.35468
109.69166 475.33063 229.09656
108.80814 435.23273 193.54694
108.14053 396.51541 166.68404
107.59193 358.63992 144.61026
107.12857 321.38586 125.966
106.78791 284.76797 112.2592
103.40653 241.28192 -23.797007
102.31852 204.63712 -67.575684
101.38092 168.96834 -105.30133
100.38982 133.85312 -145.17976
99.48275 99.482826 -181.67805
80.606194 53.737583 -941.2121
79.774117 26.591532 -974.69226
79.357285 8.6184053e-05 -991.46423
79.3825 -26.460749 -990.44965
80.004021 -53.335926 -965.44165
81.67968 -81.679626 -898.01843
82.272888 -109.69707 -874.14941
81.261909 -135.4364 -914.82806
80.675125 -161.35027 -938.43842
80.374237 -187.53979 -950.5451
80.327385 -214.20615 -952.43054
81.336044 -244.00804 -911.84509
83.700066 -279.00015 -816.72418
86.17099 -315.96011 -717.30212
88.645798 -354.58316 -617.72351
91.507935 -396.5343 -502.56021
94.42556 -440.6524 -385.16382
97.573456 -487.86716 -258.50204
147.51022 516.28601 266.96042
145.19426 471.88162 197.06981
144.31779 432.95352 170.61995
143.69595 395.164 151.85413
143.2505 358.12637 138.41173
139.41621 313.68671 22.701849
137.39607 274.79227 -38.26141
136.06647 238.11644 -78.38607
134.83006 202.24525 -115.69771
133.46005 166.82523 -157.04138
132.19711 132.1973 -195.15419
131.11813 98.338676 -227.71503
106.73625 53.368187 -963.50342
105.04087 26.260342 -1014.6658
104.62902 9.3633782e-05 -1027.0946
104.62722 -26.156723 -1027.1493
105.50186 -52.750717 -1000.7546
107.63978 -80.729698 -936.23712
108.60892 -108.60883 -906.99091
107.25475 -134.06836 -947.8562
106.46822 -159.70229 -971.59186
106.03696 -185.56465 -984.60626
105.93987 -211.8797 -987.53613
106.95542 -240.64955 -956.88922
110.03165 -275.0791 -864.05615
113.22108 -311.35782 -767.8064
116.46207 -349.38611 -670.00092
120.12641 -390.41068 -559.4198
123.98317 -433.94095 -443.03177
127.87209 -479.52017 -325.67303
182.35226 510.58627 217.81831
180.77591 470.01743 179.76201
180.12968 432.3114 164.16046
175.93138 387.0491 62.80455
173.53842 347.07709 5.033031
171.30721 308.35312 -48.833424
169.53593 271.2576 -91.595055
167.86934 235.01729 -131.83031
166.32274 199.58733 -169.16843
132.29677 132.2968 -990.62811
132.05563 105.64459 -996.44965
162.03136 97.218956 -272.77182
131.92186 52.768757 -999.67938
130.29474 26.058994 -1038.9613
129.53046 0.00014562687 -1057.4128
129.36154 -25.872284 -1061.491
130.55602 -52.222248 -1032.6536
132.91396 -79.74836 -975.72803
134.41609 -107.53275 -939.4632
132.73982 -132.73978 -979.93213
131.75627 -158.10739 -1003.6771
131.17245 -183.64136 -1017.7715
130.98836 -209.58124 -1022.2159
131.90257 -237.42455 -1000.145
135.63188 -271.26373 -910.11127
139.49342 -306.88556 -816.88538
143.48669 -344.36792 -720.47931
147.87617 -384.478 -614.50806
152.48499 -426.95792 -503.24161
157.31255 -471.93762 -386.69373
217.7184 508.0098 195.60126
213.48459 462.55008 110.42341
210.32474 420.64972 46.852016
207.8159 380.99594 -3.6213458
204.91922 341.53207 -61.898315
202.76999 304.15506 -105.13766
200.66714 267.55624 -147.44368
198.8063 231.94086 -184.88077
158.26436 158.26443 -1000.5219
157.63451 131.3622 -1013.1934
157.82272 105.21519 -1009.407
192.40791 96.204033 -313.60617
157.04814 52.349529 -1024.99
154.72676 25.787851 -1071.6927
153.73701 -4.0386865e-05 -1091.605
153.47548 -25.579157 -1096.8665
154.75993 -51.58654 -1071.0254
157.70667 -78.853203 -1011.7416
159.77864 -106.51912 -970.05652
157.72691 -131.43896 -1011.3344
156.54372 -156.54369 -1035.1384
155.79817 -181.76445 -1050.1378
155.48172 -207.30873 -1056.504
156.36929 -234.55388 -1038.6475
160.54472 -267.57449 -954.64423
165.0211 -302.53864 -864.58649
169.73653 -339.4729 -769.71948
174.79654 -378.7258 -667.92023
180.22459 -420.52408 -558.71552
185.8744 -464.68604 -445.05042
247.96638 495.93274 91.472221
244.40889 453.90228 30.125807
241.9234 414.72589 -12.735177
238.45453 374.71442 -72.553711
235.77853 336.82663 -118.69955
233.43895 300.13586 -159.04393
231.07689 264.08795 -199.7766
185.05202 185.05212 -993.44678
183.83682 157.57448 -1014.4024
183.11911 130.79945 -1026.7787
183.63954 104.937 -1017.8043
185.46866 79.486687 -986.26215
181.70973 51.917244 -1051.0825
178.42722 25.489742 -1107.6877
177.10306 0.00013737324 -1130.522
176.90994 -25.272705 -1133.8523
178.96474 -51.132664 -1098.4185
182.27538 -78.117889 -1041.3282
184.78194 -105.58952 -998.10406
182.23218 -130.1657 -1042.0734
180.84624 -155.01096 -1065.973
179.92558 -179.9254 -1081.8494
179.51886 -205.16428 -1088.8628
180.3035 -231.81871 -1075.3322
184.78323 -263.97601 -998.08173
189.84048 -298.32065 -910.87299
195.18015 -334.59448 -818.7934
200.90573 -373.11053 -720.05957
207.13577 -414.27158 -612.62616
213.32959 -457.13467 -505.8176
278.79141 487.88507 22.082893
275.14758 447.1149 -32.898426
271.65738 407.48618 -85.561188
268.66473 369.41406 -130.71675
266.08719 332.60916 -169.60916
263.31598 296.23062 -211.42374
212.69067 212.69081 -975.30035
210.45511 184.14841 -1009.0322
209.51476 157.13625 -1023.2213
208.93065 130.58176 -1032.0347
209.59009 104.79506 -1022.0846
211.71548 79.393387 -990.01477
206.4808 51.620323 -1069
202.69107 25.336441 -1126.1827
202.33189 3.9705337e-05 -1131.6023
202.42848 -25.303446 -1130.1445
204.13789 -51.034386 -1104.3517
207.55238 -77.832123 -1052.8311
209.33319 -104.66649 -1025.9608
206.26866 -128.91788 -1072.201
204.6768 -153.50754 -1096.2201
203.57037 -178.12401 -1112.9152
203.0699 -203.06969 -1120.4667
203.74617 -229.21443 -1110.2622
208.36986 -260.46219 -1040.4965
214.02791 -294.28827 -955.12317
219.90283 -329.85428 -866.47693
226.25117 -367.65808 -770.68793
233.15256 -408.01697 -666.55426
240.18715 -450.35074 -560.41071
309.42166 481.32269 -34.49934
305.31223 441.00665 -89.616432
301.76642 402.35532 -137.17365
298.94531 365.37769 -175.01134
295.52582 328.36218 -220.87439
292.85736 292.8576 -256.66467
237.4048 211.02666 -1000.411
235.7261 183.34261 -1022.9261
235.05023 156.7002 -1031.9911
234.86165 130.47878 -1034.5204
235.98055 104.8803 -1019.5133
238.02864 79.342995 -992.0437
233.17395 51.816494 -1057.1562
229.8432 25.5382 -1101.8296
229.21445 8.230126e-05 -1110.2623
229.41566 -25.490501 -1107.5634
230.74828 -51.277313 -1089.6902
233.71486 -77.904907 -1049.9014
233.58441 -103.81525 -1051.6512
229.85326 -127.69615 -1101.6945
228.061 -152.04059 -1125.7328
226.79611 -176.3969 -1142.6976
226.12169 -200.99699 -1151.7434
226.66197 -226.6618 -1144.4971
231.28583 -256.98413 -1082.4805
237.57431 -290.3685 -998.13745
243.95053 -325.26733 -912.61755
250.86745 -362.36395 -819.8457
258.42285 -401.99088 -718.51068
266.21347 -443.68903 -614.02032
274.45972 -487.92838 -503.41943
339.81384 475.73947 -82.639076
335.83243 436.58228 -130.69882
331.98248 398.37909 -177.17174
328.44882 361.29382 -219.8266
324.81271 324.81287 -263.71829
263.87036 237.48334 -999.35779
261.09674 208.87743 -1032.8384
259.82562 181.87798 -1048.182
259.31619 155.58974 -1054.3312
260.25391 130.12703 -1043.0122
262.1861 104.8746 -1019.6886
265.09705 79.529121 -984.55042
260.96368 52.192738 -1034.4445
257.62808 25.762842 -1074.7086
256.54407 8.2342289e-05 -1087.7939
256.62225 -25.66227 -1086.8501
257.83319 -51.566509 -1072.2329
260.30664 -78.091904 -1042.3755
257.46356 -102.98528 -1076.6948
253.039 -126.51943 -1130.1039
251.02246 -150.6134 -1154.4458
249.61525 -174.73064 -1171.4321
248.75334 -199.00252 -1181.8363
249.1041 -224.19354 -1177.6023
253.68443 -253.68433 -1122.3129
260.48468 -286.53311 -1040.2262
267.34235 -320.81061 -957.4472
274.754 -357.18011 -867.98059
283.03473 -396.2485 -768.02344
291.53598 -437.30383 -665.40411
300.03662 -480.05847 -562.79236
376.67148 513.64307 -51.075764
369.56302 470.35306 -129.08156
364.68073 430.98639 -182.65866
361.01053 393.82971 -222.93414
357.21133 357.21155 -264.62558
290.68958 264.26328 -994.6153
287.61865 235.32445 -1028.3147
285.33862 207.51909 -1053.3348
284.03104 180.74712 -1067.6837
283.99719 154.90767 -1068.0553
285.44119 129.74606 -1052.209
288.29498 104.83466 -1020.8925
292.14322 79.675468 -978.66302
290.40704 52.801403 -997.71564
285.9425 25.994997 -1046.7081
284.34686 0.00018768891 -1064.218
284.2829 -25.843742 -1064.9202
285.19806 -51.854008 -1054.8774
287.36975 -78.373535 -1031.0457
289.98682 -105.44964 -1002.3274
275.815 -125.37035 -1157.8442
273.55682 -149.21277 -1182.6246
272.0162 -173.10114 -1199.5312
270.97992 -197.07617 -1210.903
271.11035 -221.81749 -1209.4718
275.57523 -250.52272 -1160.4756
282.79105 -282.79102 -1081.2914
290.10284 -316.47589 -1001.0536
298.02853 -352.21542 -914.0799
306.86295 -390.55286 -817.1333
315.77716 -430.60522 -719.3114
325.03458 -472.77734 -617.72351
404.04453 505.05573 -120.18079
398.13306 464.48874 -179.6454
393.48035 426.27054 -226.4482
389.10986 389.11005 -270.41183
385.77402 353.62634 -303.96744
313.65323 261.37787 -1029.4468
310.80405 233.10318 -1058.1075
309.22205 206.14812 -1074.0212
308.29852 179.84085 -1083.3114
309.36929 154.68468 -1072.5399
311.19543 129.66486 -1054.1705
315.32037 105.10683 -1012.6766
319.09534 79.773857 -974.70349
321.57199 53.595444 -949.79047
315.21548 26.268017 -1013.7321
312.81281 0.00011815501 -1037.901
312.25537 -26.021257 -1043.5083
312.8042 -52.133949 -1037.9874
314.59283 -78.648079 -1019.9951
316.91144 -105.63708 -996.67169
298.1908 -124.24613 -1184.9871
295.67596 -147.83791 -1210.2843
294.01651 -171.50957 -1226.9772
292.8284 -195.21887 -1238.9287
292.71811 -219.53842 -1240.0381
296.93872 -247.44879 -1197.582
304.49469 -279.12 -1121.5747
312.33902 -312.33902 -1042.6667
320.66827 -347.39062 -958.88074
329.90692 -384.89127 -865.94751
339.54022 -424.42511 -769.04382
349.52454 -466.03262 -668.60962
432.09589 498.5723 -172.35597
426.03998 458.81244 -228.58772
421.62408 421.62418 -269.59109
416.98441 384.90891 -312.67245
340.15704 287.82535 -1026.0482
336.29523 258.6886 -1061.9066
333.95837 231.202 -1083.6056
332.3956 204.55116 -1098.1165
332.74472 179.17027 -1094.8746
335.10675 154.66469 -1072.9421
338.70694 130.27202 -1039.5128
343.29086 105.62803 -996.94946
346.73654 80.016235 -964.95447
350.95206 53.992756 -925.81152
345.68661 26.59136 -974.70343
342.08337 0.00014869077 -1008.1611
340.75824 -26.21204 -1020.4658
340.93509 -52.4515 -1018.8234
342.20099 -78.969398 -1007.0689
344.31543 -105.94322 -987.43573
320.15219 -123.13541 -1211.8016
317.47815 -146.52831 -1236.6316
315.65637 -169.96867 -1253.5475
314.31198 -193.42276 -1266.0308
313.94141 -217.34393 -1269.4718
317.60196 -244.30908 -1235.4818
325.5614 -275.47495 -1161.5748
333.96515 -308.27545 -1083.5424
342.69501 -342.69498 -1002.4822
352.25961 -379.35638 -913.67053
362.79245 -418.60651 -815.86859
373.31424 -459.4635 -718.16919
459.17764 491.9762 -225.43755
453.09686 453.09698 -277.86676
447.95291 415.95633 -322.2189
367.14056 314.69214 -1018.9987
361.51132 284.04465 -1067.535
358.72574 256.23279 -1091.5527
357.33032 229.71245 -1103.584
357.13187 204.07542 -1105.2952
358.12155 179.06096 -1096.7622
361.52731 154.9404 -1067.3971
367.48514 131.24483 -1016.0274
371.30209 106.08642 -983.11694
374.39154 80.226868 -956.47919
378.36349 54.051876 -922.23206
376.78738 26.913389 -935.82159
372.27527 9.6075164e-05 -974.72589
369.96857 -26.426203 -994.6153
369.63342 -52.804737 -997.50458
370.39606 -79.370468 -990.9292
372.16821 -106.3337 -975.64923
341.81583 -122.077 -1237.3534
338.90823 -145.24631 -1262.4231
337.02753 -168.51372 -1278.6389
334.73718 -191.27835 -1298.3867
333.15533 -214.1712 -1312.0258
337.1539 -240.82416 -1277.5493
346.22391 -272.03296 -1199.3462
355.0726 -304.34796 -1123.0507
364.32294 -338.29987 -1043.2925
374.05231 -374.05222 -959.40387
385.17645 -412.689 -863.48969
396.14505 -452.73712 -768.91614
407.21674 -494.47733 -673.45398
486.4581 486.45828 -269.84238
479.88876 447.89627 -322.70819
474.32626 411.08286 -367.47174
386.79584 309.43686 -1071.8623
383.97903 281.58475 -1094.5302
381.98044 254.65375 -1110.6136
381.25024 228.75024 -1116.4899
382.27588 203.88058 -1108.236
384.93335 179.63567 -1086.8502
389.85205 155.94089 -1047.2677
395.63058 131.87697 -1000.7657
399.36243 106.49673 -970.73407
402.36191 80.472466 -946.59595
406.48972 54.198776 -913.37823
413.35681 27.557232 -858.11597
403.14673 0.00012560954 -940.2804
400.16232 -26.677465 -964.29706
398.96994 -53.195862 -973.8924
399.20395 -79.840668 -972.00952
400.591 -106.82413 -960.84735
362.29779 -120.7659 -1269.0073
359.32037 -143.728 -1292.9677
357.13605 -166.66339 -1310.5459
355.18552 -189.43219 -1326.2424
353.84116 -212.30464 -1337.061
357.05417 -238.03603 -1311.2047
365.67166 -268.15909 -1241.8567
375.71606 -300.57272 -1161.0254
385.45413 -334.06021 -1082.6593
395.42416 -369.06241 -1002.4269
406.96265 -406.96255 -909.57208
418.22778 -446.10956 -818.91724
430.3493 -487.72916 -721.37085
512.38318 480.35919 -318.92218
505.46713 442.284 -371.09973
411.87732 334.65048 -1077.1804
408.1535 306.1152 -1105.2745
406.25681 279.3017 -1119.5837
405.4025 253.37669 -1126.0292
406.00107 228.37573 -1121.5132
407.99554 203.99783 -1106.4661
412.40121 180.42558 -1073.2279
418.15527 156.80827 -1029.8168
423.10742 132.22116 -992.45587
427.05325 106.7634 -962.68671
430.73654 80.763252 -934.8985
436.26596 54.533333 -893.18213
444.36368 27.772821 -832.08978
435.21997 0.00011715686 -901.07349
430.53772 -26.908451 -936.39838
392.01694 -49.002033 -1227.0154
387.5936 -72.673706 -1260.3868
384.52573 -96.131416 -1283.5321
382.20709 -119.43963 -1301.0248
379.98413 -142.49402 -1317.7958
378.00946 -165.37907 -1332.6936
376.16254 -188.08118 -1346.6276
374.44339 -210.62437 -1359.5977
376.29327 -235.1833 -1345.6412
385.28201 -264.88138 -1277.8263
395.08752 -296.31558 -1203.8495
406.00925 -329.88242 -1121.4517
416.48065 -364.42044 -1042.451
428.06033 -401.30643 -955.08905
439.96689 -439.96671 -865.26117
452.82004 -481.12122 -768.29126
550.89716 518.49164 -272.83871
536.89551 473.73148 -372.2598
436.10278 359.14355 -1087.9513
432.09082 330.42245 -1116.4382
429.86917 303.43716 -1132.2135
429.51379 277.92075 -1134.7371
430.36026 253.15318 -1128.7264
431.89243 228.64899 -1117.8474
435.28357 204.83943 -1093.7682
440.85715 181.52946 -1054.192
445.85056 157.35907 -1018.7358
450.3735 132.46292 -986.61993
454.10553 106.84849 -960.12012
460.27029 81.224297 -916.34662
468.63126 55.133251 -856.97852
476.0072 28.000412 -804.60461
417.5723 9.7765027e-05 -1219.5291
413.45303 -24.320692 -1248.7788
410.30734 -48.271385 -1271.115
407.69754 -71.946495 -1289.6462
405.35526 -95.377594 -1306.2777
403.23529 -118.59849 -1321.3311
401.15732 -141.58496 -1336.0857
399.28497 -164.41136 -1349.3806
397.49255 -187.05533 -1362.1078
396.10065 -209.7002 -1371.9916
395.46112 -232.62413 -1376.5325
404.12952 -261.49551 -1314.9812
414.48117 -292.57495 -1241.4779
424.9772 -324.98248 -1166.9496
437.01401 -359.89374 -1081.4808
448.39069 -395.63867 -1000.6993
461.03616 -433.91635 -910.90808
473.99503 -473.99496 -818.89264
571.77527 508.24475 -350.14465
462.16733 385.13953 -1085.192
457.10016 355.52237 -1119.173
454.34006 328.13458 -1137.6829
453.83066 302.5538 -1141.0988
454.80811 277.93835 -1134.5439
456.55554 253.64217 -1122.8253
460.02277 230.01146 -1099.5736
464.29086 206.35164 -1070.9512
469.64404 182.63943 -1035.0518
474.08521 158.02844 -1005.269
477.77966 132.71655 -980.49323
482.37503 107.1945 -949.67603
489.27829 81.546432 -903.3819
443.40295 49.267086 -1211.0288
439.34299 24.408072 -1238.2552
436.30359 3.600249e-05 -1258.6379
433.50839 -24.083708 -1277.3831
431.05911 -47.895386 -1293.8083
428.95538 -71.492561 -1307.9159
426.80408 -94.845207 -1322.3434
424.82623 -118.00715 -1335.6068
423.13821 -141.04597 -1346.9269
421.71237 -163.99921 -1356.4886
420.64087 -186.95139 -1363.6744
420.04767 -210.02374 -1367.6526
419.9313 -233.29504 -1368.433
423.60861 -258.87186 -1343.7723
433.10922 -288.73944 -1280.0598
443.97586 -320.64914 -1207.1868
456.03204 -354.69141 -1126.3361
468.6196 -390.51614 -1041.9222
481.6886 -428.16751 -954.27936
494.78857 -467.30032 -866.42877
595.75714 501.69025 -399.59418
482.82791 381.17999 -1117.0557
479.28107 353.1546 -1139.5894
478.28287 327.24625 -1145.931
478.85229 302.4332 -1142.3135
480.22412 278.0246 -1133.5979
483.80127 254.63235 -1110.8717
488.61472 231.44914 -1080.2911
493.94641 207.97755 -1046.4174
498.91995 183.81271 -1014.8197
502.50491 158.68593 -992.04376
475.58636 125.15437 -1163.0626
469.68066 98.880226 -1200.5828
465.61041 73.517487 -1226.4415
462.45816 48.679836 -1246.4686
459.65765 24.192549 -1264.2606
457.16217 2.8757371e-05 -1280.115
454.93924 -23.944069 -1294.2377
452.76065 -47.658897 -1308.0787
450.73254 -71.168182 -1320.9636
449.09903 -94.547096 -1331.3417
447.73471 -117.82475 -1340.0095
446.69022 -141.05997 -1346.6453
446.1615 -164.37518 -1350.0043
446.06342 -187.81609 -1350.6278
446.07584 -211.29895 -1350.5487
446.1781 -234.83044 -1349.8989
446.22375 -258.34 -1349.609
451.84567 -285.3761 -1313.8917
462.73456 -316.60785 -1244.7124
474.79758 -349.85071 -1168.074
487.25891 -384.67789 -1088.9048
501.56497 -422.37039 -998.01538
515.24628 -461.00977 -911.09552
619.92853 495.94293 -442.95523
504.56519 378.42398 -1139.2347
502.811 351.9678 -1149.8219
502.34109 326.52173 -1152.6581
504.79706 302.87836 -1137.835
508.25183 279.53854 -1116.9836
512.83813 256.41922 -1089.3027
518.4834 233.31763 -1055.2306
523.59332 209.43745 -1024.3896
502.29282 175.8026 -1152.9496
496.46378 148.93918 -1188.1309
492.45544 123.11391 -1212.3232
489.04721 97.809517 -1232.8938
486.22336 72.933586 -1249.9371
483.6618 48.366299 -1265.3976
481.29974 24.065094 -1279.6539
479.06808 2.0629901e-05 -1293.123
477.07617 -23.853699 -1305.1454
475.4137 -47.541283 -1315.1793
474.14069 -71.121048 -1322.8625
473.1431 -94.628532 -1328.8835
472.76532 -118.19122 -1331.1636
472.76828 -141.83038 -1331.1459
472.71222 -165.44923 -1331.484
472.74023 -189.09599 -1331.3151
472.82578 -212.77153 -1330.7988
472.88922 -236.44458 -1330.4158
472.85086 -260.06796 -1330.6473
473.02792 -283.81671 -1329.5786
481.62701 -313.05743 -1277.6786
493.10748 -345.17514 -1208.3878
506.25378 -379.69025 -1129.0428
519.85266 -415.88214 -1046.9663
534.78656 -454.56857 -956.83215
549.6933 -494.72397 -866.862
530.62714 404.28745 -1134.4423
527.39697 376.71222 -1153.0098
527.12097 351.41406 -1154.5963
528.34064 327.06812 -1147.5852
533.15314 304.65906 -1119.9226
539.10022 282.38593 -1085.7379
544.68707 259.37488 -1053.6241
529.1012 226.75774 -1143.2135
523.58844 199.46236 -1174.9016
519.5274 173.17598 -1198.245
515.95673 147.41626 -1218.7697
513.05096 122.15503 -1235.4724
510.56403 97.250336 -1249.7677
508.03619 72.57666 -1264.2981
505.72443 48.164318 -1277.5863
503.70126 23.985849 -1289.2156
502.12955 -3.1471667e-05 -1298.25
500.90317 -23.852531 -1305.2994
500.01401 -47.620216 -1310.4104
499.80048 -71.399933 -1311.6379
499.7785 -95.195854 -1311.7643
499.75339 -118.98889 -1311.9086
499.82245 -142.80634 -1311.5116
499.85699 -166.61888 -1311.3131
499.84442 -190.41678 -1311.3854
499.90094 -214.24318 -1311.0604
499.90567 -238.05025 -1311.0333
499.90567 -261.85532 -1311.0333
499.91351 -285.66479 -1310.9882
501.00726 -310.14728 -1304.7012
511.86786 -341.24521 -1242.2729
524.80219 -374.85867 -1167.9247
537.99945 -409.90427 -1092.0651
552.90527 -447.58984 -1006.3846
568.81915 -487.55927 -914.90961
668.51813 486.19516 -516.49689
550.32629 375.2226 -1164.9973
550.82452 350.52469 -1162.264
556.09534 328.60193 -1133.3435
569.05286 310.39258 -1062.2477
556.6709 278.33563 -1130.1855
551.12677 250.51215 -1160.6055
546.82477 223.70113 -1184.2097
543.27545 197.55487 -1203.6844
540.25287 171.89874 -1220.2688
537.74548 146.65794 -1234.0265
535.16504 121.62844 -1248.1851
532.73517 96.860985 -1261.5173
530.7865 72.380127 -1272.2094
529.21796 48.110798 -1280.8158
528.03467 24.001606 -1287.3082
527.33655 -9.6111726e-06 -1291.1387
527.26154 -23.966356 -1291.5504
527.16315 -47.923874 -1292.09
527.12317 -71.88031 -1292.3097
527.18152 -95.85112 -1291.9894
527.2265 -119.82419 -1291.7426
527.23822 -143.79216 -1291.6786
527.25153 -167.7618 -1291.6053
527.24323 -191.72469 -1291.6511
527.23651 -215.68756 -1291.6876
527.22986 -239.64989 -1291.7241
527.32654 -263.66324 -1291.1936
527.41663 -287.6817 -1290.6993
527.49176 -311.69958 -1290.2874
530.15692 -337.37253 -1275.6637
543.08606 -370.28583 -1204.7233
556.79736 -404.94339 -1129.4919
571.71631 -441.78079 -1047.6334
588.06812 -481.14661 -957.9137
690.3493 480.24313 -561.40112
684.13367 446.17432 -594.02271
591.47089 360.02588 -1080.3436
584.62488 330.44031 -1116.2737
579.06439 302.12064 -1145.4565
574.64697 274.83118 -1168.6407
571.12042 248.31329 -1187.1493
568.03455 222.27452 -1203.3445
565.26776 196.61493 -1217.8655
562.57129 171.21745 -1232.0172
560.14697 146.12535 -1244.7407
558.26324 121.36169 -1254.6272
556.7547 96.827019 -1262.5443
555.6189 72.472145 -1268.5054
555.19067 48.277561 -1270.7531
555.13934 24.13665 -1271.0222
555.02271 -1.8096103e-05 -1271.6345
555.01385 -24.130867 -1271.6809
554.98029 -48.259171 -1271.8571
555.02448 -72.394508 -1271.6251
555.11108 -96.540916 -1271.1708
555.13403 -120.68127 -1271.05
555.11993 -144.81389 -1271.1243
555.15173 -168.95915 -1270.9573
555.13757 -193.0912 -1271.0315
555.03503 -217.18759 -1271.5695
555.08453 -241.34103 -1271.3098
555.17828 -265.51993 -1270.8181
555.22601 -289.68304 -1270.5675
555.24896 -313.8363 -1270.4468
555.36047 -338.04544 -1269.8618
560.73621 -365.69745 -1241.6483
574.68671 -399.78192 -1168.432
589.89362 -436.00827 -1088.6219
606.13361 -474.36545 -1003.3894
730.14154 517.18378 -512.22668
620.33813 413.55893 -1064.4948
613.03497 383.14694 -1101.2268
607.47412 354.36005 -1129.196
603.12512 326.69296 -1151.0697
599.43597 299.71811 -1169.6248
596.05524 273.19202 -1186.6285
593.12024 247.13348 -1201.3903
590.39215 221.39708 -1215.1115
587.96265 195.98752 -1227.3309
586.11536 170.95041 -1236.6222
584.62518 146.15637 -1244.1171
583.56915 121.5769 -1249.4287
583.33331 97.222351 -1250.6147
583.27905 72.909943 -1250.8877
583.26971 48.605934 -1250.9347
583.20618 24.30032 -1251.2544
583.17059 2.2548411e-05 -1251.4331
583.20428 -24.300079 -1251.2638
583.28284 -48.606785 -1250.8688
583.33142 -72.91642 -1250.6241
583.36511 -97.227493 -1250.4547
583.38574 -121.53869 -1250.3512
583.33331 -145.83324 -1250.6147
583.28094 -170.12358 -1250.8782
583.23419 -194.41142 -1251.1133
583.23047 -218.7113 -1251.1321
583.29028 -243.03749 -1250.8312
583.34833 -267.36786 -1250.5396
583.30341 -291.65161 -1250.7653
583.20428 -315.90228 -1251.2638
583.35016 -340.28754 -1250.53
583.51111 -364.6944 -1249.7205
592.17017 -394.78009 -1206.1687
607.28143 -430.15756 -1130.165
624.13147 -468.09845 -1045.4161
649.17682 467.40735 -1050.0519
641.97516 436.54327 -1084.8245
636.45233 407.32953 -1111.4912
631.96869 379.18134 -1133.14
628.00964 351.68549 -1152.2561
624.42065 324.69885 -1169.5851
621.3938 298.2691 -1184.2
618.586 272.17789 -1197.7574
616.21594 246.48647 -1209.2009
614.3418 221.16304 -1218.2502
612.88708 196.12399 -1225.2743
611.92303 171.33855 -1229.9288
611.88159 146.85165 -1230.1293
611.94086 122.38823 -1229.843
611.91119 97.905869 -1229.9861
611.8302 73.419678 -1230.3773
611.81439 48.945324 -1230.4536
611.83215 24.473455 -1230.3678
611.84991 9.968676e-05 -1230.282
611.86572 -24.474598 -1230.2056
611.90332 -48.95224 -1230.0244
611.94678 -73.433617 -1229.8143
611.99225 -97.918747 -1229.5947
611.98035 -122.39588 -1229.6521
611.95074 -146.86818 -1229.7953
611.90924 -171.33453 -1229.9956
611.88354 -195.80264 -1230.1198
611.86969 -220.27304 -1230.1864
611.90527 -244.76201 -1230.0148
611.91119 -269.24081 -1229.9861
611.8302 -293.67838 -1230.3773
611.79657 -318.13412 -1230.5394
612.06342 -342.75543 -1229.2512
612.04559 -367.22726 -1229.337
612.31464 -391.88129 -1228.0381
624.38977 -424.58499 -1169.734
641.18005 -461.64957 -1088.6638
678.22064 521.70837 -1035.7673
671.62299 490.80148 -1066.3982
665.85602 460.97733 -1093.1729
661.05548 432.22867 -1115.4604
656.92755 404.26318 -1134.6252
653.19275 376.84207 -1151.9646
650.02307 350.01239 -1166.6808
647.14105 323.57059 -1180.0614
644.84949 297.62296 -1190.7002
643.04181 272.05624 -1199.0929
641.58447 246.76332 -1205.8584
640.89795 221.84946 -1209.046
640.8396 197.18152 -1209.317
640.91675 172.55453 -1208.9589
640.88544 147.89677 -1209.1042
640.86462 123.24329 -1209.2008
640.86877 98.595383 -1209.1815
640.88544 73.948311 -1209.104
640.90839 49.300739 -1208.9978
640.93134 24.651367 -1208.8911
640.91882 8.0155325e-05 -1208.9492
640.92297 -24.650824 -1208.9298
640.96887 -49.305279 -1208.7169
641.00427 -73.961975 -1208.5524
640.99805 -98.615005 -1208.5814
640.99176 -123.26765 -1208.6105
640.98761 -147.92017 -1208.6298
640.97925 -172.57123 -1208.6685
640.97095 -197.22171 -1208.7073
640.96051 -221.87094 -1208.7556
640.93134 -246.51193 -1208.8911
640.90631 -271.15262 -1209.0072
640.88336 -295.79218 -1209.1138
640.9209 -320.46036 -1208.9396
640.94592 -345.12463 -1208.8235
641.00427 -369.81009 -1208.5524
641.06061 -394.49869 -1208.291
642.96832 -420.40228 -1199.4338
658.29047 -455.73947 -1128.2977
677.60956 -495.17615 -1038.6042
708.94977 577.6629 -1015.0064
701.89496 545.91846 -1046.5465
695.52496 515.20361 -1075.0258
690.59546 485.97461 -1097.0645
686.32642 457.55099 -1116.1503
682.41467 429.66858 -1133.6387
679.07867 402.41708 -1148.553
676.20398 375.66895 -1161.4052
673.85461 349.40622 -1171.9084
672.04651 323.57806 -1179.9922
670.68298 298.08139 -1186.0881
670.33368 273.099 -1187.6499
670.30511 248.26126 -1187.7776
670.31171 223.43729 -1187.7482
670.35345 198.62332 -1187.5616
670.37317 173.80052 -1187.4733
670.34241 148.96512 -1187.6106
670.35785 124.14037 -1187.542
670.38855 99.316925 -1187.4044
670.42151 74.491341 -1187.2571
670.43689 49.662148 -1187.1884
670.45227 24.831587 -1187.1196
670.46765 0.00012680015 -1187.0509
670.46765 -24.832106 -1187.0509
670.40393 -49.659431 -1187.3357
670.38635 -74.487206 -1187.4143
670.37537 -99.314896 -1187.4634
670.47864 -124.16261 -1187.0017
670.46545 -148.9922 -1187.0607
670.4259 -173.81403 -1187.2375
670.37756 -198.63031 -1187.4535
670.34021 -223.44658 -1187.6204
670.33368 -248.27165 -1187.6499
670.3512 -273.10602 -1187.5714
670.37317 -297.94357 -1187.4731
670.35345 -322.76273 -1187.5615
670.35565 -347.59171 -1187.5516
670.39734 -372.44296 -1187.365
670.60608 -397.39618 -1186.4319
670.57312 -422.21252 -1186.5795
675.0484 -450.03223 -1166.5712
693.57288 -488.0697 -1083.7529
740.05835 634.33588 -994.09241
732.89142 602.01794 -1024.99
726.22449 570.60516 -1053.7313
720.89545 540.67175 -1076.7053
716.42932 511.73535 -1095.9596
712.20697 483.28336 -1114.1625
708.54944 455.49615 -1129.9307
705.62073 428.41266 -1142.5562
703.35675 401.91827 -1152.3165
701.5152 375.81171 -1160.2557
700.22583 350.11292 -1165.8145
700.2489 325.11566 -1165.7148
700.30438 300.13052 -1165.4757
700.2951 275.116 -1165.5155
700.31128 250.11121 -1165.4458
700.30902 225.09943 -1165.4557
700.27661 200.07913 -1165.5951
700.26276 175.06577 -1165.655
700.29047 150.06239 -1165.5354
700.3136 125.05609 -1165.4358
700.32281 100.04633 -1165.396
700.36676 75.039413 -1165.2067
700.43384 50.031048 -1164.9176
700.36908 25.013269 -1165.1965
700.23737 3.6236732e-05 -1165.7645
700.19574 -25.006876 -1165.944
700.23273 -50.016468 -1165.7845
700.33673 -75.036026 -1165.3361
700.4292 -100.0612 -1164.9376
700.36908 -125.06583 -1165.1968
700.29974 -150.06412 -1165.4955
700.22583 -175.05629 -1165.8143
700.1842 -200.05257 -1165.9937
700.18884 -225.06059 -1165.9738
700.29279 -250.10454 -1165.5255
700.45691 -275.17941 -1164.818
700.45001 -300.19284 -1164.8478
700.4292 -325.19922 -1164.9374
700.39911 -350.19949 -1165.0671
700.302 -375.16168 -1165.4856
700.33209 -400.18964 -1165.3563
700.50781 -425.3082 -1164.5986
700.46851 -450.30103 -1164.7682
709.63464 -481.53763 -1125.252
766.34741 660.64435 -994.68188
758.14697 627.43207 -1028.8156
751.95782 596.38037 -1054.5775
746.80914 566.54498 -1076.0084
742.32941 537.54889 -1094.6555
738.43597 509.26636 -1110.8613
735.45587 481.85043 -1123.2657
733.23535 455.1116 -1132.5088
731.53912 428.83337 -1139.5691
730.51544 403.04306 -1143.8302
730.69031 377.94345 -1143.1023
730.68542 352.74472 -1143.1224
730.69995 327.55521 -1143.0618
730.7146 302.36481 -1143.0012
730.66113 277.14746 -1143.2238
730.61011 251.93463 -1143.4359
730.55914 226.72536 -1143.6482
730.56396 201.53508 -1143.6281
730.61255 176.35481 -1143.4259
730.61499 151.16176 -1143.4156
730.60291 125.96613 -1143.4662
730.6709 100.7823 -1143.1832
730.61011 75.580437 -1143.436
730.53003 50.381519 -1143.7697
730.43768 25.187559 -1144.1536
730.52515 4.0090956e-05 -1143.7898
730.61987 -25.193724 -1143.3954
730.70972 -50.393677 -1143.0215
730.7146 -75.591026 -1143.0012
730.65149 -100.77941 -1143.264
730.56396 -125.9592 -1143.6281
730.46442 -151.13048 -1144.0425
730.48138 -176.32303 -1143.9717
730.62476 -201.55153 -1143.3752
730.66357 -226.75764 -1143.2135
730.62952 -251.94112 -1143.3551
730.55676 -277.10754 -1143.6584
730.61743 -302.32446 -1143.4055
730.69763 -327.55408 -1143.0719
730.72913 -352.76566 -1142.9407
730.56158 -377.87662 -1143.6382
730.48627 -403.02676 -1143.9515
730.56885 -428.2644 -1143.6079
730.8385 -453.6239 -1142.4854
731.00623 -478.93506 -1141.7871
784.26019 653.55023 -1028.9353
778.2522 622.60187 -1053.1097
773.03406 592.65961 -1074.106
768.94763 563.89502 -1090.5485
765.70789 535.99561 -1103.5841
763.48633 508.99094 -1112.5232
761.85144 482.5061 -1119.1011
761.32593 456.79559 -1121.2157
761.42285 431.47296 -1120.8258
761.46362 406.11401 -1120.6616
761.43298 380.71664 -1120.7848
761.39984 355.32007 -1120.9182
761.34631 329.91684 -1121.1335
761.32849 304.53156 -1121.2056
761.30811 279.14639 -1121.2875
761.25458 253.75159 -1121.5029
761.28009 228.38408 -1121.4003
761.29535 203.01221 -1121.3387
761.30811 177.63863 -1121.2875
761.32593 152.26526 -1121.2158
761.28259 126.88055 -1121.39
761.24182 101.4989 -1121.5541
761.20618 76.120735 -1121.6979
761.22656 50.748447 -1121.6156
761.32086 25.377451 -1121.2362
761.39221 2.9014172e-05 -1120.949
761.45087 -25.381662 -1120.7129
761.4126 -50.760796 -1120.8669
761.32086 -76.13195 -1121.2362
761.22656 -101.49681 -1121.6156
761.25458 -126.87569 -1121.5029
761.37445 -152.27489 -1121.0208
761.34381 -177.64679 -1121.1439
761.24445 -202.99843 -1121.5439
761.19086 -228.35715 -1121.7593
761.27747 -253.75912 -1121.4104
761.49426 -279.21445 -1120.5385
761.44574 -304.57816 -1120.7336
761.37183 -329.9277 -1121.0311
761.33105 -355.28775 -1121.1952
761.25208 -380.62595 -1121.5132
761.39734 -406.07846 -1120.9283
761.23669 -431.3674 -1121.5747
761.33868 -456.8031 -1121.1643
763.03528 -483.25555 -1114.3379
763.35046 -508.90021 -1113.0698
804.11688 648.48145 -1053.4098
799.76715 619.17474 -1070.3469
796.59174 591.01978 -1082.7119
794.19244 563.62061 -1092.0546
792.83093 537.07922 -1097.3562
792.57147 511.33655 -1098.3663
792.68109 485.83685 -1097.9395
792.73462 460.29755 -1097.7312
792.65973 434.68448 -1098.0228
792.57416 409.07056 -1098.3561
792.47791 383.45706 -1098.7307
792.42712 357.87042 -1098.9285
792.43243 332.31039 -1098.9077
792.47791 306.76572 -1098.7307
792.4859 281.20477 -1098.6996
792.57416 255.66908 -1098.356
792.64093 230.12166 -1098.0957
792.59552 204.54088 -1098.2727
792.51532 178.95522 -1098.5851
792.46985 153.38132 -1098.762
792.44849 127.81441 -1098.8452
792.43512 102.24976 -1098.8973
792.48859 76.692505 -1098.6892
792.54474 51.131962 -1098.4706
792.59283 25.567713 -1098.2831
792.61151 0.00012594667 -1098.2103
792.48859 -25.564087 -1098.6892
792.39502 -51.122112 -1099.0533
792.43512 -76.687187 -1098.8972
792.49127 -102.2568 -1098.6786
792.52332 -127.82619 -1098.5537
792.60089 -153.40654 -1098.252
792.50195 -178.9519 -1098.6371
792.60895 -204.54404 -1098.2206
792.76672 -230.158 -1097.6061
792.68378 -255.70436 -1097.929
792.56879 -281.2341 -1098.3767
792.46722 -306.76147 -1098.7723
792.39502 -332.29462 -1099.0535
792.38165 -357.8497 -1099.1055
792.17865 -383.31216 -1099.896
792.73993 -409.15604 -1097.7103
794.40192 -435.63965 -1091.239
798.89423 -541.1864 -1073.7462
827.86017 646.76581 -1061.6935
825.59711 619.19788 -1070.2305
824.42389 592.55481 -1074.6558
824.20258 566.6394 -1075.4908
824.48834 541.0705 -1074.4126
824.43225 515.27026 -1074.6241
824.3595 489.46356 -1074.8989
824.41272 463.73224 -1074.698
824.39862 437.96188 -1074.751
824.25018 412.12509 -1075.311
824.19415 386.34109 -1075.5223
824.31738 360.63895 -1075.0575
824.32861 334.88358 -1075.015
824.32025 309.12012 -1075.0469
824.39301 283.38522 -1074.772
824.31738 257.59927 -1075.0574
824.24176 231.81812 -1075.3428
824.17169 206.04308 -1075.6069
824.15771 180.28453 -1075.6598
824.13257 154.52499 -1075.7549
824.14648 128.77301 -1075.702
824.13257 103.01671 -1075.7548
824.16608 77.265648 -1075.6281
824.21381 51.513439 -1075.4485
824.1521 25.754864 -1075.6809
824.10449 5.3823984e-05 -1075.8606
824.10449 -25.753206 -1075.8605
824.28375 -51.517651 -1075.1843
824.41272 -77.288605 -1074.6981
824.4071 -103.05075 -1074.7191
824.25018 -128.78902 -1075.3112
824.28375 -154.55315 -1075.1842
824.4295 -180.34378 -1074.6346
824.30615 -206.07635 -1075.0999
824.18018 -231.80057 -1075.5753
824.03729 -257.51169 -1076.1139
823.91412 -283.22034 -1076.5787
824.00653 -309.00235 -1076.2303
823.94769 -334.7287 -1076.452
826.1145 -542.13757 -1068.2783
856.61694 622.9942 -1051.1361
856.58759 597.01569 -1051.2435
856.43219 570.9549 -1051.8121
856.42926 545.00055 -1051.8229
856.50543 519.0943 -1051.5439
856.5495 493.16501 -1051.3829
856.49377 467.17856 -1051.5869
856.43805 441.1955 -1051.7908
856.40576 415.22708 -1051.9087
856.46149 389.30081 -1051.7048
856.50836 363.36728 -1051.5333
856.58466 337.44257 -1051.2543
856.61694 311.49722 -1051.1361
856.58466 285.52835 -1051.2542
856.45856 259.53299 -1051.7157
856.34125 233.54774 -1052.1448
856.25909 207.57803 -1052.4451
856.32654 181.64508 -1052.1984
856.39105 155.70752 -1051.9624
856.36475 129.75233 -1052.059
856.33832 103.79871 -1052.1554
856.31195 77.846596 -1052.252
856.30023 51.897007 -1052.2949
856.34125 25.949827 -1052.1448
856.53479 7.9057158e-05 -1051.4366
856.66974 -25.959597 -1050.943
856.60815 -51.915646 -1051.1683
856.45557 -77.859558 -1051.7264
856.44092 -103.81093 -1051.7799
856.55536 -129.78101 -1051.3616
856.40283 -155.70943 -1051.9194
856.23572 -181.62558 -1052.5308
856.06573 -207.53096 -1053.1527
856.04224 -233.46606 -1053.2383
856.14478 -259.43771 -1052.863
858.33093 -572.22058 -1044.8667
889.33746 601.61078 -1027.1273
889.44806 575.52533 -1026.735
889.06134 549.12622 -1028.1079
889.08893 522.99365 -1028.0099
889.20862 496.9108 -1027.585
889.18097 470.74295 -1027.683
889.10425 444.55219 -1027.9554
889.00922 418.35739 -1028.293
889.03375 392.22089 -1028.2059
889.12268 366.1095 -1027.89
889.26996 340.01508 -1027.3672
889.26385 313.85794 -1027.3889
889.14105 287.66342 -1027.8247
889.07666 261.49326 -1028.0535
889.11652 235.35455 -1027.9117
889.15027 209.21193 -1027.792
889.11346 183.05283 -1027.9227
889.08282 156.897 -1028.0316
889.02759 130.73946 -1028.2277
888.99695 104.58804 -1028.3365
889.09814 78.449959 -1027.9771
889.15332 52.303238 -1027.7811
889.15332 26.15164 -1027.7811
889.05829 0.0001558488 -1028.1187
889.08588 -26.149437 -1028.0206
889.11041 -52.300476 -1027.9336
889.14722 -78.453995 -1027.803
888.94788 -104.58192 -1028.5109
888.77606 -130.70221 -1029.1205
888.61981 -156.81523 -1029.6754
888.69336 -182.96614 -1029.4141
888.82208 -209.13448 -1028.9572
922.4895 579.85059 -1003.0023
922.15594 553.2937 -1004.1526
922.35162 527.05811 -1003.478
922.42212 500.74365 -1003.2347
922.37726 474.36557 -1003.3895
922.29065 447.96982 -1003.6882
922.22333 421.58783 -1003.9204
922.20404 395.23041 -1003.9869
922.21375 368.8855 -1003.9536
922.25214 342.55087 -1003.8208
922.30353 316.21848 -1003.6439
922.41254 289.90125 -1003.2678
922.43182 263.55206 -1003.2014
922.32593 237.16965 -1003.5665
922.29382 210.81007 -1003.6771
922.23932 184.44798 -1003.8651
922.24573 158.09947 -1003.843
922.32593 131.76091 -1003.5665
922.31311 105.40733 -1003.6108
