# .PCD v0.7 - Point Cloud Data file format
VERSION 0.7
FIELDS x y z
SIZE 4 4 4
TYPE F F F
COUNT 1 1 1
WIDTH 1502
HEIGHT 1
VIEWPOINT 0 0 0 1 0 0 0
POINTS 1502
DATA ascii
-36.748711 64.310242 31.597849
-36.66526 61.108753 30.758385
-36.590912 57.9356 30.010511
-36.510345 54.765495 29.200092
-36.430855 51.610374 28.400478
-36.42725 48.569672 28.364222
-36.37542 45.469254 27.842834
-33.013901 38.516212 -5.9714203
-31.885122 34.542202 -17.326099
-30.919796 30.919788 -27.036499
-30.146006 27.633831 -34.820244
-29.982607 24.985491 -36.463905
-29.95504 22.466263 -36.741222
-29.929951 19.953287 -36.993549
-29.911959 17.448629 -37.174606
-29.901144 14.950565 -37.283348
-29.907583 12.461477 -37.21859
-29.89665 9.9655333 -37.328537
-29.892889 7.4732103 -37.366394
-29.889126 4.9815145 -37.404243
-29.900904 2.4917219 -37.285793
-29.906124 -2.1236818e-05 -37.233253
-29.89362 -2.491158 -37.359058
-29.906244 -4.9843941 -37.232037
-29.913414 -7.4783611 -37.159931
-29.916332 -9.972126 -37.130573
-29.919615 -12.466525 -37.097553
-29.922653 -14.961331 -37.066986
-29.925817 -17.456734 -37.035175
-29.931776 -19.954533 -36.975212
-29.934454 -22.450853 -36.948269
-29.932751 -24.943981 -36.965408
-29.940542 -27.445518 -36.887035
-29.953455 -29.953463 -36.75716
-29.96467 -32.461731 -36.644344
-29.97748 -34.973743 -36.515469
-30.016588 -37.520748 -36.122074
-34.326248 71.773048 38.620239
-34.006783 68.013565 35.114536
-33.823063 64.571289 33.098442
-33.704319 61.280567 31.795382
-33.617855 58.067207 30.846567
-33.523006 54.855827 29.80575
-33.439796 51.67968 28.892557
-33.408176 48.593697 28.545603
-33.324051 45.44186 27.622408
-30.496861 38.814171 -3.402298
-29.43877 34.791264 -15.013455
-28.468323 31.056335 -25.66287
-27.641874 27.641863 -34.732044
-27.086626 24.624193 -40.825191
-27.009661 22.098804 -41.669788
-26.988167 19.627739 -41.905651
-26.967785 17.161303 -42.129307
-26.955399 14.70293 -42.26524
-26.947865 12.249008 -42.347912
-26.958414 9.8030539 -42.232155
-26.935497 7.3460379 -42.483639
-26.933992 4.8970771 -42.500145
-26.936249 2.448729 -42.47538
-26.942379 -1.2096319e-05 -42.408112
-26.951845 -2.4501891 -42.304214
-26.942379 -4.8986292 -42.408123
-26.951414 -7.3504009 -42.308949
-26.953999 -9.8014603 -42.280602
-26.956152 -12.252798 -42.256973
-26.961859 -14.706485 -42.19434
-26.968 -17.161467 -42.126942
-26.971556 -19.615683 -42.087925
-26.975437 -22.070822 -42.045334
-26.97835 -24.525787 -42.013371
-26.97727 -26.977282 -42.025227
-26.984175 -29.437292 -41.949455
-26.990973 -31.898439 -41.874855
-26.998531 -34.36179 -41.791901
-27.007391 -36.828274 -41.694679
-27.037577 -39.3274 -41.363438
-31.466873 72.373795 41.773129
-31.134262 68.495369 37.758156
-30.918064 64.927917 35.148396
-30.781254 61.562481 33.496933
-30.672148 58.277084 32.179962
-30.565037 55.017063 30.886999
-30.486971 51.827839 29.944658
-30.430573 48.688908 29.263836
-30.331282 45.496925 28.065319
-30.302967 42.424152 27.72356
-26.957123 35.044243 -12.664368
-26.048735 31.258471 -23.629587
-25.238239 27.762056 -33.413155
-24.554531 24.55451 -41.666222
-24.182508 21.764254 -46.156956
-24.140831 19.312662 -46.660027
-24.122988 16.886076 -46.87542
-24.109148 14.46547 -47.042477
-24.096272 12.048116 -47.19791
-24.094189 9.6376696 -47.223061
-24.093243 7.2279706 -47.234478
-24.083879 4.8167491 -47.347485
-24.078869 2.4078705 -47.407948
-24.081518 -8.6861519e-06 -47.376019
-24.08095 -2.4081123 -47.382866
-24.085205 -4.8170552 -47.33152
-24.088135 -7.2264504 -47.296135
-24.090405 -9.6361771 -47.268723
-24.093054 -12.046538 -47.236755
-24.09561 -14.457378 -47.20591
-24.101097 -16.870775 -47.13966
-24.10659 -19.285284 -47.073349
-24.1082 -21.697401 -47.053909
-24.112558 -24.112566 -47.001305
-24.115877 -26.527473 -46.961254
-24.114359 -28.937252 -46.979557
-24.124411 -31.361755 -46.858242
-24.130768 -33.783089 -46.781525
-24.137129 -36.2057 -46.704727
-24.146723 -38.634766 -46.588924
-24.169075 -41.087444 -46.319077
-24.203209 -43.565792 -45.90707
-28.575483 73.02623 45.197273
-28.289717 69.152641 41.364471
-28.026951 65.396202 37.840172
-27.876829 61.948486 35.826687
-27.746279 58.575485 34.07571
-27.622887 55.24577 32.420742
-27.545172 52.029747 31.378387
-27.465706 48.827904 30.312593
-27.38792 45.646511 29.269308
-27.345062 42.536747 28.694481
-27.291273 39.420719 27.973034
-23.579813 31.439737 -21.80617
-22.840406 27.916035 -31.723305
-22.163652 24.626259 -40.800133
-21.590656 21.590639 -48.485325
-21.395403 19.018131 -51.104149
-21.373125 16.623533 -51.402924
-21.358906 14.239265 -51.593647
-21.34124 11.856233 -51.830589
-21.327805 9.4790001 -52.010777
-21.329947 7.1099749 -51.982056
-21.319651 4.7376871 -52.120117
-21.321711 2.3690569 -52.092514
-21.318171 -8.8227607e-06 -52.139999
-21.321629 -2.3690901 -52.093624
-21.328875 -4.7397671 -51.996418
-21.321051 -7.1070313 -52.101345
-21.322451 -9.4766588 -52.082584
-21.322781 -11.846001 -52.078156
-21.326405 -14.217611 -52.029564
-21.329781 -16.589842 -51.984264
-21.334562 -18.964069 -51.920158
-21.336374 -21.336397 -51.895828
-21.341076 -23.71232 -51.832798
-21.344046 -26.087181 -51.792961
-21.347511 -28.463362 -51.746483
-21.344624 -30.831135 -51.785221
-21.351639 -33.213676 -51.691116
-21.36064 -35.601078 -51.570377
-21.369156 -37.989628 -51.456165
-21.379827 -40.384129 -51.313034
-21.392336 -42.784691 -51.145279
-21.423876 -45.228199 -50.722256
-25.641132 73.718254 48.829182
-25.389524 69.821182 45.032719
-25.128134 65.961342 41.088619
-24.9601 62.400257 38.553196
-24.828163 58.966869 36.562393
-22.589678 50.826775 2.7862945
-22.660387 48.153301 3.8532145
-24.517618 49.035213 31.876665
-24.46312 45.86834 31.054323
-24.395517 42.692146 30.034294
-22.250921 36.157745 -2.3251517
-21.108562 31.66284 -19.562029
-20.411922 28.066385 -30.073526
-19.786001 24.732489 -39.517956
-19.235392 21.639799 -47.825993
-18.791189 18.79117 -54.5285
-18.701763 16.364021 -55.877831
-18.693357 14.019997 -56.004646
-18.67849 11.674037 -56.228977
-18.666271 9.3331337 -56.413345
-18.651802 6.9944172 -56.63168
-18.656553 4.6641231 -56.560001
-18.647762 2.3309581 -56.692627
-18.650526 -1.1557351e-05 -56.650936
-18.648046 -2.3310101 -56.688351
-18.647621 -4.6619225 -56.694748
-18.64146 -6.9905663 -56.787716
-18.65329 -9.3266554 -56.609222
-18.642593 -11.651634 -56.770634
-18.645212 -13.983925 -56.731083
-18.649464 -16.318291 -56.666962
-18.65329 -18.653305 -56.609211
-18.655277 -20.9872 -56.579254
-18.660524 -23.325678 -56.500069
-18.662725 -25.661255 -56.466885
-18.66535 -27.99803 -56.427265
-18.668686 -30.336622 -56.376919
-18.669325 -32.671329 -56.367264
-18.677139 -35.019653 -56.249348
-18.684961 -37.369934 -56.13134
-18.692789 -39.722187 -56.013256
-18.700623 -42.076416 -55.895031
-18.713171 -44.443802 -55.705692
-18.730452 -46.826138 -55.444954
-22.622597 74.33139 52.047104
-22.417372 70.454582 48.508076
-22.188864 66.566566 44.567596
-22.019922 62.914059 41.654327
-19.819328 53.7953 3.7064648
-19.583637 50.357922 -0.35791913
-19.488375 47.328888 -2.0006418
-19.531269 44.642887 -1.2609545
-19.703579 42.221939 1.7104468
-19.981897 39.963791 6.5098443
-19.379333 35.99017 -3.880996
-19.097292 32.738213 -8.7446461
-17.982853 28.258755 -27.962458
-17.406847 24.866903 -37.895317
-16.895857 21.723234 -46.707024
-16.446131 18.795574 -54.462276
-16.139769 16.139753 -59.745308
-16.104847 13.804141 -60.3475
-16.090548 11.493235 -60.59409
-16.081448 9.1893845 -60.750973
-16.075491 6.8894787 -60.853737
-16.061543 4.5890017 -61.094254
-16.060221 2.2943003 -61.117027
-16.057039 -7.7564337e-06 -61.171917
-16.059742 -2.2942636 -61.12532
-16.061663 -4.5890675 -61.092175
-16.057098 -6.8816299 -61.170883
-16.053617 -9.1735029 -61.230915
-16.062984 -11.473584 -61.069389
-16.052717 -13.75949 -61.246426
-16.05764 -16.057655 -61.161572
-16.05794 -18.35195 -61.15638
-16.061363 -20.650335 -61.097366
-16.064848 -22.949791 -61.037277
-16.067371 -25.248745 -60.993736
-16.069897 -27.548407 -60.950203
-16.073444 -29.850691 -60.889019
-16.07519 -32.150394 -60.858929
-16.076935 -34.450592 -60.828838
-16.082594 -36.760231 -60.731251
-16.089401 -39.074272 -60.613857
-16.098629 -41.396492 -60.454723
-16.100983 -43.702679 -60.414139
-16.10364 -46.01041 -60.36832
-16.122803 -48.36842 -60.037861
-19.603827 75.147987 56.332905
-19.389471 71.094719 52.020386
-19.196453 67.187569 48.13718
-19.043623 63.478718 45.062458
-17.035875 53.946922 4.6696792
-16.652786 49.958344 -3.037451
-16.545753 46.879627 -5.1907744
-16.528742 44.076645 -5.5330391
-16.601343 41.503349 -4.0724063
-16.734013 39.046017 -1.4033269
-16.652485 36.080379 -3.0435226
-16.261082 32.522156 -10.91796
-16.102463 29.521164 -14.109084
-15.018275 25.030441 -35.921276
-14.548669 21.822987 -45.369003
-14.136635 18.848829 -53.658527
-13.780126 16.076811 -60.830917
-13.604433 13.60442 -64.365593
-13.584602 11.320493 -64.764549
-13.575584 9.0503769 -64.945961
-13.56473 6.7823548 -65.164345
-13.561932 4.520627 -65.22065
-13.554641 2.2590861 -65.367325
-13.549851 -2.193412e-05 -65.463684
-13.551447 -2.2585866 -65.431587
-13.549901 -4.516644 -65.462677
-13.550799 -6.7754111 -65.444626
-13.550051 -9.0333805 -65.459671
-13.552046 -11.293394 -65.419525
-13.553992 -13.554007 -65.380379
-13.544566 -15.802008 -65.569992
-13.547657 -18.06356 -65.50782
-13.550699 -20.326059 -65.44664
-13.553742 -22.589582 -65.385406
-13.557686 -24.85577 -65.306061
-13.560333 -27.120686 -65.252808
-13.562481 -29.385397 -65.209595
-13.561881 -31.6444 -65.221664
-13.559383 -33.898476 -65.271912
-13.56488 -36.173023 -65.161331
-13.572131 -38.454384 -65.01545
-13.577638 -40.732925 -64.904671
-13.582347 -43.01078 -64.809921
-13.586156 -45.287205 -64.733276
-13.59042 -47.566479 -64.647507
-13.601517 -49.87225 -64.42424
-16.535353 76.062607 61.133099
-16.310986 71.768318 55.716381
-16.159594 67.870277 52.061474
-16.03727 64.149055 49.108307
-15.930007 60.534027 46.518761
-13.815326 49.735153 -4.5341644
-13.67973 46.511078 -7.8077312
-13.630255 43.616814 -9.0021753
-13.650817 40.952442 -8.505784
-13.72582 38.432274 -6.6950269
-13.852068 36.015369 -3.6471097
-13.518119 32.443474 -11.709398
-13.291396 29.241051 -17.182955
-12.602117 25.20422 -33.823643
-12.200849 21.961517 -43.511093
-11.831369 18.930178 -52.431107
-11.509202 16.112867 -60.208939
-11.24197 13.490355 -66.660469
-11.154089 11.154077 -68.782127
-11.146671 8.9173231 -68.961174
-11.136838 6.6820879 -69.198578
-11.130615 4.4522352 -69.348801
-11.126942 2.2253766 -69.4375
-11.12198 -1.2842848e-05 -69.557281
-11.118473 -2.2237031 -69.64196
-11.118593 -4.4474564 -69.639046
-11.118754 -6.6712627 -69.635139
-11.117184 -8.8937674 -69.673088
-11.117224 -11.117241 -69.672104
-11.115773 -13.338943 -69.707108
-11.119965 -15.567962 -69.605965
-11.120448 -17.792732 -69.594276
-11.119037 -20.014286 -69.628326
-11.123957 -22.247919 -69.50959
-11.122907 -24.470413 -69.534904
-11.12198 -26.69276 -69.557289
-11.122383 -28.918205 -69.547562
-11.122746 -31.143702 -69.538795
-11.125328 -33.376003 -69.476463
-11.129525 -35.614491 -69.375137
-11.133726 -37.854683 -69.273712
-11.136515 -40.091469 -69.206383
-11.138011 -42.324451 -69.170265
-11.139507 -44.558044 -69.134148
-11.145052 -46.809235 -69.000275
-11.155103 -49.082474 -68.757637
-11.16314 -51.350464 -68.563599
-11.173508 -53.632854 -68.313286
-13.499027 77.619392 69.303528
-13.256721 72.911964 61.991318
-13.087897 68.711456 56.896614
-12.981217 64.906067 53.677231
-12.879235 61.176361 50.59967
-11.037051 49.666721 -4.9931602
-10.875068 46.219017 -9.8814373
-10.806447 43.225773 -11.952241
-10.794089 40.477821 -12.325171
-10.834642 37.921238 -11.10138
-10.905852 35.444012 -8.9524565
-10.939395 32.818165 -7.9402032
-10.574609 29.080162 -18.948586
-10.451309 26.128254 -22.669477
-9.8129377 22.079096 -41.934059
-9.5229406 19.045868 -50.685459
-9.2453079 16.179281 -59.063808
-9.008399 13.512592 -66.213165
-8.82061 11.025747 -71.88018
-8.7896824 8.78967 -72.813515
-8.7809401 6.5856905 -73.077339
-8.7744408 4.3871956 -73.273453
-8.7673883 2.1918309 -73.486305
-8.7658224 -1.2551634e-05 -73.533539
-8.7651339 -2.1913016 -73.554329
-8.7632561 -4.3816471 -73.611
-8.7597523 -6.5698252 -73.716728
-8.7629738 -8.762989 -73.619492
-8.7570333 -10.946304 -73.798798
-8.7589712 -13.138468 -73.740318
-8.7591276 -15.328487 -73.73558
-8.7636003 -17.527216 -73.600616
-8.760128 -19.710304 -73.705391
-8.7633181 -21.90831 -73.609108
-8.7635059 -24.099655 -73.603455
-8.763381 -26.290161 -73.607216
-8.7661667 -28.490068 -73.523155
-8.7682028 -30.688723 -73.461731
-8.7702389 -32.888401 -73.400269
-8.7720575 -35.088242 -73.34539
-8.7732496 -37.286327 -73.309418
-8.7749119 -39.487125 -73.259247
-8.7769194 -41.690392 -73.198639
-8.7788982 -43.894512 -73.138954
-8.7805309 -46.097797 -73.089668
-8.7807198 -48.293972 -73.083977
-8.7808771 -50.490055 -73.079231
-8.7886438 -52.731884 -72.844841
-8.7989473 -54.993427 -72.533913
-10.068006 70.476028 67.039635
-9.8966732 65.977798 60.145741
-9.7913294 62.011753 55.907017
-9.6919794 58.151855 51.909462
-8.1166649 45.994431 -11.476258
-8.0450029 42.90667 -14.359702
-8.0126085 40.06303 -15.663162
-8.0262699 37.455914 -15.113475
-8.0735159 34.985218 -13.212448
-8.1382694 32.553066 -10.606958
-7.9357781 29.097841 -18.754578
-7.7808266 25.936083 -24.989365
-7.7201581 23.160452 -27.430471
-7.1819744 19.151924 -49.085327
-6.966392 16.254908 -57.759689
-6.7775202 13.555021 -65.359291
-6.6136513 11.022738 -71.952858
-6.5047355 8.6729717 -76.335297
-6.4916816 6.4916706 -76.860535
-6.4847064 4.323123 -77.141205
-6.4810758 2.1603394 -77.287285
-6.4782929 -2.1256998e-05 -77.399254
-6.4767885 -2.1589453 -77.459801
-6.4740319 -4.316031 -77.570709
-6.4729395 -6.4729538 -77.614677
-6.4713464 -8.6284819 -77.678787
-6.474123 -10.790215 -77.567047
-6.4709139 -12.941843 -77.696175
-6.4717102 -15.100667 -77.664139
-6.472188 -17.259186 -77.644905
-6.4712095 -19.413652 -77.684265
-6.4735765 -21.578609 -77.589027
-6.4729619 -23.734203 -77.61377
-6.4740319 -25.896149 -77.570709
-6.4761734 -28.063433 -77.484543
-6.4775181 -30.228443 -77.430443
-6.4787717 -32.393883 -77.37999
-6.4797525 -34.558701 -77.340523
-6.4795928 -36.717705 -77.346962
-6.4794102 -38.876472 -77.354301
-6.4807792 -41.044949 -77.299217
-6.4823313 -43.215561 -77.236763
-6.4835644 -45.384972 -77.187149
-6.4849348 -47.556202 -77.132011
-6.4866257 -49.73082 -77.063965
-6.4872661 -51.898151 -77.038208
-6.496264 -54.135551 -76.67614
-6.5005774 -56.338356 -76.502594
-7.2365575 68.747299 98.699287
-6.5886426 59.297775 59.594101
-5.4026999 45.922939 -11.983851
-5.325973 42.607765 -16.614719
-5.2939882 39.704903 -18.545191
-5.2900171 37.030121 -18.784872
-5.3157063 34.552078 -17.234379
-5.3602896 32.161732 -14.543538
-5.410418 29.75729 -11.518013
-5.1680579 25.840269 -26.145735
-5.0935545 22.920982 -30.642447
-4.8142815 19.257107 -47.498043
-4.6726632 16.354301 -56.045452
-4.5387526 13.616249 -64.127693
-4.4188023 11.046984 -71.367348
-4.315475 8.6309347 -77.603699
-4.2687263 6.4030738 -80.425232
-4.2611365 4.2611151 -80.883301
-4.2581935 2.1290796 -81.06089
-4.2572336 -1.2262534e-05 -81.118858
-4.2555656 -2.1277959 -81.219559
-4.2547979 -4.2548113 -81.265862
-4.2522473 -6.378386 -81.419807
-4.2520409 -8.5040989 -81.432266
-4.2529693 -10.632442 -81.376228
-4.2520113 -12.75605 -81.434029
-4.2516727 -14.880864 -81.454506
-4.2519379 -17.007763 -81.438492
-4.2526894 -19.137115 -81.393135
-4.2519822 -21.259922 -81.435822
-4.2511129 -23.381144 -81.488274
-4.2522473 -25.513498 -81.419815
-4.2537212 -27.649206 -81.330841
-4.2539282 -29.777504 -81.31839
-4.2543111 -31.907352 -81.295235
-4.254621 -34.036983 -81.276558
-4.2549305 -36.166924 -81.257851
-4.2552404 -38.29718 -81.239159
-4.2566724 -40.438404 -81.152725
-4.2567463 -42.567478 -81.148277
-4.2585931 -44.715248 -81.036812
-4.257987 -46.837879 -81.073387
-4.2594061 -48.983189 -80.987747
-4.26087 -51.130459 -80.899361
-4.2620687 -53.275867 -80.827026
-4.2662921 -55.461815 -80.572136
-4.2719512 -57.67136 -80.230583
-3.6543336 69.432335 103.05147
-3.5074508 63.134106 85.321106
-3.481616 59.187469 82.202614
-2.6493599 42.389744 -18.259583
-2.6264844 39.397251 -21.020927
-2.6188273 36.663582 -21.945219
-2.6324794 34.22221 -20.297239
-2.6538522 31.846218 -17.717327
-2.6781912 29.460091 -14.779369
-2.5928307 25.928293 -25.08329
-2.5319998 22.787994 -32.42622
-2.5066659 20.053326 -35.484303
-2.3499062 16.449329 -54.406883
-2.2804091 13.682446 -62.795933
-2.2188776 11.094369 -70.223434
-2.1624448 8.6497669 -77.035454
-2.1146264 6.3438578 -82.807678
-2.1026182 4.2052288 -84.257164
-2.0996106 2.0995975 -84.620216
-2.0988276 -1.6339767e-05 -84.714722
-2.0975146 -2.0975313 -84.87323
-2.0964611 -4.1929374 -85.000412
-2.096719 -6.2901759 -84.969276
-2.0955086 -8.3820486 -85.115364
-2.0947645 -10.473843 -85.205177
-2.0949221 -12.569549 -85.18618
-2.0953298 -14.667329 -85.136963
-2.0951223 -16.761002 -85.161995
-2.0950222 -18.855211 -85.17411
-2.0957234 -20.957249 -85.089439
-2.0949221 -23.044157 -85.186172
-2.0956018 -25.14724 -85.104134
-2.0949004 -27.23373 -85.188766
-2.0957806 -29.340948 -85.082527
-2.0960312 -31.440493 -85.052277
-2.0964611 -33.543396 -85.000404
-2.0968909 -35.647163 -84.948509
-2.0974 -37.753212 -84.887085
-2.0976007 -39.854427 -84.862846
-2.0976653 -41.953323 -84.855042
-2.097579 -44.049179 -84.86544
-2.0978301 -46.152279 -84.835136
-2.0981817 -48.258194 -84.792702
-2.0985334 -50.364819 -84.750244
-2.099036 -52.475918 -84.689583
-2.1002789 -54.607258 -84.539543
-2.1017466 -56.747177 -84.362366
-2.1047244 -58.932297 -84.002937
1.1718945e-23 63.583744 88.336433
2.000413e-23 59.517101 84.543182
1.0847012e-22 42.278198 -19.101116
9.1969822e-24 39.119934 -23.25267
-5.8684985e-23 36.4189 -24.054874
1.8152081e-23 34.005703 -22.307766
1.8387805e-23 31.60276 -20.166313
8.1573796e-23 29.195133 -17.686836
-2.7789194e-23 26.756098 -15.090952
-1.8626975e-23 22.744909 -33.004074
-4.4742102e-23 19.880877 -38.086212
-2.0635011e-23 17.306463 -39.626225
1.3331787e-23 13.756476 -61.306435
1.0781722e-22 11.145598 -68.986595
8.332012e-24 8.6767368 -76.221474
-5.7049158e-25 6.3523321 -82.466751
-3.1787106e-23 4.1551151 -87.28154
5.7398769e-23 2.0713983 -88.023224
6.0906562e-23 -1.1438004e-05 -88.309921
3.9131287e-23 -2.0679958 -88.437881
3.0631961e-23 -4.1334343 -88.591759
9.512678e-23 -6.1998758 -88.602676
4.8824015e-23 -8.2670803 -88.585037
7.3864417e-23 -10.328728 -88.708504
9.0360621e-23 -12.39309 -88.736206
5.6996362e-23 -14.458939 -88.730339
3.7491593e-23 -16.523115 -88.751328
2.6075728e-23 -18.585251 -88.79496
-6.9233955e-23 -20.65069 -88.78994
6.8344467e-23 -22.718742 -88.757202
5.8191517e-23 -24.786587 -88.73201
3.9581695e-24 -26.842369 -88.822655
4.1128235e-23 -28.919237 -88.718597
-5.187047e-23 -30.988226 -88.691734
5.2571679e-23 -33.06604 -88.601837
7.3491298e-23 -35.14035 -88.547203
-1.6145768e-23 -37.212433 -88.513596
2.1994982e-23 -39.285484 -88.477417
-3.8487766e-24 -41.358582 -88.444618
2.2408743e-23 -43.434265 -88.400017
-7.1844403e-25 -45.509315 -88.362984
4.305659e-23 -47.58514 -88.325089
9.1331242e-23 -49.662273 -88.283806
1.8233794e-23 -51.741295 -88.236626
-1.0939563e-23 -53.867096 -87.97596
1.1808301e-25 -56.132244 -87.111588
7.22548e-24 -58.089577 -87.636002
5.6618945e-24 -60.220203 -87.402908
-4.8864196e-23 -62.625927 -86.07843
3.5593371 64.068054 91.584389
3.5237474 59.903679 87.288292
3.5186551 56.298466 86.673584
2.4575579 36.86335 -41.412163
2.4397912 34.157066 -43.556782
2.4289348 31.576145 -44.867279
2.4341481 29.209768 -44.237972
2.6412625 29.053871 -19.237059
2.6577151 26.577143 -17.251078
2.5460374 22.914326 -30.731747
2.4713573 19.770845 -39.746429
2.4448955 17.114262 -42.940659
2.3098564 13.859135 -59.241318
2.2409866 11.204924 -67.554634
2.1791034 8.7164001 -75.024574
2.1238422 6.3715115 -81.695213
2.0755534 4.1510978 -87.524178
2.0461082 2.0460865 -91.078514
2.0412681 -2.3610739e-05 -91.662773
2.0397615 -2.0397842 -91.844627
2.0390904 -4.0781946 -91.925652
2.0379188 -6.1137724 -92.067078
2.0373638 -8.1494751 -92.134064
2.0368972 -10.184504 -92.190407
2.037215 -12.223307 -92.152031
2.0359306 -14.251521 -92.307083
2.0367756 -16.294216 -92.205101
2.0369513 -18.332584 -92.183876
2.0360456 -20.360466 -92.293213
2.0369918 -22.406925 -92.178978
2.0359104 -24.430935 -92.309525
2.0360589 -26.468777 -92.291588
2.0370393 -28.518564 -92.173264
2.0375061 -30.562607 -92.116905
2.037885 -32.606163 -92.071175
2.0382235 -34.649803 -92.030312
2.0385213 -36.693401 -91.994339
2.0387924 -38.737068 -91.961632
2.0391312 -40.782639 -91.920723
2.0395582 -42.830738 -91.869194
2.0403655 -44.88805 -91.771759
2.0405757 -46.93325 -91.746368
2.0397956 -48.955105 -91.840538
2.0397346 -50.993385 -91.8479
2.0408609 -53.062397 -91.711952
2.041214 -55.112793 -91.669327
2.0416348 -57.165794 -91.618507
2.0419815 -59.217468 -91.576675
2.0442266 -61.326817 -91.305649
2.0610995 -63.8941 -89.268921
2.0526867 -65.685997 -90.284416
7.1914334 64.722893 95.975777
7.0949259 60.306854 90.150993
7.095336 56.762672 90.175766
4.8790975 36.593212 -43.586056
4.8228149 33.759693 -46.982986
4.7925081 31.151287 -48.812206
4.7825522 28.695295 -49.413074
4.7982802 26.390522 -48.463821
4.8768873 24.38442 -43.719475
5.3403673 24.031645 -15.745958
4.9457822 19.783119 -39.561268
4.8539305 16.988739 -45.105038
4.822948 14.468824 -46.974987
4.5090818 11.27269 -65.918465
4.380971 8.7619238 -73.650658
4.2624831 6.3937111 -80.80201
4.1614118 4.1614003 -86.902214
4.0620217 2.030992 -92.900948
4.0322161 -1.5745103e-05 -94.699898
4.0272532 -2.0136483 -94.999405
4.0238857 -4.0239058 -95.202652
4.0209718 -6.0314775 -95.37854
4.0191674 -8.0383511 -95.487442
4.0181932 -10.045503 -95.546227
4.017128 -12.051398 -95.610535
4.0159578 -14.055867 -95.681137
4.0166678 -16.066683 -95.638298
4.0170226 -18.076616 -95.616882
4.0168514 -20.084278 -95.627197
4.016273 -22.08952 -95.662109
4.0174303 -24.104595 -95.592278
4.0180621 -26.117418 -95.554153
4.018641 -28.130503 -95.519211
4.017746 -30.133106 -95.573219
4.0189304 -32.151459 -95.501732
4.0208397 -34.177151 -95.38649
4.0201025 -36.180931 -95.431015
4.0178909 -38.169979 -95.564484
4.0179963 -40.179974 -95.558136
4.0188646 -42.198097 -95.505707
4.0184174 -44.20261 -95.532715
4.0185094 -46.212875 -95.527145
4.0198388 -48.238083 -95.446899
4.0202336 -50.252949 -95.42305
4.021143 -52.274876 -95.368179
4.0221844 -54.2995 -95.305359
4.0239649 -56.335533 -95.197868
4.0257468 -58.373344 -95.090309
4.0280333 -60.420509 -94.952339
4.0309577 -62.479858 -94.775833
4.0720911 -65.153481 -92.293198
4.0495949 -66.818329 -93.650963
7.2701397 36.350693 -45.5378
7.165143 33.437313 -49.762531
7.1066608 30.795507 -52.115707
7.0756803 28.30271 -53.362244
7.0736141 25.936563 -53.445385
7.1227207 23.742395 -51.469494
7.2255325 21.67659 -47.332668
8.0998058 21.599478 -12.154608
7.2537804 16.92548 -46.196068
7.1623549 14.324696 -49.87471
7.1588178 11.931351 -50.017067
6.6074071 8.8098593 -72.204094
6.4305372 6.4305239 -79.320808
6.2573967 4.1715846 -86.287437
6.1116652 2.0372074 -92.151215
5.9825072 -8.5099018e-06 -97.348152
5.9594569 -1.9865024 -98.275604
5.9541364 -3.9694407 -98.489693
5.9507866 -5.9508028 -98.624458
5.9474988 -7.9300122 -98.756775
5.9463072 -9.9105301 -98.804703
5.9464803 -11.892975 -98.79776
5.9447904 -13.871191 -98.865746
5.9431009 -15.848285 -98.933723
5.9436193 -17.83087 -98.912865
5.9433312 -19.811115 -98.924454
5.9469223 -21.805397 -98.779968
5.9483442 -23.79339 -98.72274
5.9449248 -25.761351 -98.860352
5.9425063 -27.731716 -98.957657
5.9406075 -29.70306 -99.03405
5.9386525 -31.672831 -99.112724
5.9389019 -33.65379 -99.102699
5.9415088 -35.649067 -98.997795
5.9394765 -37.616707 -99.079559
5.9407415 -39.604954 -99.028648
5.942698 -41.598896 -98.949928
5.9437919 -43.587826 -98.905907
5.9449821 -45.578217 -98.858025
5.9461346 -47.569099 -98.811653
5.9474025 -49.561703 -98.760651
5.9488249 -51.556503 -98.7034
5.9502482 -53.552246 -98.646141
5.9520183 -55.552177 -98.574928
5.9531927 -57.547535 -98.527672
5.9546175 -59.546192 -98.470329
5.9573159 -61.558949 -98.361748
5.9632411 -63.607914 -98.123352
5.982779 -65.810593 -97.337189
6.0552878 -68.626617 -94.41967
9.641386 36.155174 -47.111069
9.4852524 33.198364 -51.822834
9.3868256 30.507174 -54.79311
9.3299074 27.989714 -56.510784
9.3005247 25.576435 -57.397446
9.3144331 23.286072 -56.977764
9.4018574 21.154177 -54.339504
9.5418615 19.083704 -50.114502
9.6900368 16.957548 -45.642906
9.491745 14.237606 -51.626873
9.439394 11.799227 -53.206745
8.8608007 8.8607941 -70.66732
8.612958 6.459703 -78.146652
8.3835526 4.1917586 -85.069572
8.1707811 2.0426764 -91.490494
7.9750433 -2.2395916e-05 -97.39743
7.8553486 -1.9638447 -101.00952
7.8411684 -3.9205906 -101.43746
7.8345847 -5.8759441 -101.63613
7.8269639 -7.8269849 -101.8661
7.8275881 -9.784503 -101.84727
7.827538 -11.741324 -101.84878
7.8361359 -13.713248 -101.58933
7.8247433 -15.6495 -101.93313
7.819582 -17.594078 -102.08887
7.8173652 -19.543425 -102.15577
7.8121142 -21.483332 -102.31423
7.8113194 -23.433973 -102.33824
7.8104987 -25.384138 -102.36298
7.8088584 -27.331013 -102.41249
7.8099766 -29.287426 -102.37875
7.8074179 -31.229689 -102.45597
7.8089824 -33.188198 -102.40874
7.809206 -35.141445 -102.40199
7.8120651 -37.107319 -102.31572
7.8140049 -39.070042 -102.25718
7.8144283 -41.025768 -102.24441
7.8148766 -42.981831 -102.2309
7.816668 -44.945862 -102.1768
7.8186603 -46.911972 -102.1167
7.821003 -48.881279 -102.04601
7.8236456 -50.853714 -101.96625
7.8270636 -52.832699 -101.8631
7.8281622 -54.797146 -101.82996
7.8290114 -56.760342 -101.80433
7.8342595 -58.756962 -101.64594
7.8367863 -60.735119 -101.56968
7.8428473 -62.74279 -101.3868
7.8530107 -64.787361 -101.08007
7.8898964 -67.06414 -99.966957
12.040806 36.122406 -47.374874
11.792846 33.019958 -53.361153
11.64534 30.277874 -56.922272
11.553632 27.728706 -59.136314
11.495056 25.28911 -60.550438
11.472316 22.944626 -61.099438
11.512312 20.722145 -60.133842
11.627507 18.604006 -57.352783
11.839451 16.575226 -52.236
11.850337 14.220384 -51.973213
11.711359 11.711348 -55.32843
11.747236 9.3977737 -54.46228
10.829247 6.4975281 -76.624474
10.535007 4.2139907 -83.728104
10.263091 2.0526054 -90.292702
10.0109 -2.5918267e-05 -96.381157
9.7624397 -1.9525033 -102.37949
9.6831226 -3.8732693 -104.29438
9.7036753 -5.8222265 -103.7982
9.6702108 -7.736186 -104.60609
9.6571512 -9.6571703 -104.92137
9.6542645 -11.585133 -104.99107
9.6487083 -13.508208 -105.12524
9.643733 -15.429986 -105.24533
9.6403389 -17.352623 -105.32727
9.6360083 -19.272036 -105.4318
9.6321659 -21.190783 -105.52457
9.6311684 -23.114815 -105.54867
9.632802 -25.045292 -105.50924
9.6330128 -26.972454 -105.50412
9.632287 -28.896877 -105.52166
9.6302319 -30.816759 -105.57129
9.6308355 -32.744858 -105.5567
9.6326809 -34.67767 -105.51215
9.6325588 -36.603737 -105.51508
9.633316 -38.533276 -105.49683
9.634798 -40.466167 -105.46104
9.6375227 -42.405121 -105.39526
9.6410656 -44.348919 -105.30972
9.6452799 -46.297352 -105.208
9.6494961 -48.247509 -105.10617
9.654417 -50.20298 -104.9874
9.6592197 -52.159805 -104.87145
9.6625357 -54.110207 -104.7914
9.6903715 -56.20417 -104.11937
9.730792 -58.384762 -103.14354
9.7722673 -60.58807 -102.14224
9.8148508 -62.815056 -101.1142
9.8604994 -65.079308 -100.01212
9.9146757 -67.419815 -98.704185
14.104082 32.909512 -54.313396
13.888995 30.092817 -58.64064
13.739342 27.478672 -61.651428
13.655352 25.034792 -63.341187
13.598001 22.663309 -64.494995
13.594234 20.39135 -64.570778
13.669498 18.225992 -63.056572
13.825617 16.129868 -59.915691
14.134896 14.134894 -53.693481
14.034557 11.695451 -55.712151
14.072165 9.3814182 -54.955532
14.12042 7.0601921 -53.984711
12.708563 4.2361813 -82.389099
12.379989 2.0633247 -88.999504
12.057147 -9.1611955e-06 -95.494591
11.776766 -1.9628112 -101.13542
11.555588 -3.8518779 -105.58515
11.464004 -5.7320123 -107.42768
11.447428 -7.6316423 -107.76118
11.436793 -9.5306816 -107.97513
11.426179 -11.426188 -108.18867
11.419906 -13.323242 -108.31488
11.415586 -15.220793 -108.4018
11.4124 -17.11862 -108.46587
11.411515 -19.019213 -108.48367
11.407803 -20.914316 -108.55837
11.403951 -22.807919 -108.63586
11.40381 -24.708269 -108.6387
11.406354 -26.614838 -108.58754
11.408014 -28.520056 -108.5541
11.406035 -30.416111 -108.59393
11.412189 -32.334553 -108.47015
11.412648 -34.237949 -108.4609
11.410809 -36.134239 -108.49791
11.417284 -38.057629 -108.36761
11.424052 -39.984196 -108.23146
11.426286 -41.896393 -108.18652
11.430757 -43.817921 -108.09658
11.452449 -45.809807 -107.66016
11.495902 -47.899597 -106.78596
11.542689 -50.018341 -105.84465
11.591647 -52.16243 -104.85971
11.639992 -54.319984 -103.88708
11.687999 -56.492008 -102.92126
11.737414 -58.687088 -101.9271
11.789438 -60.912117 -100.88046
11.842382 -63.159386 -99.815308
11.899766 -65.44873 -98.660843
11.96976 -67.828659 -97.252655
16.468645 32.937279 -54.074028
16.130131 29.955936 -59.911507
15.920318 27.29196 -63.529594
15.766087 24.775267 -66.189201
15.695104 22.421562 -67.413261
15.641202 20.110106 -68.342766
15.666821 17.904919 -67.900993
15.779352 15.779343 -65.960464
16.004145 13.71783 -62.084053
16.400787 11.714834 -55.244217
17.035725 9.7346849 -44.295074
17.510748 7.5045934 -36.1036
14.905852 4.2588015 -81.023445
14.502137 2.071717 -87.985229
14.142591 -5.3508602e-06 -94.185394
13.809981 -1.972872 -99.921028
13.495796 -3.8559568 -105.33897
13.239887 -5.6742539 -109.75196
13.185703 -7.5347052 -110.68633
13.170014 -9.4071655 -110.95687
13.16174 -11.281505 -111.09955
13.154806 -13.154823 -111.21912
13.148726 -15.027127 -111.32399
13.144621 -16.900244 -111.39478
13.14269 -18.77529 -111.42807
13.143333 -20.653826 -111.41698
13.138589 -22.523312 -111.49878
13.136178 -24.395769 -111.54037
13.141483 -26.282986 -111.44887
13.143253 -28.164125 -111.41836
13.147438 -30.0513 -111.3462
13.147156 -31.92882 -111.35106
13.14949 -33.812996 -111.31079
13.165815 -35.735806 -111.02927
13.211947 -37.748436 -110.23377
13.263889 -39.791679 -109.33806
13.317026 -41.853531 -108.42174
13.371799 -43.935925 -107.47723
13.426812 -46.034805 -106.52854
13.483424 -48.155102 -105.55231
13.539064 -50.287964 -104.59285
13.596198 -52.44249 -103.60761
13.653989 -54.615978 -102.61103
13.711705 -56.805653 -101.61575
13.77128 -59.019791 -100.58842
13.831909 -61.255604 -99.542915
13.894647 -63.51841 -98.461006
13.964312 -65.831772 -97.259712
14.095757 -68.465118 -94.993011
19.123724 33.466503 -49.510929
18.399744 29.899569 -60.434963
18.084908 27.127342 -65.185463
17.873316 24.5758 -68.37812
17.74441 22.180498 -70.323181
17.671772 19.880732 -71.419212
17.6397 17.639687 -71.90313
17.717957 15.503194 -70.722328
17.892342 13.419236 -68.091064
18.211458 11.382153 -63.275951
18.695778 9.3478794 -55.968132
19.302261 7.2383418 -46.817024
19.738338 4.9345675 -40.237099
16.677263 2.0846536 -86.425179
16.244484 -1.0890792e-05 -92.955315
15.854259 -1.981801 -98.843346
15.474339 -3.8686032 -104.5759
15.118576 -5.6694794 -109.94393
14.915238 -7.457624 -113.01207
14.874739 -9.2967291 -113.62315
14.865819 -11.149382 -113.75775
14.853403 -12.996746 -113.94511
14.849134 -14.84915 -114.00951
14.845407 -16.701097 -114.06575
14.839976 -18.549988 -114.14771
14.836926 -20.400789 -114.19373
14.836791 -22.255207 -114.19576
14.837956 -24.111689 -114.17816
14.844464 -25.977831 -114.07999
14.875504 -27.89159 -113.61159
14.933845 -29.867702 -112.73133
14.993743 -31.861721 -111.82754
15.053753 -33.87096 -110.92204
15.11569 -35.89978 -109.9875
15.177527 -37.943836 -109.05444
15.24115 -40.008038 -108.09444
15.303066 -42.083454 -107.16019
15.364335 -44.172474 -106.23574
15.426434 -46.279316 -105.29874
15.49065 -48.408295 -104.32979
15.556437 -50.558434 -103.33711
15.623184 -52.728264 -102.32998
15.690708 -54.917492 -101.31113
15.757907 -57.122433 -100.29718
15.826042 -59.347664 -99.269127
15.895385 -61.594627 -98.222809
15.970585 -63.882359 -97.088104
16.056631 -66.23362 -95.789787
16.188816 -68.802483 -93.795265
20.730564 29.944128 -60.021149
20.243855 26.991795 -66.549026
19.970402 24.408253 -70.21666
19.783091 21.981199 -72.728928
19.665573 19.665556 -74.305122
19.592587 17.415621 -75.284042
19.607475 15.250245 -75.084358
19.760014 13.173332 -73.038467
20.029512 11.12749 -69.423866
20.421591 9.076252 -64.165169
21.028427 7.0094609 -56.026123
21.578421 4.7951941 -48.649429
21.940411 2.4378045 -43.794327
18.359442 -8.816909e-06 -91.823341
17.92672 -1.991877 -97.627144
17.469765 -3.8821859 -103.75595
17.058893 -5.6863089 -109.26669
16.70472 -7.4243402 -114.01697
16.553238 -9.1962614 -116.04868
16.527128 -11.0181 -116.39888
16.514277 -12.844453 -116.57124
16.507662 -14.673495 -116.65997
16.508747 -16.508764 -116.64541
16.507563 -18.341753 -116.66129
16.550409 -20.228294 -116.08662
16.616699 -22.155615 -115.19753
16.682011 -24.096254 -114.32156
16.750731 -26.056709 -113.39984
16.818996 -28.031673 -112.48425
16.887978 -30.023085 -111.55907
16.957315 -32.030502 -110.62907
17.023708 -34.04744 -109.73858
17.094381 -36.088154 -108.79071
17.164097 -38.142452 -107.85569
17.235832 -40.216953 -106.89352
17.306002 -42.303577 -105.95238
17.376144 -44.405716 -105.01162
17.449118 -46.530994 -104.03288
17.523708 -48.676979 -103.03246
17.599276 -50.842365 -102.01893
17.675495 -53.026501 -100.99663
17.75061 -55.224148 -99.989151
17.826368 -57.44054 -98.973083
17.904457 -59.681538 -97.925728
17.983702 -61.943878 -96.862869
18.071634 -64.254707 -95.683517
18.168196 -66.616722 -94.388412
18.306488 -69.15786 -92.533577
22.47019 26.964218 -66.826462
22.069532 24.27647 -71.662827
21.80699 21.806971 -74.831985
21.635429 19.471872 -76.902908
21.531864 17.225475 -78.153053
21.504017 15.052793 -78.489197
21.615992 12.969578 -77.137527
21.882042 10.941005 -73.926018
22.264141 8.9056463 -69.313705
22.703337 6.8109837 -64.012131
23.331066 4.6661901 -56.43475
23.840193 2.3840008 -50.289055
20.504574 -1.8602865e-05 -90.553551
20.029902 -2.0030053 -96.283325
19.484947 -3.8970029 -102.86152
19.006762 -5.702045 -108.63375
18.598383 -7.439362 -113.56329
18.268229 -9.1341333 -117.54861
18.162504 -10.897523 -118.82481
18.197681 -12.738392 -118.40019
18.264151 -14.611334 -117.59785
18.333681 -16.50032 -116.75855
18.407219 -18.407234 -115.87083
18.482019 -20.330236 -114.96792
18.556084 -22.267319 -114.07389
18.632555 -24.222338 -113.1508
18.709087 -26.192734 -112.22698
18.783663 -28.175508 -111.32677
18.864693 -30.183531 -110.34866
18.937477 -32.193733 -109.47007
19.019428 -34.234989 -108.48083
19.093771 -36.278187 -107.58344
19.173729 -38.347469 -106.61827
19.25466 -40.434799 -105.64134
19.333656 -42.53405 -104.68776
19.415333 -44.655285 -103.70184
19.498013 -46.79525 -102.7038
19.581148 -48.952888 -101.70026
19.664557 -51.127861 -100.69345
19.749058 -53.322468 -99.673424
19.83416 -55.535667 -98.646133
19.919546 -57.766712 -97.615425
20.008087 -60.024273 -96.546677
20.098536 -62.305473 -95.454857
20.19838 -64.634834 -94.249626
20.307419 -67.014496 -92.933411
20.472826 -69.60762 -90.936775
25.098026 27.379642 -62.647495
24.191902 24.191889 -72.591011
23.834526 21.667734 -76.512764
23.578966 19.291868 -79.317177
23.433647 17.042635 -80.911873
23.379581 14.877893 -81.505165
23.519884 12.829021 -79.96553
23.782116 10.81004 -77.087868
24.116608 8.7696581 -73.41729
24.544975 6.6940665 -68.716507
25.087296 4.5613065 -62.765224
25.675207 2.3341005 -56.313698
26.063591 -1.0933306e-05 -52.051662
22.146622 -2.013344 -95.035301
21.52161 -3.9130409 -101.89397
21.002037 -5.7278414 -107.59563
20.528103 -7.4647722 -112.79643
20.098581 -9.1357317 -117.50988
20.04867 -10.935651 -118.05761
20.119974 -12.803635 -117.27513
20.193478 -14.686181 -116.46852
20.270565 -16.585014 -115.62258
20.352232 -18.502047 -114.72639
20.435118 -20.435129 -113.81684
20.521049 -22.386614 -112.87384
20.603558 -24.34967 -111.96844
20.690598 -26.333504 -111.01327
20.771919 -28.325354 -110.12088
20.861811 -30.344465 -109.13443
20.948452 -32.374897 -108.18366
21.036142 -34.422791 -107.22137
21.118027 -36.476608 -106.32278
21.206812 -38.557854 -105.34847
21.29682 -40.657578 -104.36078
21.385426 -42.770859 -103.38845
21.475386 -44.903099 -102.40123
21.566589 -47.05439 -101.40042
21.658291 -49.223412 -100.39408
21.750147 -51.409447 -99.386101
21.844341 -53.617943 -98.35244
21.940279 -55.848003 -97.299637
22.036922 -58.097355 -96.239105
22.135582 -60.369778 -95.156464
22.23542 -62.663471 -94.060852
22.349182 -65.015823 -92.812454
22.477732 -67.433205 -91.401802
26.412846 24.211756 -72.372917
25.863924 21.553265 -77.894661
25.517904 19.138407 -81.375336
25.310438 16.87361 -83.462296
25.307915 14.762941 -83.487679
25.489899 12.744931 -81.657059
25.718376 10.715978 -79.358757
26.007086 8.6690111 -76.454552
26.368103 6.5920086 -72.82299
26.84174 4.4736061 -68.058571
27.46464 2.2886968 -61.792686
27.937363 -1.1003311e-05 -57.037483
28.252111 -2.354351 -53.871342
23.59898 -3.9331779 -100.67824
23.018257 -5.7545838 -106.51986
22.480312 -7.4934559 -111.93116
21.99621 -9.1650963 -116.80087
21.981958 -10.990993 -116.94421
22.057627 -12.866965 -116.18304
22.139677 -14.75979 -115.3577
22.228712 -16.671555 -114.46207
22.319075 -18.599245 -113.55308
22.412018 -20.544367 -112.61814
22.507872 -22.507879 -111.65394
22.597471 -24.480602 -110.75263
22.693243 -26.475462 -109.78926
22.782282 -28.477869 -108.89358
22.879772 -30.506376 -107.91292
22.978456 -32.552841 -106.9202
23.071489 -34.60725 -105.98438
23.16637 -36.680103 -105.02995
23.264608 -38.774368 -104.04175
23.362867 -40.88504 -103.05333
23.460016 -43.010056 -102.07609
23.557978 -45.152805 -101.09069
23.658203 -47.316418 -100.0825
23.759747 -49.499485 -99.06105
23.862242 -51.701538 -98.030029
23.967731 -53.927414 -96.96888
24.072742 -56.169746 -95.912552
24.178833 -58.432205 -94.845337
24.286989 -60.717487 -93.757401
24.398216 -63.02874 -92.638535
24.525246 -65.400665 -91.360718
24.695032 -67.911354 -89.652794
29.049217 24.580086 -68.330978
27.877542 21.444248 -79.210457
27.459194 19.010201 -83.095032
27.278414 16.786701 -84.773651
27.373907 14.739778 -83.886963
27.548914 12.71487 -82.26194
27.746817 10.671831 -80.424332
27.976206 8.6080446 -78.29435
28.276022 6.5252261 -75.510422
28.6607 4.4093218 -71.938522
29.124634 2.2403405 -67.630699
29.729736 -1.0694303e-05 -62.012039
30.143431 -2.3187404 -58.170719
25.676254 -3.9502087 -99.650414
25.035772 -5.7774973 -105.59756
24.454699 -7.5245442 -110.99309
23.928885 -9.2034283 -115.87551
23.937357 -11.04803 -115.79682
24.017584 -12.932562 -115.0519
24.111097 -14.837614 -114.18358
24.208206 -16.759541 -113.28188
24.308544 -18.698902 -112.35017
24.412708 -20.656919 -111.38298
24.51543 -22.629648 -110.42915
24.611732 -24.611746 -109.53497
24.716448 -26.617729 -108.56264
24.817114 -28.635143 -107.62791
24.917747 -30.668013 -106.69347
25.024933 -32.724922 -105.69821
25.12639 -34.790398 -104.75613
25.238417 -36.88694 -103.71592
25.344919 -38.992195 -102.72699
25.452406 -41.115444 -101.72894
25.559008 -43.253716 -100.73911
25.665102 -45.407505 -99.753975
25.77541 -47.585388 -98.729698
25.887594 -49.783852 -97.688019
26.000677 -52.001366 -96.638
26.114239 -54.237278 -95.583542
26.228882 -56.492981 -94.519028
26.34532 -58.770336 -93.437851
26.465254 -61.073673 -92.324203
26.590717 -63.408649 -91.159218
26.724268 -65.782822 -89.919144
30.274761 21.624819 -77.030853
29.491535 18.958824 -83.783989
29.466345 16.837893 -84.00119
29.567266 14.783621 -83.13102
29.700991 12.728983 -81.978012
29.849619 10.660571 -80.69651
30.049383 8.5855198 -78.974113
30.276896 6.4878974 -77.012451
30.563246 4.366168 -74.543518
30.927828 2.2091062 -71.399994
31.389748 -1.4577122e-05 -67.417221
31.922165 -2.2801776 -62.826611
27.772583 -3.967525 -98.605125
27.084019 -5.8037319 -104.54205
26.443905 -7.5554252 -110.06123
25.896828 -9.2488823 -114.77824
25.916283 -11.106991 -114.6105
26.004236 -13.002134 -113.85214
26.105316 -14.917339 -112.98061
26.209505 -16.848984 -112.08226
26.317917 -18.798523 -111.14753
26.429422 -20.765993 -110.1861
26.539501 -22.748158 -109.237
26.64653 -24.743216 -108.31416
26.760427 -26.760443 -107.33213
26.873451 -28.792999 -106.3576
26.9804 -30.834761 -105.43546
27.096066 -32.902386 -104.43818
27.21471 -34.99036 -103.4152
27.33283 -37.094574 -102.39674
27.446632 -39.209499 -101.41553
27.566072 -41.349125 -100.3857
27.680401 -43.497787 -99.399933
27.795681 -45.664345 -98.40596
27.916368 -47.856651 -97.365364
28.037745 -50.067413 -96.31884
28.159349 -52.295956 -95.270325
28.283876 -54.547489 -94.19664
28.409607 -56.819229 -93.112579
28.538826 -59.11615 -91.998428
28.670855 -61.437561 -90.860046
28.807684 -63.788456 -89.680275
28.955387 -66.183769 -88.406738
32.003868 19.202299 -80.51841
31.812483 16.96664 -82.058563
31.887875 14.880996 -81.451828
31.988405 12.795344 -80.642838
32.100204 10.700053 -79.743156
32.233093 8.5954752 -78.673744
32.392605 6.4785094 -77.390083
32.613693 4.3484755 -75.610909
32.876297 2.1917439 -73.49765
33.220325 -2.4193123e-05 -70.729088
33.646629 -2.2431195 -67.298492
29.907869 -3.987731 -97.385696
29.152704 -5.8305593 -103.46278
28.449066 -7.586432 -109.12524
27.884138 -9.2947245 -113.67145
27.91526 -11.166118 -113.42097
28.009993 -13.07134 -112.65864
28.11902 -14.996827 -111.78123
28.230635 -16.938404 -110.88302
28.347767 -18.898525 -109.94043
28.467106 -20.875893 -108.98006
28.586834 -22.869482 -108.01656
28.706495 -24.878981 -107.0536
28.827076 -26.905293 -106.08324
28.948854 -28.948872 -105.10325
29.074697 -31.013029 -104.09054
29.195618 -33.088387 -103.11745
29.321657 -35.186001 -102.10316
29.447378 -37.300026 -101.09145
29.574274 -39.432384 -100.07025
29.69882 -41.578369 -99.067986
29.824709 -43.742916 -98.054924
29.9505 -45.924114 -97.042625
30.080208 -48.128357 -95.998817
30.210648 -50.351097 -94.949127
30.343319 -52.595116 -93.881439
30.478985 -54.862198 -92.789703
30.618513 -57.154572 -91.666878
30.758608 -59.466652 -90.539482
30.899572 -61.79916 -89.405083
31.04896 -64.167862 -88.202919
31.215881 -66.593895 -86.859619
34.634888 17.317436 -76.76561
34.50499 15.095913 -77.74559
34.432011 12.911987 -78.296181
34.48814 10.777533 -77.872719
34.569145 8.6422701 -77.261574
34.690086 6.5043817 -76.349167
34.829411 4.3536506 -75.298019
34.999161 2.1874404 -74.017387
35.260262 -1.9314186e-05 -72.047493
35.567642 -2.2229836 -69.728523
32.052029 -4.0065193 -96.251755
31.229372 -5.8555303 -102.45821
30.478327 -7.6195979 -108.12442
29.891972 -9.34126 -112.54813
29.934725 -11.225538 -112.2256
30.03731 -13.141342 -111.45164
30.154951 -15.077497 -110.5641
30.275759 -17.03013 -109.65266
30.403658 -19.002306 -108.68774
30.531126 -20.990162 -107.72609
30.659187 -22.994408 -106.75995
30.793636 -25.019838 -105.7456
30.917583 -27.052896 -104.81051
31.051956 -29.111231 -103.79671
31.184135 -31.184149 -102.79951
31.31155 -33.268532 -101.83824
31.456333 -35.388386 -100.74594
31.588324 -37.511147 -99.750137
31.72061 -39.650768 -98.752144
31.855246 -41.810028 -97.736366
31.992178 -43.989258 -96.7033
32.13187 -46.189579 -95.649399
32.270348 -48.405537 -94.604675
32.410553 -50.641499 -93.546883
32.554474 -52.901039 -92.461105
32.704247 -55.188431 -91.331139
32.853653 -57.493896 -90.203987
33.002872 -59.817722 -89.078201
33.155354 -62.166302 -87.927803
33.321808 -64.56102 -86.672028
33.507423 -67.01487 -85.271629
37.691746 15.520111 -70.430573
37.28804 13.16047 -73.297127
37.185013 10.936756 -74.028671
37.096539 8.7285824 -74.656921
37.130608 6.5524564 -74.414993
37.216328 4.3783841 -73.806335
37.340103 2.19646 -72.92746
37.503498 -2.2184726e-05 -71.767227
37.682487 -2.2166317 -70.49633
34.202805 -4.0238781 -95.204247
33.325394 -5.880959 -101.43443
32.52845 -7.6537738 -107.09322
31.917963 -9.3876553 -111.42806
31.971184 -11.283961 -111.05015
32.081123 -13.209888 -110.26951
32.212605 -15.158888 -109.33594
32.345264 -17.123983 -108.39397
32.481346 -19.106689 -107.42769
32.617764 -21.105625 -106.45904
32.7542 -23.120626 -105.49026
32.896656 -25.156279 -104.47871
33.037849 -27.207659 -103.47615
33.177513 -29.274288 -102.48445
33.314747 -31.35507 -101.51002
33.456017 -33.456036 -100.50691
33.610291 -35.587372 -99.411484
33.750042 -37.720654 -98.419151
33.894924 -39.876392 -97.390404
34.039833 -42.049225 -96.361427
34.189571 -44.245346 -95.298187
34.339394 -46.459198 -94.234375
34.487225 -48.68787 -93.184669
34.636681 -50.936306 -92.123451
34.791149 -53.210007 -91.026627
34.949112 -55.507431 -89.904999
35.109695 -57.827751 -88.764755
35.27224 -60.170303 -87.61058
35.438461 -62.538467 -86.430313
35.619389 -64.953018 -85.145592
35.835388 -67.454865 -83.611885
40.477322 11.243685 -66.618675
39.998234 8.8884792 -69.831528
39.789276 6.6315265 -71.232834
39.763775 4.4181871 -71.403839
39.839371 2.2132785 -70.896889
39.931129 -1.8249188e-05 -70.28154
40.065273 -2.2258563 -69.38195
36.395187 -4.0439248 -93.994118
35.469753 -5.9116373 -100.2002
34.623398 -7.6941061 -105.87597
33.965534 -9.4348888 -110.28772
34.027802 -11.342613 -109.87014
34.150913 -13.280927 -109.04453
34.291206 -15.240549 -108.10371
34.432117 -17.216074 -107.15875
34.580902 -19.21162 -106.16097
34.726284 -21.221636 -105.18602
34.871788 -23.247871 -104.21024
35.023296 -25.294626 -103.19419
35.176353 -27.359402 -102.1678
35.325775 -29.43816 -101.16573
35.476135 -31.534351 -100.15741
35.627316 -33.648033 -99.143555
35.781765 -35.78178 -98.107803
35.935104 -37.931511 -97.079491
36.091412 -40.101574 -96.031273
36.250156 -42.291866 -94.96669
36.409466 -44.500465 -93.898361
36.568604 -46.726574 -92.831131
36.727554 -48.970085 -91.765205
36.88863 -51.234234 -90.684998
37.054729 -53.523514 -89.571106
37.223587 -55.835392 -88.438728
37.394497 -58.169243 -87.292572
37.569412 -60.528519 -86.119553
37.748554 -62.914261 -84.918236
37.941006 -65.342865 -83.627602
42.902332 6.7740426 -65.498802
42.557606 4.4797263 -67.688934
42.525932 2.2381904 -67.890144
42.583412 -8.1735116e-06 -67.524986
42.591034 -2.2416446 -67.476547
38.614132 -4.0646682 -92.742592
37.630527 -5.9416814 -98.991608
36.723881 -7.7313561 -104.75171
36.04306 -9.4850273 -109.0771
36.116539 -11.405246 -108.61028
36.245228 -13.353514 -107.79269
36.39085 -15.322474 -106.86754
36.540852 -17.308844 -105.91454
36.701565 -19.316629 -104.89348
36.861137 -21.340677 -103.87968
37.018696 -23.380239 -102.87871
37.177959 -25.437565 -101.86687
37.334057 -27.509327 -100.87514
37.497986 -29.603689 -99.833694
37.661285 -31.714775 -98.796204
37.821106 -33.839954 -97.780823
37.988979 -35.989571 -96.714325
38.145981 -38.145988 -95.716843
38.31839 -40.335155 -94.621498
38.487408 -42.538734 -93.547684
38.655617 -44.759155 -92.479019
38.824783 -46.998444 -91.404259
38.995438 -49.257404 -90.320068
39.167469 -51.536167 -89.227112
39.345802 -53.841644 -88.094131
39.526711 -56.169556 -86.944794
39.709694 -58.519558 -85.78228
39.894646 -60.89185 -84.607201
40.086712 -63.294827 -83.386993
40.292049 -65.739677 -82.082458
45.884628 2.2942207 -61.127411
45.446022 -1.9480882e-05 -63.77462
45.252117 -2.262615 -64.944962
40.837048 -4.0837178 -91.592255
39.7962 -5.9694457 -97.874336
38.828087 -7.7656407 -103.7174
38.143383 -9.5358562 -107.84996
38.225254 -11.467592 -107.35583
38.360401 -13.426152 -106.54014
38.516209 -15.406502 -105.59976
38.677307 -17.404808 -104.62743
38.847141 -19.423588 -103.6024
39.017101 -21.459421 -102.57659
39.18531 -23.511202 -101.56139
39.350174 -25.577629 -100.56634
39.518215 -27.662762 -99.552124
39.692184 -29.769152 -98.502098
39.868088 -31.894485 -97.440437
40.038239 -34.032513 -96.41349
40.214989 -36.193504 -95.346733
40.383865 -38.364677 -94.327461
40.569584 -40.569595 -93.206535
40.747276 -42.784657 -92.134064
40.92585 -45.018456 -91.056282
41.107098 -47.273178 -89.962357
41.290096 -49.54813 -88.857864
41.47403 -51.842545 -87.747734
41.664986 -54.164497 -86.5952
41.857708 -56.507915 -85.432037
42.051353 -58.87191 -84.263268
42.246948 -61.258095 -83.082733
42.455677 -63.683529 -81.822952
42.686073 -66.163429 -80.432404
43.078609 -4.1027441 -90.444313
41.980568 -5.9972415 -96.755989
40.952591 -7.8005137 -102.6649
40.257908 -9.585227 -106.65804
40.353104 -11.529475 -106.11086
40.497822 -13.49929 -105.27899
40.665905 -15.491784 -104.31283
40.837849 -17.501949 -103.32447
41.01778 -19.532299 -102.2902
41.19825 -21.580051 -101.25284
41.372875 -23.641666 -100.24908
41.547375 -25.719816 -99.246017
41.730656 -27.820446 -98.192513
41.911877 -29.937065 -97.150833
42.100178 -32.076347 -96.06842
