# .PCD v0.7 - Point Cloud Data file format
VERSION 0.7
FIELDS x y z
SIZE 4 4 4
TYPE F F F
COUNT 1 1 1
WIDTH 1506
HEIGHT 1
VIEWPOINT 0 0 0 1 0 0 0
POINTS 1506
DATA ascii
-1297.911 -61.805168 -454.27576
-1297.8528 -92.703743 -454.44305
-1297.9321 -123.61245 -454.21503
-1297.8951 -154.51129 -454.32138
-1298.2393 -185.46278 -453.33237
-1299.2567 -216.54282 -450.40817
-1267.7476 309.20679 -452.0993
-1267.1531 278.1557 -453.84973
-1267.0187 247.22328 -454.24542
-1266.9773 216.31326 -454.36703
-1266.9878 185.41302 -454.33664
-1267.0135 154.51393 -454.2605
-1266.9309 123.60308 -454.50378
-1267.0393 92.710373 -454.18451
-1266.9722 61.803551 -454.38208
-1266.8947 30.899948 -454.6102
-1266.936 0.00010130015 -454.48862
-1266.9153 -30.900194 -454.54962
-1267.0239 -61.805923 -454.23001
-1266.9878 -92.70636 -454.33655
-1266.9515 -123.60488 -454.44305
-1267.1686 -154.53255 -453.8042
-1267.3132 -185.46027 -453.37817
-1268.322 -216.54282 -450.40817
-1237.6602 309.4151 -449.5849
-1236.3679 278.18289 -453.4845
-1236.1864 247.23734 -454.03232
-1236.1208 216.32135 -454.23022
-1236.1107 185.41682 -454.26059
-1236.0654 154.50819 -454.3974
-1236.1157 123.61157 -454.24521
-1236.0754 92.705795 -454.36688
-1236.0553 61.802879 -454.42795
-1236.0704 30.901852 -454.38208
-1236.0553 0.00017057531 -454.42786
-1235.9192 -30.897797 -454.83853
-1236.0251 -61.801189 -454.51895
-1236.0553 -92.703957 -454.42789
-1236.136 -123.61361 -454.18442
-1236.252 -154.5314 -453.83441
-1236.4536 -185.468 -453.22592
-1237.3873 -216.54282 -450.40817
-1209.0831 310.02148 -442.26648
-1205.7489 278.24976 -452.58655
-1205.7587 247.33524 -452.55624
-1205.7439 216.41559 -452.60168
-1205.4391 185.45232 -453.54556
-1205.3506 154.53224 -453.81937
-1205.2767 123.61812 -454.04749
-1205.272 92.713264 -454.06274
-1205.2522 61.807991 -454.12375
-1205.272 30.904589 -454.06287
-1205.272 7.4434472e-05 -454.06265
-1205.1294 -30.900703 -454.50369
-1205.1932 -61.804764 -454.30606
-1205.1393 -92.702919 -454.47348
-1205.0802 -123.59779 -454.65607
-1205.321 -154.52817 -453.91077
-1205.5963 -185.47626 -453.05835
-1178.028 310.00748 -442.43484
-1174.8466 278.25323 -452.54083
-1174.813 247.32919 -452.64752
-1174.7987 216.4104 -452.69312
-1174.7987 185.49454 -452.69308
-1174.7987 154.57896 -452.69321
-1174.7938 123.66256 -452.70837
-1174.7938 92.746994 -452.70847
-1174.5686 61.819435 -453.42361
-1174.3243 30.903341 -454.19965
-1174.3531 0.00012239168 -454.10849
-1174.3387 -30.903608 -454.15402
-1174.334 -61.807037 -454.16916
-1174.3101 -92.708588 -454.24545
-1174.3387 -123.61445 -454.15399
-1174.4633 -154.53461 -453.75848
-1174.6501 -185.47087 -453.16504
-1147.032 310.0087 -442.41953
-1143.9202 278.25101 -452.57126
-1143.8876 247.32709 -452.6778
-1143.8735 216.40863 -452.72363
-1143.8689 185.49237 -452.73871
-1143.8829 154.57896 -452.69321
-1143.8783 123.66256 -452.70837
-1143.8783 92.746994 -452.70847
-1143.8735 61.831196 -452.72366
-1143.9062 30.916496 -452.617
-1143.9202 0.00016014415 -452.57141
-1143.8641 -30.915138 -452.754
-1143.7616 -61.824757 -453.08896
-1143.645 -92.727768 -453.46948
-1143.5984 -123.63211 -453.62161
-1143.6497 -154.54716 -453.45407
-1143.7522 -185.47322 -453.11951
-1116.054 310.01511 -442.34305
-1112.9944 278.24866 -452.60178
-1112.9672 247.32616 -452.6933
-1112.9536 216.40767 -452.73877
-1112.9445 185.49074 -452.76913
-1112.9717 154.5795 -452.67798
-1112.9672 123.66309 -452.69315
-1112.9672 92.747353 -452.69296
-1112.958 61.831196 -452.72366
-1112.9762 30.916098 -452.66275
-1112.9854 9.0868976e-05 -452.63217
-1112.9263 -30.914557 -452.83005
-1113.0079 -61.833691 -452.55612
-1112.9353 -92.744514 -452.79974
-1112.9944 -123.66599 -452.60181
-1112.8582 -154.5636 -453.05847
-1112.8129 -185.46864 -453.21066
-1249.1622 392.59399 123.65181
-1085.0746 310.02148 -442.26648
-1082.0691 278.24643 -452.63214
-1082.0161 247.31799 -452.81485
-1082.0293 216.4059 -452.76929
-1082.0161 185.48859 -452.81482
-1082.047 154.57829 -452.7085
-1082.0602 123.66415 -452.66269
-1082.0514 92.747353 -452.69296
-1082.0426 61.831196 -452.72366
-1082.0514 30.915768 -452.69312
-1082.0558 0.00013882617 -452.67801
-1081.9896 -30.913815 -452.90637
-1082.0911 -61.833691 -452.55612
-1082.0116 -92.743675 -452.8302
-1082.0911 -123.66747 -452.55609
-1081.8969 -154.55667 -453.22577
-1081.8749 -185.4642 -453.30191
-1095.1448 450.94208 -296.44653
-1092.4935 417.71823 -305.85956
-1206.0656 425.67032 97.356339
-1198.905 387.88107 71.9347
-1054.0897 310.02661 -442.20526
-1051.1099 278.23508 -452.78439
-1051.0499 247.30602 -452.99762
-1051.1013 216.40329 -452.81485
-1051.0928 185.48712 -452.84549
-1051.1228 154.57697 -452.73877
-1051.1486 123.66468 -452.64746
-1051.1356 92.747353 -452.69296
-1051.1271 61.831196 -452.72366
-1051.1356 30.915768 -452.69312
-1051.1184 0.00012880308 -452.75403
-1051.0542 -30.913233 -452.98242
-1051.1571 -61.832706 -452.61707
-1051.1141 -92.745209 -452.76926
-1051.1829 -123.66846 -452.52576
-1050.9341 -154.54895 -453.40857
-1050.9427 -185.46027 -453.37817
-1063.4003 451.13953 -294.7439
-1058.2526 416.88745 -313.57346
-1061.1577 385.87567 -302.94662
-1065.8929 355.29764 -285.62579
-1023.062 310.01898 -442.29709
-1020.2198 278.24185 -452.69308
-1020.1616 247.3121 -452.9064
-1020.1949 216.40506 -452.78433
-1020.1824 185.48778 -452.8302
-1020.2115 154.57761 -452.72345
-1020.2324 123.66468 -452.64746
-1020.2198 92.747353 -452.69296
-1020.2115 61.831196 -452.72366
-1020.2198 30.915768 -452.69312
-1020.2074 6.955101e-05 -452.73877
-1020.1407 -30.913233 -452.98242
-1020.2407 -61.832706 -452.61707
-1020.1824 -92.743675 -452.8302
-1020.2407 -123.66534 -452.61707
-1020.0327 -154.55025 -453.37802
-1020.0077 -185.45583 -453.46942
-1033.7782 452.27795 -284.92764
-1026.2277 416.90506 -313.40973
-1026.7795 385.04233 -311.32803
-1029.3595 353.84244 -301.59576
-992.01947 310.00623 -442.45013
-989.32837 278.24866 -452.60178
-989.28394 247.32118 -452.76935
-989.28796 216.40686 -452.75415
-989.27588 185.48943 -452.79977
-989.30414 154.57896 -452.69321
-989.31219 123.66415 -452.66269
-989.30414 92.747353 -452.69296
-989.29602 61.831196 -452.72366
-989.30414 30.915768 -452.69312
-989.29602 1.0298939e-05 -452.72354
-989.23547 -30.913507 -452.95203
-989.32428 -61.832706 -452.61707
-989.25165 -92.742111 -452.89111
-989.29602 -123.66201 -452.72354
-989.13464 -154.55232 -453.33231
-989.07819 -185.45206 -453.54538
-996.9762 450.24753 -302.436
-993.18726 416.49802 -317.19006
-993.3468 384.52148 -316.56866
-995.05072 353.08249 -309.93369
-960.97955 309.99347 -442.60324
-958.41968 278.25101 -452.57126
-958.39618 247.32806 -452.66269
-958.37659 216.40767 -452.73877
-958.36884 185.49074 -452.76913
-958.39618 154.58014 -452.66266
-958.39618 123.66415 -452.66269
-958.38837 92.747353 -452.69296
-958.38049 61.831196 -452.72366
-958.38837 30.915768 -452.69312
-958.38049 1.0298939e-05 -452.72354
-958.32581 -30.913567 -452.93677
-958.40399 -61.832516 -452.6322
-958.3219 -92.740738 -452.95178
-958.35712 -123.65887 -452.81479
-958.2359 -154.55408 -453.2868
-958.1499 -185.44838 -453.62146
-965.8363 450.72366 -298.32947
-961.38873 416.60193 -316.22534
-960.95398 384.38177 -317.97464
-962.12512 352.77936 -313.26242
-929.94598 309.98212 -442.74091
-927.51044 278.25323 -452.54083
-927.48395 247.32919 -452.64752
-927.46124 216.40767 -452.73877
-927.46124 185.49237 -452.73871
-927.48016 154.58014 -452.66266
-927.47638 123.66361 -452.67789
-927.47266 92.747353 -452.69296
-927.46509 61.831196 -452.72366
-927.46881 30.915697 -452.70847
-927.46124 6.955101e-05 -452.73877
-927.41968 -30.913815 -452.90637
-927.47638 -61.831608 -452.67786
-927.40826 -92.740738 -452.95178
-927.41583 -123.6554 -452.92154
-927.34021 -154.55667 -453.22577
-927.22296 -185.44443 -453.69775
-932.54443 450.19397 -302.8974
-928.94574 416.42407 -317.87653
-928.42377 384.17557 -320.04913
-929.49969 352.56879 -315.57071
-898.91467 309.97073 -442.8786
-896.60077 278.25546 -452.51047
-896.56781 247.32919 -452.64752
-896.54956 216.40863 -452.72363
-896.55322 185.49387 -452.70837
-896.56055 154.5795 -452.67798
-896.55688 123.66309 -452.69315
-896.55322 92.746994 -452.70847
-896.54956 61.831196 -452.72366
-896.55322 30.915697 -452.70847
-896.5459 6.955101e-05 -452.73877
-896.513 -30.914249 -452.8757
-896.54956 -61.830837 -452.72363
-896.49103 -92.740364 -452.96719
-896.47278 -123.6513 -453.04315
-896.43988 -154.55846 -453.18024
-896.29364 -185.44 -453.78897
-900.62842 450.31433 -301.85944
-897.12164 416.5209 -316.97763
-896.53418 384.22894 -319.51025
-897.34552 352.52881 -316.0126
-867.88574 309.95923 -443.01639
-865.69049 278.25781 -452.47995
-865.65521 247.33028 -452.63226
-865.63403 216.40863 -452.72363
-865.64459 185.49536 -452.67804
-865.64459 154.5795 -452.67798
-865.64111 123.66309 -452.69315
-865.63763 92.746994 -452.70847
-865.63403 61.831196 -452.72366
-865.63763 30.915697 -452.70847
-865.63055 6.955101e-05 -452.73877
-865.60229 -30.914309 -452.86047
-865.62347 -61.830086 -452.76938
-865.57758 -92.740364 -452.96719
-865.53168 -123.64732 -453.16489
-865.53168 -154.55908 -453.16498
-865.36932 -185.43622 -453.86499
-869.28223 450.73907 -298.19769
-865.16205 416.55966 -316.61786
-864.5589 384.24854 -319.31439
-865.24255 352.50644 -316.25797
-836.87274 309.95297 -443.09283
-834.76624 278.25546 -452.51047
-834.7356 247.32919 -452.64752
-834.71509 216.40767 -452.73877
-834.72876 185.49536 -452.67804
-834.72534 154.57896 -452.69321
-834.72192 123.66256 -452.70837
-834.71851 92.74662 -452.72363
-834.71167 61.830723 -452.75412
-834.71167 30.915424 -452.75409
-834.70496 0.00011750821 -452.78461
-834.68103 -30.913874 -452.89111
-834.70496 -61.829868 -452.78452
-834.6709 -92.741058 -452.93671
-834.61639 -123.6468 -453.18024
-834.62323 -154.55974 -453.14969
-834.45984 -185.43542 -453.88013
-836.99414 450.68918 -298.62665
-833.0838 416.54199 -316.78122
-832.45728 384.21115 -319.68976
-833.112 352.47061 -316.65036
-805.87744 309.95297 -443.09283
-803.82922 278.24866 -452.60178
-803.81293 247.32709 -452.6778
-803.79315 216.4059 -452.76929
-803.81616 185.49617 -452.66266
-803.8031 154.57761 -452.72345
-803.79974 123.66153 -452.7388
-803.79651 92.745842 -452.75391
-803.79315 61.83033 -452.76926
-803.78333 30.91478 -452.81485
-803.77686 6.4277083e-05 -452.8454
-803.76367 -30.913815 -452.90637
-803.78333 -61.829491 -452.81485
-803.76703 -92.742111 -452.89111
-803.72437 -123.64978 -453.08887
-803.71454 -154.56039 -453.13443
-803.56372 -185.43765 -453.8345
-805.3186 450.97842 -296.13257
-800.98798 416.51376 -317.04279
-800.41602 384.19986 -319.80408
-801.05225 352.46307 -316.73218
-774.87897 309.95172 -443.10812
-772.89697 278.24295 -452.67786
-772.89075 247.32516 -452.7084
-772.87183 216.40427 -452.79971
-772.90015 185.49617 -452.66266
-772.88123 154.57629 -452.75409
-772.87805 123.66061 -452.76917
-772.87488 92.74511 -452.78455
-772.87805 61.83033 -452.76926
-772.85602 30.914295 -452.87589
-772.84656 5.4253989e-05 -452.92145
-772.84338 -30.913567 -452.93677
-772.86548 -61.829102 -452.83029
-772.8623 -92.743462 -452.84534
-772.83075 -123.65291 -452.99756
-772.80243 -154.56039 -453.13443
-772.67322 -185.44144 -453.75854
-774.28076 451.66385 -290.22324
-769.56335 416.84683 -313.95007
-768.604 384.30222 -318.77536
-769.06219 352.48694 -316.47061
-743.88379 309.95172 -443.10812
-741.96295 278.23618 -452.76923
-741.96906 247.3231 -452.73874
-741.95081 216.40248 -452.83023
-741.98718 185.49684 -452.64734
-741.95996 154.5751 -452.78464
-741.95691 123.65955 -452.79962
-741.95386 92.744331 -452.81482
-741.95996 61.830086 -452.78433
-741.92664 30.91371 -452.9519
-741.92059 0.00016146326 -452.98251
-741.92365 -30.913292 -452.96716
-741.94781 -61.828911 -452.84546
-741.95691 -92.744514 -452.79974
-741.93573 -123.65588 -452.90619
-741.89331 -154.56099 -453.11951
-741.77832 -185.44443 -453.69775
-740.69476 450.85776 -297.17377
-737.22681 416.69345 -315.37445
-736.55389 384.28918 -318.90604
-737.05847 352.50644 -316.25797
-712.88867 309.95172 -443.10812
-711.03046 278.22937 -452.86053
-711.04785 247.32118 -452.76935
-711.03046 216.40071 -452.86075
-711.07391 185.49767 -452.63229
-711.04492 154.5751 -452.78464
-711.03912 123.65903 -452.81482
-711.03619 92.743973 -452.83032
-711.04205 61.829872 -452.79974
-711.00146 30.913225 -453.01294
-710.99274 0.00015144017 -453.05853
-711.0072 -30.913233 -452.98242
-711.03046 -61.828697 -452.8606
-711.05078 -92.745728 -452.75391
-711.03339 -123.65788 -452.84549
-710.98407 -154.56163 -453.10428
-710.88544 -185.44838 -453.62146
-708.7135 450.99969 -295.95093
-705.22412 416.72339 -315.09613
-704.54175 384.29556 -318.84061
-704.99451 352.49731 -316.35608
-681.8963 309.95297 -443.09283
-680.10223 278.22366 -452.93658
-680.11609 247.31509 -452.86057
-680.11328 216.39975 -452.87585
-680.16046 185.49834 -452.617
-680.13269 154.57576 -452.76929
-680.11884 123.65799 -452.84528
-680.11884 92.743599 -452.84546
-680.12439 61.829483 -452.81488
-680.07996 30.912806 -453.05832
-680.06891 9.8209035e-05 -453.11932
-680.08832 -30.912985 -453.01285
-680.11328 -61.828377 -452.8757
-680.14655 -92.747131 -452.69324
-680.12994 -123.65987 -452.78445
-680.07446 -154.56229 -453.08899
-679.98846 -185.4514 -453.56067
-675.70935 450.47305 -300.491
-673.02618 416.63531 -315.91434
-672.51141 384.29236 -318.87314
-672.94366 352.49445 -316.38879
-650.90363 309.95422 -443.07751
-649.17255 278.21686 -453.02789
-649.18579 247.30891 -452.95193
-649.20166 216.40071 -452.86075
-649.24408 185.49834 -452.617
-649.22021 154.57629 -452.75409
-649.19904 123.65694 -452.87576
-649.20166 92.74321 -452.8606
-649.20966 61.829483 -452.81488
-649.1673 30.912806 -453.05832
-649.14874 0.00014616623 -453.16516
-649.17255 -30.912926 -453.02808
-649.19641 -61.827988 -452.89114
-649.23877 -92.748344 -452.6474
-649.2229 -123.66137 -452.73877
-649.16461 -154.56291 -453.07373
-649.09052 -185.45439 -453.49988
-644.04681 450.83292 -297.38855
-640.94482 416.6142 -316.11078
-640.51147 384.30698 -318.7262
-640.98816 352.54352 -315.84879
-619.91077 309.95547 -443.06226
-618.24445 278.21011 -453.11926
-618.25708 247.30283 -453.04315
-618.28735 216.40071 -452.86075
-618.3302 185.4993 -452.60187
-618.30499 154.57629 -452.75409
-618.27979 123.65601 -452.9061
-618.28479 92.742805 -452.87573
-618.29236 61.829414 -452.8302
-618.25201 30.912722 -453.07364
-618.23187 8.8185945e-05 -453.19537
-618.25458 -30.912651 -453.05847
-618.27979 -61.827797 -452.90628
-618.3327 -92.749878 -452.58646
-618.31763 -123.6635 -452.67783
-618.25458 -154.5636 -453.05847
-618.19403 -185.45805 -453.4238
-611.19263 450.3526 -301.52975
-608.77142 416.52798 -316.91214
-608.36505 384.23071 -319.4939
-608.90015 352.52133 -316.09445
-588.92004 309.95795 -443.03165
-587.32269 278.20551 -453.18015
-587.33466 247.29884 -453.1041
-587.37299 216.40071 -452.86075
-587.4137 185.4993 -452.60187
-587.38971 154.57629 -452.75409
-587.36334 123.65551 -452.92133
-587.37299 92.74321 -452.8606
-587.37775 61.829414 -452.8302
-587.33942 30.912722 -453.07364
-587.31549 7.6891069e-05 -453.22592
-587.33704 -30.912403 -453.0889
-587.36334 -61.827583 -452.92145
-587.4209 -92.750412 -452.55621
-587.40649 -123.66447 -452.64749
-587.3418 -154.5636 -453.05847
-587.28912 -185.45963 -453.39343
-579.21637 450.50165 -300.24368
-576.91858 416.6637 -315.65265
-576.56018 384.37369 -318.05646
-577.01624 352.62122 -314.99805
-557.93567 309.96436 -442.95514
-556.41321 278.20663 -453.16495
-556.42456 247.29996 -453.0889
-556.45636 216.39975 -452.87585
-556.49493 185.49834 -452.617
-556.47223 154.57576 -452.76929
-556.44495 123.65462 -452.95206
-556.46088 92.743599 -452.84546
-556.46765 61.829872 -452.79974
-556.43134 30.913054 -453.04327
-556.40186 0.00013614314 -453.24118
-556.4223 -30.912317 -453.10413
-556.44952 -61.827583 -452.92145
-556.50397 -92.750412 -452.55621
-556.49036 -123.66447 -452.64749
-556.42682 -154.56291 -453.07373
-556.37463 -185.45805 -453.4238
-546.59668 450.13852 -303.37485
-544.5705 416.43637 -317.76227
-544.62341 384.44009 -317.38617
-545.39349 352.90173 -311.9183
-526.94788 309.96948 -442.89389
-525.50562 278.20898 -453.13446
-525.51422 247.3009 -453.07376
-525.53992 216.39877 -452.89099
-525.57635 185.49767 -452.63229
-525.55493 154.5751 -452.78464
-525.5271 123.65359 -452.98251
-525.54852 92.743973 -452.83032
-525.55493 61.830086 -452.78433
-525.52063 30.912994 -453.02802
-525.48853 0.00019539522 -453.25644
-525.50562 -30.912069 -453.13452
-525.53564 -61.827583 -452.92145
-525.5871 -92.750412 -452.55621
-525.57208 -123.66384 -452.66275
-525.51422 -154.56291 -453.07373
-525.46277 -185.45726 -453.43896
-514.30652 450.01825 -304.41202
-512.99658 416.81 -314.29413
-513.55499 385.16635 -310.08151
-514.58148 353.77487 -302.3371
-495.96106 309.97571 -442.81741
-494.59958 278.21231 -453.08884
-494.60364 247.30203 -453.05856
-494.62582 216.39877 -452.89099
-494.65814 185.49684 -452.64734
-494.63998 154.5751 -452.78464
-494.60971 123.65252 -453.01294
-494.63794 92.74472 -452.79968
-494.64197 61.83033 -452.76926
-494.60971 30.913225 -453.01294
-494.58347 1.7638997e-05 -453.21069
-494.58951 -30.911821 -453.16495
-494.6218 -61.827583 -452.92145
-494.67023 -92.750412 -452.55621
-494.6561 -123.66384 -452.66275
-494.59958 -154.56229 -453.08899
-494.55121 -185.45662 -453.45425
-481.22345 449.14194 -311.96756
-482.14395 417.85818 -304.56003
-483.63312 386.90662 -292.57596
-485.01767 355.67969 -281.43378
-464.97299 309.98212 -442.74091
-463.69089 278.21454 -453.05841
-463.69089 247.30203 -453.05856
-463.7117 216.39877 -452.89099
-463.74008 185.49617 -452.66266
-463.72308 154.5744 -452.79956
-463.69281 123.65161 -453.0433
-463.72495 92.74511 -452.78455
-463.73062 61.830791 -452.7388
-463.70227 30.913639 -452.96725
-463.67957 8.6914166e-05 -453.1499
-463.67578 -30.911606 -453.18008
-463.70413 -61.827042 -452.95203
-463.75143 -92.750229 -452.57138
-463.73819 -123.6635 -452.67783
-463.6871 -154.56229 -453.08899
-463.63983 -185.45583 -453.46942
-433.9837 309.98846 -442.66437
-432.78345 278.21799 -453.01273
-432.77817 247.30203 -453.05856
-432.79761 216.39877 -452.89099
-432.8223 185.49536 -452.67804
-432.80466 154.57321 -452.83011
-432.77643 123.65057 -453.07379
-432.8082 92.74472 -452.79968
-432.81702 61.831196 -452.72366
-432.79584 30.914124 -452.90622
-432.77466 -2.0295107e-05 -453.08884
-432.76056 -30.911488 -453.2106
-432.78699 -61.826641 -452.98236
-432.83469 -92.750229 -452.57138
-432.8223 -123.6635 -452.67783
-432.77289 -154.56163 -453.10428
-432.72699 -185.45439 -453.49988
-402.99472 309.99609 -442.57254
-401.87531 278.22147 -452.96701
-401.86548 247.30203 -453.05856
-401.88351 216.39877 -452.89099
-401.90479 185.49454 -452.69308
-401.88675 154.57204 -452.86063
-401.86053 123.64953 -453.10422
-401.89005 92.743973 -452.83032
-401.90317 61.831264 -452.70834
-401.88675 30.914379 -452.86057
-401.8671 9.2188093e-05 -453.04327
-401.84579 -30.911213 -453.241
-401.87201 -61.826424 -452.9975
-401.91791 -92.750229 -452.57138
-401.90317 -123.66235 -452.70847
-401.86053 -154.56163 -453.10428
-401.81625 -185.4536 -453.51505
-386.48883 450.90372 -296.77704
-387.35144 419.63071 -288.10013
-372.00427 310.00372 -442.48071
-370.96637 278.22479 -452.92142
-370.9527 247.30203 -453.05856
-370.96936 216.39877 -452.89099
-370.98752 185.49387 -452.70837
-370.96936 154.57068 -452.8909
-370.94516 123.64847 -453.13467
-370.97241 92.74321 -452.8606
-370.99057 61.831852 -452.67776
-370.97845 30.915039 -452.7998
-370.9603 0.00016146326 -452.98251
-370.93155 -30.910788 -453.2717
-370.95575 -61.825871 -453.02811
-371.00113 -92.750229 -452.57138
-370.98602 -123.66201 -452.72354
-370.94666 -154.56099 -453.11951
-370.90582 -185.45282 -453.53021
-354.98294 451.79651 -289.0791
-352.62253 416.73581 -314.98148
-353.4523 385.58438 -305.87601
-354.76538 354.76553 -291.46637
-341.01089 310.0101 -442.40417
-340.05664 278.22827 -452.8757
-340.03998 247.30203 -453.05856
-340.05524 216.39877 -452.89099
-340.07053 185.49321 -452.72369
-340.05249 154.56935 -452.92151
-340.03027 123.64756 -453.16504
-340.05524 92.742432 -452.8909
-340.07608 61.832111 -452.66272
-340.06912 30.915508 -452.73874
-340.05249 5.4253989e-05 -452.92145
-340.0192 -30.910728 -453.28693
-340.03998 -61.825466 -453.05844
-340.08301 -92.749878 -452.58646
-340.06912 -123.66137 -452.73877
-340.03168 -154.55974 -453.14969
-339.99564 -185.45206 -453.54538
-322.41385 451.37958 -292.67529
-320.38434 416.49976 -317.17371
-320.42361 384.50833 -316.69943
-321.04938 353.15433 -309.14581
-310.01624 310.01633 -442.3277
-309.14493 278.23047 -452.84528
-309.12729 247.30203 -453.05856
-309.14114 216.39877 -452.89099
-309.15503 185.49321 -452.72369
-309.13736 154.56883 -452.93674
-309.11719 123.64704 -453.18024
-309.13989 92.742088 -452.90637
-309.16132 61.8325 -452.64758
-309.15753 30.915768 -452.69312
-309.1424 0.00018278122 -452.87592
-309.10583 -30.910454 -453.31732
-309.12601 -61.825073 -453.07388
-309.16635 -92.749878 -452.58646
-309.1525 -123.66085 -452.75412
-309.11719 -154.55846 -453.18024
-309.08441 -185.45059 -453.57584
-290.16135 451.36221 -292.82431
-288.49347 416.71283 -315.19437
-288.18146 384.242 -319.37958
-288.48492 352.59277 -315.30905
-279.00891 310.0101 -442.40417
-278.22818 278.22827 -452.8757
-278.21341 247.3009 -453.07376
-278.22589 216.39812 -452.90628
-278.23724 185.49158 -452.75412
-278.22589 154.57001 -452.90619
-278.20773 123.64809 -453.14981
-278.22818 92.742805 -452.87573
-278.24405 61.832111 -452.66272
-278.24063 30.915697 -452.70847
-278.22702 0.0002420333 -452.89114
-278.19867 -30.910788 -453.2717
-278.21454 -61.825466 -453.05844
-278.24634 -92.748665 -452.63229
-278.23499 -123.65987 -452.78445
-278.20547 -154.55846 -453.18024
-278.17371 -185.44902 -453.6062
-258.54703 452.45752 -283.38126
-256.43973 416.71457 -315.17801
-256.08444 384.12689 -320.53882
-256.2728 352.37524 -317.6969
-248.00386 310.00497 -442.46539
-247.3119 278.22592 -452.90622
-247.29979 247.29996 -453.0889
-247.3109 216.39714 -452.92142
-247.31999 185.49008 -452.78448
-247.31393 154.57137 -452.87595
-247.29779 123.64899 -453.11945
-247.31595 92.743599 -452.84546
-247.32703 61.831852 -452.67776
-247.32503 30.915697 -452.70847
-247.31291 0.0002420333 -452.89114
-247.29274 -30.911547 -453.19534
-247.30182 -61.825466 -453.05844
-247.32703 -92.747612 -452.67789
-247.31897 -123.65938 -452.79984
-247.29375 -154.55846 -453.18024
-247.26349 -185.44762 -453.63663
-224.36104 416.67062 -315.58725
-224.04929 384.08456 -320.96307
-224.19701 352.30975 -318.41595
-216.99895 309.9986 -442.54196
-216.39616 278.22366 -452.93658
-216.38644 247.29884 -453.1041
-216.39616 216.39633 -452.9368
-216.4041 185.48943 -452.79977
-216.40144 154.57254 -452.8454
-216.38733 123.65005 -453.08899
-216.40321 92.744331 -452.81482
-216.40941 61.831264 -452.70834
-216.40941 30.915697 -452.70847
-216.39792 -4.9980836e-06 -452.90619
-216.38644 -30.912317 -453.10413
-216.38997 -61.825653 -453.04327
-216.40941 -92.746788 -452.70831
-216.40321 -123.65887 -452.81479
-216.38202 -154.55846 -453.18024
-216.35379 -185.44586 -453.66727
-194.19598 453.12408 -277.63333
-192.35014 416.75882 -314.76898
-192.04225 384.08456 -320.96307
-192.151 352.27692 -318.77515
-185.99529 309.99222 -442.6185
-185.48091 278.22147 -452.96701
-185.47333 247.29785 -453.1192
-185.48166 216.39537 -452.95193
-185.4877 185.48778 -452.8302
-185.48846 154.57375 -452.81488
-185.47635 123.6511 -453.05856
-185.48999 92.74511 -452.78455
-185.49301 61.831196 -452.72366
-185.49301 30.915579 -452.72342
-185.48393 -4.9980836e-06 -452.90619
-185.47787 -30.912926 -453.02808
-185.47713 -61.825653 -453.04327
-185.49149 -92.745728 -452.75391
-185.4877 -123.65838 -452.83017
-185.47032 -154.55846 -453.18024
-185.44458 -185.44443 -453.69775
-162.2374 454.26468 -267.79742
-160.36301 416.94394 -313.04913
-160.08592 384.20639 -319.73892
-160.16373 352.3602 -317.8602
-154.99355 309.98721 -442.67963
-154.56679 278.22021 -452.9823
-154.56049 247.29692 -453.1347
-154.56741 216.39439 -452.96704
-154.57184 185.48628 -452.86053
-154.57436 154.5744 -452.79956
-154.5649 123.65215 -453.02811
-154.57625 92.745842 -452.75391
-154.57687 61.830791 -452.7388
-154.57751 30.915579 -452.72342
-154.56995 -4.9980836e-06 -452.90619
-154.56868 -30.913567 -452.93677
-154.5649 -61.825871 -453.02811
-154.57436 -92.744514 -452.79974
-154.57184 -123.6574 -452.86047
-154.55859 -154.55846 -453.18024
-154.5359 -185.44299 -453.72818
-129.58298 453.5405 -274.04248
-128.28986 416.94205 -313.06558
-128.06764 384.20306 -319.77155
-128.13152 352.36179 -317.84393
-123.9923 309.98083 -442.7562
-123.65243 278.21799 -453.01273
-123.6489 247.29785 -453.1192
-123.65343 216.3936 -452.98245
-123.65697 185.48561 -452.87585
-123.65848 154.57321 -452.83011
-123.65343 123.65359 -452.98251
-123.66 92.74511 -452.78455
-123.66049 61.83033 -452.76926
-123.66151 30.915508 -452.73874
-123.65545 5.4253989e-05 -452.92145
-123.65746 -30.914309 -452.86047
-123.65243 -61.826057 -453.01297
-123.65848 -92.743675 -452.8302
-123.65646 -123.65623 -452.89111
-123.64687 -154.55846 -453.18024
-123.62772 -185.44144 -453.75854
-96.759148 451.54276 -291.2674
-96.17466 416.75708 -314.78534
-96.045464 384.18192 -319.98367
-96.097832 352.35892 -317.87668
-92.992699 309.97571 -442.81741
-92.738564 278.21579 -453.04315
-92.737053 247.29884 -453.1041
-92.739693 216.39262 -452.99756
-92.741966 185.48398 -452.90628
-92.743477 154.57254 -452.8454
-92.740829 123.65462 -452.95206
-92.744614 92.74472 -452.79968
-92.744995 61.830086 -452.78433
-92.745743 30.915424 -452.75409
-92.741592 5.4253989e-05 -452.92145
-92.745369 -30.915079 -452.76926
-92.738937 -61.825871 -453.02811
-92.743103 -92.742966 -452.86072
-92.741592 -123.6554 -452.92154
-92.735535 -154.55908 -453.16498
-92.720024 -185.44 -453.78897
-64.729507 453.10654 -277.78329
-64.118607 416.77112 -314.65439
-64.030312 384.18192 -319.98367
-64.068474 352.37668 -317.68039
-61.994118 309.97073 -442.8786
-61.825455 278.21454 -453.05841
-61.824947 247.29996 -453.0889
-61.825958 216.39098 -453.02798
-61.827473 185.4825 -452.93665
-61.828484 154.57137 -452.87595
-61.827724 123.65551 -452.92133
-61.829487 92.744331 -452.81482
-61.829742 61.829872 -452.79974
-61.830246 30.915194 -452.76913
-61.828732 0.00012352916 -452.86066
-61.831509 -30.915661 -452.69318
-61.825455 -61.825466 -453.05844
-61.828484 -92.742622 -452.87579
-61.827473 -123.65475 -452.9368
-61.823689 -154.55908 -453.16498
-61.812847 -185.43842 -453.81934
-32.280663 451.92923 -287.93414
-32.070293 416.91403 -313.32779
-32.018536 384.22244 -319.57541
-32.039516 352.43475 -317.04272
-30.996552 309.96558 -442.93982
-30.912979 278.21686 -453.02789
-30.912601 247.3009 -453.07376
-30.912727 216.38921 -453.0585
-30.913485 185.48087 -452.96707
-30.913988 154.57001 -452.90619
-30.914114 123.65655 -452.89087
-30.914494 92.743599 -452.84546
-30.914619 61.829414 -452.8302
-30.914871 30.915039 -452.7998
-30.914999 0.00011750821 -452.78461
-30.916512 -30.916302 -452.6019
-30.912474 -61.824757 -453.08896
-30.914114 -92.742111 -452.89111
-30.913485 -123.65376 -452.96716
-30.911844 -154.55908 -453.16498
-30.906172 -185.437 -453.84979
7.9390654e-22 451.50247 -291.61551
7.9362674e-22 416.45938 -317.54977
7.0529961e-22 384.26312 -319.16742
1.2490568e-21 352.74039 -313.68805
5.5050728e-22 309.96185 -442.98569
1.9075185e-21 278.21686 -453.02789
7.9674548e-22 247.30203 -453.05856
7.6548523e-22 216.38824 -453.07361
1.305646e-21 185.48019 -452.98239
1.0825181e-21 154.56935 -452.92151
9.8535588e-22 123.65746 -452.8605
4.8700804e-22 92.743599 -452.84546
4.5390582e-22 61.829414 -452.8302
2.9287954e-22 30.915039 -452.7998
3.8349873e-22 6.955101e-05 -452.73877
1.8421411e-21 -30.916811 -452.55597
1.3588207e-21 -61.824554 -453.1041
4.8720145e-22 -92.741928 -452.90628
-3.4282572e-22 -123.65325 -452.98248
6.374293e-22 -154.55908 -453.16498
1.121042e-21 -185.43622 -453.86499
32.266232 451.72733 -289.67624
32.057137 416.74274 -314.91605
32.092701 385.11258 -310.62289
32.17691 353.94604 -300.45813
30.996174 309.96185 -442.98569
30.912853 278.21579 -453.04315
30.912474 247.29996 -453.0889
30.91235 216.38647 -453.10413
30.913107 185.4787 -453.01273
30.913609 154.56816 -452.95206
30.914619 123.65852 -452.83008
30.914619 92.743973 -452.83032
30.914743 61.829483 -452.81488
30.914999 30.91511 -452.78448
30.914999 0.00011750821 -452.78461
30.916512 -30.916302 -452.6019
30.91235 -61.824554 -453.1041
30.913988 -92.741928 -452.90628
30.913359 -123.65325 -452.98248
30.911467 -154.55716 -453.21078
30.906172 -185.437 -453.84979
64.567924 451.97546 -287.53574
64.318863 418.07272 -302.5679
64.614166 387.68512 -284.74506
64.85331 356.69318 -270.31128
61.992348 309.96185 -442.98569
61.825455 278.21454 -453.05841
61.824699 247.29884 -453.1041
61.824448 216.38582 -453.11948
61.825958 185.47804 -453.02802
61.826969 154.56763 -452.96725
61.829487 123.65903 -452.81482
61.829487 92.744331 -452.81482
61.829742 61.829872 -452.79974
61.830246 30.915194 -452.76913
61.829239 0.00013482403 -452.83008
61.832268 -30.915995 -452.64755
61.824947 -61.824757 -453.08896
61.827724 -92.741577 -452.92136
61.826969 -123.65376 -452.96716
61.822174 -154.55536 -453.25626
61.812847 -185.43842 -453.81934
92.988525 309.96185 -442.98569
92.738564 278.21579 -453.04315
92.736664 247.29785 -453.1192
92.735909 216.38387 -453.14969
92.738564 185.47725 -453.04343
92.739693 154.56627 -452.99753
92.744995 123.66009 -452.78439
92.744614 92.74472 -452.79968
92.744995 61.830086 -452.78433
92.745743 30.915424 -452.75409
92.744232 7.5571959e-05 -452.81485
92.747253 -30.915661 -452.69318
92.737427 -61.824757 -453.08896
92.741203 -92.741058 -452.93671
92.740456 -123.65376 -452.96716
92.732132 -154.55342 -453.30206
92.720024 -185.44 -453.78897
123.9847 309.96185 -442.98569
123.65141 278.21579 -453.04315
123.64838 247.29692 -453.1347
123.64838 216.38483 -453.13455
123.65041 185.47575 -453.07376
123.65243 154.56561 -453.01285
123.661 123.66114 -452.75394
123.66 92.74511 -452.78455
123.66049 61.83033 -452.76926
123.66151 30.915508 -452.73874
123.66 0.00011750821 -452.78461
123.661 -30.915138 -452.754
123.65041 -61.825073 -453.07388
123.65495 -92.741058 -452.93671
123.65443 -123.6544 -452.95187
123.64133 -154.55167 -453.3476
123.6272 -185.44063 -453.77371
154.98087 309.96185 -442.98569
154.5649 278.21686 -453.02789
154.56111 247.29785 -453.1192
154.56175 216.38647 -453.10413
154.56238 185.4749 -453.08878
154.5649 154.56509 -453.02805
154.57751 123.66204 -452.72357
154.57561 92.745483 -452.76941
154.57625 61.830723 -452.75412
154.57814 30.915697 -452.70847
154.57625 0.00012880308 -452.75403
154.57436 -30.914831 -452.79965
154.56364 -61.825466 -453.05844
154.56868 -92.741058 -452.93671
154.56868 -123.65475 -452.9368
154.54976 -154.54961 -453.39331
154.53528 -185.44223 -453.74335
185.97705 309.96185 -442.98569
185.47787 278.21686 -453.02789
185.47485 247.29996 -453.0889
185.47485 216.38745 -453.08902
185.47333 185.47345 -453.11951
185.47939 154.56627 -452.99753
185.49376 123.66256 -452.70837
185.49226 92.746231 -452.73877
185.49301 61.831196 -452.72366
185.49529 30.916027 -452.67807
185.49226 6.955101e-05 -452.73877
185.48695 -30.914497 -452.84531
185.47713 -61.825653 -453.04327
185.48241 -92.741058 -452.93671
185.48241 -123.65475 -452.9368
185.45822 -154.54831 -453.42383
185.44383 -185.44363 -453.71289
216.97321 309.96185 -442.98569
216.39172 278.21799 -453.01273
216.38908 247.30203 -453.05856
216.38908 216.38921 -453.0585
216.38469 185.47261 -453.13455
216.39349 154.5668 -452.9823
216.41115 123.66361 -452.67789
216.40941 92.746994 -452.70847
216.40941 61.831264 -452.70834
216.41292 30.916182 -452.64743
216.40941 8.0845886e-05 -452.70822
216.3988 -30.913874 -452.89111
216.39085 -61.825871 -453.02811
216.39526 -92.740738 -452.95178
216.39616 -123.65475 -452.9368
216.36526 -154.54651 -453.46936
216.35379 -185.44586 -453.66727
247.9704 309.9631 -442.97043
247.30585 278.21912 -452.99753
247.30283 247.30283 -453.04315
247.30283 216.39001 -453.04312
247.29475 185.47112 -453.16489
247.30887 154.56816 -452.95206
247.32907 123.66468 -452.64746
247.32703 92.747742 -452.67786
247.32603 61.831638 -452.69318
247.33107 30.916496 -452.617
247.32703 0.00013882617 -452.67801
247.30989 -30.913567 -452.93677
247.30486 -61.826057 -453.01297
247.30887 -92.740738 -452.95178
247.30989 -123.65475 -452.9368
247.27156 -154.54459 -453.51514
247.2645 -185.44838 -453.62146
278.96667 309.9631 -442.97043
278.21909 278.21912 -452.99753
278.21796 247.3049 -453.01282
278.21796 216.39197 -453.01288
278.20547 185.47044 -453.18021
278.22476 154.56935 -452.92151
278.24634 123.66518 -452.63223
278.24405 92.748131 -452.66272
278.24292 61.831852 -452.67776
278.2486 30.916567 -452.60168
278.24518 0.00015012105 -452.64743
278.22021 -30.913233 -452.98242
278.21909 -61.826424 -452.9975
278.22247 -92.740738 -452.95178
278.22247 -123.6544 -452.95187
278.17825 -154.54347 -453.54538
278.17709 -185.4514 -453.56067
309.96552 309.96558 -442.93982
309.13358 278.22021 -452.9823
309.13232 247.30602 -452.99762
309.13232 216.39262 -452.99756
309.11719 185.47044 -453.18021
309.13989 154.57001 -452.90619
309.1651 123.6661 -452.60187
309.16257 92.748909 -452.63242
309.15881 61.831852 -452.67776
309.16635 30.916826 -452.58664
309.16132 0.00015012105 -452.64743
309.13483 -30.913292 -452.96716
309.13232 -61.826424 -452.9975
309.13608 -92.740738 -452.95178
309.13608 -123.6544 -452.95187
309.0882 -154.54395 -453.5304
309.0882 -185.45282 -453.53021
340.96765 309.97073 -442.8786
340.04694 278.22021 -452.9823
340.04553 247.30602 -452.99762
340.04553 216.39262 -452.99756
340.03305 185.47261 -453.13455
340.05386 154.57001 -452.90619
340.0816 123.6661 -452.60187
340.07883 92.748909 -452.63242
340.07053 61.831196 -452.72366
340.07883 30.916412 -452.63235
340.07327 0.00019807825 -452.69324
340.04971 -30.913507 -452.95203
340.04694 -61.826641 -452.98236
340.05112 -92.741058 -452.93671
340.04831 -123.65376 -452.96716
339.99838 -154.54459 -453.51514
339.99564 -185.45206 -453.54538
371.96927 309.97449 -442.83273
370.9603 278.22021 -452.9823
370.95877 247.30602 -452.99762
370.9603 216.3936 -452.98245
370.94971 185.4749 -453.08878
370.96936 154.57068 -452.8909
370.99814 123.6661 -452.60187
370.99509 92.748909 -452.63242
370.98297 61.830723 -452.75412
370.99057 30.916027 -452.67807
370.98602 1.0298939e-05 -452.72354
370.96481 -30.913567 -452.93677
370.96182 -61.826828 -452.96719
370.96481 -92.741058 -452.93671
370.9603 -123.65325 -452.98248
370.91037 -154.54588 -453.48459
370.90283 -185.4514 -453.56067
417.95383 450.10422 -303.67114
419.01321 419.0134 -293.83405
420.81369 388.44357 -277.11597
422.29453 357.32629 -263.36526
402.97333 309.97958 -442.77145
401.87363 278.22021 -452.9823
401.87363 247.30699 -452.98251
401.87363 216.3936 -452.98245
401.8671 185.47725 -453.04343
401.88351 154.57068 -452.8909
401.91629 123.66662 -452.58664
401.91299 92.749252 -452.61694
401.89334 61.829872 -452.79974
401.90155 30.915579 -452.72342
401.89658 0.00018805516 -452.76929
401.88022 -30.913755 -452.9216
401.87531 -61.826828 -452.96719
401.88022 -92.741577 -452.92136
401.87201 -123.65291 -452.99756
401.82117 -154.54651 -453.46936
401.80972 -185.45059 -453.57584
450.75424 450.75446 -298.06555
449.90747 417.77139 -305.36636
450.99182 386.56454 -296.01697
452.19312 355.29468 -285.659
433.97839 309.98459 -442.71033
432.78879 278.22147 -452.96701
432.78699 247.30699 -452.98251
432.78699 216.3936 -452.98245
432.78525 185.47954 -452.99768
432.79761 154.57068 -452.8909
432.83292 123.66662 -452.58664
432.82938 92.749252 -452.61694
432.80466 61.829414 -452.8302
432.81348 30.915424 -452.75409
432.80643 7.5571959e-05 -452.81485
432.79761 -30.913874 -452.89111
432.79053 -61.827042 -452.95203
432.79407 -92.741577 -452.92136
432.78345 -123.65225 -453.01282
432.73407 -154.54782 -453.43881
432.71817 -185.45059 -453.57584
483.33289 451.11081 -294.99203
481.82718 417.58368 -307.10919
482.12555 385.70047 -304.70813
483.08643 354.26349 -296.9754
464.98251 309.98846 -442.66437
463.70227 278.22147 -452.96701
463.70035 247.30699 -452.98251
463.70227 216.39439 -452.96704
463.70227 185.48087 -452.96707
463.71738 154.57254 -452.8454
463.74957 123.66662 -452.58664
463.74197 92.748505 -452.64755
463.71359 61.828568 -452.87582
463.72308 30.915039 -452.7998
463.71552 0.00012352916 -452.86066
463.71359 -30.914249 -452.8757
463.70413 -61.827042 -452.95203
463.70984 -92.741928 -452.90628
463.69467 -123.65177 -453.02817
463.64551 -154.54831 -453.42383
463.62848 -185.4514 -453.56067
515.06238 450.67969 -298.70929
513.55933 417.26703 -310.04852
513.62024 385.21521 -309.58899
514.31958 353.59479 -304.31323
495.98947 309.99347 -442.60324
494.61575 278.22147 -452.96701
494.61374 247.30699 -452.98251
494.61774 216.39537 -452.95193
494.6218 185.48334 -452.9216
494.63794 154.5744 -452.79956
494.66821 123.66715 -452.57141
494.65207 92.747353 -452.69296
494.6218 61.827702 -452.92142
494.6319 30.914625 -452.84552
494.62582 0.0002420333 -452.89114
494.62985 -30.914309 -452.86047
494.61978 -61.827393 -452.93661
494.62381 -92.741928 -452.90628
494.60565 -123.6513 -453.04315
494.55923 -154.54961 -453.39331
494.53708 -185.4514 -453.56067
548.19452 451.45444 -292.02954
545.91809 417.46692 -308.19342
545.56439 385.10434 -310.70477
546.09161 353.35342 -306.96115
526.9953 309.99738 -442.55728
525.52917 278.22147 -452.96701
525.52496 247.30602 -452.99762
525.53784 216.39812 -452.90628
525.54205 185.48561 -452.87585
525.55707 154.57576 -452.76929
525.58496 123.66715 -452.57141
525.5614 92.746231 -452.73877
525.53137 61.827248 -452.9519
525.54205 30.914295 -452.87589
525.53784 -4.9980836e-06 -452.90619
525.54852 -30.914557 -452.83005
525.53992 -61.827988 -452.89114
525.53992 -92.742111 -452.89111
525.51849 -123.6513 -453.04315
525.47137 -154.55025 -453.37802
525.44562 -185.4514 -453.56067
581.14105 451.99869 -287.33649
578.03339 417.46866 -308.17706
577.48035 384.98694 -311.88568
577.93048 353.17981 -308.86682
558.00415 310.00247 -442.496
556.44269 278.22147 -452.96701
556.43817 247.30602 -452.99762
556.45636 216.39975 -452.87585
556.46313 185.48778 -452.8302
556.479 154.57761 -452.72345
556.50171 123.66715 -452.57141
556.47223 92.745483 -452.76941
556.43817 61.826702 -452.99768
556.44952 30.91404 -452.92154
556.45404 0.0002420333 -452.89114
556.46539 -30.914616 -452.81482
556.45862 -61.828697 -452.8606
556.45404 -92.742111 -452.89111
556.42908 -123.65078 -453.05853
556.38599 -154.55167 -453.3476
556.35419 -185.4514 -453.56067
613.72467 452.21829 -285.44284
610.19031 417.49878 -307.89789
609.49548 384.9447 -312.31186
609.88794 353.09317 -309.81897
589.00922 310.00497 -442.46539
587.3562 278.22147 -452.96701
587.35138 247.30602 -452.99762
587.37775 216.40248 -452.83023
587.38257 185.48943 -452.79977
587.40173 154.5795 -452.67798
587.41852 123.66715 -452.57141
587.38257 92.74472 -452.79968
587.34662 61.825939 -453.02798
587.35858 30.91371 -452.9519
587.37054 0.00018278122 -452.87592
587.38257 -30.914831 -452.79965
587.37775 -61.829102 -452.83029
587.37054 -92.742622 -452.87579
587.33942 -123.65044 -453.07358
587.29871 -154.55232 -453.33231
587.2652 -185.45206 -453.54538
647.8761 453.51346 -274.27658
642.41174 417.56769 -307.25702
641.61768 384.97079 -312.04965
641.97095 353.08411 -309.91742
620.00208 310.00107 -442.51135
618.27472 278.22366 -452.93658
618.26965 247.30792 -452.96704
618.29236 216.40248 -452.83023
618.29742 185.48943 -452.79977
618.31763 154.5795 -452.67798
618.32513 123.66518 -452.63223
618.30499 92.745842 -452.75391
618.26715 61.826786 -452.98236
618.27979 30.914124 -452.90622
618.28986 6.4277083e-05 -452.8454
618.30243 -30.915079 -452.76926
618.28479 -61.828377 -452.8757
618.28986 -92.743462 -452.84534
618.25958 -123.65177 -453.02817
618.21423 -154.55342 -453.30206
618.17389 -185.45206 -453.54538
681.32709 454.21808 -268.19989
674.78973 417.72702 -305.77737
673.7356 384.99188 -311.83643
674.0495 353.07373 -310.03235
650.99683 309.9986 -442.54196
649.1911 278.22479 -452.92142
649.18848 247.31 -452.93668
649.20703 216.40248 -452.83023
649.21228 185.48943 -452.79977
649.23346 154.5795 -452.67798
649.23083 123.66309 -452.69315
649.22552 92.74662 -452.72363
649.18579 61.827248 -452.9519
649.20166 30.914379 -452.86057
649.20703 0.00013482403 -452.83008
649.22021 -30.915138 -452.754
649.18848 -61.827393 -452.93661
649.20703 -92.743675 -452.8302
649.18054 -123.65325 -452.98248
649.12756 -154.55408 -453.2868
649.08521 -185.45282 -453.53021
715.0354 455.02264 -261.26331
706.95856 417.74835 -305.58005
705.72565 384.94135 -312.34448
706.02448 353.01239 -310.70486
681.98834 309.99484 -442.58783
680.10773 278.22592 -452.90622
680.10773 247.3121 -452.9064
680.12164 216.40248 -452.83023
680.12714 185.48943 -452.79977
680.14935 154.5795 -452.67798
680.1355 123.66114 -452.75394
680.14935 92.747742 -452.67786
680.10773 61.828094 -452.90628
680.12164 30.914709 -452.83017
680.11328 0.00018278122 -452.87592
680.14105 -30.915413 -452.7236
680.09943 -61.827042 -452.95203
680.12439 -92.744194 -452.81485
680.10223 -123.65475 -452.9368
680.04395 -154.55536 -453.25626
679.99402 -185.45282 -453.53021
739.63867 418.05676 -302.71609
738.11652 385.10434 -310.70477
738.25098 353.0766 -309.99927
712.979 309.99097 -442.63376
711.02173 278.22592 -452.90622
711.0246 247.3129 -452.89099
711.03619 216.40248 -452.83023
711.04205 185.48943 -452.79977
711.06525 154.5795 -452.67798
711.03912 123.65903 -452.81482
711.07391 92.748909 -452.63242
711.03046 61.828941 -452.86066
711.03339 30.914625 -452.84552
711.02173 -4.9980836e-06 -452.90619
711.05945 -30.915472 -452.70834
711.01306 -61.827042 -452.95203
711.03339 -92.743462 -452.84534
711.0246 -123.65623 -452.89111
710.95795 -154.55605 -453.241
710.9057 -185.4536 -453.51505
771.69537 418.00165 -303.22659
770.12708 385.06369 -311.11502
770.32922 353.06769 -310.09796
743.96594 309.98599 -442.69498
741.93872 278.22699 -452.89099
741.93573 247.3121 -452.9064
741.94781 216.40152 -452.84537
741.95691 185.48943 -452.79977
741.96906 154.57697 -452.73877
741.94171 123.65694 -452.87576
741.97803 92.747353 -452.69296
741.95081 61.829414 -452.8302
741.93872 30.914194 -452.89087
741.92664 0.00017275813 -452.95193
741.98114 -30.91572 -452.67795
741.92664 -61.827042 -452.95203
741.94171 -92.742622 -452.87579
741.94781 -123.65788 -452.84549
741.87219 -154.55667 -453.22577
741.81464 -185.4536 -453.51505
803.94489 418.05145 -302.76559
802.29376 385.10117 -310.73767
802.42285 353.0661 -310.11426
774.95502 309.98212 -442.74091
772.85284 278.22699 -452.89099
772.84967 247.3121 -452.9064
772.8623 216.40152 -452.84537
772.87183 185.48943 -452.79977
772.87183 154.5744 -452.79956
772.84338 123.65515 -452.93683
772.88123 92.745842 -452.75391
772.87488 61.830086 -452.78433
772.84656 30.91404 -452.92154
772.83392 0.00016146326 -452.98251
772.90015 -30.915936 -452.66278
772.84027 -61.827042 -452.95203
772.84967 -92.741928 -452.90628
772.87183 -123.65938 -452.79984
772.78979 -154.5578 -453.1955
772.72357 -185.4536 -453.51505
867.3299 467.0239 -157.78592
835.99268 417.99649 -303.276
834.29724 385.06036 -311.14764
834.43506 353.0304 -310.50806
805.94006 309.97696 -442.80215
803.77026 278.22827 -452.8757
803.76367 247.3121 -452.9064
803.77686 216.40152 -452.84537
803.78668 185.48943 -452.79977
803.7735 154.57204 -452.86063
803.74402 123.65305 -452.99771
803.78333 92.744331 -452.81482
803.79974 61.830791 -452.7388
803.75061 30.913639 -452.96725
803.73743 3.2936019e-05 -453.02805
803.82275 -30.916054 -452.63229
803.7572 -61.827393 -452.93661
803.7572 -92.741058 -452.93671
803.79974 -123.66137 -452.73877
803.70471 -154.55846 -453.18024
803.62927 -185.45282 -453.53021
902.86267 468.15109 -148.06714
868.42255 418.12952 -302.04071
866.45526 385.09137 -310.83618
866.59839 353.05875 -310.19635
836.92749 309.97321 -442.84802
834.68445 278.22827 -452.8757
834.67767 247.3121 -452.9064
834.69128 216.40152 -452.84537
834.70154 185.48943 -452.79977
834.67432 154.56935 -452.92151
834.64362 123.6511 -453.05856
834.68445 92.742805 -452.87573
834.72192 61.831264 -452.70834
834.65387 30.913225 -453.01294
834.64362 0.00015144017 -453.05853
834.73901 -30.916054 -452.63229
834.6709 -61.827393 -452.93661
834.66064 -92.740021 -452.98227
834.72876 -123.6635 -452.67783
834.61298 -154.5578 -453.1955
834.53815 -185.45282 -453.53021
900.81964 418.23776 -301.0351
898.51196 385.07666 -310.98358
898.62988 353.03326 -310.47534
867.94257 309.97958 -442.77145
865.60931 278.2316 -452.83011
865.59869 247.31401 -452.87579
865.61285 216.40329 -452.81485
865.61987 185.49008 -452.78448
865.58813 154.56935 -452.92151
865.55634 123.6511 -453.05856
865.59869 92.742805 -452.87573
865.62695 61.830723 -452.75412
865.58105 30.91371 -452.9519
865.56689 0.00010348297 -453.0127
865.65521 -30.916054 -452.63229
865.59167 -61.827797 -452.90628
865.59521 -92.742111 -452.89111
865.62695 -123.66085 -452.75412
865.5246 -154.5578 -453.1955
865.45398 -185.45439 -453.49988
932.09357 417.83514 -304.77408
930.34558 384.97079 -312.04965
930.72778 353.0347 -310.45877
898.95892 309.98599 -442.69498
896.53491 278.23508 -452.78439
896.52032 247.31609 -452.84546
896.53491 216.40506 -452.78433
896.53125 185.48943 -452.79977
896.50568 154.57001 -452.90619
896.47278 123.65161 -453.0433
896.51666 92.74321 -452.8606
896.52759 61.829483 -452.81488
896.50568 30.914124 -452.90622
896.49103 0.00010221118 -452.96725
896.56055 -30.91572 -452.67795
896.51666 -61.828697 -452.8606
896.53491 -92.745018 -452.78442
896.52399 -123.65838 -452.83017
896.44354 -154.55908 -453.16498
896.37042 -185.45583 -453.46942
964.86902 418.11011 -302.22195
963.28278 385.31335 -308.60416
964.15698 353.52426 -305.08658
929.97644 309.99222 -442.6185
927.46124 278.2384 -452.7388
927.44232 247.31799 -452.81485
927.45752 216.40686 -452.75415
927.44617 185.48943 -452.79977
927.4234 154.57068 -452.8909
927.38562 123.65161 -453.0433
927.43103 92.74321 -452.8606
927.42719 61.828568 -452.87582
927.43103 30.914379 -452.86057
927.41583 5.4253989e-05 -452.92145
927.46509 -30.915413 -452.7236
927.4386 -61.829102 -452.83029
927.47266 -92.747131 -452.69324
927.41968 -123.65588 -452.90619
927.36292 -154.56039 -453.13443
927.28729 -185.45726 -453.43896
996.65057 417.95032 -303.70419
997.25134 386.03281 -301.36481
1000.0829 354.86819 -290.33923
960.99536 309.9986 -442.54196
958.38452 278.24075 -452.70828
958.36493 247.32007 -452.78452
958.38049 216.40863 -452.72363
958.36102 185.48943 -452.79977
958.33362 154.57001 -452.90619
958.30237 123.65215 -453.02811
958.33362 92.742088 -452.90637
958.32581 61.827633 -452.93674
958.35321 30.914709 -452.83017
958.34534 0.00012352916 -452.86066
958.36493 -30.91489 -452.78442
958.36493 -61.829868 -452.78452
958.4118 -92.749359 -452.60181
958.3219 -123.6544 -452.95187
958.28284 -154.56163 -453.10428
958.20471 -185.45882 -453.4086
1104.2687 414.10086 -19.022854
1104.6812 379.73428 -17.46698
992.01544 310.00497 -442.46539
989.31219 278.24408 -452.66266
989.28796 247.32198 -452.75394
989.29602 216.40863 -452.72363
989.27179 185.48859 -452.81482
989.24762 154.57001 -452.90619
989.21942 123.65252 -453.01294
989.23151 92.74057 -452.96732
989.22339 61.826702 -452.99768
989.25165 30.914194 -452.89087
989.26782 0.00013482403 -452.83008
989.26782 -30.914557 -452.83005
989.30011 -61.831028 -452.70847
989.32428 -92.749184 -452.61694
989.22339 -123.65291 -452.99756
989.20325 -154.56291 -453.07373
989.12256 -185.46027 -453.37817
1156.1497 420.41815 44.52425
1152.3992 384.13321 30.805456
1023.0369 310.01135 -442.38892
1020.2365 278.24643 -452.63214
1020.2115 247.32408 -452.72363
1020.2115 216.40863 -452.72363
1020.1866 185.48859 -452.81482
1020.1616 154.57001 -452.90619
1020.1325 123.65252 -453.01294
1020.1284 92.739204 -453.02814
1020.12 61.825466 -453.05844
1020.1492 30.91371 -452.9519
1020.1658 0.0002420333 -452.89114
1020.1699 -30.914249 -452.8757
1020.2365 -61.832516 -452.6322
1020.2365 -92.748665 -452.63229
1020.12 -123.65078 -453.05853
1020.1241 -154.56424 -453.04321
1020.0368 -185.46103 -453.36301
1211.9937 392.11557 118.40341
1054.0422 310.0126 -442.37357
1051.1785 278.25323 -452.54083
1051.1527 247.33028 -452.63226
1051.1313 216.40944 -452.70825
1051.1056 185.48943 -452.79977
1051.0798 154.57068 -452.8909
1051.0757 123.65601 -452.9061
1051.0713 92.741692 -452.92151
1051.0627 61.827248 -452.9519
1051.0928 30.914625 -452.84552
1051.0885 0.00012352916 -452.86066
