# .PCD v0.7 - Point Cloud Data file format
VERSION 0.7
FIELDS x y z
SIZE 4 4 4
TYPE F F F
COUNT 1 1 1
WIDTH 1471
HEIGHT 1
VIEWPOINT 0 0 0 1 0 0 0
POINTS 1471
DATA ascii
-18.885532 5.2879477 -28.922506
-18.8783 4.5307922 -28.957424
-18.876997 3.7753956 -28.963713
-18.877453 3.0203915 -28.961512
-18.882534 2.2659018 -28.936977
-18.885336 1.510826 -28.923449
-18.887878 0.75551367 -28.911169
-18.888857 -4.7018125e-07 -28.906446
-18.905107 -0.75620735 -28.827991
-18.969465 -1.5175582 -28.517244
-18.807575 -2.256912 -29.298916
-18.304394 -2.9287026 -31.728491
-17.952717 -3.5905459 -33.426533
-17.740219 -4.2576528 -34.45256
-17.685005 -4.9518027 -34.719158
-17.699535 -5.6638546 -34.649002
-17.741369 -6.3868928 -34.44701
-17.801567 -7.1206269 -34.156345
-17.866316 -7.8611817 -33.843712
-17.937593 -8.6100435 -33.499561
-18.015192 -9.3678989 -33.124882
-18.093884 -10.132574 -32.744926
-18.172842 -10.903705 -32.36367
-18.253773 -11.682418 -31.972904
-18.334261 -12.467298 -31.58428
-18.418188 -13.261098 -31.179035
-18.501011 -14.060768 -30.779139
-18.579596 -14.863676 -30.399694
-18.666809 -15.680119 -29.978594
-18.752724 -16.502396 -29.563761
-18.837616 -17.330606 -29.153862
-18.92662 -18.169558 -28.724117
-19.014088 -19.014091 -28.301775
-19.10297 -19.867094 -27.872616
-19.194099 -20.729631 -27.432598
-19.2859 -21.60021 -26.989353
-19.385792 -22.487518 -26.507034
-19.4995 -23.399399 -25.958004
-19.634892 -24.347263 -25.304283
-18.957653 11.05863 -24.760283
-18.661266 10.108186 -26.251001
-18.521515 9.2607555 -26.953894
-18.433643 8.4487524 -27.395853
-18.373297 7.6555386 -27.699377
-18.328806 6.8732991 -27.923147
-18.294847 6.0982814 -28.093948
-18.283131 5.3325801 -28.152874
-18.273909 4.5684752 -28.199261
-18.265394 3.8052914 -28.242083
-18.270857 3.0451415 -28.214602
-18.273209 2.2841494 -28.202776
-18.272636 1.5227185 -28.205656
-18.26495 0.7610411 -28.244318
-18.257015 9.4638835e-08 -28.284225
-18.278614 -0.76160926 -28.175594
-18.470263 -1.5391933 -27.211666
-17.974464 -2.2468073 -29.705347
-17.481342 -2.9135592 -32.185555
-17.155642 -3.5740941 -33.823711
-16.947426 -4.2368569 -34.870953
-16.88603 -4.9250937 -35.179752
-16.899719 -5.6332407 -35.110897
-16.939993 -6.3524995 -34.908333
-16.99095 -7.0795612 -34.652046
-17.054552 -7.8166695 -34.33215
-17.124659 -8.5623302 -33.979542
-17.196188 -9.3146048 -33.619774
-17.269341 -10.073785 -33.251842
-17.343634 -10.839772 -32.878185
-17.421225 -11.614151 -32.487926
-17.496307 -12.393221 -32.110287
-17.577862 -13.183398 -31.7001
-17.657034 -13.978485 -31.301895
-17.732552 -14.777129 -30.922068
-17.814455 -15.587648 -30.510128
-17.897547 -16.406084 -30.092213
-17.97471 -17.225763 -29.704109
-18.057878 -18.057878 -29.285809
-18.142509 -18.898451 -28.860146
-18.226292 -19.745153 -28.438745
-18.314173 -20.603443 -27.996744
-18.40155 -21.468477 -27.557268
-18.496994 -22.350533 -27.07723
-18.59738 -23.246725 -26.572319
-18.71772 -24.177055 -25.96706
-18.221279 11.091211 -24.479357
-18.011747 10.180552 -25.579033
-17.89185 9.3348761 -26.2083
-17.813976 8.5197268 -26.617004
-17.758551 7.7211075 -26.90789
-17.719795 6.9338346 -27.111282
-17.69252 6.1539164 -27.254438
-17.672646 5.3786306 -27.358747
-17.661362 4.6073112 -27.417973
-17.66037 3.8392115 -27.423176
-17.665142 3.0721974 -27.398134
-17.662291 2.3037777 -27.413094
-17.6626 1.5358757 -27.411467
-17.654734 0.76759678 -27.452751
-17.652567 -2.5312179e-06 -27.464121
-17.698179 -0.7694869 -27.224737
-17.810383 -1.5487303 -26.635853
-17.144047 -2.2361805 -30.132984
-16.680294 -2.9009221 -32.566898
-16.351376 -3.5546494 -34.293148
-16.155907 -4.2145867 -35.319027
-16.096348 -4.8988891 -35.631615
-16.104586 -5.6015949 -35.588375
-16.143837 -6.3171544 -35.382385
-16.196136 -7.0417991 -35.107891
-16.252556 -7.7729616 -34.81179
-16.318462 -8.5139837 -34.465893
-16.385172 -9.2611866 -34.115784
-16.455387 -10.016321 -33.747276
-16.527399 -10.77874 -33.369328
-16.6001 -11.547898 -32.987774
-16.671345 -12.3223 -32.613857
-16.748495 -13.10752 -32.20895
-16.820854 -13.895492 -31.829187
-16.896959 -14.693009 -31.429773
-16.971981 -15.496158 -31.03603
-17.046692 -16.305536 -30.643923
-17.124626 -17.12463 -30.234901
-17.204746 -17.95278 -29.814413
-17.279924 -18.78253 -29.419857
-17.361927 -19.626528 -28.989491
-17.444166 -20.477936 -28.557867
-17.527006 -21.337231 -28.123098
-17.616184 -22.211714 -27.655075
-17.711754 -23.102291 -27.153492
-17.822111 -24.021107 -26.574308
-17.885704 12.194798 -21.973763
-17.513676 11.145062 -24.015024
-17.357679 10.25681 -24.870955
-17.26198 9.4156246 -25.396044
-17.191231 8.5956173 -25.784227
-17.137331 7.7896957 -26.079973
-17.100937 6.9958377 -26.279667
-17.073469 6.2085319 -26.430372
-17.053938 5.4262528 -26.537535
-17.049591 4.6498899 -26.561388
-17.046753 3.8742619 -26.576954
-17.054905 3.1008916 -26.532234
-17.056355 2.325866 -26.524277
-17.061552 1.551052 -26.495762
-17.050375 0.77501321 -26.557083
-17.044823 -2.0200184e-06 -26.587545
-17.067961 -0.77581674 -26.46059
-17.108894 -1.5553536 -26.235991
-16.308901 -2.2239442 -30.625443
-15.873384 -2.8860688 -33.015057
-15.560994 -3.5365903 -34.729095
-15.378461 -4.1941257 -35.730629
-15.314975 -4.8729482 -36.078968
-15.32048 -5.571085 -36.048756
-15.356685 -6.2822809 -35.850109
-15.407739 -7.0035172 -35.569988
-15.460522 -7.7302608 -35.280369
-15.523471 -8.4673491 -34.934978
-15.586884 -9.210434 -34.58704
-15.652446 -9.9606476 -34.227314
-15.717535 -10.716503 -33.870178
-15.787877 -11.482095 -33.484222
-15.856709 -12.252913 -33.106548
-15.925408 -13.029881 -32.72961
-15.998584 -13.816962 -32.328102
-16.066805 -14.606185 -31.953794
-16.142046 -15.408319 -31.540953
-16.210133 -16.210135 -31.167366
-16.283863 -17.024038 -30.762827
-16.360266 -17.847565 -30.343611
-16.432846 -18.673693 -29.945368
-16.510376 -19.51226 -29.519989
-16.58601 -20.355564 -29.104984
-16.662283 -21.206545 -28.686481
-16.743452 -22.070917 -28.241123
-16.837065 -22.959635 -27.727488
-16.930895 -23.857172 -27.21265
-17.077095 12.197925 -21.948603
-16.835285 11.223524 -23.338552
-16.701138 10.338797 -24.109646
-16.619556 9.4968891 -24.578592
-16.551392 8.669776 -24.970404
-16.506872 7.860415 -25.226313
-16.472857 7.0597954 -25.421843
-16.445452 6.2649326 -25.57937
-16.437159 5.4790535 -25.627037
-16.435219 4.6957765 -25.638187
-16.435806 3.9132843 -25.634806
-16.443155 3.1320319 -25.592562
-16.453928 2.3505571 -25.530642
-16.45546 1.5671883 -25.521843
-16.43804 0.78276271 -25.621969
-16.419367 -8.1539235e-07 -25.729301
-16.414383 -0.78163701 -25.757952
-16.414968 -1.5633314 -25.754585
-15.496524 -2.2137878 -31.033926
-15.090184 -2.8743236 -33.369614
-14.786683 -3.5206404 -35.114174
-14.602306 -4.1720891 -36.174007
-14.541236 -4.8470807 -36.525043
-14.546896 -5.541677 -36.492504
-14.579887 -6.2485218 -36.302864
-14.626282 -6.9648967 -36.036186
-14.676111 -7.68749 -35.749756
-14.735676 -8.4203892 -35.407372
-14.791918 -9.1569033 -35.084091
-14.856508 -9.9043417 -34.712811
-14.917792 -10.655567 -34.360546
-14.984223 -11.416552 -33.978703
-15.04893 -12.182471 -33.606743
-15.114946 -12.955667 -33.227283
-15.181694 -13.735821 -32.843609
-15.246553 -14.52053 -32.470779
-15.31636 -15.316362 -32.069527
-15.386241 -16.118923 -31.667841
-15.453904 -16.925705 -31.278906
-15.522795 -17.740337 -30.882915
-15.592301 -18.562263 -30.483379
-15.665156 -19.394957 -30.064598
-15.739126 -20.236023 -29.639406
-15.812439 -21.083254 -29.218002
-15.888469 -21.941221 -28.780977
-15.968838 -22.812628 -28.318998
-16.060738 -23.70871 -27.790758
-16.21347 -24.706245 -26.912815
-16.840841 13.47267 -18.466452
-16.328445 12.246333 -21.559031
-16.145191 11.301632 -22.66507
-16.039068 10.425395 -23.305576
-15.966529 9.579917 -23.743393
-15.90573 8.7481499 -24.110346
-15.863423 7.9317102 -24.365692
-15.831869 7.1243396 -24.556137
-15.811625 6.3246498 -24.678316
-15.803349 5.5311694 -24.728268
-15.809342 4.7428012 -24.692099
-15.817111 3.9542766 -24.645212
-15.831754 3.1663477 -24.556824
-15.846828 2.3770242 -24.465857
-15.860205 1.586018 -24.385111
-15.81974 0.79098213 -24.629339
-15.783463 -1.2600801e-06 -24.848289
-15.755004 -0.78775364 -25.020056
-15.741804 -1.574183 -25.099728
-14.706484 -2.2059772 -31.348438
-14.298375 -2.8596761 -33.811592
-14.009052 -3.5022624 -35.557812
-13.837677 -4.1513057 -36.592155
-13.778399 -4.8224401 -36.949924
-13.781697 -5.5126815 -36.930023
-13.811831 -6.2153258 -36.74815
-13.852433 -6.9262176 -36.503086
-13.899584 -7.6447721 -36.21851
-13.95635 -8.3738117 -35.875896
-14.00941 -9.1061163 -35.555645
-14.070696 -9.8494873 -35.185753
-14.129418 -10.597065 -34.831337
-14.18854 -11.350834 -34.474499
-14.250852 -12.113224 -34.098427
-14.312587 -12.881327 -33.725819
-14.375332 -13.656566 -33.347115
-14.437392 -14.437392 -32.972549
-14.501719 -15.226806 -32.584301
-14.566381 -16.023022 -32.194031
-14.631327 -16.826029 -31.802046
-14.697793 -17.637352 -31.40089
-14.765164 -18.456459 -30.994268
-14.831347 -19.280756 -30.594818
-14.89843 -20.112879 -30.189941
-14.967862 -20.955009 -29.77088
-15.040062 -21.808094 -29.335106
-15.116303 -22.674458 -28.874954
-15.198333 -23.557413 -28.379871
-15.318419 -24.509472 -27.655075
-15.892416 13.383089 -19.142323
-15.603106 12.318239 -20.980364
-15.462481 11.393406 -21.873785
-15.369051 10.515665 -22.467365
-15.304066 9.6657228 -22.880228
-15.248344 8.8279896 -23.234234
-15.21081 8.0056896 -23.472698
-15.188643 7.1946206 -23.613522
-15.17274 6.3885207 -23.714563
-15.167373 5.587976 -23.748667
-15.175674 4.7923164 -23.695923
-15.190086 3.9973876 -23.604359
-15.216654 3.2035031 -23.43557
-15.268442 2.410809 -23.106552
-15.341609 1.6149077 -22.641705
-15.203136 0.80016392 -23.521456
-15.142135 -3.2717585e-06 -23.909008
-15.102323 -0.79486042 -24.161942
-15.074622 -1.5868064 -24.337921
-13.896185 -2.1941338 -31.82477
-13.512663 -2.844774 -34.261356
-13.254053 -3.4879124 -35.904354
-13.08108 -4.1308689 -37.003284
-13.018958 -4.7964602 -37.397957
-13.020467 -5.4823022 -37.388374
-13.048943 -6.1810799 -37.207462
-13.088737 -6.888813 -36.954632
-13.132757 -7.6031775 -36.674969
-13.18451 -8.3270607 -36.346172
-13.238822 -9.0581427 -36.001122
-13.292732 -9.7946453 -35.658619
-13.347256 -10.537309 -35.312222
-13.403955 -11.287542 -34.951996
-13.463186 -12.04601 -34.575687
-13.520219 -12.808632 -34.213348
-13.578844 -13.578848 -33.840889
-13.63646 -14.354169 -33.47485
-13.696596 -15.138347 -33.092789
-13.759222 -15.931733 -32.694912
-13.81953 -16.728905 -32.311771
-13.878655 -17.530933 -31.936138
-13.943288 -18.346432 -31.525511
-14.003432 -19.162592 -31.14341
-14.070807 -19.995358 -30.715361
-14.13542 -20.831146 -30.304859
-14.203734 -21.679384 -29.870848
-14.274524 -22.538721 -29.421106
-14.348003 -23.409903 -28.954277
-14.449402 -24.335835 -28.310074
-15.080465 13.404859 -18.978069
-14.88088 12.400734 -20.316523
-14.772024 11.48935 -21.046522
-14.692148 10.610995 -21.58218
-14.630172 9.7534456 -21.997812
-14.585974 8.9136477 -22.294209
-14.552785 8.0848789 -22.516769
-14.528957 7.2644792 -22.676571
-14.517234 6.4521041 -22.755192
-14.521461 5.6472344 -22.726843
-14.536945 4.8456435 -22.622999
-14.562844 4.0452328 -22.44932
-14.606306 3.245847 -22.15786
-14.768924 2.4614863 -21.067316
-14.625554 1.6250623 -22.02877
-14.534317 0.80746067 -22.640627
-14.479619 -2.3131211e-06 -23.007439
-14.434262 -0.80190653 -23.311604
-14.402287 -1.600255 -23.526047
-13.100718 -2.1834528 -32.254547
-12.747747 -2.8328357 -34.621628
-12.492727 -3.4702027 -36.331829
-12.333364 -4.1111231 -37.400543
-12.270522 -4.7718706 -37.821972
-12.270522 -5.4535661 -37.821976
-12.295606 -6.1478033 -37.653763
-12.33375 -6.8520846 -37.397953
-12.375397 -7.5627446 -37.118664
-12.42042 -8.2802811 -36.816738
-12.468768 -9.0052242 -36.492504
-12.522827 -9.7399759 -36.129982
-12.574625 -10.478856 -35.782608
-12.630013 -11.226677 -35.411175
-12.682705 -11.97811 -35.057812
-12.737814 -12.737815 -34.68824
-12.792077 -13.502748 -34.324356
-12.847892 -14.275439 -33.950047
-12.903731 -15.054354 -33.575581
-12.960868 -15.841061 -33.192413
-13.017394 -16.633339 -32.813339
-13.07459 -17.432789 -32.429771
-13.12914 -18.234917 -32.063957
-13.189884 -19.052057 -31.656593
-13.250347 -19.875523 -31.251122
-13.310377 -20.70503 -30.848547
-13.373087 -21.545528 -30.428013
-13.440836 -22.401396 -29.973669
-13.511408 -23.269646 -29.500414
-13.594017 -24.167145 -28.946413
-14.617997 14.617996 -16.312965
-14.307393 13.465779 -18.518436
-14.163672 12.497356 -19.538948
-14.07772 11.593415 -20.149269
-14.00692 10.711175 -20.651983
-13.953293 9.8493843 -21.032776
-13.915304 9.0040188 -21.302515
-13.885136 8.1677256 -21.516741
-13.867903 7.3418283 -21.639097
-13.86506 6.5247321 -21.659275
-13.876643 5.7139115 -21.577038
-13.892497 4.9032354 -21.464464
-13.927701 4.0963836 -21.214499
-14.01019 3.2965155 -20.628769
-14.025399 2.4750695 -20.520777
-13.920146 1.6376619 -21.268139
-13.848753 0.81463301 -21.775068
-13.79418 -2.2499654e-07 -22.162577
-13.7539 -0.80905378 -22.448595
-13.723311 -1.6145097 -22.665783
-12.329811 -2.1758506 -32.560516
-11.981582 -2.8191993 -35.033165
-11.746578 -3.4548745 -36.701836
-11.590883 -4.0909028 -37.807362
-11.530005 -4.7476511 -38.239635
-11.52847 -5.4251637 -38.250542
-11.550443 -6.1149426 -38.094521
-11.585832 -6.8151989 -37.843239
-11.625177 -7.5221753 -37.563854
-11.665524 -8.2344866 -37.277378
-11.711898 -8.9561605 -36.948086
-11.760129 -9.6848135 -36.605614
-11.810671 -10.421184 -36.246735
-11.859985 -11.162342 -35.896568
-11.910705 -11.910707 -35.53643
-11.96236 -12.666028 -35.169651
-12.01497 -13.428496 -34.796085
-12.067378 -14.196918 -34.42395
-12.119733 -14.971439 -34.052197
-12.170156 -15.749618 -33.694168
-12.22148 -16.534948 -33.329723
-12.278831 -17.33482 -32.922516
-12.329566 -18.131716 -32.562252
-12.387318 -18.945311 -32.15218
-12.440661 -19.758698 -31.773409
-12.499839 -20.587973 -31.35321
-12.559328 -21.42474 -30.930801
-12.617846 -22.266792 -30.515289
-12.68257 -23.127047 -30.055696
-12.760074 -24.018961 -29.505384
-13.749364 14.6087 -16.378981
-13.559158 13.559158 -17.813967
-13.451352 12.610641 -18.627306
-13.372561 11.70099 -19.221745
-13.310805 10.815026 -19.687647
-13.262313 9.9467363 -20.053495
-13.230947 9.0962753 -20.290136
-13.208142 8.2550869 -20.462175
-13.199082 7.4244804 -20.530529
-13.197292 6.5986433 -20.544037
-13.216218 5.782095 -20.40126
-13.240902 4.9653363 -20.215029
-13.297816 4.1555676 -19.785646
-13.43082 3.3577042 -18.782202
-13.289944 2.4918637 -19.845036
-13.210135 1.651268 -20.447147
-13.150115 0.82187957 -20.899961
-13.103323 -2.1828462e-06 -21.252977
-13.064121 -0.81651014 -21.548733
-13.033151 -1.6291428 -21.782387
-11.544965 -2.1646829 -33.009892
-11.227182 -2.8067966 -35.407372
-11.002289 -3.4382174 -37.104065
-10.85399 -4.0702467 -38.222889
-10.796535 -4.7234864 -38.656345
-10.794506 -5.3972521 -38.671661
-10.813938 -6.0828424 -38.525055
-10.845083 -6.7781792 -38.290089
-10.881983 -7.4813633 -38.0117
-10.9222 -8.1916513 -37.708282
-10.96553 -8.9094963 -37.381378
-11.009344 -9.6331787 -37.050831
-11.053998 -10.363124 -36.713947
-11.101303 -11.101306 -36.357056
-11.14912 -11.845942 -35.996304
-11.196242 -12.595772 -35.640797
-11.24481 -13.353214 -35.274376
-11.293839 -14.117298 -34.904491
-11.340798 -14.8848 -34.550201
-11.388225 -15.658811 -34.192402
-11.437692 -16.441685 -33.819199
-11.490003 -17.235006 -33.424541
-11.538573 -18.02902 -33.058102
-11.592275 -18.837448 -32.652958
-11.641677 -19.645329 -32.280251
-11.694586 -20.465527 -31.881081
-11.74731 -21.292 -31.483316
-11.804964 -22.134308 -31.048344
-11.865842 -22.990074 -30.589056
-11.934178 -23.868357 -30.073496
-13.245039 15.894048 -13.522077
-12.943336 14.669113 -15.950004
-12.812512 13.666678 -17.002783
-12.721364 12.721365 -17.736282
-12.65468 11.811036 -18.272921
-12.603333 10.922888 -18.686125
-12.561142 10.048913 -19.025661
-12.535005 9.1923323 -19.235994
-12.516987 8.3446589 -19.380981
-12.513267 7.5079584 -19.410925
-12.523385 6.6791372 -19.329493
-12.546309 5.8549418 -19.14502
-12.589076 5.0356269 -18.800854
-12.675884 4.2252975 -18.102283
-12.649171 3.3731139 -18.317257
-12.552928 2.5105889 -19.091753
-12.493886 1.6658523 -19.566889
-12.440722 0.82938164 -19.99473
-12.397362 -1.0577428e-06 -20.343649
-12.361747 -0.82411903 -20.630262
-12.332493 -1.6443321 -20.865675
-10.773681 -2.154736 -33.41003
-10.480494 -2.7948 -35.769417
-10.266587 -3.4221964 -37.490807
-10.126529 -4.0506105 -38.617908
-10.070649 -4.6996388 -39.067593
-10.067223 -5.3691874 -39.095177
-10.085809 -6.051486 -38.945602
-10.113677 -6.7424526 -38.721333
-10.14819 -7.4420071 -38.4436
-10.183854 -8.1470842 -38.156597
-10.224003 -8.8608017 -37.833508
-10.265656 -9.5812798 -37.498302
-10.307391 -10.307395 -37.162437
-10.349403 -11.039363 -36.824356
-10.393501 -11.779304 -36.469475
-10.438476 -12.526174 -36.107552
-10.482802 -13.278221 -35.750832
-10.526192 -14.034924 -35.401665
-10.572699 -14.801778 -35.027412
-10.616561 -15.570958 -34.674427
-10.663872 -16.351273 -34.293701
-10.708286 -17.133259 -33.936283
-10.757373 -17.928955 -33.541279
-10.803034 -18.72526 -33.173817
-10.850338 -19.530613 -32.793137
-10.898494 -20.343857 -32.405613
-10.950291 -21.170565 -31.988783
-11.001478 -22.002956 -31.576866
-11.057761 -22.852709 -31.123926
-11.116919 -23.716095 -30.647867
-11.211215 -24.664673 -29.889029
-12.340231 15.866012 -13.710078
-12.156696 14.761701 -15.292567
-12.060572 13.783505 -16.121359
-11.986879 12.843086 -16.75675
-11.928134 11.928137 -17.263264
-11.885663 11.036686 -17.629469
-11.851324 10.158277 -17.925535
-11.825985 9.2918425 -18.144009
-11.820237 8.4430246 -18.193569
-11.82197 7.5998368 -18.178629
-11.837772 6.7644382 -18.042383
-11.86578 5.932889 -17.800892
-11.922287 5.1095471 -17.313679
-12.003173 4.2868466 -16.616268
-11.88829 3.3966537 -17.606804
-11.822016 2.5332875 -18.17823
-11.764917 1.6807016 -18.670553
-11.714096 0.83672172 -19.10874
-11.675133 -1.4694136e-06 -19.444687
-11.647221 -0.8319459 -19.685354
-11.626274 -1.6608931 -19.865963
-10.008862 -2.1447563 -33.811592
-9.7323971 -2.7806871 -36.195332
-9.541214 -3.4075801 -37.84375
-9.4042921 -4.0304141 -39.024315
-9.3524837 -4.6762447 -39.471012
-9.3476057 -5.3414893 -39.513081
-9.3641443 -6.0198097 -39.370472
-9.3901138 -6.7072258 -39.146564
-9.42167 -7.4027414 -38.874481
-9.4549561 -8.104248 -38.587486
-9.4898882 -8.8120403 -38.286285
-9.5273008 -9.5273037 -37.963711
-9.5668011 -10.250146 -37.623131
-9.6066904 -10.979076 -37.279194
-9.6466713 -11.713817 -36.934475
-9.6883945 -12.456509 -36.574722
-9.7286272 -13.203139 -36.227829
-9.7716885 -13.959558 -35.856556
-9.8124914 -14.718738 -35.504745
-9.8535089 -15.484089 -35.151073
-9.897397 -16.260015 -34.772663
-9.9394522 -17.039064 -34.410053
-9.9806309 -17.822561 -34.055
-10.025136 -18.618113 -33.671265
-10.069148 -19.419071 -33.291805
-10.112712 -20.225426 -32.91618
-10.158709 -21.043037 -32.519592
-10.206893 -21.871912 -32.104134
-10.258387 -22.715002 -31.660143
-10.313283 -23.573217 -31.186825
-10.386834 -24.483253 -30.552647
-11.773513 17.207441 -10.787705
-11.502234 15.926169 -13.306638
-11.379189 14.880475 -14.449182
-11.300823 13.908705 -15.176831
-11.236428 12.965111 -15.77478
-11.190426 12.051227 -16.201923
-11.154936 11.154937 -16.531473
-11.124625 10.268884 -16.812922
-11.111896 9.4023771 -16.931112
-11.109813 8.54601 -16.950445
-11.120886 7.6990724 -16.847639
-11.138996 6.854764 -16.67947
-11.176844 6.018301 -16.328045
-11.310347 5.22016 -15.088412
-11.212386 4.3124537 -15.998021
-11.129803 3.4245529 -16.764837
-11.074013 2.5555382 -17.282873
-11.024414 1.6960669 -17.743423
-10.983349 0.84487122 -18.124729
-10.946378 -2.3270914e-06 -18.468019
-10.923559 -0.84027451 -18.679903
-10.909111 -1.6783253 -18.814064
-9.2561522 -2.1360347 -34.162498
-8.9955702 -2.767869 -36.582119
-8.8155603 -3.3906035 -38.25359
-8.6927271 -4.0120296 -39.394154
-8.6421413 -4.6534629 -39.863861
-8.6363449 -5.3146763 -39.917686
-8.6481829 -5.987206 -39.807766
-8.6734629 -6.6718946 -39.573025
-8.7017393 -7.3630104 -39.310474
-8.7333879 -8.0615902 -39.016598
-8.7653484 -8.7653503 -38.71983
-8.7998028 -9.4767132 -38.399906
-8.8360376 -10.19543 -38.06345
-8.8726549 -10.92019 -37.723442
-8.9086847 -11.649821 -37.388889
-8.9471169 -12.388318 -37.032024
-8.9842377 -13.130812 -36.687347
-9.0217247 -13.87958 -36.339264
-9.0616598 -14.638071 -35.968441
-9.0991287 -15.398527 -35.620537
-9.1384916 -16.168104 -35.255028
-9.1778717 -16.943762 -34.889374
-9.2160997 -17.723269 -34.534409
-9.2559719 -18.511946 -34.164177
-9.2975883 -19.310379 -33.777748
-9.3377409 -20.112061 -33.404907
-9.3798819 -20.924351 -33.013626
-9.422965 -21.74531 -32.613567
-9.4687462 -22.579323 -32.188477
-9.5191755 -23.431816 -31.720215
-9.5811338 -24.321344 -31.144901
-10.85147 17.181498 -10.952562
-10.686566 16.029844 -12.611364
-10.593638 15.007653 -13.546145
-10.529299 14.039068 -14.193348
-10.477468 13.096834 -14.714714
-10.442021 12.182359 -15.071295
-10.407885 11.275206 -15.414675
-10.391457 10.391457 -15.579948
-10.38127 9.5161629 -15.682407
-10.384964 8.6541376 -15.645245
-10.396926 7.7976971 -15.524917
-10.427678 6.9517865 -15.21558
-10.48684 6.1173229 -14.620457
-10.517283 5.2586379 -14.314215
-10.426767 4.3444853 -15.22474
-10.367133 3.4557097 -15.824604
-10.317207 2.5793002 -16.326818
-10.275111 1.7125186 -16.750286
-10.237704 0.85314006 -17.126564
-10.209689 6.9371737e-07 -17.408381
-10.189648 -0.84914011 -17.609985
-10.188738 -1.6981257 -17.619131
-8.5098705 -2.1274686 -34.507233
-8.2682371 -2.7560813 -36.937878
-8.1028728 -3.3761983 -38.601315
-7.9875994 -3.9938011 -39.760876
-7.9375114 -4.6302161 -40.264725
-7.931519 -5.2876811 -40.324997
-7.9435611 -5.9576716 -40.203873
-7.963768 -6.6364741 -40.000599
-7.9887166 -7.3229914 -39.749634
-8.0180788 -8.0180798 -39.454273
-8.0481997 -8.7188835 -39.151279
-8.0800152 -9.4266863 -38.831245
-8.1130342 -10.141295 -38.499096
-8.1462994 -10.861734 -38.164478
-8.1797113 -11.587926 -37.828381
-8.213192 -12.31979 -37.491581
-8.2470779 -13.057877 -37.150715
-8.283309 -13.805515 -36.78627
-8.3187513 -14.557816 -36.429741
-8.3529577 -15.31376 -36.085644
-8.3882513 -16.07748 -35.730633
-8.4239511 -16.847904 -35.37151
-8.4606657 -17.62639 -35.002193
-8.4969864 -18.410139 -34.636841
-8.533287 -19.199896 -34.271679
-8.5710745 -19.999172 -33.891567
-8.6085777 -20.804064 -33.51432
-8.6485729 -21.621437 -33.111988
-8.6906967 -22.450968 -32.688263
-8.7352362 -23.293964 -32.240231
-8.7868433 -24.163824 -31.721098
-10.249659 18.635742 -7.6332703
-9.9811592 17.240183 -10.579683
-9.8748865 16.158903 -11.745886
-9.804636 15.152618 -12.516816
-9.7511864 14.183544 -13.103344
-9.7070761 13.236921 -13.58739
-9.6770344 12.316225 -13.917061
-9.6512003 11.405961 -14.200559
-9.6392994 10.515596 -14.331158
-9.63764 9.6376419 -14.349368
-9.6424646 8.7658768 -14.296419
-9.6634407 7.9064507 -14.066234
-9.7011309 7.0553703 -13.652637
-9.8124266 6.2442713 -12.431308
-9.7084856 5.2955384 -13.571934
-9.6443958 4.3838167 -14.275228
-9.5928288 3.4882977 -14.841114
-9.5515003 2.6049564 -15.294644
-9.5116901 1.7293972 -15.731495
-9.4813881 0.86194408 -16.064034
-9.458518 -5.066068e-07 -16.314999
-9.4525023 -0.85931855 -16.381012
-9.4635 -1.7206341 -16.260332
-7.7707286 -2.1192901 -34.836292
-7.5414467 -2.7423434 -37.35236
-7.3921719 -3.3600791 -38.990456
-7.2894897 -3.9760857 -40.117264
-7.2400384 -4.6072989 -40.659927
-7.2342949 -5.2613087 -40.722946
-7.2446351 -5.9274302 -40.609482
-7.2629704 -6.6027007 -40.408276
-7.2859383 -7.2859397 -40.156235
-7.3110051 -7.9756441 -39.881161
-7.3379216 -8.6720915 -39.585785
-7.3669071 -9.3760653 -39.267708
-7.3974867 -10.087483 -38.932137
-7.4269228 -10.802797 -38.609112
-7.4583268 -11.526506 -38.264492
-7.4887629 -12.254341 -37.930492
-7.5179224 -12.985502 -37.610508
-7.5512152 -13.729486 -37.245163
-7.5834188 -14.47744 -36.891769
-7.6140432 -15.22809 -36.555706
-7.6452079 -15.985438 -36.213711
-7.6786852 -16.753498 -35.84634
-7.7124567 -17.528316 -35.475742
-7.7455053 -18.307558 -35.113087
-7.7779584 -19.091354 -34.756954
-7.810533 -19.881359 -34.39949
-7.845017 -20.68232 -34.021072
-7.8820252 -21.496429 -33.61496
-7.9207644 -22.322159 -33.189835
-7.9582295 -23.15122 -32.778706
-8.0059681 -24.017908 -32.254845
-9.2799454 18.559891 -8.0910645
-9.1384115 17.362982 -9.7995319
-9.0638618 16.314947 -10.699425
-9.0058327 15.309916 -11.399896
-8.9635315 14.341648 -11.910526
-8.92945 13.394173 -12.321918
-8.8985929 12.45803 -12.694406
-8.8809013 11.545168 -12.907962
-8.8754635 10.650556 -12.973598
-8.8753548 9.7628908 -12.974901
-8.8873549 8.8873577 -12.830048
-8.912035 8.0208302 -12.53214
-8.971467 7.1771741 -11.814731
-8.9706955 6.2794847 -11.824051
-8.8981218 5.3388715 -12.700082
-8.8470144 4.4235039 -13.316999
-8.805232 3.5220923 -13.821368
-8.7690029 2.630698 -14.25869
-8.7385101 1.7477026 -14.626777
-8.7137747 0.8713752 -14.925352
-8.6991253 2.7025978e-06 -15.102188
-8.7061844 -0.87062061 -15.016975
-8.7327919 -1.7465593 -14.695797
-7.028729 -2.1086195 -35.265659
-6.8280578 -2.7312241 -37.687977
-6.6912303 -3.3456171 -39.339619
-6.5974464 -3.9584703 -40.471699
-6.5502782 -4.5851965 -41.041065
-6.5439725 -5.2351785 -41.117188
-6.5540638 -5.8986602 -40.995365
-6.5704722 -6.5704727 -40.797302
-6.5907912 -7.2498703 -40.552029
-6.613513 -7.9362173 -40.277752
-6.6377411 -8.6290655 -39.985291
-6.6622081 -9.3270912 -39.689953
-6.6890221 -10.033534 -39.36628
-6.7164445 -10.746313 -39.035263
-6.7434902 -11.463937 -38.708794
-6.7710056 -12.187811 -38.376652
-6.7990632 -12.918222 -38.037964
-6.8269072 -13.653814 -37.701859
-6.8560324 -14.397669 -37.350285
-6.8838701 -15.144516 -37.014256
-6.9127197 -15.899255 -36.666008
-6.942914 -16.662992 -36.30154
-6.9721732 -17.430437 -35.948341
-7.0012994 -18.203382 -35.596756
-7.0308957 -18.983421 -35.239491
-7.0616093 -19.772507 -34.868752
-7.091949 -20.566658 -34.502518
-7.1246138 -21.373842 -34.108227
-7.1581659 -22.190315 -33.703213
-7.1943288 -23.021854 -33.266689
-7.2344675 -23.873747 -32.782173
-8.3871908 18.638201 -7.6184225
-8.2967596 17.515379 -8.8313074
-8.2405691 16.481136 -9.5849562
-8.1971226 15.483455 -10.16767
-8.1597395 14.506204 -10.669067
-8.1322193 13.553697 -11.038181
-8.1084528 12.613148 -11.35694
-8.0973206 11.696133 -11.506248
-8.0952244 10.793634 -11.534364
-8.1003838 9.9004688 -11.465158
-8.1163368 9.0181513 -11.251194
-8.153019 8.153018 -10.759198
-8.220829 7.3074007 -9.8497086
-8.1339645 6.3264146 -11.01476
-8.0834656 5.3889751 -11.692083
-8.0416889 4.4676013 -12.252398
-8.0057383 3.5581057 -12.734563
-7.9729156 2.6576381 -13.1748
-7.9499097 1.7666458 -13.483364
-7.932591 0.88139868 -13.715651
-7.9307704 -4.5850852e-06 -13.740064
-7.9497495 -0.88330442 -13.485516
-8.0080824 -1.7795787 -12.703135
-6.2951288 -2.0983782 -35.677776
-6.1184921 -2.7193339 -38.046886
-5.9981966 -3.3323338 -39.660324
-5.9101958 -3.9401319 -40.840611
-5.867734 -4.5637937 -41.410126
-5.8608031 -5.2096028 -41.503082
-5.8699722 -5.8699737 -41.380108
-5.8847017 -6.5385599 -41.182549
-5.9026346 -7.2143326 -40.942032
-5.9221005 -7.8961377 -40.680943
-5.9436674 -8.5852985 -40.391682
-5.9663501 -9.2809877 -40.087463
-5.9886594 -9.981102 -39.788231
-6.0132656 -10.690251 -39.458214
-6.0386662 -11.406371 -39.117527
-6.0620255 -12.124052 -38.804234
-6.0869756 -12.850284 -38.469597
-6.1119423 -13.582095 -38.134727
-6.1370769 -14.319848 -37.797619
-6.1628428 -15.064729 -37.452038
-6.1887288 -15.815643 -37.104843
-6.214716 -16.572577 -36.756306
-6.2405066 -17.334745 -36.410385
-6.2654762 -18.100266 -36.075497
-6.2918715 -18.875616 -35.72147
-6.3196864 -19.661245 -35.348404
-6.3472781 -20.452341 -34.978344
-6.3758125 -21.252712 -34.595619
-6.4054594 -22.063248 -34.19799
-6.4368968 -22.886747 -33.776344
-6.4714923 -23.728806 -33.312336
-6.5229645 -24.642311 -32.621975
-7.8098412 20.500834 -2.2685139
-7.5087333 18.771833 -6.8118773
-7.4489689 17.691299 -7.7136497
-7.405777 16.662994 -8.3653765
-7.3740282 15.66981 -8.8444319
-7.3481579 14.696316 -9.2347841
-7.323204 13.731007 -9.6113033
-7.3067021 12.786729 -9.8602991
-7.2976584 11.858693 -9.9967556
-7.2961988 10.9443 -10.018783
-7.3066106 10.046587 -9.8616714
-7.3254404 9.1568031 -9.5775633
-7.3836045 8.3065557 -8.6999235
-7.3479729 7.3479733 -9.2375727
-7.2951045 6.3832169 -10.035295
-7.2536426 5.4402332 -10.660904
-7.2197871 4.5123677 -11.171747
-7.1913223 3.5956621 -11.601253
-7.1650443 2.6868925 -11.997749
-7.1472631 1.7868149 -12.266047
-7.1401224 0.89251304 -12.373788
-7.1492767 -1.6411918e-06 -12.235665
-7.1891074 -0.89863878 -11.634665
-7.2471881 -1.8118011 -10.758291
-5.5802627 -2.0926001 -35.910259
-5.4157319 -2.7078695 -38.39283
-5.3111916 -3.3194952 -39.970226
-5.23244 -3.9243324 -41.158489
-5.1913776 -4.5424585 -41.778076
-5.1854281 -5.1854305 -41.867851
-5.1933484 -5.8425202 -41.748341
-5.2055144 -6.5068927 -41.564774
-5.2213469 -7.1793528 -41.325878
-5.2392192 -7.858829 -41.056206
-5.2575455 -8.5435143 -40.779682
-5.2772732 -9.2352276 -40.482018
-5.2971005 -9.932066 -40.182842
-5.3185477 -10.637095 -39.85923
-5.3388667 -11.345093 -39.552643
-5.3612614 -12.06284 -39.214733
-5.382421 -12.783252 -38.895454
-5.4043994 -13.511 -38.563828
-5.426692 -14.24507 -38.227459
-5.4492545 -14.98545 -37.88702
-5.4713554 -15.73015 -37.553539
-5.4944811 -16.483446 -37.204605
-5.5164475 -17.238897 -36.873161
-5.5394306 -18.003149 -36.526363
-5.5626416 -18.773918 -36.176136
-5.5862975 -19.552046 -35.819195
-5.6103354 -20.337467 -35.456493
-5.6353064 -21.132399 -35.079708
-5.6613975 -21.937916 -34.686031
-5.6882114 -22.75285 -34.281433
-5.7180057 -23.586775 -33.831879
-5.7573552 -24.468763 -33.238132
-6.7889485 20.366846 -3.0386863
-6.6463237 18.989496 -5.498168
-6.5960226 17.90349 -6.3655834
-6.5614195 16.872221 -6.9622908
-6.5345826 15.869699 -7.4250722
-6.5146608 14.890655 -7.7686133
-6.4962101 13.920453 -8.0867958
-6.4847441 12.969489 -8.2845058
-6.4798903 12.034083 -8.3682156
-6.4788489 11.106599 -8.3861732
-6.4861445 10.19251 -8.2603579
-6.5093746 9.2991066 -7.859777
-6.5379848 8.4059811 -7.3664107
-6.484086 7.4103851 -8.295866
-6.4491239 6.4491267 -8.8987617
-6.4131408 5.4969792 -9.5192661
-6.3866754 4.5619097 -9.975647
-6.3628311 3.6359015 -10.386824
-6.34339 2.7185965 -10.722079
-6.3321428 1.8091793 -10.916017
-6.3341851 0.9048838 -10.880813
-6.3578939 -2.7908882e-07 -10.471967
-6.4546394 -0.92209095 -8.8036547
-6.3095345 -1.8027272 -11.305879
-4.8608108 -2.0832057 -36.288239
-4.722538 -2.6985958 -38.672668
-4.6304808 -3.3074887 -40.260136
-4.561986 -3.9102745 -41.441292
-4.5235457 -4.5235486 -42.104164
-4.5171976 -5.1625142 -42.213634
-4.5237327 -5.8162298 -42.100941
-4.5344162 -6.4777393 -41.91671
-4.5481458 -7.1470866 -41.679951
-4.5629778 -7.8222494 -41.424191
-4.5790968 -8.5040398 -41.146221
-4.5956335 -9.1912699 -40.861053
-4.6130261 -9.8850574 -40.561134
-4.6314187 -10.586102 -40.243965
-4.6485476 -11.28933 -39.948586
-4.6675096 -12.002168 -39.621601
-4.6858525 -12.718744 -39.305283
-4.7047596 -13.44217 -38.979248
-4.7245183 -14.173555 -38.638512
-4.7430787 -14.90682 -38.318459
-4.7618146 -15.645962 -37.995369
-4.7818928 -16.395065 -37.649128
-4.8018999 -17.149647 -37.304115
-4.8219543 -17.910116 -36.958294
-4.8416104 -18.674784 -36.619335
-4.8619056 -19.447626 -36.269352
-4.8822007 -20.226263 -35.919376
-4.9034033 -21.014591 -35.553753
-4.9259944 -21.815123 -35.164185
-4.9492102 -22.624964 -34.763847
-4.9744053 -23.450769 -34.329365
-5.0055757 -24.312798 -33.791851
-5.9216661 21.712776 -0.9751904
-5.812583 20.344042 -3.1697793
-5.7977509 19.325836 -3.4681826
-5.8033876 18.377396 -3.3547823
-5.7236886 17.171068 -4.9581933
-5.6919355 16.127151 -5.5970249
-5.6720719 15.125524 -5.9966421
-5.6527114 14.131781 -6.3861451
-5.6450095 13.171685 -6.5411029
-5.6373277 12.214208 -6.6956449
-5.6336761 11.267349 -6.7691078
-5.6398454 10.339715 -6.6449895
-5.6459069 9.4098406 -6.5230384
-5.6379085 8.4568624 -6.6839585
-5.6105223 7.4806952 -7.2349153
-5.5845175 6.5152707 -7.7581
-5.5592465 5.5592461 -8.2665167
-5.5372133 4.6143413 -8.7097874
-5.5189466 3.6792996 -9.0772905
-5.5070972 2.753551 -9.3156834
-5.5030818 1.8343608 -9.3964643
-5.5141268 0.9190191 -9.1742544
-5.5679674 -4.154394e-06 -8.0910635
-5.5244255 -0.920739 -8.9670572
-5.384933 -1.7949774 -11.773435
-4.1529441 -2.0764732 -36.559135
-4.0356994 -2.6904664 -38.917919
-3.9589453 -3.2991245 -40.46209
-3.8980982 -3.8981004 -41.686237
-3.862932 -4.5067549 -42.39373
-3.8556736 -5.1408978 -42.539761
-3.862148 -5.7932239 -42.4095
-3.8709819 -6.4516387 -42.231777
-3.8827472 -7.118371 -41.995079
-3.8945379 -7.7890782 -41.75787
-3.9072139 -8.4656324 -41.502846
-3.921787 -9.1508389 -41.209652
-3.9361391 -9.8403502 -40.920914
-3.9509768 -10.535941 -40.622402
-3.9655199 -11.235641 -40.329819
-3.9815822 -11.944749 -40.006672
-3.9972885 -12.658084 -39.690685
-4.0128984 -13.37633 -39.37664
-4.0292363 -14.102328 -39.047947
-4.04491 -14.83134 -38.732613
-4.0610833 -15.567487 -38.407234
-4.0775504 -16.310204 -38.075935
-4.0947137 -17.061308 -37.730637
-4.1118164 -17.817873 -37.386562
-4.1284132 -18.57786 -37.052658
-4.14538 -19.34511 -36.711311
-4.1632261 -20.122261 -36.352276
-4.1809335 -20.904669 -35.996033
-4.1992083 -21.695908 -35.628376
-4.2189441 -22.50104 -35.231316
-4.2391267 -23.315199 -34.825279
-4.2650084 -24.168385 -34.304569
-4.9361463 21.719044 -0.94080561
-4.8731308 20.46715 -2.4621315
-4.8540883 19.416355 -2.9218526
-4.8504958 18.431885 -3.0085967
-4.8520656 17.467436 -2.9706905
-4.8578377 16.516645 -2.8313432
-4.8655481 15.569755 -2.6452045
-4.8752799 14.625841 -2.4102521
-4.7885237 13.407863 -4.5047293
-4.7750683 12.415175 -4.8295684
-4.7652545 11.436613 -5.066494
-4.7578588 10.467287 -5.2450438
-4.7531681 9.5063343 -5.3582902
-4.744349 8.5398283 -5.5712023
-4.7284422 7.5655055 -5.955224
-4.7072902 6.5902057 -6.4658766
-4.690002 5.6279988 -6.8832493
-4.6710854 4.6710825 -7.3399458
-4.6600266 3.7280216 -7.606925
-4.6527557 2.7916529 -7.7824631
-4.6595106 1.8638055 -7.6193805
-4.6845217 0.93690318 -7.0155673
-4.7079587 2.4783694e-06 -6.4497461
-4.5809298 -0.91618598 -9.51649
-4.4655447 -1.7862207 -12.302129
-3.4552033 -2.0731223 -36.693932
-3.3565435 -2.6852345 -39.075794
-3.2927384 -3.2927375 -40.616184
-3.246459 -3.8957539 -41.733463
-3.2155347 -4.5017481 -42.480049
-3.2075708 -5.1321154 -42.672302
-3.2114773 -5.780663 -42.577999
-3.2174346 -6.4348722 -42.43417
-3.2257802 -7.0967188 -42.232693
-3.2348192 -7.7635665 -42.014473
-3.2449961 -8.4369907 -41.768787
-3.2553625 -9.1150169 -41.518513
-3.2668781 -9.8006372 -41.240505
-3.2784455 -10.491031 -40.961239
-3.2908373 -11.188848 -40.662079
-3.3032036 -11.891535 -40.363529
-3.3158441 -12.600207 -40.058369
-3.3283181 -13.313272 -39.757214
-3.3415599 -14.034552 -39.437527
-3.3544447 -14.759555 -39.126465
-3.3678644 -15.492179 -38.802483
-3.3811724 -16.22963 -38.481194
-3.3945863 -16.972933 -38.157356
-3.4086163 -17.72481 -37.818638
-3.4225488 -18.481764 -37.482285
-3.4364014 -19.243851 -37.147846
-3.4508126 -20.014717 -36.799931
-3.4656746 -20.794048 -36.441135
-3.4805431 -21.57937 -36.082172
-3.4965115 -22.377678 -35.696663
-3.5134504 -23.188772 -35.287727
-3.5325027 -24.021023 -34.827755
-3.6090744 -25.263521 -32.979156
-3.9738309 21.856075 -0.1889658
-3.9341538 20.654308 -1.3863226
-3.9165194 19.582598 -1.9184897
-3.9072208 18.559301 -2.1990955
-3.9043286 17.569477 -2.2863798
-3.9037368 16.590883 -2.3042438
-3.9060705 15.624281 -2.233814
-3.909297 14.659864 -2.1364441
-3.9139457 13.698812 -1.9961571
-3.9196405 12.738832 -1.8242987
-3.9263554 11.779069 -1.6216633
-3.8757069 10.658197 -3.1501136
-3.8548882 9.6372185 -3.7783771
-3.8425038 8.6456308 -4.1521034
-3.8297968 7.6595922 -4.5355759
-3.8153102 6.6767888 -4.9727402
-3.8018737 5.7028089 -5.3782229
-3.7901883 4.7377372 -5.7308726
-3.7835383 3.7835393 -5.9315538
-3.7814629 2.8360958 -5.9941783
-3.7957587 1.8978815 -5.5627637
-3.850548 0.96263999 -3.9093549
-3.7427309 1.3104003e-07 -7.1630216
-3.6467621 -0.91168785 -10.059137
-3.5551877 -1.777595 -12.822639
-3.470932 -2.6032033 -15.365282
-2.6797855 -2.6797884 -39.240238
-2.6338105 -3.2922661 -40.627659
-2.6032062 -3.90481 -41.551228
-2.5840213 -4.5220385 -42.13018
-2.5776308 -5.1552625 -42.323032
-2.57622 -5.796495 -42.365608
-2.5780559 -6.4451408 -42.310204
-2.5812252 -7.0983729 -42.214554
-2.5856926 -7.7570796 -42.079746
-2.5917547 -8.4232035 -41.896805
-2.5982695 -9.0939445 -41.700207
-2.6060185 -9.7725725 -41.466347
-2.6140485 -10.456197 -41.224022
-2.6230474 -11.147953 -40.952469
-2.6321476 -11.844666 -40.677841
-2.6416857 -12.548008 -40.389999
-2.6515505 -13.257754 -40.092308
-2.6611412 -13.970992 -39.802879
-2.6712251 -14.691739 -39.498569
-2.6814599 -15.418394 -39.189713
-2.6917815 -16.150692 -38.878223
-2.7025084 -16.890678 -38.55452
-2.7134387 -17.637356 -38.224663
-2.7243474 -18.389347 -37.895462
-2.7350967 -19.145674 -37.571079
-2.7461634 -19.909689 -37.237103
-2.7580585 -20.68544 -36.878139
-2.7700746 -21.468081 -36.515518
-2.782249 -22.257998 -36.148125
-2.7948163 -23.057236 -35.768875
-2.810183 -23.886555 -35.305149
-2.8713419 -25.124245 -33.459507
-3.0650971 23.499077 3.2200594
-3.0050881 22.037312 0.8054902
-2.9806299 20.864408 -0.17862888
-2.9665449 19.776968 -0.74536771
-2.9588187 18.739185 -1.0562565
-2.9545584 17.727354 -1.227674
-2.9521143 16.728645 -1.3260089
-2.9511588 15.739515 -1.3644546
-2.9511724 14.755862 -1.3639185
-2.9519815 13.775915 -1.3313525
-2.9528975 12.79589 -1.2944988
-2.9535882 11.814351 -1.2667025
-2.9561813 10.839332 -1.1623791
-2.9593654 9.8645515 -1.0342505
-2.9640944 8.8922844 -0.84397686
-2.9259501 7.8025322 -2.3787837
-2.9097559 6.7894273 -3.0303848
-2.8954115 5.7908196 -3.607558
-2.8861468 4.8102455 -3.9803483
-2.8808665 3.841156 -4.1928039
-2.8860452 2.8860428 -3.984426
-2.9179018 1.9452665 -2.7026169
-2.8735039 0.95783353 -4.4890466
-2.793102 9.0852552e-08 -7.7241731
-2.7218411 -0.90727955 -10.591491
-2.654469 -1.7696494 -13.302321
-2.5924177 -2.5924156 -15.799082
-2.0101407 -2.6801875 -39.228107
-1.9811329 -3.3018901 -40.395287
-1.9637495 -3.927501 -41.094742
-1.9548633 -4.5613494 -41.452297
-1.950821 -5.2021923 -41.614941
-1.9486847 -5.8460565 -41.700901
-1.9485055 -6.4950209 -41.708111
-1.9481875 -7.1433563 -41.720909
-1.9491938 -7.7967753 -41.68042
-1.9506704 -8.4529066 -41.621006
-1.9528806 -9.1134443 -41.532066
-1.9560046 -9.7800255 -41.406372
-1.9596004 -10.451203 -41.261692
-1.9645132 -11.132243 -41.064011
-1.9695216 -11.817132 -40.86248
-1.9757441 -12.513049 -40.612114
-1.9820837 -13.213893 -40.357033
-1.988958 -13.922709 -40.080429
-1.9959104 -14.636677 -39.800682
-2.0030339 -15.356592 -39.514065
-2.0104053 -16.083244 -39.217457
-2.0179179 -16.815985 -38.915173
-2.025768 -17.556658 -38.5993
-2.0336671 -18.303005 -38.281471
-2.041831 -19.057091 -37.95298
-2.049984 -19.816515 -37.624928
-2.058183 -20.581831 -37.295033
-2.067261 -21.361696 -36.929764
-2.0759861 -22.143856 -36.578686
-2.0851164 -22.936281 -36.211323
-2.0956974 -23.75124 -35.785564
-2.1120436 -24.640507 -35.127846
-2.0499334 23.574232 3.6145165
-2.0224121 22.246536 1.9534528
-2.0085673 21.089956 1.1178408
-1.9999872 19.99987 0.59998357
-1.99412 18.944143 0.2458719
-1.990095 17.910854 0.0029302773
-1.9881065 16.898907 -0.11707247
-1.9875199 15.900159 -0.15249066
-1.98715 14.903625 -0.17481165
-1.9874657 13.912261 -0.15575749
-1.9864376 12.911844 -0.21780778
-1.9851583 11.910947 -0.29500753
-1.9832698 10.907986 -0.40900335
-1.9823895 9.9119482 -0.46212336
-1.9829822 8.923418 -0.42635477
-1.9837819 7.9351263 -0.37808016
-1.9856898 6.9499135 -0.26294258
-1.9888382 5.9665136 -0.072918415
-1.9931939 4.9829826 0.18997426
-1.9581897 3.9163818 -1.9227158
-1.9703351 2.9555013 -1.1896775
-1.9647638 1.9647629 -1.5259359
-1.9063842 0.95318961 -5.0494599
-1.853137 -1.2397063e-06 -8.2632008
-1.8059148 -0.90295607 -11.113323
-1.7621735 -1.7621728 -13.753341
-1.7213197 -2.5819819 -16.219086
-1.3430417 -2.6860845 -39.050186
-1.329209 -3.3230226 -39.885056
-1.3212255 -3.9636807 -40.366898
-1.3174522 -4.6110849 -40.59465
-1.3151881 -5.2607546 -40.731297
-1.3140353 -5.9131594 -40.800873
-1.3130814 -6.5654078 -40.858444
-1.3129554 -7.2212553 -40.866051
-1.3130381 -7.8782315 -40.861057
-1.3127979 -8.5331879 -40.875553
-1.3130381 -9.1912699 -40.861053
-1.3136764 -9.8525763 -40.822529
-1.314497 -10.515977 -40.77301
-1.3154765 -11.181552 -40.713882
-1.3170794 -11.853716 -40.617138
-1.3189844 -12.530354 -40.502174
-1.3217522 -13.217524 -40.335117
-1.3246399 -13.90872 -40.160828
-1.3280759 -14.608834 -39.953445
-1.3320645 -15.318745 -39.712708
-1.3363628 -16.036356 -39.453289
-1.3407874 -16.759846 -39.186237
-1.3455225 -17.491796 -38.900448
-1.3503163 -18.229269 -38.611122
-1.3555052 -18.977074 -38.297947
-1.3606496 -19.72942 -37.987457
-1.3659908 -20.489861 -37.665089
-1.3717823 -21.262627 -37.315533
-1.3772894 -22.036633 -36.983154
-1.3832955 -22.824377 -36.620651
-1.3899804 -23.629669 -36.217178
-1.3988415 -24.479727 -35.682365
-1.0653771 25.569052 8.4924841
-1.0323633 23.744352 4.5073581
-1.0217371 22.478214 3.2246678
-1.0153763 21.322906 2.4568439
-1.0112668 20.225336 1.9607885
-1.0081553 19.154949 1.5851915
-1.0063939 18.115091 1.3725741
-1.0052892 17.089914 1.2392204
-1.0050861 16.081375 1.2146994
-1.0054647 15.081969 1.2603976
-1.0062966 14.088153 1.3608385
-1.0059083 13.076805 1.3139472
-1.0037125 12.044552 1.0489041
-1.0015355 11.016892 0.78612584
-0.99995703 9.9995661 0.59557647
-0.99857014 8.9871321 0.42816797
-0.99770987 7.9816804 0.32431811
-0.99752349 6.9826622 0.30181947
-0.99769169 5.9861484 0.3221269
-0.99884814 4.9942422 0.46171838
-1.0021684 4.0086751 0.86250973
-1.0069495 3.0208471 1.4396371
-0.97757751 1.9551535 -2.1058817
-0.94859421 0.94859278 -5.6044598
-0.92215347 -3.0553947e-06 -8.7961493
-0.89867169 -0.89867634 -11.630649
-0.87724119 -1.7544808 -14.217545
-0.85721165 -2.5716369 -16.635317
-0.67622614 -2.7049038 -38.482204
-0.67096084 -3.3548045 -39.117775
-0.66874278 -4.0124593 -39.385521
-0.66691297 -4.6683922 -39.6064
-0.66613358 -5.3290691 -39.700478
-0.66556448 -5.9900808 -39.769184
-0.66498011 -6.6498008 -39.839722
-0.66465294 -7.3111844 -39.879211
-0.66483063 -7.9779687 -39.857769
-0.66468525 -8.6409082 -39.875313
-0.6646328 -9.304862 -39.881649
-0.66483063 -9.9724598 -39.857769
-0.66482049 -10.637132 -39.858986
-0.66509926 -11.30669 -39.825333
-0.66542482 -11.977648 -39.786037
-0.66565961 -12.647532 -39.757702
-0.66582769 -13.316553 -39.737411
-0.66628778 -13.992043 -39.681873
-0.66686833 -14.671106 -39.61179
-0.6677981 -15.35936 -39.49955
-0.66890424 -16.053703 -39.366035
-0.67025822 -16.756456 -39.202595
-0.67202389 -17.472624 -38.98946
-0.67386937 -18.194475 -38.766689
-0.67594838 -18.926558 -38.515732
-0.67824614 -19.669138 -38.238369
-0.68061459 -20.41844 -37.952469
-0.68312752 -21.176952 -37.649136
-0.68569988 -21.942398 -37.338619
-0.68866855 -22.726061 -36.980274
-0.69184881 -23.522861 -36.596382
-0.69557333 -24.345064 -36.146797
6.7948148e-24 25.44471 7.8670759
7.3500805e-24 23.949833 5.5857639
-1.0608002e-24 22.723785 4.5720448
-1.9415202e-23 21.560452 3.8222795
9.9273988e-24 20.457666 3.3630004
-1.7035824e-23 19.381426 3.0240624
-6.7003731e-24 18.326166 2.7880883
1.1971485e-23 17.301125 2.7389464
-2.0064683e-23 16.294098 2.8195367
-3.3958865e-23 15.301489 3.026932
-2.1767613e-23 14.32974 3.4438326
-1.3190926e-24 13.352705 3.8757844
-2.8337768e-23 12.212105 2.7343717
-1.502872e-23 11.14675 2.2111421
-2.2584214e-23 10.104776 1.8655412
-3.7471347e-24 9.0737314 1.5896803
-2.1888571e-23 8.054451 1.4222989
-2.1090021e-23 7.0391898 1.2765692
-1.5741303e-23 6.0319848 1.2442325
-3.2789471e-23 5.035048 1.4469006
-1.1793198e-23 4.0979295 3.5560243
-3.3551624e-23 3.0065603 0.86472344
-1.018855e-23 1.9458482 -2.6676531
1.6886721e-23 0.94397253 -6.1620007
1.457755e-24 7.9027865e-07 -9.3282223
-2.5288214e-24 -0.89485103 -12.091891
1.0667766e-23 -1.7470278 -14.667606
-1.7139139e-24 -2.560226 -17.09444
-4.1829002e-24 -3.339597 -19.328728
1.3621624e-23 -3.4069617 -37.858608
2.020623e-23 -4.071094 -38.205879
2.8468886e-24 -4.7377715 -38.410011
-6.1018549e-24 -5.4078236 -38.512203
1.2721269e-23 -6.0744958 -38.637005
-9.6400822e-24 -6.7453408 -38.68647
-4.394031e-24 -7.4166059 -38.722336
1.1019999e-23 -8.0878534 -38.752407
-1.7218972e-24 -8.7605982 -38.763931
-1.0294635e-23 -9.4324608 -38.781456
-8.4751871e-24 -10.11125 -38.740883
5.1342602e-24 -10.784503 -38.747147
2.2335593e-23 -11.458287 -38.748898
-1.0844843e-23 -12.132301 -38.748901
-6.4371365e-25 -12.80766 -38.740379
4.6784185e-25 -13.48478 -38.722084
2.0550931e-24 -14.162554 -38.701771
-1.2197307e-23 -14.840021 -38.684963
-1.3670341e-23 -15.518107 -38.666389
2.8094271e-24 -16.202049 -38.619915
-1.6689299e-23 -16.889894 -38.558292
1.6420067e-23 -17.578516 -38.497837
9.672902e-24 -18.271091 -38.424156
-3.2121122e-24 -18.975256 -38.305794
2.9394062e-24 -19.686218 -38.167267
-8.3793752e-25 -20.40657 -38.000217
1.5212141e-23 -21.145344 -37.772221
1.1202768e-23 -21.892611 -37.526443
-1.1450565e-23 -22.653431 -37.245945
1.9474395e-23 -23.427116 -36.936306
1.2202337e-23 -24.233477 -36.531651
-1.3067131e-23 -25.383793 -34.99617
1.1127529 27.818825 14.211249
1.0662595 25.590225 8.5989885
1.0526448 24.210833 6.9555645
1.0448014 22.985632 6.0087533
1.0387717 21.814207 5.2809319
1.0349163 20.698326 4.8155251
1.0321248 19.610373 4.4785614
1.0315362 18.567654 4.4075146
1.0319545 17.543226 4.4580073
1.0336162 16.537859 4.6585989
1.0366907 15.550356 5.0297132
1.048721 14.682096 6.4819021
1.0363519 13.472575 4.9888272
1.0296582 12.3559 4.1808238
1.0251108 11.276217 3.6319005
1.0217037 10.217038 3.2206366
1.018912 9.170208 2.8836322
1.0176045 8.1408358 2.7258043
1.0166025 7.1162171 2.6048567
1.0178269 6.1069646 2.7526522
1.0260093 5.1300449 3.7403643
1.0189546 4.0758171 2.8887813
0.99747348 2.9924185 0.29578066
0.96829665 1.9365911 -3.2261727
0.93951428 0.93951613 -6.7005157
0.91395563 -1.4615737e-06 -9.785717
0.89097488 -0.89097446 -12.559733
0.86999905 -1.7400019 -15.091747
0.84967458 -2.5490239 -17.545132
0.83163452 -3.3265421 -19.722746
0.81490248 -4.0745173 -21.742483
0.7981779 -4.7890701 -23.761314
0.78343904 -5.4840727 -25.540466
0.76791757 -6.143343 -27.414068
0.68698043 -6.1828256 -37.184044
0.68552172 -6.8552179 -37.360134
0.68532634 -7.5385909 -37.383713
0.68445414 -8.2134533 -37.488998
0.6842851 -8.8957081 -37.509403
0.68400919 -9.5761309 -37.542706
0.6840263 -10.260397 -37.540642
0.68401772 -10.944285 -37.541672
0.68366736 -11.622347 -37.583969
0.68372291 -12.307015 -37.577267
0.68365884 -12.98952 -37.584999
0.68373567 -13.674717 -37.575722
0.68370581 -14.357822 -37.57933
0.68374425 -15.042374 -37.574688
0.68392795 -15.730345 -37.552509
0.6839515 -16.414837 -37.549671
0.6843257 -17.108145 -37.504498
0.68427223 -17.791075 -37.510956
0.68442625 -18.479509 -37.492359
0.6845718 -19.168016 -37.474785
0.68508607 -19.867496 -37.412716
0.6853478 -20.560438 -37.381123
0.685947 -21.264359 -37.308792
0.68679291 -21.977375 -37.20668
0.6878916 -22.700422 -37.074066
0.68941259 -23.440029 -36.890457
0.69146854 -24.201401 -36.642288
0.70497143 -25.378977 -35.012337
2.1943369 27.429209 12.330023
2.1503797 25.804554 9.6769705
2.1277406 24.469017 8.3105831
2.1141968 23.256168 7.4931378
2.1035397 22.08717 6.8499298
2.0959857 20.959858 6.3940201
2.0922692 19.876558 6.1697044
2.0911 18.819901 6.0991249
2.0939605 17.79867 6.2717819
2.1001992 16.801598 6.6483145
2.1137066 15.852797 7.4635668
2.1116979 14.781882 7.3423328
2.0948024 13.616214 6.3225861
2.0820594 12.492354 5.5534759
2.073293 11.40311 5.024375
2.0659447 10.329724 4.5808721
2.0612655 9.275692 4.2984614
2.0582418 8.2329655 4.1159616
2.0602372 7.2108307 4.2363963
2.071527 6.2145782 4.9177909
2.0771098 5.1927743 5.2547517
2.0265315 4.053061 2.2020831
1.9854466 2.9781685 -0.2776207
1.9264263 1.9264243 -3.8398094
1.8702941 0.93514961 -7.2276869
1.8206283 -2.3624534e-06 -10.22528
1.7750206 -0.88751388 -12.977945
1.7322178 -1.7322164 -15.561334
1.6930724 -2.5396104 -17.923958
1.6571615 -3.314322 -20.091373
1.6237838 -4.0594583 -22.105902
1.59129 -4.7738748 -24.06707
1.5618078 -5.4663286 -25.846478
1.5309688 -6.1238737 -27.707781
1.5022359 -6.7600641 -29.441954
1.4740207 -7.3701048 -31.144903
1.4480278 -7.9641552 -32.713711
1.4280977 -8.5685873 -33.916599
1.3938442 -9.059988 -35.983982
