# .PCD v0.7 - Point Cloud Data file format
VERSION 0.7
FIELDS x y z
SIZE 4 4 4
TYPE F F F
COUNT 1 1 1
WIDTH 1497
HEIGHT 1
VIEWPOINT 0 0 0 1 0 0 0
POINTS 1497
DATA ascii
-686.85242 437.08801 -710.5979
-683.60583 414.30664 -722.47375
-680.39215 391.74106 -734.229
-677.20618 369.38528 -745.88306
-674.04987 347.23795 -757.42847
-670.92291 325.29599 -768.86658
-667.82483 303.55679 -780.19928
-664.75745 282.01837 -791.41925
-661.71594 260.67599 -802.54492
-658.70203 239.52809 -813.5694
-655.71552 218.57191 -824.49384
-652.75592 197.80486 -835.31958
-649.823 177.22455 -846.04816
-646.9184 156.82877 -856.67279
-644.03754 136.61412 -867.21069
-643.8761 117.06852 -867.80121
-657.98657 99.694962 -816.18652
-666.09058 80.738388 -786.54266
-664.63361 60.421238 -791.87231
-664.3288 40.262463 -792.9873
-666.01691 20.182417 -786.81219
-667.73218 5.3042113e-05 -780.5379
-669.42383 -20.285564 -774.35034
-671.22919 -40.680443 -767.74646
-705.17426 -64.106667 -643.57886
-709.83917 732.02179 -545.3736
-707.13055 707.13068 -555.591
-705.06213 683.02893 -563.39368
-703.5697 659.59668 -569.02344
-702.43469 636.58148 -573.30481
-701.68799 613.97711 -576.12164
-681.02808 574.61755 -654.05499
-677.92139 550.81116 -665.77423
-674.6601 527.07819 -678.07648
-671.43005 503.57263 -690.26099
-668.23077 480.29092 -702.32941
-665.06653 457.23337 -714.2655
-661.92743 434.38995 -726.10669
-658.81787 411.76126 -737.83667
-655.73737 389.34412 -749.45691
-652.68781 367.13699 -760.96057
-649.66425 345.13425 -772.36609
-646.66858 323.33429 -783.66638
-643.70038 301.73453 -794.86304
-640.75928 280.33224 -805.95734
-637.84717 259.12543 -816.94263
-634.95917 238.10976 -827.83655
-632.09729 217.28355 -838.63226
-629.26111 196.64412 -849.33112
-626.45013 176.18921 -859.93433
-623.66431 155.91606 -870.4433
-620.90515 135.82309 -880.85144
-620.92786 116.42399 -880.76575
-634.86426 99.197647 -828.19476
-646.30164 80.787819 -785.05054
-647.96735 60.74699 -778.76715
-649.64392 40.60281 -772.44275
-651.3269 20.354025 -766.09412
-653.02094 8.9162641e-05 -759.70392
-654.73755 -20.460455 -753.22833
-656.47015 -41.029293 -746.69275
-659.87909 -61.863522 -733.8335
-688.00964 732.39752 -543.99927
-686.98315 709.14398 -547.99615
-686.50885 686.50891 -549.84314
-687.03009 664.86798 -547.81342
-655.62048 571.02435 -670.11938
-652.61053 547.35089 -681.83936
-649.49072 523.7829 -693.9881
-646.40045 500.43909 -706.021
-643.33948 477.31647 -717.93994
-640.33008 454.42783 -729.65845
-637.30823 431.72498 -741.42517
-634.33258 409.24686 -753.0119
-631.38458 386.97772 -764.49115
-628.46387 364.91458 -775.86395
-625.57227 343.05582 -787.1239
-622.70496 321.39612 -798.28882
-619.86377 299.93411 -809.35193
-617.04846 278.66705 -820.31458
-614.25854 257.59238 -831.17798
-611.49585 236.7081 -841.93567
-608.75592 216.01021 -852.60498
-606.04034 195.49692 -863.17914
-603.34888 175.16588 -873.65918
-600.68127 155.01457 -884.04675
-598.03705 135.0407 -894.34283
-598.23083 115.78669 -893.58838
-611.9715 98.705139 -840.08356
-631.4353 81.47551 -764.29376
-633.0766 61.265579 -757.90271
-634.72864 40.950298 -751.46985
-636.38715 20.528589 -745.0119
-638.15552 2.8403014e-05 -738.12573
-639.76642 -20.637598 -731.85339
-641.45587 -41.384224 -725.27466
-643.1543 -62.240582 -718.66125
-680.23547 -87.772316 -574.271
-630.52856 567.47583 -685.98413
-627.61578 543.93378 -697.7041
-624.63403 520.52844 -709.70178
-621.67822 497.34265 -721.59497
-618.7525 474.37692 -733.36725
-615.85413 451.6265 -745.02936
-612.98926 429.09253 -756.55676
-610.14453 406.76312 -768.00299
-607.32611 384.63992 -779.34363
-604.53357 362.72018 -790.5799
-601.7666 341.00113 -801.71326
-599.02692 319.48111 -812.737
-596.31 298.15506 -823.66895
-593.61761 277.02167 -834.5022
-590.94952 256.07816 -845.23804
-588.30524 235.32211 -855.87781
-585.6864 214.75174 -866.41486
-583.08899 194.36305 -876.86639
-580.51434 174.15439 -887.22565
-577.96246 154.12337 -897.49377
-575.43292 134.26773 -907.67212
-575.78101 115.15624 -906.27142
-589.30493 98.217537 -851.85516
-616.31366 82.17524 -743.18054
-617.92938 61.793022 -736.67908
-619.55585 41.303802 -730.1347
-621.18872 20.706409 -723.56482
-622.8811 5.1652434e-05 -716.75488
-624.51599 -20.817219 -710.17682
-626.17957 -41.745346 -703.48297
-627.85205 -62.785141 -696.75348
-631.23993 -84.165253 -683.12183
-605.74878 563.97302 -701.64386
-602.92908 540.55713 -713.3808
-600.08228 517.31232 -725.23041
-597.26227 494.2861 -736.96863
-594.46857 471.4751 -748.59698
-591.70099 448.87665 -760.11719
-588.95892 426.48755 -771.53046
-586.24829 404.3093 -782.81317
-583.55652 382.3302 -794.01764
-580.88934 360.55203 -805.11969
-578.2464 338.97208 -816.12079
-575.62738 317.58765 -827.02203
-573.034 296.39697 -837.81708
-570.46191 275.39545 -848.52319
-567.91284 254.58167 -859.13373
-565.38641 233.95306 -869.64966
-562.88239 213.50716 -880.07269
-560.40228 193.24225 -890.39594
-557.94208 173.1545 -900.63635
-555.50342 153.24242 -910.78711
-553.08594 133.50351 -920.84961
-553.57245 114.53233 -918.82452
-566.86121 97.734734 -863.51093
-600.93005 82.886955 -721.70148
-602.51917 62.329636 -715.08698
-604.11884 41.663361 -708.42822
-605.72491 20.887201 -701.74316
-607.31555 5.1959538e-05 -695.12201
-608.99567 -20.999767 -688.12885
-610.6344 -42.112698 -681.30768
-612.27972 -63.339268 -674.45898
-613.93402 -84.680588 -667.5733
-653.92218 -112.74512 -501.12524
-581.25439 560.49542 -717.19165
-578.54895 537.22412 -728.85529
-575.83398 514.13757 -740.55951
-573.14447 491.26675 -752.15442
-570.47992 468.60861 -763.6416
-567.84003 446.1601 -775.02228
-565.22253 423.91699 -786.3067
-562.65417 401.89594 -797.37903
-560.07074 380.04803 -808.5166
-557.52612 358.4097 -819.48676
-555.00452 336.96713 -830.35779
-552.50555 315.71753 -841.1308
-550.02905 294.65845 -851.80725
-547.57648 273.78833 -862.38055
-545.1438 253.10257 -872.8678
-542.73273 232.59981 -883.26239
-540.3429 212.27759 -893.56531
-537.974 192.13365 -903.77783
-535.6275 172.16603 -913.8938
-533.29962 152.37131 -923.92932
-530.99194 132.74809 -933.87805
-531.60504 113.91545 -931.23499
-544.63708 97.256668 -875.05267
-585.27557 83.610809 -699.85614
-586.83893 62.875755 -693.11633
-588.41071 42.029362 -686.34021
-589.98877 21.071041 -679.53705
-591.58173 0.00014657558 -672.66962
-593.20276 -21.185762 -665.68127
-594.81097 -42.486362 -658.74811
-596.43018 -63.903114 -651.7677
-598.05597 -85.436432 -644.75867
-601.4118 -107.39493 -630.29138
-557.078 557.07806 -732.46973
-554.46765 533.93188 -744.14026
-551.87964 510.99976 -755.71027
-549.31769 488.28238 -767.16449
-546.77936 465.77505 -778.51282
-544.26434 443.47473 -789.75665
-541.7724 421.37857 -800.89764
-539.30316 399.48383 -811.93701
-536.81976 377.76208 -823.03961
-534.43884 356.29257 -833.68414
-532.03583 334.98557 -844.42731
-529.65436 313.86942 -855.0744
-527.29413 292.94122 -865.62659
-524.95483 272.19879 -876.08496
-522.63794 251.64058 -886.44336
-520.33966 231.26215 -896.71838
-518.06152 211.06221 -906.90344
-515.80322 191.03821 -916.99963
-513.56458 171.18826 -927.00836
-511.34689 151.51022 -936.92291
-509.14664 132.00102 -946.7597
-509.92578 113.31693 -943.27637
-522.63098 96.783562 -886.47437
-569.34729 84.347878 -677.61688
-570.88153 63.431332 -670.75726
-572.42206 42.401722 -663.87018
-573.97296 21.258265 -656.93628
-575.5575 -1.3772164e-05 -649.85205
-577.12762 -21.375061 -642.8327
-578.7063 -42.867138 -635.77466
-580.29578 -64.477219 -628.66864
-581.89185 -86.206169 -621.53278
-583.49677 -108.05481 -614.35779
-538.23566 579.63849 -724.15857
-533.16095 553.66718 -747.71906
-530.6778 530.67792 -759.24738
-528.21771 507.90179 -770.66888
-525.7804 485.33588 -781.9848
-523.36542 462.97723 -793.19684
-520.97253 440.823 -804.30634
-518.60144 418.87045 -815.31476
-516.25177 397.11685 -826.22345
-513.9234 375.55951 -837.03369
-511.62277 354.20038 -847.71472
-509.33578 333.02731 -858.33252
-507.06921 312.04257 -868.85559
-504.82269 291.2439 -879.28558
-502.59598 270.62872 -889.62347
-500.38885 250.19444 -899.87054
-498.20267 229.93971 -910.02051
-496.03384 209.86046 -920.08966
-493.88382 189.95535 -930.07153
-491.75241 170.22198 -939.96722
-489.63925 150.65839 -949.77789
-487.54581 131.26233 -959.49731
-488.71692 112.78087 -954.06
-500.83633 96.314758 -897.79303
-553.13574 85.097885 -654.98193
-554.63959 63.996964 -647.99976
-556.1496 42.78072 -640.98901
-557.75812 21.452353 -633.52136
-559.22333 0.00017118204 -626.71857
-560.76263 -21.567696 -619.57202
-562.31042 -43.254654 -612.38611
-563.86676 -65.061546 -605.16034
-565.4339 -86.989838 -597.88483
-567.00757 -109.03993 -590.57843
-570.31427 -131.6109 -575.22662
-511.79355 573.20886 -751.87726
-509.53668 550.29974 -762.77423
-507.17798 527.46515 -774.16309
-504.84103 504.84113 -785.4469
-502.52551 482.42453 -796.62732
-500.23114 460.21271 -807.70551
-497.9559 438.20126 -818.69122
-495.70297 416.39059 -829.56946
-493.47034 394.77631 -840.34955
-491.25772 373.3559 -851.03302
-489.08618 352.14206 -861.51825
-486.8996 331.09177 -872.07587
-484.74536 310.23706 -882.47742
-482.61014 289.56607 -892.78717
-480.49365 269.07651 -903.00665
-478.3956 248.76579 -913.13678
-476.31583 228.63164 -923.17889
-474.25558 208.67255 -933.12659
-472.21158 188.88472 -942.99609
-470.18506 169.26665 -952.78076
-468.1759 149.81631 -962.48187
-466.18387 130.53151 -972.10034
-467.70926 112.25029 -964.73492
-479.2518 95.850372 -909.00269
-536.63324 85.861412 -631.9408
-538.10535 64.572655 -624.83252
-539.58362 43.166813 -617.69501
-541.05597 21.64222 -610.58582
-542.59088 -2.7557564e-05 -603.1748
-544.09998 -21.763861 -595.88831
-545.61548 -43.64917 -588.57068
-547.1394 -65.656624 -581.21252
-548.67194 -87.78743 -573.81299
-550.21509 -110.0429 -566.36182
-551.76483 -132.42361 -558.8786
-488.36746 569.76215 -766.73651
-486.19809 546.9729 -777.64752
-483.95932 524.28937 -788.90771
-481.74271 501.81537 -800.0564
-479.54633 479.54636 -811.10345
-477.36984 457.4794 -822.05011
-475.21307 435.61206 -832.89807
-473.07568 413.94125 -843.64832
-470.95743 392.4646 -854.30231
-468.85806 371.17935 -864.86121
-466.77731 350.08304 -875.32654
-464.7088 329.16882 -885.73035
-462.67841 308.45236 -895.94244
-460.65204 287.90753 -906.13422
-458.64334 267.54196 -916.23718
-456.65213 247.35329 -926.25244
-454.67807 227.33907 -936.18103
-452.72104 207.49725 -946.02417
-450.78223 187.826 -955.77563
-448.85849 168.32191 -965.45117
-446.95111 148.98378 -975.04449
-445.05991 129.80919 -984.55658
-446.89841 111.72456 -975.30988
-457.87439 95.390564 -920.10468
-519.83191 86.63868 -608.48242
-521.27094 65.158852 -601.24469
-522.71594 43.559708 -593.97681
-524.16711 21.84046 -586.67841
-525.65582 3.1361546e-05 -579.19025
-527.13129 -21.963707 -571.76953
-528.61304 -44.051064 -564.31689
-530.10309 -66.262817 -556.82227
-531.60162 -88.600266 -549.28522
-533.11066 -111.06462 -541.69537
-534.62628 -133.65654 -534.07251
-537.86926 -156.8784 -517.7616
-465.21979 566.35455 -781.42651
-463.13843 543.68427 -792.35028
-461.02014 521.15326 -803.46747
-458.92117 498.82742 -814.48352
-456.84122 476.70395 -825.39966
-454.78006 454.78006 -836.21735
-452.7374 433.05319 -846.93781
-450.71301 411.5206 -857.5625
-448.70663 390.17969 -868.09253
-446.71655 369.02679 -878.53699
-444.74554 348.06177 -888.88147
-442.79181 327.28091 -899.13507
-440.86246 306.68701 -909.26099
-438.94406 286.26788 -919.32922
-437.04086 266.02496 -929.31763
-435.15411 245.95676 -939.21985
-433.2836 226.06108 -949.03699
-431.42911 206.33574 -958.77002
-429.59039 186.77847 -968.41998
-427.76865 167.38774 -977.98108
-425.96094 148.16034 -987.46838
-424.16843 129.09482 -996.87598
-426.28146 111.20384 -985.78619
-436.70111 94.93515 -931.10077
-502.72363 87.43029 -584.59558
-504.12613 65.755646 -577.2348
-505.53839 43.959995 -569.82294
-506.97772 22.042536 -562.2688
-508.40793 3.3398006e-05 -554.76257
-509.84622 -22.167233 -547.21393
-511.29468 -44.460323 -539.61243
-512.74933 -66.880333 -531.97748
-514.21234 -89.428238 -524.29919
-515.68378 -112.10506 -516.57703
-517.16559 -134.91266 -508.79993
-518.65393 -157.85117 -500.98868
-442.33365 562.97015 -796.01721
-440.35587 540.43683 -806.86914
-438.35376 518.0545 -817.85413
-436.36981 495.87482 -828.73993
-434.40372 473.89508 -839.52753
-432.45383 452.11084 -850.22638
-430.52277 430.52283 -860.82153
-428.60892 409.12683 -871.32269
-426.71198 387.9201 -881.73083
-424.83179 366.90027 -892.0473
-422.96811 346.06485 -902.27313
-421.12064 325.4115 -912.40973
-419.30981 304.95267 -922.34546
-417.48059 284.646 -932.38226
-415.68204 264.52493 -942.25067
-413.89755 244.57588 -952.04175
-412.12833 224.79736 -961.74915
-410.37421 205.18716 -971.3739
-408.63492 185.74316 -980.91699
-406.91031 166.46336 -990.3797
-405.20151 147.3461 -999.75568
-403.50571 128.38823 -1009.0603
-405.85587 110.68796 -996.16541
-415.72913 94.483963 -941.99225
-485.29987 88.23642 -560.26794
-486.66626 66.363579 -552.77075
-488.08307 44.371265 -544.99713
-489.44467 22.247515 -537.52612
-490.83832 3.084425e-05 -529.87933
-492.23993 -22.37451 -522.18896
-493.64951 -44.877178 -514.45471
-495.06915 -67.509399 -506.6655
-496.49503 -90.271713 -498.84189
-497.92917 -113.16571 -490.97287
-499.37161 -136.19218 -483.05856
-500.82437 -159.35315 -475.08728
-503.98279 -183.26634 -457.75775
-419.72513 559.63354 -810.40149
-417.84244 537.22607 -821.22357
-415.95392 514.99072 -832.07892
-414.08243 492.95541 -842.83655
-412.22769 471.11743 -853.4978
-410.3895 449.47424 -864.06396
-408.56763 428.02332 -874.53619
-406.76187 406.7619 -884.91608
-404.97202 385.68762 -895.20441
-403.19781 364.7981 -905.40271
-401.43909 344.09079 -915.51202
-399.69565 323.56317 -925.53357
-397.966 303.21225 -935.47571
-396.25641 283.04037 -945.3028
-394.56137 263.04099 -955.04596
-392.87833 243.21042 -964.7204
-391.20831 223.5477 -974.31995
-389.5524 204.05132 -983.8382
-387.91049 184.71933 -993.27625
-386.28235 165.54958 -1002.635
-384.66779 146.54012 -1011.9156
-383.0679 127.6893 -1021.1121
-385.61765 110.17657 -1006.4556
-466.22882 111.0068 -543.09235
-467.55182 89.057632 -535.48785
-468.88052 66.983025 -527.85016
-470.22583 44.78339 -520.117
-471.58252 22.456343 -512.31866
-472.93793 -1.3340741e-06 -504.52756
-474.30115 -22.585705 -496.69165
-475.67227 -45.302086 -488.81024
-477.05316 -68.150459 -480.87268
-478.44028 -91.131386 -472.89963
-479.83545 -114.24639 -464.87991
-481.23877 -137.49678 -456.81323
-482.65222 -160.88406 -448.68842
-484.07211 -184.40842 -440.52679
-397.3898 556.34583 -824.57544
-395.59625 534.05493 -835.40051
-393.81882 511.96457 -846.1283
-392.05728 490.07162 -856.76013
-390.31143 468.37372 -867.29724
-388.58105 446.86826 -877.74103
-386.86594 425.55267 -888.09253
-385.16592 404.42429 -898.35315
-383.47955 383.47964 -908.53149
-381.80905 362.71872 -918.61359
-380.15308 342.13785 -928.60822
-378.51144 321.73474 -938.51642
-376.88391 301.50714 -948.3396
-375.27029 281.45282 -958.07861
-373.63815 261.54672 -967.92932
-372.09128 241.85938 -977.26556
-370.51956 222.3118 -986.75189
-368.95984 202.92796 -996.16534
-367.41324 183.70671 -1005.5
-365.87955 164.64595 -1014.7567
-364.35861 145.74344 -1023.9363
-362.85025 126.99762 -1033.04
-365.5668 109.6701 -1016.6443
-448.18655 112.0467 -517.98993
-449.47028 89.894165 -510.24207
-450.75967 67.613991 -502.45981
-452.04944 45.205029 -494.67535
-453.3801 22.669033 -486.64417
-454.69733 7.4439115e-05 -478.69403
-456.02045 -22.800966 -470.70807
-457.35132 -45.735088 -462.67575
-458.68997 -68.803398 -454.59631
-460.0383 -92.007622 -446.45844
-461.39273 -115.34816 -438.28354
-462.75522 -138.82646 -430.06049
-464.12573 -162.44395 -421.78867
-465.50623 -186.20244 -413.45651
-468.56079 -210.85231 -395.02048
-377.69772 576.48608 -823.44836
-375.29507 553.06647 -838.71295
-373.61115 530.9212 -849.41101
-371.94229 508.97369 -860.01361
-370.2883 487.2215 -870.52191
-368.64771 465.66031 -880.94482
-367.02283 444.29083 -891.26813
-365.41217 423.10889 -901.50092
-363.81558 402.11209 -911.64417
-362.23291 381.29782 -921.69922
-360.66397 360.664 -931.66724
-359.10852 340.20813 -941.54913
-357.56647 319.92792 -951.34619
-356.03757 299.82111 -961.05957
-354.5217 279.88562 -970.69012
-353.03665 260.13232 -980.12488
-351.53503 240.52405 -989.66492
-350.05719 221.08882 -999.05402
-348.59283 201.81697 -1008.3575
-347.13953 182.70503 -1017.5905
-345.69833 163.75191 -1026.7466
-344.26904 144.95544 -1035.827
-342.85156 126.31379 -1044.8329
-345.69943 109.16826 -1026.7399
-429.8031 113.10607 -492.41278
-431.04416 90.746155 -484.52798
-432.29413 68.256958 -476.58676
-433.56491 45.638462 -468.51331
-434.83124 22.885935 -460.46796
-436.10672 4.4217748e-05 -452.36465
-437.38797 -23.020363 -444.22467
-438.67676 -46.176376 -436.03668
-439.97318 -69.469391 -427.80035
-441.27905 -92.900803 -419.50388
-442.59091 -116.47122 -411.1694
-443.91061 -140.18227 -402.785
-445.23819 -164.03516 -394.35056
-446.57376 -188.03102 -385.86554
-447.91916 -212.17212 -377.31815
-354.97577 571.90552 -842.51489
-353.45926 549.82562 -852.68469
-351.88141 527.8222 -863.26605
-350.31876 506.01605 -873.74548
-348.7699 484.40277 -884.1322
-347.23474 462.97961 -894.42749
-345.71298 441.74442 -904.63257
-344.2045 420.69443 -914.7486
-342.70914 399.82739 -924.77667
-341.22672 379.14081 -934.71808
-339.75705 358.63251 -944.57367
-338.30002 338.30014 -954.34491
-336.85431 318.14032 -964.03998
-335.42203 298.15298 -973.6452
-334.0018 278.3349 -983.16913
-332.59363 258.68396 -992.61273
-331.19724 239.19806 -1001.9772
-329.81976 219.8799 -1011.2146
-328.44653 200.71736 -1020.4238
-327.08572 181.71439 -1029.5497
-325.73511 162.8676 -1038.6072
-324.3956 144.17583 -1047.59
-323.06708 125.6373 -1056.4993
-326.01303 108.67106 -1036.7433
-411.06866 114.1858 -466.34723
-412.26703 91.614975 -458.3111
-413.474 68.912445 -450.21689
-414.70117 46.077995 -441.98734
-415.9241 23.106934 -433.78625
-417.15427 8.5079293e-05 -425.53638
-418.39343 -23.244022 -417.22656
-419.63828 -46.626484 -408.87836
-420.89056 -70.148293 -400.48059
-422.15033 -93.81115 -392.03229
-423.41937 -117.61639 -383.52188
-424.69434 -141.56473 -374.97159
-425.97702 -165.65768 -366.36969
-427.26749 -189.89662 -357.71591
-428.56754 -214.28366 -348.99768
-431.49249 -239.71796 -329.38223
-333.31137 568.59009 -856.31506
-331.87677 546.62061 -866.50159
-330.40497 524.76086 -876.95239
-328.94614 503.09427 -887.31085
-327.50015 481.61792 -897.57819
-326.06683 460.32977 -907.75574
-324.646 439.22696 -917.8446
-323.23749 418.30734 -927.84589
-321.84009 397.56726 -937.76813
-320.45578 377.00693 -947.59766
-319.08334 356.62265 -957.34302
-317.72256 336.41226 -967.00525
-316.37338 316.37347 -976.58533
-315.03558 296.50418 -986.08447
-313.70908 276.80219 -995.50354
-312.39368 257.26553 -1004.8438
-311.0961 237.89711 -1014.0575
-309.75027 218.64731 -1023.6138
-308.51956 199.63037 -1032.3524
-307.24725 180.7337 -1041.3867
-305.98633 161.99283 -1050.3401
-304.73474 143.40466 -1059.2271
-303.5723 125.00046 -1067.4811
-306.50516 108.17837 -1046.656
-391.97314 115.28624 -439.77945
-393.12686 92.500443 -431.58719
-394.32816 69.587341 -423.0575
-395.47058 46.525967 -414.9455
-396.64819 23.332382 -406.58386
-397.83282 5.9150803e-05 -398.17227
-399.02457 -23.47192 -389.71017
-400.22507 -47.085323 -381.18567
-401.43121 -70.840668 -372.62149
-402.64462 -94.739746 -364.00543
-403.86542 -118.78397 -355.33694
-405.09528 -142.9747 -346.60422
-406.33096 -167.31274 -337.8298
-407.57425 -191.79961 -329.00201
-408.82516 -216.43683 -320.11966
-410.08548 -241.22676 -311.17075
-311.88629 565.29395 -870.03473
-310.54547 543.45459 -880.15057
-309.17621 521.73492 -890.48083
-307.81897 500.20584 -900.72046
-306.47256 478.86346 -910.87817
-305.13892 457.7084 -920.93988
-303.8168 436.73672 -930.91431
-302.5061 415.94595 -940.80286
-301.2067 395.33374 -950.60632
-299.91833 374.89798 -960.32593
-298.64102 354.63632 -969.96283
-297.37448 334.5463 -979.51788
-296.11868 314.6261 -988.99225
-294.87341 294.87347 -998.38708
-293.63861 275.28619 -1007.7031
-292.41315 255.86154 -1016.9483
-291.19879 236.59906 -1026.1097
-290.01071 217.50804 -1035.0732
-288.80728 198.55499 -1044.1526
-287.62262 179.76425 -1053.0901
-286.44766 161.12685 -1061.9545
-285.28311 142.64154 -1070.7401
-284.27417 124.36997 -1078.3522
-287.17249 107.68975 -1056.486
-372.50598 116.40826 -412.69452
-373.6131 93.403313 -404.34192
-374.71631 70.2593 -396.0188
-375.86234 46.982834 -387.37259
-376.99258 23.562115 -378.84586
-378.12964 4.3669173e-05 -370.26727
-379.27359 -23.704506 -361.63693
-380.42599 -47.553093 -352.9426
-381.58389 -71.546822 -344.207
-382.74887 -95.68721 -335.41785
-383.92096 -119.97521 -326.57513
-385.10184 -144.41307 -317.66614
-386.28842 -169.00117 -308.71399
-387.48233 -193.7412 -299.70657
-388.68365 -218.63449 -290.64349
-389.89404 -243.68372 -281.51166
-392.66425 -269.95657 -260.61218
-290.70721 562.034 -883.60413
-289.45886 540.32324 -893.64996
-288.18991 518.74188 -903.86194
-286.93201 497.34888 -913.98456
-285.68506 476.14182 -924.01935
-284.44888 455.11835 -933.96729
-283.22339 434.27594 -943.82947
-282.00836 413.61237 -953.60693
-280.80377 393.12531 -963.30096
-279.60941 372.81256 -972.91254
-278.42514 352.67181 -982.44269
-277.24997 332.70001 -991.89954
-276.08557 312.89706 -1001.2698
-274.93091 293.25964 -1010.5618
-273.78589 273.78604 -1019.7764
-272.65036 254.47375 -1028.9144
-271.5242 235.321 -1037.9771
-270.40732 216.32585 -1046.9652
-269.29791 197.48515 -1055.8929
-268.20743 178.80496 -1064.6685
-267.11761 160.27057 -1073.4387
-266.03659 141.88618 -1082.1379
-265.16971 123.74596 -1089.114
-268.0145 107.2058 -1066.2208
-352.65475 117.55167 -385.08871
-353.71466 94.324081 -376.55942
-354.78958 70.957886 -367.90921
-355.86377 47.448662 -359.26471
-356.94595 23.796499 -350.55582
-358.03333 9.1519876e-05 -341.80566
-359.12729 -23.941782 -333.00183
-360.22797 -48.030228 -324.14441
-361.33691 -72.267349 -315.22018
-362.4512 -96.653564 -306.25308
-363.57239 -121.19068 -297.23059
-364.70053 -145.88014 -288.15189
-365.83725 -170.72404 -279.00443
-366.97946 -195.72227 -269.81226
-368.12891 -220.87726 -260.56244
-369.28555 -246.19035 -251.25438
-370.45105 -271.66406 -241.8752
-269.78348 558.83728 -896.91034
-268.61478 537.22961 -906.98712
-267.44388 515.78473 -917.08276
-266.2832 494.52603 -927.09058
-265.13251 473.45099 -937.01196
-263.9917 452.55728 -946.84802
-262.86072 431.84274 -956.59973
-261.73853 411.30344 -966.27545
-260.62671 390.94016 -975.86188
-259.52429 370.74908 -985.367
-258.43118 350.72815 -994.79224
-257.3472 330.87503 -1004.1382
-256.27231 311.18781 -1013.4063
-255.20634 291.66443 -1022.5973
-254.1492 272.30273 -1031.712
-253.1008 253.10089 -1040.7517
-252.061 234.0567 -1049.7169
-251.02972 215.16841 -1058.6089
-250.01907 196.4436 -1067.3228
-248.96875 177.83482 -1076.3789
-247.9919 159.42337 -1084.8015
-246.99358 141.13927 -1093.4093
-246.25603 123.12804 -1099.7686
-249.02792 106.72634 -1075.8688
-332.41107 118.71838 -356.92343
-333.42004 95.262955 -348.22363
-334.44339 71.666451 -339.40027
-335.46616 47.923805 -330.58188
-336.49518 24.035431 -321.70938
-337.53192 8.5614105e-05 -312.77026
-338.5737 -24.183689 -303.78809
-339.62192 -48.517281 -294.75018
-340.67661 -73.002052 -285.65622
-341.73935 -97.639748 -276.49313
-342.80728 -122.43111 -267.28525
-343.8819 -147.37788 -258.01947
-344.96332 -172.48151 -248.69554
-346.05298 -197.74448 -239.3
-347.14807 -223.16658 -229.85773
-348.25018 -248.75008 -220.3557
-349.35922 -274.49655 -210.79282
-351.94397 -301.66611 -188.50699
-249.09233 555.66754 -910.10413
-248.008 534.17108 -920.17249
-246.93307 512.86108 -930.15375
-245.86743 491.73492 -940.04865
-244.81015 470.78882 -949.86584
-243.76271 450.02353 -959.5918
-242.7242 429.43518 -969.2348
-241.69449 409.02148 -978.79614
-240.67349 388.78027 -988.27661
-239.66107 368.70938 -997.67743
-238.65714 348.80664 -1006.9993
-237.66158 329.06992 -1016.2434
-236.67429 309.49722 -1025.4109
-235.69518 290.08649 -1034.5024
-234.7234 270.83478 -1043.5259
-233.76031 251.742 -1052.4684
-232.80511 232.80525 -1061.3379
-231.8577 214.02248 -1070.1353
-230.91794 195.39211 -1078.8612
-229.99973 176.92291 -1087.3872
-229.05144 158.57416 -1096.1925
-228.15002 140.40004 -1104.5625
-227.53027 122.51633 -1110.3173
-230.21043 106.25096 -1085.4307
-311.76151 119.90836 -328.19351
-312.71732 96.220711 -319.31818
-313.6868 72.389359 -310.31625
-314.65576 48.408554 -301.3187
-315.63077 24.279303 -292.26547
-316.61313 9.4092873e-05 -283.14392
-317.60031 -24.430737 -273.97748
-318.59366 -49.014442 -264.75363
-319.59323 -73.752319 -255.47208
-320.60049 -98.646309 -246.11954
-321.61273 -123.69714 -236.7206
-322.63135 -148.9068 -227.26181
-323.65649 -174.27654 -217.74303
-324.68954 -199.80894 -208.15085
-325.72781 -225.50375 -198.51013
-326.77274 -251.36356 -188.80746
-327.82437 -277.38971 -179.04253
-328.88425 -303.58542 -169.20108
-229.56818 573.92059 -913.75757
-228.62338 552.50659 -923.26147
-227.63379 531.14557 -933.216
-226.65274 509.96872 -943.08453
-225.68011 488.97369 -952.86859
-224.71579 468.15796 -962.56891
-223.75967 447.51944 -972.18665
-222.81166 427.05579 -981.7229
-221.87164 406.76477 -991.17871
-220.93953 386.64426 -1000.5551
-220.01521 366.69208 -1009.853
-219.0979 346.90512 -1019.0804
-218.1889 327.28342 -1028.2241
-217.28741 307.82391 -1037.2926
-216.39333 288.52451 -1046.2863
-215.50659 269.38327 -1055.2062
-214.62708 250.3983 -1064.0533
-213.75471 231.56767 -1072.8286
-212.88942 212.88945 -1081.533
-212.0311 194.36189 -1090.1669
-211.17969 175.98309 -1098.7317
-210.33253 157.74945 -1107.2532
-209.50281 139.66858 -1115.5995
-208.98967 121.91071 -1120.7615
-211.5598 105.77999 -1094.9078
-286.16803 119.23666 -344.4068
-291.58798 97.196007 -289.8866
-292.50723 73.126945 -280.63956
-293.42001 48.903458 -271.45743
-294.33856 24.528311 -262.21799
-295.26285 0.00010109854 -252.92044
-296.19418 -24.682791 -243.55164
-297.13019 -49.521614 -234.13644
-298.07208 -74.517921 -224.66144
-299.01999 -99.673225 -215.12608
-299.97525 -124.98964 -205.51695
-300.93533 -150.46767 -195.85939
-301.90155 -176.10922 -186.13986
-302.87402 -201.91597 -176.3576
-303.85413 -227.89043 -166.4989
-304.8392 -254.03261 -156.58936
-305.83072 -280.34479 -146.61565
-306.8287 -306.82864 -136.57649
-309.19199 -334.95792 -112.80405
-209.28729 570.78351 -926.37964
-208.38667 549.38306 -936.2627
-207.48978 528.15576 -946.10516
-206.60054 507.11047 -955.86328
-205.7189 486.24481 -965.53802
-204.84476 465.55627 -975.13062
-203.97801 445.043 -984.64203
-203.11858 424.70255 -994.07324
-202.2657 404.53137 -1003.4323
-201.42061 384.53033 -1012.7064
-200.58253 364.69556 -1021.903
-199.7514 345.02515 -1031.0234
-198.92714 325.51721 -1040.0688
-198.10965 306.16943 -1049.0397
-197.29884 286.9801 -1057.9371
-196.49466 267.94727 -1066.7622
-195.69699 249.06888 -1075.5154
-194.90578 230.34329 -1084.198
-194.12036 211.7677 -1092.8169
-193.34181 193.34189 -1101.3604
-192.56949 175.0632 -1109.8357
-191.8188 156.9427 -1118.0736
-191.03526 138.93475 -1126.6718
-190.63147 121.31097 -1131.103
-193.07381 105.31301 -1104.3014
-261.14294 118.70141 -357.33121
-267.44705 97.253502 -288.15182
-270.89166 73.879593 -250.35179
-271.74573 49.408386 -240.97955
-272.60519 24.782335 -231.54796
-273.47012 1.3118481e-05 -222.05635
-274.34055 -24.940052 -212.50452
-275.21774 -50.039555 -202.87874
-276.09933 -75.29969 -193.20424
-276.98663 -100.72237 -183.46744
-277.87964 -126.30886 -173.66795
-278.7796 -152.06157 -163.79169
-279.68423 -177.9808 -153.86472
-280.59473 -204.06879 -143.87311
-281.5112 -230.3273 -133.81622
-282.43491 -256.75894 -123.67973
-283.36343 -283.36337 -113.49026
-284.2981 -310.14343 -103.2336
-285.23892 -337.1004 -92.909157
-189.16005 567.48022 -939.67133
-188.37749 546.29474 -949.11761
-187.57124 525.19952 -958.85004
-186.77187 504.28406 -968.49945
-185.97865 483.54453 -978.07404
-185.19276 462.98196 -987.56067
-184.4135 442.5925 -996.96741
-183.64073 422.37381 -1006.2952
-182.87445 402.32379 -1015.5453
-182.11452 382.44055 -1024.7185
-181.36087 362.72174 -1033.8157
-180.61345 343.16565 -1042.8381
-179.87215 323.76999 -1051.7861
-179.13692 304.53281 -1060.6613
-178.40712 285.45148 -1069.4706
-177.68381 266.52573 -1078.202
-176.96631 247.75293 -1086.8628
-176.25458 229.13109 -1095.454
-175.54858 210.65837 -1103.9763
-174.84819 192.3331 -1112.4308
-174.15337 174.15341 -1120.818
-173.46407 156.11769 -1129.1388
-172.79091 138.23279 -1137.264
-172.64017 120.84812 -1139.0839
-174.74979 104.84985 -1113.6185
-236.34155 118.17094 -370.14029
-242.02184 96.808815 -301.57324
-248.04721 74.414261 -228.84029
-249.61914 49.923859 -209.86542
-250.4169 25.041742 -200.23567
-251.21976 5.3720105e-05 -190.54416
-252.02782 -25.202717 -180.79034
-252.84215 -50.568375 -170.96033
-253.66068 -76.098106 -161.07985
-254.48453 -101.79368 -151.13531
-255.31372 -127.65686 -141.12573
-256.14948 -153.68961 -131.03731
-256.98959 -179.89264 -120.89639
-257.83524 -206.2682 -110.68847
-258.68646 -232.81778 -100.41328
-259.54446 -259.54434 -90.05619
-260.40704 -286.44766 -79.644119
-261.27536 -313.53036 -69.162514
-262.14951 -340.79428 -58.610737
-268.14877 -375.40823 13.807162
-169.28845 564.29492 -952.48822
-168.59148 543.2392 -961.83618
-167.87392 522.27448 -971.46021
-167.16246 501.48743 -981.00262
-166.45699 480.8757 -990.46448
-165.75746 460.43741 -999.84698
-165.06377 440.17017 -1009.1508
-164.37589 420.07172 -1018.377
-163.69368 400.14017 -1027.5269
-163.01714 380.37335 -1036.6008
-162.34566 360.76819 -1045.6069
-161.68018 341.32483 -1054.5323
-161.02014 322.04028 -1063.3851
-160.36546 302.91266 -1072.1658
-159.71609 283.9397 -1080.8754
-159.07196 265.11996 -1089.5146
-158.433 246.4514 -1098.0846
-157.79916 227.93225 -1106.5859
-157.17035 209.56053 -1115.0195
-156.54655 191.33475 -1123.3861
-156.12369 173.47076 -1129.0579
-155.75156 155.75159 -1134.0488
-155.39455 138.12852 -1138.8374
-155.76587 121.15133 -1133.8568
-157.2442 104.82955 -1114.0291
-211.76173 117.64555 -382.82376
-216.82719 96.367676 -314.88422
-222.14093 74.04705 -243.61465
-227.02498 50.450062 -178.10867
-227.75919 25.306623 -168.26109
-228.49716 2.6549124e-05 -158.36308
-229.23994 -25.470964 -148.40099
-229.98755 -51.108242 -138.37363
-230.74109 -76.913628 -128.26711
-231.49854 -102.88824 -118.10773
-232.26099 -129.03389 -107.88161
-233.02847 -155.3522 -97.587982
-233.80209 -181.84602 -87.211823
-234.5798 -208.5153 -76.780785
-235.36273 -235.36263 -66.280251
-236.15089 -262.38986 -55.709057
-236.9454 -289.59995 -45.052769
-237.74315 -316.99069 -34.353374
-239.48358 -345.92072 -11.009907
-239.73055 -372.91406 -7.6976428
-149.64682 561.17566 -965.03888
-149.02603 540.21936 -974.40607
-148.39525 519.38336 -983.92358
-147.76981 498.72314 -993.36102
-147.14961 478.23627 -1002.7189
-146.53459 457.92068 -1011.9988
-145.9247 437.77417 -1021.2015
-145.31941 417.7933 -1030.3346
-144.71956 397.97876 -1039.3855
-144.12465 378.3273 -1048.3621
-143.53461 358.83658 -1057.265
-142.94939 339.50482 -1066.0955
-142.36891 320.33011 -1074.8541
-141.79312 301.31046 -1083.5421
-141.222 282.44403 -1092.16
-140.72537 263.86014 -1099.6533
-140.3903 245.68312 -1104.709
-140.05222 227.5849 -1109.8103
-139.71535 209.57303 -1114.8933
-139.65311 192.02303 -1115.8328
-139.65057 174.56326 -1115.8705
-139.64807 157.1042 -1115.9083
-139.64516 139.6452 -1115.9524
-139.70699 122.24368 -1115.0194
-140.5145 105.38587 -1102.8351
-187.39876 117.1242 -395.40616
-191.8611 95.930695 -328.07455
-196.54199 73.703354 -257.4454
-201.45612 50.364048 -183.29694
-204.617 25.577192 -135.60287
-205.28711 4.0778777e-05 -125.49187
-205.96162 -25.74509 -115.31427
-206.64058 -51.660049 -105.06976
-207.32494 -77.746834 -94.743393
-208.01292 -104.00637 -84.362526
-208.70549 -130.44087 -73.912331
-209.40269 -157.05194 -63.392635
-210.1055 -183.84222 -52.787983
-210.8121 -210.81198 -42.126217
-211.52345 -237.96382 -31.392467
-212.18274 -265.22836 -21.444674
-213.57915 -293.67126 -0.37460449
-213.68471 -320.52695 1.2181256
-214.42055 -348.43332 12.321072
-215.0822 -376.39386 22.304579
-216.89223 -406.67291 49.615959
-130.2224 558.09601 -977.43005
-129.67691 537.23303 -986.83704
-129.13106 516.52429 -996.24976
-128.58937 495.98761 -1005.5906
-128.05263 475.62418 -1014.8467
-127.52034 455.42987 -1024.0256
-126.99246 435.40283 -1033.1285
-126.46893 415.54077 -1042.1564
-125.9497 395.84204 -1051.1102
-125.43472 376.30426 -1059.9908
-124.92393 356.92557 -1068.7991
-124.58609 338.16229 -1074.6249
-124.2871 319.59549 -1079.7809
-123.98391 301.10382 -1085.0092
-123.7916 282.95227 -1088.3253
-123.7901 265.26453 -1088.3512
-123.7886 247.57732 -1088.3772
-123.78635 229.88901 -1088.4159
-123.7841 212.20131 -1088.4547
-123.78147 194.51382 -1088.4999
-123.77923 176.8275 -1088.5388
-123.7766 159.1414 -1088.584
-152.64621 174.45288 -590.74573
-156.02437 156.02446 -532.49127
-159.55606 136.76234 -471.58936
-163.25069 116.6077 -407.87787
-167.12047 95.497498 -341.14575
-171.17889 73.362381 -271.16061
-175.43858 50.125336 -197.70494
-179.91647 25.702459 -120.48656
-181.57376 5.9631398e-05 -91.90757
-182.17685 -26.025223 -81.507881
-182.78395 -52.223907 -71.038788
-183.39511 -78.597862 -60.499676
-184.0112 -105.14911 -49.875607
-184.63062 -131.87897 -39.194176
-185.25421 -158.78934 -28.440678
-185.87694 -185.87688 -17.701912
-187.7818 -214.60762 15.145864
-187.50262 -241.07466 10.331632
-187.77834 -268.25473 15.086469
-188.42776 -296.10071 26.28528
-189.08168 -324.13995 37.561825
-189.69084 -352.28293 48.066483
-190.33319 -380.66635 59.14325
-190.99419 -409.27313 70.541695
-113.33847 604.47192 -942.84113
-111.92703 578.28967 -971.23712
-111.00684 555.03424 -989.74994
-110.54018 534.27759 -999.13824
-110.07745 513.6947 -1008.4479
-109.61855 493.28357 -1017.6801
-109.16348 473.04178 -1026.8356
-108.71216 452.96735 -1035.9154
-108.32449 433.298 -1043.7146
-108.06214 414.23825 -1048.9928
-107.80006 395.26694 -1054.2655
-107.53429 376.37003 -1059.6123
-107.5092 358.36407 -1060.1169
-107.50789 340.44165 -1060.1436
-107.5069 322.52075 -1060.1636
-107.50524 304.59821 -1060.1967
-107.50327 286.67538 -1060.2363
-107.50095 268.75238 -1060.283
-107.49898 250.83095 -1060.3229
-107.49666 232.90952 -1060.3693
-119.95515 239.91034 -809.724
-122.38496 224.37253 -760.84009
-124.91477 208.19138 -709.94379
-127.55186 191.32788 -656.88965
-130.30222 173.73642 -601.55701
-133.1738 155.36952 -543.7854
-136.17531 136.1754 -483.39944
-139.3147 116.09559 -420.23975
-142.60283 95.068588 -354.08771
-146.04932 73.024788 -284.74982
-149.66716 49.889191 -211.96425
-153.46812 25.578009 -135.49467
-157.33987 -3.7900663e-05 -57.601452
-157.86891 -26.311478 -46.957783
-158.4008 -52.800182 -36.256805
-158.93631 -79.468071 -25.483519
-159.47543 -106.31692 -14.636958
-160.01459 -133.34541 -3.7901843
-161.36218 -161.36206 23.321152
-161.25224 -188.12749 21.109156
-161.64815 -215.53072 29.07452
-162.20963 -243.31429 40.370461
-162.77502 -271.2916 51.745316
-163.34358 -299.4632 63.184338
-163.91693 -327.83368 74.718773
-164.46185 -356.33401 85.682098
-165.01509 -385.03519 96.812355
-165.59477 -413.98691 108.47433
-167.12288 -445.66095 139.21786
-96.053185 710.79364 -904.10608
-95.509117 687.66565 -917.24103
-95.055923 665.39154 -928.18225
-94.669907 643.75549 -937.5014
-94.342491 622.66058 -945.40601
-94.047615 601.90491 -952.52478
-92.420464 573.0069 -991.80768
-91.99778 551.98676 -1002.0122
-91.613152 531.35638 -1011.2979
-91.363091 511.63345 -1017.335
-91.139145 492.1514 -1022.7416
-90.916008 472.76328 -1028.1284
-90.791573 453.95789 -1031.1327
-90.790726 435.7955 -1031.1531
-90.789597 417.63223 -1031.1804
-90.78875 399.47058 -1031.2008
-90.787621 381.30814 -1031.2281
-90.786209 363.1449 -1031.2621
-90.784233 344.9801 -1031.3099
-90.782539 326.81714 -1031.3508
-91.48423 311.04639 -1014.4105
-92.287216 295.31909 -995.02466
-94.00975 282.02936 -953.43884
-95.797829 268.23401 -910.271
-97.655228 253.90367 -865.42932
-99.586426 239.00748 -818.80615
-101.59554 223.51033 -770.30176
-103.68739 207.37488 -719.79987
-105.86758 190.56168 -667.16547
-108.14103 173.02568 -612.27972
-110.51468 154.72069 -554.97491
-112.99442 135.59338 -495.10849
-115.58846 115.58859 -432.48279
-118.30392 94.643242 -366.92569
-121.15005 72.690079 -298.21423
-124.13702 49.654819 -226.10239
-127.27444 25.454912 -150.35832
-130.57515 4.1079482e-05 -70.672081
-133.02037 -26.604063 -11.639377
-133.47354 -53.389332 -0.6987859
-133.90894 -80.345314 9.8125744
-134.89232 -107.91383 33.553421
-134.82689 -134.82678 31.973913
-135.29123 -162.34949 43.18417
-135.7632 -190.0683 54.578407
-136.23846 -217.98149 66.052635
-136.71645 -246.08951 77.591843
-137.19843 -274.39679 89.228043
-137.68384 -302.9043 100.94651
-138.17006 -331.60806 112.68523
-138.61824 -360.40741 123.50523
-139.10912 -389.50537 135.35582
-139.60347 -418.81027 147.2907
-140.10135 -448.32425 159.31091
-76.638763 728.06836 -910.25598
-76.388794 706.5965 -917.79944
-76.164795 685.48309 -924.5592
-75.965813 664.70087 -930.56384
-75.79911 644.29254 -935.59454
-75.651764 624.12708 -940.04132
-75.546028 604.36829 -943.23206
-75.519638 585.27728 -944.02838
-73.620041 552.15039 -1001.3539
-73.61911 533.73859 -1001.382
-73.618408 515.32892 -1001.403
-73.617485 496.91812 -1001.431
-73.616791 478.50919 -1001.452
-73.61586 460.09912 -1001.48
-73.615166 441.69107 -1001.5011
-73.613541 423.27795 -1001.55
-74.518951 409.85425 -974.22668
-74.014183 388.57455 -989.45959
-73.801064 369.00534 -995.89087
-73.589645 349.5509 -1002.2711
-73.414955 330.36731 -1007.5428
-73.243164 311.28351 -1012.7271
-73.595207 294.38086 -1002.1032
-74.957924 281.09229 -960.97961
-76.372055 267.30228 -918.30457
-77.840828 252.98277 -873.98035
-79.366936 238.10091 -827.92603
-80.954071 222.62381 -780.02979
-82.605988 206.51498 -730.17889
-84.332512 189.7482 -678.07648
-86.138145 172.27637 -623.58661
-88.023125 154.04051 -566.70227
-89.992104 134.98817 -507.28305
-92.051186 115.06409 -445.14484
-94.206703 94.206772 -380.09662
-96.465584 72.349281 -311.92874
-98.835869 49.417973 -240.3989
-101.32513 25.331297 -165.2785
-103.94303 7.1216316e-05 -86.276588
-106.69979 -26.674835 -3.0842059
-108.27615 -54.138065 44.486656
-108.32688 -81.245049 46.017662
-108.70461 -108.7045 57.416515
-109.08549 -136.3568 68.910728
-109.46905 -164.20352 80.485481
-109.8548 -192.24583 92.126511
-110.24379 -220.48753 103.86562
-110.63555 -248.92999 115.68814
-111.02959 -277.57385 127.57894
-111.42696 -306.42413 139.57086
-111.794 -335.38193 150.64726
-112.19256 -364.62582 162.6749
-112.59506 -394.08261 174.82135
-112.99992 -423.74954 187.03896
-113.40769 -453.63071 199.34491
-115.2578 -489.84552 255.17653
-57.578285 729.32501 -906.26385
-57.482658 708.95282 -910.11151
-57.417633 689.01178 -912.72784
-57.434395 670.06805 -912.05359
-55.991249 541.24884 -970.12128
-55.971027 522.3963 -970.93494
-55.970131 503.73126 -970.97083
-56.617935 490.68881 -944.90527
-56.521454 471.01215 -948.78748
-56.467327 451.73874 -950.96533
-56.439301 432.70139 -952.09308
-56.442757 413.91357 -951.95386
-55.617645 389.32361 -985.15399
-55.529293 370.19528 -988.70892
-55.456318 351.22336 -991.64508
-55.412273 332.47372 -993.41736
-55.393169 313.89471 -994.18604
-55.458603 295.77924 -991.55341
-55.984985 279.92499 -970.37341
-57.043396 266.20258 -927.78601
-58.142601 251.95134 -883.5575
-59.285 237.14008 -837.591
-60.47319 221.73506 -789.78186
-61.710197 205.70081 -740.00848
-62.998646 188.996 -688.16541
-64.342041 171.5789 -634.11127
-65.74398 153.40271 -577.70154
-67.208633 134.41737 -518.76862
-68.739761 114.56641 -457.1608
-70.342278 93.789749 -392.68045
-72.021301 72.021385 -325.12198
-73.782433 49.188362 -254.25951
-75.632179 25.210749 -179.83127
-77.576714 7.984892e-05 -101.58917
-79.623886 -26.541252 -19.217417
-81.725922 -54.483856 65.361885
-82.173439 -82.17337 83.368721
-82.463646 -109.9514 95.045662
-82.755516 -137.9258 106.78989
-83.049858 -166.09966 118.63303
-83.346298 -194.47461 130.56084
-83.644463 -223.05186 142.55814
-83.945168 -251.83551 154.6577
-84.248047 -280.82666 166.84448
-84.552711 -310.02652 179.10326
-84.834923 -339.33963 190.45862
-85.141365 -368.94589 202.78905
-85.450035 -398.76672 215.20877
-85.760948 -428.80472 227.71916
-86.074142 -459.06198 240.32056
-86.389618 -489.54111 253.01476
-38.151337 534.11877 -920.39825
-38.14286 514.92865 -920.90979
-38.145355 495.88968 -920.7594
-38.147724 476.84656 -920.61639
-38.150089 457.80115 -920.47351
-38.152462 438.75333 -920.33057
-38.154953 419.70453 -920.17999
-38.157322 400.65198 -920.03705
-37.452152 374.52164 -962.59784
-37.450829 355.7829 -962.67761
-37.449627 337.04672 -962.75012
-37.448307 318.3107 -962.8299
-37.446983 299.57587 -962.90961
-37.50774 281.30814 -959.24274
-37.892914 265.2504 -935.99548
-38.620434 251.03287 -892.08582
-39.376438 236.25862 -846.45703
-40.162628 220.8945 -799.00623
-40.980995 204.90506 -749.61322
-41.833256 188.24969 -698.17462
-42.721725 170.88695 -644.55103
-43.648746 152.77068 -588.6004
-44.61689 133.85081 -530.1676
-45.629135 114.07301 -469.07321
-46.688194 93.37645 -405.15341
-47.797577 71.696358 -338.19611
-48.960968 48.960995 -267.97922
-50.182404 25.091171 -194.25896
-51.466572 0.00014548047 -116.75281
-52.817947 -26.40888 -35.190105
-54.241699 -54.2416 50.741108
-55.415451 -83.123116 121.58323
-55.613426 -111.22681 133.53212
-55.812824 -139.53204 145.56688
-56.013386 -168.03998 157.67177
-56.215664 -196.75478 169.88042
-56.419415 -225.67755 182.17772
-56.624367 -254.80966 194.54782
-56.831089 -284.1553 207.02461
-57.024006 -313.63199 218.66823
-57.231983 -343.39182 231.22069
-57.441196 -373.36774 243.84801
-57.651947 -403.56351 256.56778
-57.864254 -433.98178 269.38138
-58.078125 -464.62488 282.28967
-58.293579 -495.49536 295.29379
-59.687119 -537.18402 379.40115
-19.341951 522.23273 -888.255
-19.34317 502.92242 -888.10803
-19.344452 483.61133 -887.95331
-19.345671 464.29611 -887.80621
-19.346888 444.97845 -887.65924
-19.348106 425.65836 -887.51215
-19.349388 406.33716 -887.3573
-19.350609 387.01221 -887.21014
-18.992626 360.85995 -930.42218
-18.992008 341.8562 -930.4967
-18.991329 322.85269 -930.57874
-18.990711 303.85147 -930.65332
-18.990034 284.85052 -930.73541
-19.029343 266.41083 -925.99042
-19.24008 250.12108 -900.55206
-19.615313 235.38382 -855.25739
-20.005472 220.06023 -808.16077
-20.41147 204.11476 -759.15265
-20.834362 187.50938 -708.10516
-21.27507 170.20059 -654.90698
-21.734827 152.14386 -599.40961
-22.21489 133.28943 -541.46082
-22.71664 113.58325 -480.89389
-23.241673 92.966774 -417.51703
-23.791451 71.374451 -351.15286
-24.36787 48.735756 -281.57288
-24.972914 24.973001 -208.53773
-25.608767 0.00013531417 -131.78346
-26.277966 -26.277889 -51.004135
-26.981705 -53.963356 33.944798
-27.723516 -83.170433 123.48925
-28.133028 -112.53197 172.92192
-28.235085 -141.17535 185.24121
-28.337885 -170.02713 197.65007
-28.441296 -199.08894 210.13307
-28.545607 -228.36476 222.72424
-28.650682 -257.85611 235.40823
-28.756393 -287.5639 248.16885
-28.855469 -317.41013 260.12827
-28.961838 -347.54196 272.96814
-29.068995 -377.89688 285.90302
-29.176947 -408.47717 298.93399
-29.285851 -439.28772 312.07993
-29.395422 -470.32663 325.30627
-29.505817 -501.59888 338.63211
-29.617044 -533.10669 352.05841
3.9278457e-23 510.15247 -854.54108
-1.9110689e-22 490.56921 -854.35797
2.8352171e-22 470.97806 -854.19867
-5.8911436e-22 451.38278 -854.04749
3.9923228e-22 431.78503 -853.89606
-1.3905146e-22 412.18484 -853.74481
-9.7276016e-23 392.58334 -853.58545
3.7294516e-23 372.97809 -853.43402
-3.1659197e-22 346.80508 -897.30963
1.6907422e-23 327.52722 -897.38635
-5.6971045e-22 308.24979 -897.47083
1.1525851e-22 288.97363 -897.55524
2.887236e-23 269.69989 -897.63196
-7.4422213e-22 251.0703 -891.73877
-4.2710399e-22 234.51538 -863.99286
2.4650427e-23 219.2323 -817.24646
2.8332733e-22 203.33133 -768.61011
-6.1694254e-22 186.77409 -717.96674
-5.3798769e-22 169.51979 -665.18005
2.6371905e-22 151.52209 -610.13055
-6.8673904e-22 132.73279 -552.65948
-2.432323e-22 113.09828 -492.6033
3.9477316e-22 92.560272 -429.7836
-5.9823324e-23 71.05526 -363.9938
-4.227363e-22 48.512665 -295.04214
-5.7817875e-22 24.855803 -222.68262
-3.9444002e-22 2.4326831e-05 -146.65587
-7.6780198e-22 -26.148012 -66.676125
-2.2470426e-22 -53.687992 17.320045
-7.9858578e-22 -82.73468 105.95596
-5.9599226e-22 -113.36465 198.04863
-2.9005348e-22 -142.85797 225.86124
-9.7943405e-23 -172.06105 238.56828
-6.3708447e-22 -201.48022 251.36928
-4.4537198e-22 -231.11671 264.24811
-4.2482157e-22 -260.97501 277.24008
-6.3307282e-22 -291.05515 290.31177
-5.3601819e-22 -321.2803 302.59933
-5.5524998e-22 -351.79538 315.75479
-1.11187e-21 -382.53912 329.00882
-1.0873461e-21 -413.51398 342.36246
1.0693955e-22 -444.72263 355.81708
-6.2400306e-22 -476.1676 369.37338
-1.125012e-21 -507.8519 383.03287
2.9382905e-22 -539.77795 396.79684
-2.9788923e-22 -588.03217 512.84747
19.910559 477.85349 -819.61804
19.911919 457.97415 -819.4541
19.91321 438.09064 -819.29816
19.914499 418.20459 -819.1424
19.915791 398.31586 -818.98663
19.91715 378.42584 -818.82257
19.918442 358.53201 -818.66656
19.549294 332.33817 -863.2265
19.548574 312.77728 -863.31335
19.54792 293.21881 -863.39246
19.547199 273.66089 -863.47931
19.54648 254.10435 -863.56628
19.605366 235.2644 -856.45819
19.855499 218.41054 -826.2641
20.255373 202.55382 -777.99536
20.67168 186.04518 -727.74243
21.105463 168.84375 -675.38055
21.557919 150.90541 -620.76416
22.030115 132.18066 -563.76501
22.52346 112.61736 -504.2128
23.039408 92.157639 -441.9324
23.579548 70.738701 -376.73187
24.145723 48.291431 -308.38846
24.739649 24.739727 -236.69525
25.363533 0.00011959162 -161.38599
26.019695 -26.019575 -82.180084
26.707777 -53.415451 0.87866169
27.434401 -82.303116 88.589905
28.201664 -112.8066 181.2072
28.916361 -144.58171 267.47849
29.024046 -174.14427 280.47723
29.132681 -203.92874 293.5907
29.242132 -233.93701 306.80276
29.352262 -264.17029 320.0965
29.45936 -294.59348 333.0242
29.56769 -325.24454 346.10089
29.679386 -356.15256 359.58356
29.791927 -387.29495 373.16858
29.905325 -418.67453 386.85715
30.01959 -450.29373 400.65012
30.134731 -482.15561 414.54883
30.250761 -514.26294 428.55487
30.367687 -546.61823 442.66895
30.485519 -579.22479 456.89261
40.413986 464.76093 -783.83527
40.416645 444.58313 -783.67487
40.4193 424.40271 -783.51447
40.421959 404.21973 -783.35394
40.424622 384.03397 -783.19348
40.427422 363.84689 -783.02448
40.43008 343.65576 -782.86389
39.680096 317.44077 -828.12958
39.678612 297.58963 -828.21918
39.677128 277.73996 -828.30865
39.675781 257.89258 -828.39001
39.674294 238.04585 -828.47955
39.813377 218.97362 -820.08521
40.35643 201.78221 -787.30908
41.182652 185.32205 -737.44226
42.043415 168.17366 -685.49072
42.940918 150.29327 -631.32117
43.87775 131.63333 -574.77869
44.856194 112.14064 -515.72437
45.879272 91.758575 -453.97601
46.950108 70.425323 -389.34555
48.072124 48.072163 -321.62585
49.24929 24.624695 -250.57745
50.485336 0.00012890239 -175.97549
51.785023 -25.892445 -97.53241
53.145653 -53.145565 -15.411042
54.584053 -81.875969 71.40387
56.102482 -112.2048 163.04904
57.708088 -144.27022 259.95615
58.759777 -176.27936 323.43121
58.982121 -206.43742 336.85086
59.206451 -236.82574 350.39047
59.432499 -267.44617 364.03351
59.646866 -298.23425 376.97168
59.874146 -329.30777 390.6893
60.103161 -360.61896 404.51166
60.333939 -392.17047 418.44009
60.56649 -423.96536 432.47617
60.800846 -456.00632 446.62057
61.037022 -488.29611 460.87497
61.27536 -520.84052 475.26001
61.515244 -553.63708 489.73825
61.757011 -586.69153 504.3302
64.279251 -642.79248 656.56085
61.536293 451.2662 -747.00586
61.54105 430.78738 -746.81451
61.545158 410.30118 -746.64911
61.549271 389.81207 -746.48376
61.553379 369.32031 -746.31842
61.557705 348.82712 -746.14429
61.561817 328.32974 -745.97888
60.41853 302.09271 -791.98126
60.416443 281.94348 -792.06512
60.41415 261.79477 -792.15747
60.411861 241.64745 -792.24969
60.409775 221.50256 -792.3335
60.652054 202.17351 -782.58502
61.534782 184.60434 -747.06683
62.815834 167.50899 -695.52106
64.151367 149.68663 -641.78357
65.544922 131.0899 -585.71143
67.000618 111.66773 -527.13855
68.522171 91.362976 -465.91595
70.114441 70.114487 -401.84787
71.782478 47.855083 -334.73151
73.531799 24.510563 -264.34375
