# .PCD v0.7 - Point Cloud Data file format
VERSION 0.7
FIELDS x y z
SIZE 4 4 4
TYPE F F F
COUNT 1 1 1
WIDTH 1522
HEIGHT 1
VIEWPOINT 0 0 0 1 0 0 0
POINTS 1522
DATA ascii
-2.6714351 5.3428664 -12.619676
-2.6719568 4.4532638 -12.598684
-2.6726527 3.5635381 -12.570675
-2.6662502 2.6662455 -12.828302
-2.6662502 1.7774986 -12.8283
-2.6662502 0.8887471 -12.8283
-2.6662502 1.0623567e-06 -12.828307
-2.6662502 -0.88874996 -12.828307
-2.6662502 -1.777501 -12.828307
-2.6662502 -2.6662483 -12.828306
-2.6662502 -3.5549994 -12.828306
-2.6662502 -4.4437504 -12.828305
-2.6662502 -5.3325014 -12.828305
-2.6662502 -6.2212529 -12.828305
-2.6662502 -7.1099997 -12.828302
-2.6662502 -7.9987507 -12.828302
-2.6662502 -8.8875027 -12.828303
-2.6662502 -9.7762537 -12.828302
-2.6662607 -10.665048 -12.827866
-1.8822522 20.704775 -6.5059443
-1.877135 19.709921 -6.8147988
-1.8770144 18.770144 -6.8220797
-1.8778597 17.839668 -6.7710557
-1.7796172 16.016552 -12.700519
-1.7743515 15.08199 -13.018332
-1.77262 14.180961 -13.122838
-1.7719383 13.289538 -13.163982
-1.7720388 12.404274 -13.15792
-1.7717232 11.516199 -13.176968
-1.7718953 10.631371 -13.166575
-1.7720028 9.7460175 -13.160084
-1.7719455 8.8597288 -13.163551
-1.7719671 7.9738526 -13.162249
-1.7719815 7.0879273 -13.161385
-1.7719886 6.2019567 -13.160946
-1.7720028 5.316011 -13.160085
-1.7721105 4.4302731 -13.153587
-1.7725481 3.5450952 -13.127169
-1.7683165 2.6524751 -13.382572
-1.7683165 1.7683134 -13.38257
-1.7683165 0.88415748 -13.382578
-1.7683165 8.4869157e-08 -13.382574
-1.7683165 -0.88416123 -13.382574
-1.7683165 -1.768319 -13.38257
-1.7683165 -2.6524746 -13.382578
-1.7683165 -3.5366323 -13.382574
-1.7683165 -4.4207935 -13.382574
-1.7683165 -5.3049507 -13.382569
-1.7683165 -6.1891069 -13.382577
-1.7683165 -7.0732646 -13.382574
-1.7683165 -7.9574251 -13.382573
-1.7683165 -8.8415871 -13.382572
-1.7683165 -9.7257395 -13.382577
-1.7683165 -10.6099 -13.382576
-0.93539482 20.578686 -7.1977782
-0.93341631 19.601742 -7.4366078
-0.93309796 18.661959 -7.4750323
-0.93384236 17.743006 -7.3851728
-0.88467646 15.924172 -13.320021
-0.88255399 15.00342 -13.576226
-0.88170427 14.107268 -13.678798
-0.88143802 13.221572 -13.71094
-0.88137764 12.339285 -13.718223
-0.88141316 11.458371 -13.713941
-0.88143802 10.577257 -13.710944
-0.88125348 9.6937885 -13.733212
-0.88127476 8.812746 -13.730644
-0.88128543 7.9315672 -13.729362
-0.88128895 7.0503135 -13.728932
-0.88128895 6.169023 -13.728934
-0.88130313 5.287817 -13.727217
-0.88135642 4.4067822 -13.720794
-0.88166881 3.5266719 -13.683078
-0.87961733 2.6388471 -13.930717
-0.87961733 1.7592337 -13.930718
-0.87961733 0.87961686 -13.930723
-0.87961733 -1.5573227e-06 -13.930717
-0.87961733 -0.87961847 -13.930722
-0.87961733 -1.7592365 -13.930716
-0.87961733 -2.6388538 -13.93072
-0.87961733 -3.5184717 -13.930715
-0.87961733 -4.3980889 -13.930719
-0.87961733 -5.2777023 -13.930721
-0.87961733 -6.1573243 -13.930718
-0.87961733 -7.0369372 -13.930719
-0.87961733 -7.9165602 -13.930717
-0.87961733 -8.7961731 -13.930718
-0.87961733 -9.6757908 -13.930723
-0.87961733 -10.555408 -13.930717
-1.1222575e-23 20.464903 -7.8220901
-4.8802533e-24 19.49938 -8.0250149
-1.0330859e-24 18.565796 -8.055438
-1.1049499e-23 17.652479 -7.9603071
8.0087589e-24 15.8347 -13.920051
7.9900944e-24 14.922668 -14.149591
-7.5859294e-24 14.036421 -14.213301
3.6171071e-24 13.153502 -14.258689
2.4135326e-24 12.276701 -14.257848
2.2586066e-24 11.400434 -14.251909
6.8471549e-24 10.520613 -14.28074
-6.9535186e-24 9.6442051 -14.277349
-1.1283873e-23 8.7675629 -14.276078
2.2001072e-23 7.8908682 -14.275225
5.5867035e-24 7.0141344 -14.274806
1.7537799e-23 6.1373653 -14.274804
-4.044919e-24 5.260664 -14.273537
-1.9460924e-23 4.3841858 -14.266327
-7.7197865e-24 3.5088377 -14.221364
-1.4740898e-23 2.6253681 -14.473263
1.4560648e-23 1.7502435 -14.473261
-2.1635922e-23 0.87512308 -14.473267
-2.2112879e-23 -1.5683586e-06 -14.473265
7.188667e-24 -0.8751266 -14.473263
6.7117106e-24 -1.7502468 -14.473257
-3.6648111e-25 -2.6253669 -14.473264
-8.4343746e-25 -3.5004919 -14.473262
-1.3203938e-24 -4.3756161 -14.473259
-7.738462e-24 -5.2507367 -14.473265
-8.2154183e-24 -6.1258607 -14.473262
-8.6923747e-24 -7.0009861 -14.47326
-1.5770566e-23 -7.876102 -14.473264
-1.6247523e-23 -8.7512264 -14.473262
1.8347169e-23 -9.6263514 -14.473259
-2.1818249e-23 -10.501471 -14.473265
0.93575472 21.52236 -7.154335
0.92527205 20.355984 -8.4197054
0.92375296 19.398813 -8.6030684
0.92367893 18.473579 -8.612009
0.92432642 17.562202 -8.533844
0.87504923 15.750887 -14.482132
0.87331754 14.846394 -14.691167
0.8725968 13.961551 -14.778166
0.87248206 13.087229 -14.792023
0.87247157 12.214602 -14.793279
0.87250286 11.342535 -14.7895
0.87242985 10.469157 -14.798316
0.8722769 9.5950451 -14.816789
0.87229079 8.7229099 -14.815106
0.87229079 7.8506165 -14.815106
0.87229776 6.978384 -14.814266
0.87229425 6.1060576 -14.814687
0.87230468 5.2338247 -14.813427
0.87236375 4.3618164 -14.806291
0.87279862 3.491194 -14.753806
0.87067038 2.6120105 -15.010703
0.87067038 1.741341 -15.010706
0.87067038 0.87067169 -15.010709
0.87067038 -2.6994162e-06 -15.010703
0.87067038 -0.87067199 -15.010707
0.87067038 -1.7413414 -15.010709
0.87067038 -2.6120152 -15.010704
0.87067038 -3.4826841 -15.010707
0.87067038 -4.3533535 -15.010709
0.87067038 -5.2240191 -15.010711
0.87067038 -6.0946937 -15.010704
0.87067038 -6.9653625 -15.010708
0.87067038 -7.8360319 -15.01071
0.87067038 -8.706706 -15.010705
0.87067038 -9.5773754 -15.010708
0.87067038 -10.448044 -15.01071
1.8565558 21.350391 -8.05686
1.8407319 20.248049 -9.0119228
1.8379881 19.298878 -9.1775188
1.8382736 18.382736 -9.160285
1.8394401 17.47468 -9.0898867
1.7406899 15.666209 -15.049989
1.7376634 14.770141 -15.232655
1.7363814 13.891051 -15.310028
1.7361128 13.020848 -15.326239
1.7360784 12.15255 -15.328318
1.7360991 11.284642 -15.327066
1.7361267 10.416759 -15.325401
1.7361542 9.5488482 -15.323743
1.7361611 8.6808062 -15.323327
1.736168 7.8127546 -15.322914
1.736168 6.9446678 -15.322909
1.736168 6.0765872 -15.322913
1.7361954 5.2085824 -15.321246
1.7363126 4.3407784 -15.314181
1.7366501 3.4732957 -15.293809
1.7325331 2.5987949 -15.542295
1.7325331 1.7325346 -15.542298
1.7325331 0.86626536 -15.542296
1.7325331 -4.3699379e-06 -15.542295
1.7325331 -0.86626512 -15.542298
1.7325331 -1.7325344 -15.542296
1.7325331 -2.5988038 -15.542295
1.7325331 -3.4650686 -15.5423
1.7325331 -4.3313336 -15.542295
1.7325331 -5.1976032 -15.542294
1.7325331 -6.0638676 -15.5423
1.7325331 -6.9301333 -15.542295
1.7325331 -7.7963972 -15.542301
1.7325331 -8.6626663 -15.542299
1.7325331 -9.5289316 -15.542295
1.7325331 -10.395197 -15.542301
2.7653537 21.201046 -8.8406849
2.7466838 20.142347 -9.5918913
2.7433674 19.203569 -9.7253313
2.7433674 18.289118 -9.725337
2.637707 16.705477 -13.976787
2.5974014 15.584412 -15.598556
2.5932167 14.694895 -15.766952
2.5914049 13.820826 -15.839833
2.5908937 12.954469 -15.86041
2.590802 12.090408 -15.864106
2.590822 11.226892 -15.863285
2.5908427 10.363374 -15.862466
2.5908735 9.4998674 -15.861231
2.5908735 8.636241 -15.861229
2.5908735 7.7726231 -15.861233
2.5908735 6.9089956 -15.861229
2.5908735 6.0453691 -15.861228
2.5909348 5.1818705 -15.858764
2.5910981 4.3184977 -15.852182
2.5917323 3.4556425 -15.826665
2.5857108 2.5857124 -16.068951
2.5857108 1.7238047 -16.068945
2.5857108 0.861902 -16.068947
2.5857108 -7.4087041e-07 -16.068949
2.5857108 -0.86190754 -16.068945
2.5857108 -1.7238098 -16.068947
2.5857108 -2.5857122 -16.068949
2.5857108 -3.4476154 -16.068953
2.5857108 -4.3095183 -16.068945
2.5857108 -5.1714206 -16.068947
2.5857108 -6.0333238 -16.068949
2.5857108 -6.8952303 -16.068945
2.5857108 -7.7571325 -16.068947
2.5857108 -8.6190357 -16.068949
2.5857108 -9.4809427 -16.068943
2.5857108 -10.342846 -16.068945
3.6663399 21.081451 -9.4683237
3.6424987 20.033743 -10.18779
3.6390772 19.105158 -10.291051
3.6402876 18.201437 -10.254519
3.4722257 16.493069 -15.326235
3.444942 15.502237 -16.149593
3.4399748 14.619893 -16.299501
3.4384749 13.753899 -16.344757
3.4370172 12.888813 -16.388746
3.4368823 12.029087 -16.392822
3.4368956 11.169913 -16.39242
3.4369092 10.31073 -16.39201
3.4369226 9.451539 -16.391605
3.4369226 8.5923071 -16.391602
3.4369226 7.7330723 -16.391598
3.4369226 6.873847 -16.391603
3.4369361 6.0146389 -16.391197
3.4370036 5.1555061 -16.389156
3.4372466 4.2965593 -16.381828
3.4388394 3.4388356 -16.333752
3.4303513 2.5727654 -16.589914
3.4303513 1.7151743 -16.589912
3.4303513 0.85758287 -16.589909
3.4303513 1.4919351e-07 -16.589912
3.4303513 -0.8575899 -16.589911
3.4303513 -1.7151763 -16.589916
3.4303513 -2.5727637 -16.589911
3.4303513 -3.4303501 -16.589916
3.4303513 -4.2879415 -16.589912
3.4303513 -5.1455283 -16.589909
3.4303513 -6.0031147 -16.589914
3.4303513 -6.8607059 -16.589911
3.4303513 -7.7182922 -16.589916
3.4303513 -8.5758801 -16.589911
3.4303513 -9.433466 -16.589916
3.4303513 -10.291057 -16.589914
4.5529723 20.94367 -10.19145
4.5302048 19.932903 -10.741094
4.526495 19.01128 -10.830661
4.5282931 18.113171 -10.787254
4.3117595 16.384684 -16.014841
4.2842126 15.423165 -16.679878
4.2783341 14.546334 -16.821798
4.276144 13.683661 -16.874668
4.2755094 12.82653 -16.889996
4.275342 11.970958 -16.89403
4.275075 11.115196 -16.900478
4.2750916 10.260221 -16.900074
4.2751083 9.4052353 -16.899673
4.2751083 8.5502157 -16.899672
4.2751083 7.6951919 -16.899672
4.2751083 6.8401766 -16.899677
4.2751083 5.9851518 -16.899675
4.2754426 5.1305256 -16.891605
4.2757597 4.2757587 -16.883944
4.2766285 3.4213006 -16.86297
4.2665749 2.5599401 -17.105684
4.2665749 1.7066275 -17.105686
4.2665749 0.85331488 -17.105688
4.2665749 2.3316256e-06 -17.10569
4.2665749 -0.85331571 -17.105682
4.2665749 -1.7066324 -17.105688
4.2665749 -2.5599453 -17.105688
4.2665749 -3.4132578 -17.10569
4.2665749 -4.2665758 -17.105682
4.2665749 -5.1198916 -17.105688
4.2665749 -5.9732051 -17.105688
4.2665749 -6.8265181 -17.10569
4.2665749 -7.6798353 -17.105684
4.2665749 -8.5331516 -17.105688
4.2665749 -9.3864651 -17.105688
4.2665749 -10.239782 -17.105682
5.4321308 20.823168 -10.823877
5.4099331 19.836422 -11.270474
5.4052348 18.91832 -11.364995
5.4071932 18.023975 -11.325594
5.1388626 16.273064 -16.723995
5.1144662 15.343399 -17.214798
5.1082792 14.473458 -17.339272
5.1064129 13.617097 -17.376833
5.1054001 12.7635 -17.397203
5.1052017 11.912136 -17.401197
5.1039515 11.058562 -17.426342
5.1039515 10.207905 -17.426346
5.1039515 9.3572426 -17.426342
5.1039515 8.5065851 -17.426346
5.1039515 7.6559277 -17.42634
5.1039515 6.8052697 -17.426344
5.1039515 5.9546084 -17.426342
5.1053009 5.1052999 -17.399195
5.1057177 4.2547641 -17.390816
5.1068892 3.4045949 -17.367247
5.0944877 2.5472419 -17.616741
5.0944877 1.6981611 -17.616743
5.0944877 0.8490802 -17.616745
5.0944877 -1.4850783e-06 -17.616747
5.0944877 -0.84908235 -17.616747
5.0944877 -1.6981633 -17.616749
5.0944877 -2.5472441 -17.616749
5.0944877 -3.3963263 -17.616741
5.0944877 -4.2454071 -17.616743
5.0944877 -5.0944881 -17.616743
5.0944877 -5.9435697 -17.616745
5.0944877 -6.7926507 -17.616747
5.0944877 -7.6417317 -17.616747
5.0944877 -8.4908123 -17.616749
5.0944877 -9.3398991 -17.616743
5.0944877 -10.188975 -17.616741
6.3046803 20.715378 -11.389611
6.2789207 19.733749 -11.833817
6.2745237 18.82357 -11.909637
6.2771711 17.934772 -11.863982
5.9597521 16.176472 -17.337673
5.9366832 15.265759 -17.735489
5.9303637 14.40231 -17.844456
5.9268999 13.547198 -17.904196
5.9257994 12.698137 -17.923164
5.92557 11.851141 -17.927118
5.92557 11.00463 -17.927118
5.92557 10.15812 -17.92712
5.92557 9.3116112 -17.927122
5.92557 8.4650955 -17.927114
5.92557 7.6185894 -17.927114
5.92557 6.772079 -17.927114
5.92557 5.92557 -17.927116
5.9257078 5.0791788 -17.924749
5.9261661 4.2329717 -17.91684
5.9292397 3.3881359 -17.863844
5.914248 2.5346782 -18.122364
5.914248 1.6897815 -18.122362
5.914248 0.84489441 -18.122364
5.914248 -1.8139467e-06 -18.12236
5.914248 -0.84489304 -18.122366
5.914248 -1.6897852 -18.12236
5.914248 -2.5346758 -18.122366
5.914248 -3.3795722 -18.122362
5.914248 -4.2244635 -18.122368
5.914248 -5.0693555 -18.122362
5.914248 -5.9142466 -18.122366
5.914248 -6.7591424 -18.122364
5.914248 -7.6040354 -18.122358
5.914248 -8.448926 -18.122362
5.914248 -9.2938223 -18.12236
5.914248 -10.13871 -18.122364
7.1651912 20.599924 -11.995534
7.1401811 19.635496 -12.37291
7.1368637 18.734266 -12.422964
7.1387544 17.846886 -12.39443
6.7745166 16.089476 -17.890356
6.7495527 15.186494 -18.267031
6.7440157 14.331033 -18.35058
6.7400441 13.480084 -18.410505
6.73911 12.635831 -18.424603
6.738903 11.793081 -18.427732
6.738903 10.950718 -18.427731
6.738903 10.108356 -18.427729
6.738903 9.2659883 -18.427731
6.738903 8.4236259 -18.427729
6.738903 7.5812631 -18.427727
6.738903 6.738904 -18.427732
6.738903 5.8965411 -18.427731
6.7390585 5.0542965 -18.425385
6.7398629 4.2124104 -18.413246
6.7431068 3.3715522 -18.364294
6.7259603 2.5222342 -18.623013
6.7259603 1.6814904 -18.623014
6.7259603 0.84074599 -18.623018
6.7259603 1.8388181e-06 -18.623018
6.7259603 -0.84074682 -18.623013
6.7259603 -1.681491 -18.623014
6.7259603 -2.5222354 -18.623016
6.7259603 -3.3629797 -18.623018
6.7259603 -4.2037282 -18.623013
6.7259603 -5.0444727 -18.623014
6.7259603 -5.8852167 -18.623016
6.7259603 -6.7259607 -18.623018
6.7259603 -7.5667048 -18.62302
6.7259603 -8.4074545 -18.623014
6.7259603 -9.2481976 -18.623016
6.7259603 -10.088943 -18.623018
8.0156746 20.484499 -12.601307
7.9923239 19.536795 -12.914489
7.9896665 18.642553 -12.950135
7.9932323 17.762739 -12.902308
7.5795445 16.001261 -18.450809
7.5565171 15.113034 -18.759665
7.5494804 14.260126 -18.854048
7.5454607 13.414148 -18.907953
7.5446515 12.574416 -18.918806
7.5444779 11.735854 -18.921133
7.5444779 10.89758 -18.921131
7.5444779 10.059301 -18.921133
7.5444779 9.2210264 -18.921131
7.5444779 8.3827524 -18.921129
7.5444779 7.5444741 -18.921131
7.5444779 6.7062044 -18.921137
7.5444779 5.8679299 -18.921137
7.5446515 5.0297709 -18.918812
7.5458074 4.1921129 -18.903301
7.5486703 3.3549612 -18.86491
7.5297136 2.5099034 -19.119167
7.5297136 1.6732689 -19.119167
7.5297136 0.83663338 -19.119167
7.5297136 -1.1643531e-06 -19.119167
7.5297136 -0.83663619 -19.119167
7.5297136 -1.6732707 -19.119167
7.5297136 -2.5099049 -19.119167
7.5297136 -3.3465395 -19.119169
7.5297136 -4.1831746 -19.119169
7.5297136 -5.0198097 -19.119167
7.5297136 -5.8564439 -19.119169
7.5297136 -6.693079 -19.119169
7.5297136 -7.5297151 -19.119169
7.5297136 -8.3663483 -19.119169
7.5297136 -9.2029829 -19.119169
7.5297136 -10.039618 -19.119171
8.8584366 20.374401 -13.179127
8.83605 19.43931 -13.449357
8.8338394 18.551064 -13.476046
8.837121 17.674244 -13.436441
8.3749275 15.91236 -19.015604
8.3542137 15.037582 -19.265642
8.3466635 14.189324 -19.356781
8.3443079 13.35089 -19.385204
8.3434496 12.515171 -19.395569
8.3432913 11.680606 -19.39749
8.3432589 10.846236 -19.397879
8.3432589 10.01191 -19.397873
8.3432589 9.1775818 -19.397873
8.3432589 8.3432608 -19.397877
8.3432589 7.5089316 -19.397877
8.3432589 6.6746054 -19.397871
8.3432589 5.840282 -19.397879
8.343482 5.0060887 -19.395189
8.3442135 4.1721053 -19.386356
8.3459949 3.3383992 -19.364849
8.3256769 2.4977007 -19.6101
8.3256769 1.6651325 -19.610102
8.3256769 0.83256549 -19.610104
8.3256769 -7.3402293e-07 -19.610106
8.3256769 -0.83256453 -19.610107
8.3256769 -1.6651363 -19.6101
8.3256769 -2.4977038 -19.610102
8.3256769 -3.330271 -19.610106
8.3256769 -4.1628385 -19.610107
8.3256769 -4.9954104 -19.610102
8.3256769 -5.8279738 -19.6101
8.3256769 -6.6605411 -19.610104
8.3256769 -7.4931087 -19.610106
8.3256769 -8.3256807 -19.6101
8.3256769 -9.1582479 -19.610102
8.3256769 -9.9908152 -19.610104
9.6937103 20.268665 -13.734067
9.6727581 19.345516 -13.96399
9.6700392 18.460983 -13.993836
9.6761789 17.593054 -13.926455
9.1643105 15.829263 -19.543545
9.1444359 14.963621 -19.761639
9.1360388 14.11933 -19.853788
9.1336479 13.285304 -19.880032
9.1327467 12.453746 -19.889915
9.1325388 11.623232 -19.892197
9.1325388 10.792999 -19.8922
9.1325045 9.9627342 -19.892578
9.1324692 9.1324682 -19.892958
9.1324692 8.3022442 -19.892956
9.1324692 7.4720201 -19.892958
9.1324692 6.6417956 -19.892956
9.1325045 5.8115926 -19.892578
9.1327114 4.9814782 -19.890291
9.1335087 4.1515961 -19.881552
9.1359692 3.3221698 -19.854551
9.1139402 2.4856184 -20.096291
9.1139402 1.6570811 -20.096296
9.1139402 0.82853812 -20.096294
9.1139402 -6.0266586e-08 -20.096289
9.1139402 -0.82853907 -20.096294
9.1139402 -1.6570812 -20.096291
9.1139402 -2.4856238 -20.096291
9.1139402 -3.3141611 -20.096294
9.1139402 -4.1427031 -20.096292
9.1139402 -4.971242 -20.096289
9.1139402 -5.7997794 -20.096292
9.1139402 -6.6283226 -20.096291
9.1139402 -7.4568605 -20.096296
9.1139402 -8.2854013 -20.096294
9.1139402 -9.1139412 -20.096291
9.1139402 -9.9424782 -20.096294
10.657383 21.314766 -12.904919
10.519768 20.162891 -14.289218
10.501053 19.251932 -14.477489
10.49929 18.373756 -14.495216
10.504118 17.506865 -14.446651
9.9454918 15.747028 -20.065996
9.9260225 14.889035 -20.261841
9.9193878 14.052464 -20.328583
9.9168787 13.222504 -20.353827
9.9158678 12.394834 -20.363995
9.9156437 11.568253 -20.366255
9.9155684 10.741865 -20.367008
9.9155312 9.9155312 -20.367382
9.915493 9.0892019 -20.367756
9.915493 8.2629108 -20.367764
9.915493 7.4366183 -20.367762
9.915493 6.6103268 -20.367758
9.915493 5.7840395 -20.367762
9.9157925 4.9578934 -20.364746
9.9171028 4.1321244 -20.351564
9.9193497 3.3064451 -20.328957
9.8945751 2.4736445 -20.578176
9.8945751 1.6490978 -20.578176
9.8945751 0.82454807 -20.578178
9.8945751 5.5673905e-07 -20.578178
9.8945751 -0.82454616 -20.578178
9.8945751 -1.6490977 -20.578171
9.8945751 -2.4736485 -20.578173
9.8945751 -3.2981956 -20.578173
9.8945751 -4.1227417 -20.578173
9.8945751 -4.9472885 -20.578171
9.8945751 -5.7718396 -20.578173
9.8945751 -6.5963855 -20.578173
9.8945751 -7.4209318 -20.578173
9.8945751 -8.2454805 -20.578173
9.8945751 -9.0700293 -20.578175
9.8945751 -9.8945761 -20.578175
9.8958063 -10.720459 -20.565802
11.436633 21.113783 -13.915783
11.336437 20.056774 -14.846149
11.321012 19.158634 -14.989378
11.321238 18.288151 -14.98729
11.327051 17.426231 -14.933311
10.719608 15.667117 -20.573677
10.701547 14.817524 -20.741385
10.692419 13.982395 -20.826147
10.689928 13.156836 -20.849274
10.688844 12.333282 -20.859341
10.688562 11.510761 -20.86195
10.688442 10.688439 -20.863068
10.688361 9.8661814 -20.863815
10.688281 9.043931 -20.864559
10.688281 8.2217531 -20.864563
10.688281 7.39958 -20.864563
10.688281 6.5774016 -20.864555
10.688281 5.7552276 -20.864557
10.688601 4.933198 -20.861576
10.69065 4.1117883 -20.842558
10.695231 3.2908416 -20.800024
10.667765 2.4617939 -21.055065
10.667765 1.6411922 -21.055065
10.667765 0.82059449 -21.055063
10.667765 -3.1871803e-06 -21.055061
10.667765 -0.82059509 -21.055067
10.667765 -1.6411928 -21.055065
10.667765 -2.4617946 -21.055065
10.667765 -3.2823923 -21.055063
10.667765 -4.1029902 -21.055061
10.667765 -4.9235826 -21.055065
10.667765 -5.7441802 -21.055063
10.667765 -6.5647812 -21.055063
10.667765 -7.3853793 -21.055061
10.667765 -8.2059717 -21.055067
10.667765 -9.0265703 -21.055065
10.667765 -9.847167 -21.055061
10.667765 -10.667768 -21.055063
12.22786 20.962046 -14.678974
12.145516 19.953348 -15.388948
12.132773 19.065784 -15.498825
12.134551 18.20183 -15.4835
11.608831 16.584045 -20.016348
11.48565 15.587664 -21.078455
11.466481 14.74262 -21.243731
11.460649 13.916499 -21.294016
11.457863 13.094699 -21.318035
11.45675 12.275086 -21.327635
11.45632 11.45632 -21.331327
11.456063 10.637774 -21.333548
11.455977 9.8194084 -21.334282
11.455892 9.0010576 -21.335022
11.455807 8.1827192 -21.335764
11.455807 7.3644476 -21.33576
11.455807 6.5461769 -21.335762
11.45585 5.7279239 -21.335394
11.456149 4.9097772 -21.332806
11.457478 4.0919542 -21.321358
11.463521 3.2752895 -21.269245
11.433537 2.450043 -21.527777
11.433537 1.6333598 -21.527771
11.433537 0.81668335 -21.527773
11.433537 -2.9448281e-06 -21.527771
11.433537 -0.81668121 -21.527773
11.433537 -1.6333667 -21.527769
11.433537 -2.4500439 -21.527773
11.433537 -3.2667253 -21.527779
11.433537 -4.0834084 -21.527773
11.433537 -4.900085 -21.527775
11.433537 -5.7167711 -21.527771
11.433537 -6.5334492 -21.527775
11.433537 -7.3501358 -21.527771
11.433537 -8.1668129 -21.527773
11.433537 -8.9834986 -21.527771
11.433537 -9.8001757 -21.527773
11.433537 -10.616855 -21.527775
13.016614 20.826578 -15.360301
12.950075 19.856779 -15.895769
12.936399 18.973385 -16.005816
12.939611 18.115456 -15.979964
12.335921 16.447899 -20.838085
12.245969 15.511561 -21.561972
12.227771 14.673326 -21.708412
12.22149 13.851022 -21.758963
12.218397 13.032957 -21.783848
12.217032 12.217033 -21.794828
12.216351 11.401926 -21.800316
12.215987 10.587188 -21.803242
12.215805 9.7726431 -21.804705
12.215625 8.958128 -21.806171
12.215579 8.1437206 -21.806536
12.215579 7.3293486 -21.806536
12.215579 6.5149775 -21.806538
12.215579 5.7005997 -21.80653
12.215897 4.8863544 -21.803968
12.218579 4.0728564 -21.782387
12.223811 3.2596841 -21.740292
12.19208 2.4384143 -21.995625
12.19208 1.62561 -21.995626
12.19208 0.81280649 -21.99563
12.19208 -2.9644982e-06 -21.995625
12.19208 -0.81280643 -21.995628
12.19208 -1.6256108 -21.99563
12.19208 -2.4384193 -21.995626
12.19208 -3.2512228 -21.99563
12.19208 -4.0640273 -21.995632
12.19208 -4.8768358 -21.995626
12.19208 -5.6896362 -21.995628
12.19208 -6.5024452 -21.995623
12.19208 -7.3152494 -21.995626
12.19208 -8.1280537 -21.995628
12.19208 -8.9408617 -21.995625
12.19208 -9.7536659 -21.995626
12.19208 -10.566469 -21.99563
13.801219 20.701828 -15.987766
13.743968 19.756954 -16.419685
13.733835 18.884024 -16.496132
13.736421 18.029051 -16.476627
13.070753 16.33844 -21.498703
13.00001 15.437512 -22.032413
12.981698 14.604412 -22.170567
12.974677 13.785595 -22.223543
12.971217 12.971216 -22.249645
12.969536 12.15894 -22.262331
12.968719 11.347629 -22.26849
12.968143 10.536616 -22.272839
12.969728 9.7272949 -22.26088
12.971025 8.9175777 -22.251095
12.970881 8.1067991 -22.252186
12.970881 7.2961187 -22.25218
12.970881 6.4854388 -22.252182
12.970928 5.6747818 -22.25182
12.971361 4.8642578 -22.248558
12.973042 4.0540786 -22.235872
12.976215 3.2440512 -22.211935
12.943459 2.426897 -22.459064
12.943459 1.617928 -22.459059
12.943459 0.80896401 -22.459063
12.943459 -1.0222171e-06 -22.459064
12.943459 -0.80896503 -22.459066
12.943459 -1.6179333 -22.459061
12.943459 -2.4268982 -22.459063
12.943459 -3.2358623 -22.459066
12.943459 -4.0448313 -22.459061
12.943459 -4.8537965 -22.459063
12.943459 -5.6627603 -22.459066
12.943459 -6.471734 -22.459063
12.943459 -7.2806973 -22.459064
12.943459 -8.0896606 -22.459066
12.943459 -8.8986311 -22.459061
12.943459 -9.7075949 -22.459064
12.943459 -10.51656 -22.459066
14.577451 20.579929 -16.600863
14.529579 19.657665 -16.940781
14.523114 18.794619 -16.986683
14.529069 17.947672 -16.944405
13.807796 16.244463 -22.065897
13.742471 15.359231 -22.529749
13.727766 14.535281 -22.634153
13.720578 13.720577 -22.68519
13.716684 12.909819 -22.712847
13.71451 12.101041 -22.728281
13.71638 11.295844 -22.714998
13.715977 10.488687 -22.717873
13.715471 9.681509 -22.721462
13.715875 8.874979 -22.718592
13.715723 8.0680733 -22.719666
13.715673 7.2612405 -22.720028
13.715572 6.4543886 -22.720743
13.715723 5.6476502 -22.719669
13.716128 4.8409848 -22.716795
13.717545 4.0345745 -22.706743
13.722147 3.2287352 -22.674049
13.687722 2.4154782 -22.918495
13.687722 1.61032 -22.918495
13.687722 0.80515778 -22.918499
13.687722 -3.9188046e-07 -22.918499
13.687722 -0.80515939 -22.918501
13.687722 -1.6103175 -22.918501
13.687722 -2.4154847 -22.918497
13.687722 -3.220644 -22.918495
13.687722 -4.0258021 -22.918497
13.687722 -4.8309603 -22.918497
13.687722 -5.6361194 -22.918499
13.687722 -6.4412813 -22.918503
13.687722 -7.2464437 -22.918493
13.687722 -8.0516033 -22.918495
13.687722 -8.856761 -22.918495
13.687722 -9.6619225 -22.918499
13.687722 -10.467082 -22.918499
15.348241 20.464319 -17.182331
15.309594 19.562256 -17.441505
15.304598 18.705618 -17.475004
15.310129 17.861818 -17.437916
14.538233 16.153591 -22.614367
14.481321 15.285837 -22.996017
14.464255 14.464255 -23.110468
14.458735 13.655473 -23.14749
14.455446 12.849285 -23.169544
14.454703 12.045588 -23.174524
14.4555 11.243167 -23.169189
14.454492 10.439354 -23.175947
14.453803 9.6358662 -23.180571
14.453378 8.8326206 -23.183416
14.453167 8.0295372 -23.184835
14.453113 7.2265563 -23.18519
14.45306 6.4235816 -23.185547
14.453167 5.6206775 -23.184837
14.45359 4.8178625 -23.18199
14.458258 4.0161786 -23.15069
14.463301 3.2140665 -23.116875
14.425067 2.4041753 -23.373274
14.425067 1.6027852 -23.373274
14.425067 0.80139053 -23.373276
14.425067 7.958223e-07 -23.373278
14.425067 -0.80138993 -23.373278
14.425067 -1.6027896 -23.373272
14.425067 -2.4041793 -23.373272
14.425067 -3.2055743 -23.373276
14.425067 -4.0069647 -23.373276
14.425067 -4.8083558 -23.373274
14.425067 -5.6097484 -23.373278
14.425067 -6.4111395 -23.373278
14.425067 -7.2125349 -23.37327
14.425067 -8.0139303 -23.373274
14.425067 -8.8153191 -23.373272
14.425067 -9.6167145 -23.373276
14.425067 -10.418105 -23.373276
16.117601 20.359076 -17.711681
16.082882 19.468754 -17.932255
16.07996 18.6189 -17.950825
16.087238 17.78063 -17.904587
15.264239 16.067617 -23.133253
15.213592 15.213592 -23.455021
15.198581 14.398654 -23.550396
15.190641 13.591624 -23.600834
15.189032 12.790764 -23.611055
15.18576 11.988755 -23.631845
15.187978 11.191141 -23.617756
15.186758 10.390939 -23.625507
15.185816 9.5910416 -23.631493
15.185261 8.7914648 -23.635017
15.184984 7.9920964 -23.63678
15.187812 7.1942253 -23.618809
15.187812 6.394866 -23.618811
15.187923 5.5955486 -23.618103
15.188421 4.7963428 -23.614935
15.191585 3.997786 -23.594843
15.195526 3.1990604 -23.569803
15.155544 2.3929791 -23.823816
15.155544 1.5953192 -23.823816
15.155544 0.79765928 -23.823818
15.155544 -5.8670531e-07 -23.82382
15.155544 -0.79766047 -23.82382
15.155544 -1.5953221 -23.82382
15.155544 -2.392978 -23.82382
15.155544 -3.1906428 -23.823812
15.155544 -3.9883027 -23.823814
15.155544 -4.7859635 -23.823816
15.155544 -5.5836234 -23.823814
15.155544 -6.3812842 -23.823816
15.155544 -7.1789432 -23.823818
15.155544 -7.976604 -23.823818
15.155544 -8.7742634 -23.823818
15.155544 -9.5719213 -23.823818
15.155544 -10.36958 -23.823818
17.045965 21.307453 -17.228422
16.878826 20.254589 -18.237188
16.851213 19.378895 -18.403852
16.848228 18.533052 -18.421862
16.854326 17.697042 -18.385056
15.984835 15.984836 -23.632904
15.937522 15.140646 -23.918463
15.921638 14.329474 -24.014324
15.91643 13.528964 -24.045771
15.915156 12.732125 -24.053457
15.913768 11.935324 -24.061838
15.913362 11.139355 -24.064281
15.91423 10.344251 -24.059044
15.913651 9.5481911 -24.062536
15.912957 8.7521267 -24.066725
15.912668 7.9563322 -24.068468
15.91423 7.1614027 -24.059042
15.914173 6.3656683 -24.059391
15.914288 5.5699978 -24.058693
15.914808 4.7744436 -24.05555
15.91666 3.9791596 -24.044371
15.920655 3.1841309 -24.020267
15.87919 2.3818769 -24.270527
15.87919 1.5879166 -24.270525
15.87919 0.79396224 -24.270531
15.87919 -2.1346518e-06 -24.270531
15.87919 -0.79396147 -24.270531
15.87919 -1.5879219 -24.270529
15.87919 -2.3818812 -24.270527
15.87919 -3.1758366 -24.270533
15.87919 -3.9697969 -24.270531
15.87919 -4.7637568 -24.270529
15.87919 -5.5577164 -24.270527
15.87919 -6.3516798 -24.270529
15.87919 -7.1456394 -24.270525
15.87919 -7.9395947 -24.270533
15.87919 -8.7335539 -24.270529
15.87919 -9.5275145 -24.270529
15.87919 -10.321473 -24.270527
17.748362 21.129004 -18.090071
17.631197 20.149939 -18.76355
17.60803 19.284985 -18.896711
17.608435 18.446932 -18.89439
17.619505 17.619505 -18.830755
16.698589 15.90342 -24.124294
16.658285 15.071779 -24.355974
16.642603 14.265088 -24.446114
16.636337 13.46751 -24.482126
16.634533 12.673926 -24.492508
16.634171 11.881548 -24.494583
16.633148 11.088765 -24.500465
16.634533 10.297565 -24.492504
16.633207 9.5046902 -24.500122
16.632484 8.7122517 -24.504271
16.633087 7.920516 -24.500814
16.634954 7.1292667 -24.490084
16.634954 6.3371234 -24.490084
16.635073 5.5450211 -24.489393
16.635677 4.7530503 -24.485933
16.637482 3.961303 -24.475548
16.64188 3.1698825 -24.450275
16.596212 2.3708887 -24.712774
16.596212 1.5805923 -24.71277
16.596212 0.79029483 -24.712767
16.596212 2.4153203e-06 -24.71277
16.596212 -0.79029888 -24.712772
16.596212 -1.5805963 -24.712769
16.596212 -2.3708887 -24.712772
16.596212 -3.161185 -24.71277
16.596212 -3.9514782 -24.712774
16.596212 -4.7417765 -24.71277
16.596212 -5.5320721 -24.712769
16.596212 -6.3223653 -24.712772
16.596212 -7.1126618 -24.712769
16.596212 -7.9029627 -24.712769
16.596212 -8.6932554 -24.712772
16.596212 -9.4835539 -24.712769
16.596212 -10.273845 -24.712774
18.471771 20.990644 -18.758104
18.381094 20.052101 -19.255634
18.360628 19.195202 -19.367922
18.364059 18.364059 -19.349098
18.37401 17.53883 -19.2945
17.408508 15.825914 -24.59206
17.370829 15.00208 -24.798805
17.358555 14.202452 -24.866146
17.351112 13.407676 -24.906988
17.351236 12.619081 -24.906301
17.348425 11.82847 -24.921736
17.349924 11.040862 -24.913504
17.347424 10.25075 -24.927217
17.349487 9.4633551 -24.915905
17.348738 8.674367 -24.920019
17.348238 7.8855619 -24.922762
17.349361 7.0974655 -24.916588
17.349361 6.3088584 -24.916588
17.349487 5.5202913 -24.915903
17.350113 4.7318492 -24.912474
17.352051 3.9436421 -24.901838
17.356615 3.1557491 -24.876791
17.306648 2.3599949 -25.150948
17.306648 1.573331 -25.150949
17.306648 0.78666633 -25.150951
17.306648 -1.5228894e-06 -25.150946
17.306648 -0.78666943 -25.150951
17.306648 -1.5733333 -25.150951
17.306648 -2.3600011 -25.150948
17.306648 -3.1466651 -25.150949
17.306648 -3.9333289 -25.150949
17.306648 -4.7199917 -25.150951
17.306648 -5.5066638 -25.150949
17.306648 -6.2933283 -25.150951
17.306648 -7.0799932 -25.150953
17.306648 -7.8666601 -25.150948
17.306648 -8.6533251 -25.150949
17.306648 -9.4399929 -25.150953
17.306648 -10.22666 -25.150948
19.204796 20.874775 -19.317577
19.124907 19.956427 -19.73686
19.109007 19.109007 -19.820297
19.110603 18.279709 -19.811924
19.123743 17.460808 -19.74296
18.116104 15.753132 -25.031351
18.082981 14.938114 -25.205181
18.070324 14.141993 -25.271616
18.064552 13.352059 -25.301903
18.060858 12.564073 -25.321287
18.060406 11.778526 -25.323668
18.060923 10.993607 -25.320948
18.058268 10.206847 -25.33489
18.061377 9.4233236 -25.318567
18.060406 8.6375837 -25.323671
18.059952 7.8521523 -25.32605
18.059822 7.066884 -25.326729
18.059822 6.2816768 -25.326733
18.059887 5.4964881 -25.326389
18.060535 4.7114401 -25.322989
18.062414 3.9266098 -25.313128
18.067017 3.1420929 -25.288975
18.010523 2.3491993 -25.585463
18.010523 1.5661304 -25.585461
18.010523 0.7830618 -25.585459
18.010523 2.0099585e-06 -25.585463
18.010523 -0.78306764 -25.585461
18.010523 -1.5661355 -25.585459
18.010523 -2.3491993 -25.585464
18.010523 -3.1322632 -25.585461
18.010523 -3.9153335 -25.585459
18.010523 -4.6984015 -25.585459
18.010523 -5.4814653 -25.585463
18.010523 -6.2645297 -25.585461
18.010523 -7.0475988 -25.585457
18.010523 -7.8306627 -25.585463
18.010523 -8.6137304 -25.585463
18.010523 -9.3967962 -25.585457
18.010523 -10.179864 -25.585457
19.926371 20.756634 -19.888014
19.861427 19.861429 -20.214651
19.847845 19.020853 -20.282967
19.851372 18.197088 -20.265234
19.864958 17.381838 -20.196896
18.821737 15.684779 -25.443893
18.792379 14.877301 -25.591545
18.779816 14.084861 -25.654734
18.774246 13.298423 -25.682756
18.772165 12.514777 -25.693213
18.769751 11.731095 -25.705359
18.769684 10.948982 -25.705698
18.770691 10.167456 -25.70064
18.769751 9.3848763 -25.705357
18.768812 8.6023722 -25.710081
18.768276 7.8201122 -25.71278
18.768141 7.0380526 -25.713457
18.768141 6.2560472 -25.713453
18.768209 5.4740572 -25.713116
18.768946 4.6922355 -25.70941
18.770691 3.9105589 -25.700636
18.774849 3.1291404 -25.679718
18.708054 2.338505 -26.015678
18.708054 1.5590028 -26.015678
18.708054 0.77949959 -26.015678
18.708054 1.4750457e-06 -26.015678
18.708054 -0.7795015 -26.01568
18.708054 -1.5590037 -26.015682
18.708054 -2.3385069 -26.015682
18.708054 -3.1180108 -26.015673
18.708054 -3.8975122 -26.015675
18.708054 -4.6770163 -26.015675
18.708054 -5.4565191 -26.015676
18.708054 -6.2360206 -26.015678
18.708054 -7.0155206 -26.015678
18.708054 -7.795023 -26.015676
18.708054 -8.5745258 -26.015678
18.708054 -9.3540268 -26.01568
18.708054 -10.133528 -26.015678
20.646599 20.646599 -20.419315
20.592443 19.768747 -20.680803
20.581911 18.935356 -20.73167
20.587484 18.116983 -20.704746
20.600506 17.304422 -20.641874
19.553432 15.642742 -25.697601
19.522457 14.837069 -25.847157
19.509373 14.04675 -25.910339
19.501446 13.260984 -25.94861
19.495331 12.477013 -25.978132
19.493248 11.695947 -25.988194
19.49172 10.915361 -25.995565
19.490541 10.135079 -26.00127
19.489082 9.3547583 -26.008303
19.488317 8.5748596 -26.011993
19.489916 7.7959657 -26.004284
19.4904 7.0165448 -26.001934
19.490471 6.2369499 -26.0016
19.490679 5.4573879 -26.000595
19.491304 4.6779122 -25.997578
19.49304 3.8986094 -25.989199
19.49547 3.1192727 -25.977461
19.41275 2.32953 -26.376863
19.41275 1.5530176 -26.376865
19.41275 0.77651137 -26.376867
19.41275 -2.9710834e-06 -26.376865
19.41275 -0.77650923 -26.376867
19.41275 -1.5530236 -26.376865
19.41275 -2.3295298 -26.376867
19.41275 -3.1060443 -26.376865
19.41275 -3.8825498 -26.376867
19.41275 -4.659061 -26.376863
19.41275 -5.4355712 -26.376867
19.41275 -6.2120805 -26.376862
19.41275 -6.9885907 -26.376867
19.41275 -7.7651019 -26.376863
19.41275 -8.5416117 -26.376869
19.41275 -9.3181219 -26.376862
19.41275 -10.094631 -26.376869
21.361877 20.540264 -20.932734
21.313156 19.673681 -21.158936
21.308128 18.849499 -21.182281
21.317467 18.037857 -21.138922
21.33345 17.230862 -21.06472
20.545986 15.804602 -24.720694
20.413034 14.917217 -25.33795
20.375105 14.10584 -25.514053
20.357101 13.31041 -25.597633
20.343275 12.518937 -25.661825
20.338112 11.733524 -25.685795
20.332081 10.948044 -25.713795
20.325981 10.162991 -25.742113
20.326708 9.3815575 -25.738741
20.328014 8.6003122 -25.732674
20.329176 7.8189111 -25.727282
20.330702 7.0375519 -25.7202
20.332298 6.2560902 -25.712782
20.333897 5.4745107 -25.70536
20.336004 4.6929221 -25.695576
20.338839 3.9113169 -25.682417
20.343493 3.1297665 -25.660814
20.207327 2.3316152 -26.292992
20.207327 1.5544074 -26.292992
20.207327 0.7772066 -26.292995
20.207327 -2.0515e-07 -26.292988
20.207327 -0.77720582 -26.292994
20.207327 -1.5544126 -26.292988
20.207327 -2.3316174 -26.292994
20.207327 -3.1088183 -26.292995
20.207327 -3.8860242 -26.29299
20.207327 -4.663229 -26.292994
20.207327 -5.4404368 -26.292988
20.207327 -6.2176414 -26.292994
20.207327 -6.9948483 -26.29299
20.207327 -7.772049 -26.29299
20.207327 -8.5492535 -26.292995
20.207327 -9.3264618 -26.29299
20.207327 -10.103662 -26.292992
22.360678 21.532503 -20.140566
22.079391 20.44388 -21.398127
22.038963 19.590191 -21.578873
22.034443 18.770082 -21.599079
22.045458 17.962965 -21.549837
22.061094 17.158628 -21.479929
22.079721 16.355347 -21.39665
21.628891 15.22033 -23.412218
21.530235 14.353489 -23.853285
21.505632 13.540583 -23.963272
21.482882 12.730595 -24.06498
21.4718 11.928777 -24.114529
21.471409 11.13332 -24.116274
21.476091 10.34034 -24.095343
21.07358 9.3660316 -25.894886
21.022079 8.5645494 -26.125128
20.994148 7.7756095 -26.249998
20.981327 6.9937739 -26.307314
20.97455 6.2146835 -26.33761
20.959673 5.4339871 -26.404125
20.954323 4.6565175 -26.428047
20.95113 3.8798378 -26.442329
20.948528 3.1034851 -26.453951
20.946377 2.3273745 -26.463575
20.944817 1.5514674 -26.470545
20.943556 0.77568918 -26.476191
20.942665 -1.8721786e-06 -26.480169
20.941996 -0.7756331 -26.483152
20.941626 -1.5512342 -26.484814
20.941402 -2.3268249 -26.485806
20.941254 -3.1024067 -26.486475
20.941254 -3.8780117 -26.486471
20.941254 -4.6536155 -26.486469
20.941254 -5.4292154 -26.486475
20.94133 -6.2048416 -26.486143
20.941553 -6.9805169 -26.485147
20.941996 -7.7562962 -26.483156
20.942665 -8.532196 -26.480169
20.943777 -9.3083506 -26.475187
20.947861 -10.086009 -26.456936
20.960491 -10.868402 -26.400473
21.031729 -11.684295 -26.081984
22.984221 21.342487 -21.022745
22.793934 20.351727 -21.843094
22.763371 19.511459 -21.974857
22.762186 18.69751 -21.979959
22.774199 17.894009 -21.928177
22.792746 17.094559 -21.848215
22.813278 16.295198 -21.759691
22.835804 15.495721 -21.66258
22.858717 14.694887 -21.563808
22.880905 13.891974 -21.468147
22.899714 13.085551 -21.38706
22.921812 12.279544 -21.2918
22.943521 11.471762 -21.198204
23.007086 10.681861 -20.924171
21.684584 9.2933941 -26.625605
21.646671 8.5040455 -26.789047
21.630552 7.725193 -26.858545
21.616817 6.9482627 -26.917753
21.610491 6.1744261 -26.945026
21.605463 5.4013672 -26.966702
21.602873 4.6291866 -26.977863
21.601274 3.8573718 -26.98476
21.599905 3.0856988 -26.990662
21.598915 2.3141677 -26.99493
21.598001 1.5427138 -26.998867
21.597469 0.77133602 -27.001167
21.596935 -2.0720415e-06 -27.003462
21.59663 -0.77131039 -27.004776
21.596403 -1.5426031 -27.00576
21.591307 -2.313355 -27.027731
21.591228 -3.0844626 -27.028061
21.591228 -3.8555765 -27.028065
21.591307 -4.626709 -27.027737
21.592218 -5.3980575 -27.023802
21.596478 -6.1704245 -27.005434
21.596859 -6.9418483 -27.003798
21.597544 -7.7134056 -27.000841
21.598763 -8.4852314 -26.99559
21.600742 -9.2574615 -26.987057
21.605844 -10.03129 -26.965057
21.615904 -10.807955 -26.921694
21.66205 -11.604673 -26.722744
21.857821 -12.490184 -25.878759
23.703035 21.250996 -21.447519
23.517212 20.273457 -22.221004
23.492928 19.442421 -22.322084
23.496317 18.63501 -22.307968
23.512943 17.837402 -22.238773
23.531075 17.039742 -22.163301
23.550892 16.241993 -22.080809
23.572844 15.444275 -21.989435
23.594486 14.644853 -21.899347
23.619246 13.845766 -21.796289
23.641853 13.043782 -21.702185
23.659479 12.237659 -21.628822
23.684286 11.433795 -21.525568
22.46921 10.072403 -26.583246
22.341093 9.2445898 -27.11652
22.304588 8.4603586 -27.268471
22.285952 7.6848092 -27.346052
22.27594 6.9132214 -27.387722
22.271095 6.1437497 -27.40789
22.261332 5.3734245 -27.44853
22.258911 4.6052928 -27.458603
22.257664 3.837528 -27.463802
22.257036 3.0699368 -27.4664
22.256413 2.3023872 -27.468996
22.256023 1.5348951 -27.470621
22.255711 0.76744038 -27.471922
22.255556 1.5054007e-06 -27.47257
22.255322 -0.76742643 -27.473541
22.255243 -1.5348408 -27.473873
22.255163 -2.3022604 -27.474195
22.255163 -3.0696747 -27.474195
22.255163 -3.8370979 -27.474192
22.255163 -4.604517 -27.474195
22.255163 -5.3719363 -27.474197
22.255243 -6.1393766 -27.473873
22.255789 -6.9069653 -27.4716
22.256647 -7.6747074 -27.468027
22.258129 -8.4427376 -27.461853
22.265703 -9.2133951 -27.430325
22.271563 -9.9838047 -27.405937
22.27977 -10.755751 -27.371773
22.319647 -11.544645 -27.205791
22.538061 -12.434793 -26.296658
24.453175 21.192751 -21.717941
24.26755 20.22296 -22.464836
24.254641 19.403713 -22.516771
24.261095 18.600172 -22.490812
24.275536 17.802061 -22.432711
24.293497 17.005447 -22.360434
24.314276 16.209517 -22.276827
24.334913 15.412109 -22.193794
24.35549 14.613293 -22.110991
24.379002 13.814767 -22.016392
24.399656 13.013146 -21.933285
24.417168 12.208581 -21.862827
24.442617 11.406554 -21.760429
23.111801 10.015113 -27.11521
22.998314 9.1993237 -27.571854
22.960758 8.4189434 -27.722963
22.943428 7.6478076 -27.79269
22.934855 6.8804526 -27.827192
22.929008 6.1143994 -27.850716
22.925806 5.3493547 -27.863604
22.918762 4.5837526 -27.891935
22.917564 3.8195941 -27.896765
22.917006 3.0555997 -27.899015
22.916683 2.2916672 -27.900303
22.916445 1.5277623 -27.901268
22.916285 0.76387388 -27.901913
22.916046 5.1839345e-07 -27.902878
22.915964 -0.76386559 -27.9032
22.915964 -1.5277313 -27.903204
22.915964 -2.2915981 -27.903196
22.915964 -3.0554638 -27.903198
22.915884 -3.8193119 -27.903522
22.915884 -4.5831747 -27.903522
22.915884 -5.3470445 -27.903519
22.916046 -6.1109424 -27.90288
22.916525 -6.874958 -27.900946
22.917484 -7.6391625 -27.897087
22.923485 -8.4052811 -27.872938
22.927647 -9.1710625 -27.856192
22.932131 -9.9372597 -27.83815
22.941504 -10.706039 -27.80043
22.977791 -11.488895 -27.654428
23.212292 -12.37989 -26.710861
25.148964 20.281424 -22.182547
25.10681 19.437529 -22.346691
25.103189 18.624945 -22.3608
25.113222 17.822285 -22.321722
25.125963 17.020813 -22.272116
25.140671 16.219786 -22.214838
25.160061 15.42068 -22.139336
25.17911 14.620128 -22.065166
25.196686 13.817539 -21.996721
25.216633 13.015036 -21.919058
25.232479 12.209266 -21.857346
25.258686 11.407147 -21.755301
23.76326 9.9652386 -27.578335
23.65589 9.1571188 -27.996424
23.62089 8.3816051 -28.132706
23.60421 7.6142602 -28.197659
23.589766 6.8486409 -28.253902
23.584354 6.0862846 -28.274969
23.581158 5.3247752 -28.287418
23.579271 4.5637274 -28.294758
23.578371 3.8029623 -28.298267
23.577881 3.0423074 -28.300182
23.577551 2.2816954 -28.301456
23.577387 1.5211201 -28.302097
23.577143 0.76055187 -28.303053
23.576979 -2.0915761e-06 -28.303692
23.576897 -0.76054651 -28.304008
23.576897 -1.521091 -28.30401
23.576897 -2.2816355 -28.304014
23.576897 -3.0421841 -28.30401
23.576815 -3.8027124 -28.304333
23.576815 -4.5632572 -28.304325
23.576815 -5.3238006 -28.304329
23.576897 -6.084362 -28.30401
23.577387 -6.8450503 -28.302094
23.578453 -7.6059551 -28.297951
23.580175 -8.3671627 -28.291246
23.583124 -9.1289539 -28.27976
23.587797 -9.8916559 -28.261566
23.602732 -10.6593 -28.203413
23.632078 -11.434877 -28.089142
23.880598 -12.325468 -27.121433
26.4774 20.685467 -20.231646
26.238949 19.679209 -21.131138
26.178829 18.816034 -21.35791
26.14658 17.975773 -21.479567
26.144335 17.157221 -21.488033
26.154194 16.346371 -21.45084
26.164356 15.535084 -21.412508
26.172667 14.722125 -21.381159
26.185192 13.91088 -21.333916
26.190186 13.095089 -21.315079
26.210472 12.286158 -21.238548
26.260592 11.489007 -21.049494
24.412769 9.9176836 -28.019861
24.310074 9.1162748 -28.407251
24.279736 8.346158 -28.52169
24.260983 7.5815544 -28.592436
24.2509 6.8205628 -28.630457
24.244858 6.061214 -28.653257
24.241083 5.3027329 -28.6675
24.238899 4.5447922 -28.675732
24.237808 3.7871559 -28.679842
24.237223 3.0296519 -28.68206
24.236803 2.2721999 -28.683638
24.2363 1.5147682 -28.685535
24.236134 0.7573784 -28.686169
24.23588 7.8722326e-07 -28.687119
24.235714 -0.75736779 -28.687752
24.232527 -1.5145352 -28.69977
24.231438 -2.271699 -28.703878
24.231438 -3.0289335 -28.703878
24.231438 -3.7861609 -28.703884
24.231438 -4.5433969 -28.703884
24.231438 -5.3006291 -28.70388
24.231604 -6.0579009 -28.703251
24.234707 -6.8160152 -28.691545
24.237223 -7.574131 -28.682058
24.238985 -8.3321524 -28.675417
24.241837 -9.0906906 -28.664656
24.24662 -9.8501902 -28.646612
24.256613 -10.612271 -28.60891
24.284113 -11.383181 -28.505173
24.543053 -12.271525 -27.528408
25.066109 9.874526 -28.420616
24.968801 9.0795622 -28.776558
24.939318 8.3131056 -28.884403
24.922365 7.5522313 -28.946415
24.911793 6.7941236 -28.985088
24.899342 6.0362043 -29.030636
24.894876 5.2807322 -29.046961
24.892132 4.5258412 -29.057003
24.890417 3.7712758 -29.06328
24.889301 3.0168867 -29.067358
24.888445 2.2625823 -29.070496
24.887758 1.5083489 -29.073004
24.887331 0.75416261 -29.074574
24.886902 -3.4071222e-06 -29.076138
24.88673 -0.75414574 -29.076769
24.886471 -1.5082759 -29.077707
24.886471 -2.2624083 -29.077709
24.886301 -3.0165212 -29.078335
24.886301 -3.7706552 -29.078337
24.886301 -4.5247841 -29.078337
24.886301 -5.2789145 -29.078335
24.886471 -6.0330825 -29.077709
24.886986 -6.7873616 -29.075827
24.88793 -7.5417986 -29.072376
24.88973 -8.2965765 -29.06579
24.892561 -9.0518417 -29.055435
24.897022 -9.8079195 -29.039116
24.911533 -10.568532 -28.986031
24.935099 -11.334138 -28.899837
25.199644 -12.218012 -27.932148
25.728277 9.8372822 -28.766451
25.633718 9.0471926 -29.102167
25.604086 8.2836733 -29.207375
25.586216 7.5253549 -29.270819
25.57452 6.7697248 -29.312338
25.566349 6.0156107 -29.341349
25.560995 5.2625575 -29.360365
25.557043 4.510067 -29.37439
25.554235 3.7579761 -29.384357
25.552305 3.0061524 -29.391212
25.55055 2.2544606 -29.397442
25.549498 1.5029105 -29.401178
25.548445 0.75142342 -29.404917
25.547743 -2.4839064e-06 -29.407408
25.547304 -0.75139356 -29.408964
25.546865 -1.5027581 -29.410521
25.546778 -2.2541306 -29.410831
25.546602 -3.0054841 -29.411453
25.546516 -3.7568424 -29.411762
25.546516 -4.5082116 -29.411764
25.546516 -5.2595749 -29.411766
25.546778 -6.0110078 -29.410828
25.547218 -6.7625003 -29.409275
25.548096 -7.5141454 -29.40616
25.549761 -8.266098 -29.400246
25.552481 -9.0185232 -29.390589
25.552919 -9.7702389 -29.389029
25.560291 -10.524826 -29.36286
25.583401 -11.286796 -29.280809
25.850626 -12.165004 -28.332073
26.437006 9.819458 -28.931946
26.328341 9.0268583 -29.306719
26.301315 8.2661276 -29.399931
26.281553 7.5090165 -29.468086
26.269297 6.7549639 -29.510355
26.258852 6.0020237 -29.546383
26.251114 5.2502246 -29.573069
26.245089 4.4991574 -29.593851
26.240145 3.7485921 -29.610903
26.236368 2.9984417 -29.62392
26.233135 2.2485526 -29.635077
26.230801 1.4989024 -29.643126
26.228914 0.74939567 -29.649633
26.227568 -4.0483301e-06 -29.654278
26.22649 -0.74932879 -29.657997
26.225861 -1.4986241 -29.660162
26.225592 -2.2479084 -29.661089
26.225412 -2.9971933 -29.661707
26.225323 -3.7464745 -29.662016
26.225323 -4.4957695 -29.66202
26.225412 -5.2450838 -29.661713
26.225412 -5.9943838 -29.661709
26.225861 -6.743793 -29.660158
26.226671 -7.4933343 -29.657379
26.228016 -8.2430906 -29.652733
26.23035 -8.9932642 -29.64467
26.232418 -9.7434683 -29.637554
26.238167 -10.495268 -29.61772
26.256062 -11.252603 -29.556
26.656498 -12.185825 -28.174955
27.712605 10.007328 -27.187492
27.282927 9.0943079 -28.628239
27.208971 8.3138494 -28.876215
27.163198 7.5453324 -29.029694
27.139622 6.784904 -29.108747
27.126074 6.0280132 -29.154173
27.114967 5.2723527 -29.191422
27.10536 4.5175576 -29.223635
27.10424 3.7644768 -29.227385
27.110861 3.0123181 -29.205183
27.105545 2.2587955 -29.223011
27.101629 1.5056444 -29.236137
27.098368 0.75273132 -29.247078
27.095945 -2.2880631e-06 -29.255201
27.094362 -0.75262165 -29.260508
27.093245 -1.5051792 -29.264259
27.092684 -2.2577262 -29.266134
27.092405 -3.0102687 -29.267067
27.092314 -3.7628233 -29.267384
27.092314 -4.515389 -29.267378
27.092314 -5.2679501 -29.26738
27.092405 -6.0205355 -29.267065
27.092871 -6.7732162 -29.265507
27.093803 -7.5260572 -29.262383
27.105919 -8.2823648 -29.221754
27.117579 -9.0391951 -29.182659
27.121874 -9.7940111 -29.168264
27.153555 -10.55972 -29.062019
27.271877 -11.363281 -28.665289
28.143265 -12.50812 -25.743462
28.750252 9.3244038 -26.313641
28.582726 8.4975653 -26.860191
28.494024 7.701086 -27.149567
28.444386 6.9189053 -27.311512
28.402388 6.1410542 -27.44853
28.391136 5.3712926 -27.485235
28.381483 4.6023989 -27.516722
28.394222 3.8370538 -27.475168
28.394918 3.0697191 -27.472897
28.389942 2.3018839 -27.489134
28.385664 1.534356 -27.503092
28.38258 0.7670961 -27.513153
28.380192 -4.1864669e-06 -27.520939
28.378599 -0.76698858 -27.526136
28.377605 -1.5339291 -27.529377
28.377008 -2.3008387 -27.531326
28.37681 -3.0677657 -27.531973
28.37681 -3.8347085 -27.531971
28.37681 -4.6016469 -27.531975
28.37681 -5.3685908 -27.531971
28.376911 -6.1355486 -27.531645
28.396511 -6.9072628 -27.467699
28.397804 -7.6750841 -27.46347
28.410259 -8.4462929 -27.422848
28.443085 -9.2247839 -27.315752
28.466881 -10.00188 -27.238117
28.54595 -10.801168 -26.980165
29.056614 -11.779709 -25.314144
30.453365 9.6168528 -23.371859
30.160833 8.7307673 -24.301113
30.039593 7.9051576 -24.686243
29.994745 7.1040192 -24.828707
29.940004 6.3031583 -25.0026
29.928259 5.5130978 -25.039902
29.921907 4.7245111 -25.060083
29.916527 3.9363842 -25.077171
29.912868 3.1487205 -25.088793
29.909428 2.3612733 -25.09973
29.907061 1.5740563 -25.107246
29.905127 0.78697735 -25.113398
29.903944 -1.9179224e-06 -25.117147
29.902866 -0.78692234 -25.120564
29.902328 -1.5738117 -25.122272
29.902008 -2.3606863 -25.123299
29.901793 -3.1475587 -25.12398
29.901899 -3.9344635 -25.123634
29.901899 -4.7213564 -25.123634
29.901899 -5.5082464 -25.123634
29.902115 -6.2951822 -25.122955
29.902975 -7.0822816 -25.120226
