# .PCD v0.7 - Point Cloud Data file format
VERSION 0.7
FIELDS x y z
SIZE 4 4 4
TYPE F F F
COUNT 1 1 1
WIDTH 1433
HEIGHT 1
VIEWPOINT 0 0 0 1 0 0 0
POINTS 1433
DATA ascii
-1112.2292 434.04071 -909.97076
-1112.1934 406.90018 -910.07629
-1112.1934 379.7735 -910.07629
-1112.1934 352.64676 -910.07623
-1112.1934 325.52005 -910.07623
-1112.1934 298.3934 -910.07635
-1112.1934 271.26672 -910.07629
-1112.1974 244.14098 -910.06458
-1112.1775 217.01035 -910.12311
-1112.3168 189.90788 -909.71289
-1111.9865 162.72981 -910.68567
-1112.2849 135.64464 -909.80664
-1112.1814 108.50555 -910.11151
-1112.0859 81.372322 -910.3927
-1112.1536 54.251514 -910.1936
-1112.2332 27.127665 -909.95892
-1112.2212 0.00013152079 -909.99438
-1112.1934 -27.126554 -910.07629
-1112.2173 -54.254307 -910.00598
-1112.2133 -81.3815 -910.01758
-1112.2292 -108.51017 -909.97076
-1112.281 -135.64395 -909.8183
-1112.2173 -162.76347 -910.00586
-1112.1854 -189.88528 -910.09961
-1112.1814 -217.01103 -910.11145
-1112.2849 -244.16 -909.8067
-1078.0438 242.56 -931.26965
-1077.5648 215.51314 -932.71527
-1077.6721 188.5927 -932.3916
-1077.7526 161.66299 -932.14862
-1077.7909 134.72391 -932.03302
-1077.7755 107.77766 -932.07928
-1077.6759 80.825745 -932.38
-1077.6951 53.884842 -932.32208
-1077.7142 26.942884 -932.26428
-1077.653 1.1627868e-05 -932.44928
-1077.5917 -26.939659 -932.63446
-1077.6682 -53.883396 -932.40314
-1077.7678 -80.832504 -932.10248
-1077.7832 -107.77827 -932.05615
-1077.6606 -134.70741 -932.42627
-1077.653 -161.64792 -932.44934
-1077.7257 -188.60185 -932.22961
-1077.7526 -215.55046 -932.14874
-1077.7411 -242.49168 -932.18329
-1079.4412 -269.86011 -927.0531
-1044.363 241.00693 -952.09918
-1043.8945 214.13239 -953.54913
-1044.0015 187.38499 -953.21826
-1044.0273 160.61977 -953.13831
-1044.0938 133.85817 -952.9328
-1043.9978 107.07675 -953.22961
-1043.9867 80.306808 -953.26373
-1044.042 53.540672 -953.09265
-1044.0458 26.770397 -953.08118
-1044.0162 4.682643e-05 -953.17249
-1043.9867 -26.7687 -953.26392
-1044.0015 -53.538555 -953.21814
-1044.0383 -80.310463 -953.10406
-1044.0863 -107.08581 -952.95551
-1044.1195 -133.86139 -952.85291
-1044.0569 -160.62407 -953.04688
-1044.0383 -187.39137 -953.10413
-1044.0347 -214.16089 -953.11548
-1043.9757 -240.91745 -953.29797
-1045.109 -267.97656 -949.79028
-1011.6506 239.60161 -970.94873
-1010.5998 212.75798 -974.28668
-1010.7949 186.19914 -973.66705
-1010.7878 159.59816 -973.68964
-1010.8445 133.006 -973.50916
-1010.7629 106.39624 -973.76849
-1010.7203 79.793793 -973.90369
-1010.7878 53.199368 -973.68951
-1010.7736 26.599319 -973.73462
-1010.7807 1.5313652e-05 -973.71198
-1010.7985 -26.599703 -973.65582
-1010.7913 -53.199429 -973.67834
-1010.7807 -79.798378 -973.71222
-1010.8019 -106.40022 -973.64435
-1010.8091 -133.00116 -973.62183
-1010.7239 -159.58795 -973.8924
-1010.7275 -186.1866 -973.88098
-1010.7772 -212.79523 -973.72333
-1010.7382 -239.38531 -973.84723
-1011.5404 -266.19476 -971.29858
-1035.3309 251.8374 -806.83862
-977.74677 211.40479 -994.70422
-977.90015 185.0083 -994.20361
-977.96155 158.58846 -994.00342
-977.98547 132.16032 -993.92548
-977.89673 105.71867 -994.21478
-977.88306 79.287956 -994.25934
-977.94794 52.862152 -994.04785
-977.93085 26.430592 -994.10352
-977.93427 5.2271167e-05 -994.09235
-977.95135 -26.431061 -994.03687
-977.94794 -52.861904 -994.04785
-977.93768 -79.292068 -994.0813
-977.93768 -105.72287 -994.08118
-977.95135 -132.15549 -994.03674
-977.87286 -158.5739 -994.2926
-977.86951 -185.00237 -994.30371
-977.93085 -211.4444 -994.10339
-977.86951 -237.86003 -994.30377
-978.39832 -264.43201 -992.57831
-994.23114 -295.58215 -940.92444
-946.54865 236.63715 -1010.7068
-945.31549 210.07022 -1014.8417
-945.39081 183.82607 -1014.5891
-945.55133 157.59196 -1014.0508
-945.53168 131.32399 -1014.1166
-945.43335 105.04825 -1014.4463
-945.44653 78.787277 -1014.4023
-945.50879 52.528408 -1014.1936
-945.49896 26.263927 -1014.2266
-945.49561 6.7670342e-05 -1014.2375
-945.49896 -26.263752 -1014.2264
-945.5022 -52.527748 -1014.2155
-945.47931 -78.789909 -1014.2925
-945.47272 -105.0525 -1014.3145
-945.51862 -131.32205 -1014.1605
-945.45959 -157.57655 -1014.3583
-945.44977 -183.83727 -1014.3913
-945.49237 -210.10934 -1014.2484
-945.41046 -236.35254 -1014.5233
-945.77423 -262.71503 -1013.3033
-956.31964 -292.20865 -977.94397
-913.9079 235.00496 -1032.5992
-913.30371 208.7552 -1034.6831
-913.37286 182.67465 -1034.4446
-913.55219 156.60902 -1033.8262
-913.53015 130.50444 -1033.902
-913.4295 104.39201 -1034.2493
-913.46411 78.297035 -1034.1299
-913.505 52.200386 -1033.9889
-913.49554 26.099915 -1034.0214
-913.49554 9.3409733e-05 -1034.0215
-913.49554 -26.099825 -1034.0215
-913.49872 -52.199707 -1034.0106
-913.46729 -78.297165 -1034.119
-913.45776 -104.39507 -1034.1516
-913.51129 -130.50159 -1033.9672
-913.45471 -156.59212 -1034.1625
-913.4389 -182.68784 -1034.2166
-913.51129 -208.8024 -1033.9672
-913.4295 -234.88176 -1034.2493
-913.68121 -261.0517 -1033.3811
-921.24316 -289.53354 -1007.3007
-881.94067 233.45499 -1053.3884
-881.70526 207.46014 -1054.2242
-881.79578 181.5463 -1053.9027
-881.9588 155.63989 -1053.324
-881.94971 129.69861 -1053.3562
-881.88031 103.75066 -1053.6028
-881.91351 77.815903 -1053.4847
-881.92255 51.877888 -1053.4528
-881.92554 25.939089 -1053.442
-881.93164 8.0103557e-05 -1053.4204
-881.92255 -25.938786 -1053.4528
-881.91052 -51.877014 -1053.4955
-881.8833 -77.813164 -1053.592
-881.86816 -103.7491 -1053.6456
-881.94067 -129.69704 -1053.3885
-881.85016 -155.62053 -1053.7098
-881.82294 -181.55173 -1053.8064
-881.91956 -207.51044 -1053.4633
-881.8924 -233.44202 -1053.5599
-882.07349 -259.43317 -1052.9167
-887.77484 -287.22116 -1032.6754
-850.62378 231.98849 -1073.0586
-850.49939 206.18178 -1073.5135
-850.60645 180.43179 -1073.1221
-850.7511 154.68208 -1072.5929
-850.75684 128.90262 -1072.5717
-850.71637 103.11722 -1072.7198
-850.71637 77.337883 -1072.7198
-850.72217 51.559044 -1072.6987
-850.7627 25.780752 -1072.5505
-850.76849 -2.2150161e-06 -1072.5293
-850.7337 -25.779728 -1072.6564
-850.71344 -51.558342 -1072.7305
-850.68457 -77.334961 -1072.8363
-850.6701 -103.1114 -1072.8893
-850.75684 -128.9024 -1072.5718
-850.68164 -154.6693 -1072.8469
-850.60931 -180.43221 -1073.1115
-850.71344 -206.23355 -1072.7303
-850.74237 -232.02054 -1072.6245
-850.85815 -257.83569 -1072.2012
-855.45667 -285.15207 -1055.3805
-819.80878 230.57121 -1092.0651
-819.65082 204.91278 -1092.6609
-819.7478 179.31998 -1092.295
-819.95844 153.74239 -1091.5004
-819.95844 128.11861 -1091.5005
-819.94177 102.49283 -1091.5632
-819.90027 76.865784 -1091.72
-819.90576 51.244122 -1091.6991
-819.96393 25.623989 -1091.4795
-819.96954 5.4564491e-05 -1091.4586
-819.92798 -25.622683 -1091.6155
-819.90576 -51.243996 -1091.6991
-819.87805 -76.863525 -1091.8037
-819.88361 -102.48536 -1091.7828
-819.95288 -128.11755 -1091.5214
-819.88635 -153.72867 -1091.7723
-819.81702 -179.33499 -1092.0337
-819.91681 -204.97911 -1091.6575
-819.95288 -230.61172 -1091.5212
-820.02222 -256.25684 -1091.2599
-823.80219 -283.18198 -1077.0009
-789.40503 229.18217 -1110.6962
-789.16901 203.65657 -1111.6151
-789.25385 178.21864 -1111.2848
-789.54559 152.81538 -1110.1487
-789.53766 127.34489 -1110.1796
-789.53766 101.87589 -1110.1798
-789.46075 76.399529 -1110.4792
-789.47662 50.934101 -1110.4172
-789.52966 25.468769 -1110.2107
-789.53766 -4.1302337e-07 -1110.1797
-789.50848 -25.468008 -1110.2933
-789.474 -50.933765 -1110.4276
-789.44745 -76.398048 -1110.5309
-789.49524 -101.87035 -1110.345
-789.51642 -127.34124 -1110.2622
-789.46338 -152.79935 -1110.469
-789.43152 -178.2587 -1110.5929
-789.50049 -203.74193 -1110.3243
-789.53235 -229.21896 -1110.2004
-789.57483 -254.70154 -1110.035
-792.63837 -281.25864 -1098.1061
-759.36292 227.80901 -1129.1144
-759.04352 202.4117 -1130.3995
-759.117 177.12744 -1130.1039
-759.49231 151.89854 -1128.5938
-759.48718 126.5813 -1128.6141
-759.49738 101.26636 -1128.5734
-759.39838 75.939919 -1128.9713
-759.42383 50.628426 -1128.8694
-759.47198 25.315866 -1128.6754
-759.47705 0.00017668256 -1128.655
-759.45422 -25.315048 -1128.7469
-759.41113 -50.627369 -1128.9203
-759.4212 -75.942039 -1128.8795
-759.46692 -101.26225 -1128.6959
-759.46436 -126.57737 -1128.7061
-759.43903 -151.88771 -1128.8081
-759.40601 -177.19469 -1128.9408
-759.44403 -202.51831 -1128.7877
-759.47455 -227.84232 -1128.6652
-759.49738 -253.16562 -1128.5734
-761.97656 -279.39136 -1118.5977
-851.3075 -397.27673 -759.15808
-729.64478 226.44154 -1147.4542
-729.35419 201.20123 -1148.6637
-729.42688 176.06859 -1148.3615
-729.76593 150.98613 -1146.9501
-729.76837 125.82217 -1146.9401
-729.76837 100.65777 -1146.9399
-729.67383 75.483627 -1147.3331
-729.70532 50.324547 -1147.202
-729.75134 25.163977 -1147.0105
-729.74896 8.3279687e-05 -1147.0206
-729.72717 -25.162909 -1147.1112
-729.68597 -50.323128 -1147.2827
-729.71259 -75.487495 -1147.1719
-729.75861 -100.6562 -1146.9803
-729.75623 -125.81997 -1146.9904
-729.73682 -150.97992 -1147.0712
-729.70532 -176.13571 -1147.2023
-729.73682 -201.30661 -1147.071
-729.74896 -226.47377 -1147.0206
-729.76105 -251.64162 -1146.9702
-731.76324 -277.56537 -1138.6364
-819.61609 -367.41409 -772.95404
-818.00537 -394.89902 -779.65851
-817.20245 -422.69083 -783.00092
-700.24426 225.07857 -1165.7347
-700.07104 200.02028 -1166.4816
-700.1449 175.03621 -1166.163
-700.36444 150.07816 -1165.2166
-700.36444 125.06524 -1165.2166
-700.35065 100.05019 -1165.2765
-700.28357 75.030479 -1165.5653
-700.32281 50.023144 -1165.396
-700.36444 25.01302 -1165.2167
-700.35065 4.3152544e-05 -1165.2765
-700.3252 -25.011507 -1165.3859
-700.302 -50.021469 -1165.4856
-700.3252 -75.034813 -1165.386
-700.36676 -100.05234 -1165.2067
-700.37604 -125.06702 -1165.1667
-700.3598 -150.07701 -1165.2366
-700.32281 -175.08066 -1165.396
-700.35065 -200.10002 -1165.2765
-700.34827 -225.11185 -1165.2863
-700.35754 -250.12758 -1165.2465
-702.02576 -275.79575 -1158.0544
-722.74677 -309.74847 -1068.7242
-787.61151 -365.67676 -789.0863
-787.79572 -393.89771 -788.29218
-790.08063 -423.25735 -778.44153
-671.19562 223.73192 -1183.7965
-671.12958 198.85336 -1184.0918
-671.2066 174.01662 -1183.7472
-671.31891 149.18213 -1183.2451
-671.32111 124.3188 -1183.2352
-671.28369 99.449623 -1183.4026
-671.25946 74.584435 -1183.511
-671.28809 49.72506 -1183.3828
-671.3299 24.864122 -1183.1958
-671.31451 0.00013736944 -1183.2649
-671.27704 -24.862011 -1183.4321
-671.27484 -49.72401 -1183.442
-671.29688 -74.588356 -1183.3436
-671.3277 -99.455933 -1183.2057
-671.35413 -124.32478 -1183.0874
-671.34094 -149.1868 -1183.1467
-671.29248 -174.03873 -1183.3633
-671.31671 -198.90862 -1183.255
-671.30127 -223.767 -1183.3239
-671.30127 -248.62997 -1183.3239
-672.7403 -274.07928 -1176.8905
-685.48718 -304.66089 -1119.9021
-759.53888 -365.70367 -788.83435
-761.55438 -394.87994 -779.82324
-771.71313 -428.7294 -734.40601
-642.49243 222.40125 -1201.6433
-642.52594 197.70044 -1201.4877
-642.59723 173.0071 -1201.157
-642.62238 148.29756 -1201.0402
-642.62238 123.58128 -1201.04
-642.56787 98.856743 -1201.2931
-642.58044 74.143974 -1201.2346
-642.60767 49.431541 -1201.1083
-642.63702 24.716909 -1200.972
-642.62238 0.00011846346 -1201.0402
-642.58044 -24.714539 -1201.2346
-642.59094 -49.430008 -1201.186
-642.61188 -74.147385 -1201.0887
-642.63489 -98.86689 -1200.9818
-642.67267 -123.59073 -1200.8066
-642.66217 -148.30649 -1200.8552
-642.60767 -173.00967 -1201.1083
-642.62653 -197.73112 -1201.0206
-642.61395 -222.44321 -1201.0791
-642.59094 -247.15031 -1201.186
-643.81494 -272.38318 -1195.5032
-653.88208 -301.79172 -1148.7644
-733.44421 -366.72198 -779.37982
-736.61926 -396.64114 -764.63873
-614.14465 221.09216 -1219.2023
-614.17847 196.53716 -1219.0388
-614.25409 171.99113 -1218.6735
-614.27008 147.42488 -1218.5966
-614.26605 122.85329 -1218.6157
-614.23022 98.276894 -1218.7888
-614.24219 73.709114 -1218.7312
-614.26807 49.14146 -1218.6061
-614.27802 24.571205 -1218.558
-614.26404 0.00017464107 -1218.6254
-614.24615 -24.569723 -1218.7119
-614.25214 -49.140114 -1218.683
-614.27008 -73.712265 -1218.5966
-614.28601 -98.285591 -1218.5197
-614.30194 -122.86026 -1218.4426
-614.29596 -147.43092 -1218.4714
-614.32184 -172.01009 -1218.3466
-614.28204 -196.57014 -1218.5389
-614.27209 -221.13789 -1218.5869
-614.24414 -245.69754 -1218.7216
-615.09564 -270.64206 -1214.6101
-623.21912 -299.14511 -1175.3866
-707.9729 -368.14584 -766.15924
-712.15875 -398.80878 -745.94781
-725.42987 -435.2579 -681.86945
-586.13049 219.79893 -1236.5463
-586.16449 195.38826 -1236.3751
-586.24573 170.98842 -1235.9666
-586.25134 146.56288 -1235.9381
-586.24384 122.13419 -1235.9762
-586.22302 97.703926 -1236.0807
-586.23438 73.27932 -1236.0236
-586.25891 48.854965 -1235.9
-586.25134 24.427206 -1235.938
-586.23816 4.3311895e-05 -1236.0046
-586.24384 -24.426811 -1235.9761
-586.24384 -48.85355 -1235.9762
-586.2608 -73.282486 -1235.8905
-586.27216 -97.711914 -1235.8335
-586.26648 -122.13869 -1235.8619
-586.2627 -146.5656 -1235.881
-586.36096 -171.0219 -1235.3866
-586.26837 -195.4227 -1235.8527
-586.26459 -219.84912 -1235.8715
-586.2287 -244.2618 -1236.0521
-586.745 -268.92465 -1233.4556
-593.31372 -296.65677 -1200.4172
-683.57733 -370.27087 -746.42615
-688.4624 -401.603 -721.8559
-558.44214 218.5209 -1253.6885
-558.47614 194.25266 -1253.5101
-558.56024 169.99666 -1253.0685
-558.55841 145.71097 -1253.078
-558.55127 121.42426 -1253.1156
-558.57275 97.143227 -1253.0028
-558.59961 72.86087 -1252.8619
-558.57452 48.571884 -1252.9934
-558.56561 24.285627 -1253.0403
-558.55841 6.4594511e-05 -1253.0779
-558.56561 -24.28525 -1253.0404
-558.56378 -48.570606 -1253.0498
-558.57092 -72.857033 -1253.0122
-558.58173 -97.144562 -1252.9559
-558.57452 -121.42922 -1252.9934
-558.59778 -145.72105 -1252.8712
-558.71954 -170.04495 -1252.2322
-558.63 -194.30608 -1252.7023
-558.58173 -218.57536 -1252.9558
-558.54407 -242.84515 -1253.1531
-558.77332 -267.23932 -1251.9503
-564.09332 -294.30948 -1224.0293
-659.32483 -372.6618 -724.22681
-624.69373 -380.24826 -905.98053
-625.5838 -407.98947 -901.3092
-531.06036 217.252 -1270.7067
-531.10773 193.13013 -1270.4468
-531.21942 169.02449 -1269.834
-531.172 144.8651 -1270.094
-531.21942 120.73179 -1269.8341
-531.22791 96.587029 -1269.7876
-531.23633 72.44133 -1269.7411
-531.23297 48.293991 -1269.7596
-531.22449 24.146761 -1269.8062
-531.21771 6.6897228e-05 -1269.8434
-531.22449 -24.146381 -1269.8062
-531.22107 -48.29285 -1269.8247
-531.22449 -72.43959 -1269.8062
-531.23297 -96.587746 -1269.7596
-531.22791 -120.73356 -1269.7876
-531.22791 -144.88033 -1269.7876
-531.34637 -169.0647 -1269.1373
-531.2702 -193.18912 -1269.5554
-531.23975 -217.3253 -1269.7225
-531.20758 -241.45787 -1269.899
-531.32605 -265.66299 -1269.2488
-535.85303 -292.28339 -1244.4103
-564.63013 -333.64496 -1086.5145
-548.4707 -349.0267 -1175.179
-566.13708 -386.00241 -1078.2462
-593.87445 -431.90857 -926.05518
-503.9852 215.9937 -1287.5835
-504.05225 192.01996 -1287.1982
-504.20557 168.06856 -1286.3169
-504.09375 144.02682 -1286.9595
-504.21994 120.05233 -1286.2343
-504.20078 96.038292 -1286.3445
-504.19116 72.02739 -1286.3997
-504.21515 48.020531 -1286.262
-504.21036 24.010155 -1286.2894
-504.20078 1.3486613e-05 -1286.3445
-504.20398 -24.009668 -1286.3262
-504.21036 -48.01997 -1286.2896
-504.21036 -72.030037 -1286.2894
-504.21036 -96.039993 -1286.2894
-504.21036 -120.04993 -1286.2894
-504.21832 -144.06239 -1286.2435
-504.25507 -168.08502 -1286.0323
-504.20078 -192.07635 -1286.3445
-504.21832 -216.09344 -1286.2435
-504.19595 -240.09323 -1286.3721
-504.30139 -264.15781 -1285.766
-508.02646 -290.30075 -1264.3539
-527.1803 -326.3497 -1154.2549
-523.88831 -349.25879 -1173.1779
-522.46771 -373.19122 -1181.3434
-553.68817 -421.85754 -1001.8844
-477.2384 214.75732 -1304.1663
-477.39624 190.95862 -1303.2136
-477.48346 167.11935 -1302.6871
-477.32709 143.1982 -1303.6311
-477.52106 119.38035 -1302.4602
-477.50903 95.501976 -1302.5328
-477.46841 71.620354 -1302.778
-477.50299 47.750317 -1302.5692
-477.50601 23.87536 -1302.5509
-477.49698 0.00018304658 -1302.6055
-477.48645 -23.874239 -1302.6691
-477.50903 -47.750774 -1302.533
-477.50903 -71.626389 -1302.5328
-477.49246 -95.498352 -1302.6327
-477.51056 -119.37759 -1302.5238
-477.52106 -143.25624 -1302.4603
-477.47443 -167.11603 -1302.7416
-477.47592 -190.9903 -1302.7325
-477.49097 -214.87085 -1302.6418
-477.49097 -238.74538 -1302.6418
-477.57373 -262.66544 -1302.1425
-480.56726 -288.34033 -1284.0748
-502.1813 -326.41776 -1153.6226
-500.23392 -350.16367 -1165.3759
-498.88708 -374.16522 -1173.5048
-512.3562 -409.88492 -1092.2113
-450.80734 213.54036 -1320.4884
-450.99231 189.89151 -1319.3134
-451.02197 166.16603 -1319.1249
-450.88498 142.3848 -1319.9951
-451.08698 118.70719 -1318.712
-451.09686 94.967834 -1318.6492
-451.04739 71.218117 -1318.9634
-451.08133 47.4823 -1318.7477
-451.08981 23.741669 -1318.6938
-451.08133 0.00012082758 -1318.7478
-451.06152 -23.740002 -1318.8734
-451.09262 -47.483276 -1318.676
-451.09402 -71.225296 -1318.667
-451.06717 -94.961464 -1318.8376
-451.09967 -118.71039 -1318.6311
-451.11383 -142.45691 -1318.5411
-451.06296 -166.18091 -1318.8645
-451.0361 -189.90988 -1319.035
-451.04883 -213.65463 -1318.9543
-451.07846 -237.4097 -1318.7657
-451.12231 -261.17603 -1318.4874
-453.73508 -286.5694 -1301.8881
-477.78931 -326.90839 -1149.0667
-476.76422 -351.29987 -1155.5793
-476.81787 -376.43503 -1155.2385
-499.66959 -420.77432 -1010.057
-424.69266 212.34653 -1336.5026
-424.80905 188.80408 -1335.722
-424.89771 165.23807 -1335.1276
-424.77466 141.59171 -1335.9528
-424.9361 118.03786 -1334.8702
-424.94403 94.432076 -1334.817
-424.92419 70.820816 -1334.95
-424.94934 47.216743 -1334.7815
-424.94666 23.608295 -1334.7991
-424.93875 0.00010607101 -1334.8523
-424.86462 -23.603598 -1335.3494
-424.94537 -47.216133 -1334.8079
-424.948 -70.824577 -1334.7903
-424.87784 -94.417198 -1335.2606
-424.9639 -118.04549 -1334.6836
-424.97977 -141.65993 -1334.5773
-424.94138 -165.25491 -1334.8346
-424.85931 -188.82631 -1335.3848
-424.8699 -212.43489 -1335.314
-424.94403 -236.07994 -1334.8169
-424.91757 -259.67181 -1334.9944
-427.17026 -284.78009 -1319.8875
-453.83521 -327.76981 -1141.0684
-453.86688 -353.00751 -1140.8558
-457.23346 -381.02786 -1118.2791
-399.2627 234.8605 -1349.5388
-398.86838 211.16576 -1352.3386
-398.9314 187.7325 -1351.8914
-399.05743 164.31792 -1350.9965
-398.95239 140.80681 -1351.7422
-399.08835 117.37897 -1350.777
-399.08957 93.903587 -1350.7681
-399.08835 70.427437 -1350.777
-399.10812 46.953991 -1350.6365
-399.09946 23.476553 -1350.698
-399.0636 8.7055181e-05 -1350.9526
-398.96719 -23.46855 -1351.6368
-399.07474 -46.949863 -1350.8735
-399.08707 -70.427116 -1350.7858
-398.98697 -93.879105 -1351.4966
-399.07224 -117.37404 -1350.8911
-399.13779 -140.87218 -1350.4258
-399.11182 -164.34012 -1350.6101
-399.03763 -187.78241 -1351.1368
-398.99066 -211.23033 -1351.4702
-399.10318 -234.76646 -1350.6716
-399.01541 -258.18637 -1351.2947
-400.85028 -282.95303 -1338.266
-430.76602 -329.40924 -1125.8452
-432.27353 -355.98984 -1115.1412
-439.46317 -387.76163 -1064.0901
-373.56781 233.48001 -1366.2034
-373.3309 209.99875 -1367.9907
-373.38492 186.6925 -1367.5831
-373.47232 163.39424 -1366.924
-373.43665 140.03888 -1367.1929
-373.53098 116.72864 -1366.4812
-373.52524 93.381447 -1366.5247
-373.52524 70.035927 -1366.5245
-373.54938 46.693783 -1366.3424
-373.54132 23.346407 -1366.4031
-373.50912 6.7192013e-05 -1366.6461
-373.42169 -23.338711 -1367.3055
-373.51602 -46.689518 -1366.594
-373.52753 -70.036324 -1366.5072
-373.43896 -93.359619 -1367.1754
-373.51025 -116.72191 -1366.6373
-373.56549 -140.08701 -1366.2207
-373.55515 -163.43024 -1366.2988
-373.48956 -186.74467 -1366.7937
-373.43665 -210.05801 -1367.1929
-373.54825 -233.46754 -1366.351
-373.44128 -256.74078 -1367.1581
-374.89371 -281.17023 -1356.2002
-408.67899 -332.05154 -1101.3102
-413.0798 -361.44476 -1068.1085
-348.18494 232.12329 -1382.5786
-348.07303 208.84395 -1383.4796
-348.11563 185.6617 -1383.1365
-348.15295 162.47148 -1382.8362
-348.22549 139.29025 -1382.2527
-348.25961 116.08666 -1381.978
-348.24786 92.866249 -1382.0724
-348.24039 69.648163 -1382.1324
-348.2692 46.435951 -1381.9006
-348.26599 23.217846 -1381.9264
-348.27347 0.00016218146 -1381.8662
-348.2244 -23.214737 -1382.2612
-348.26492 -46.435249 -1381.9351
-348.25534 -69.651024 -1382.0122
-348.2308 -92.861374 -1382.2096
-348.28094 -116.09351 -1381.8063
-348.2244 -139.28969 -1382.2611
-348.26282 -162.52257 -1381.9521
-348.20627 -185.70992 -1382.4071
-348.21802 -208.93069 -1382.3126
-348.27136 -232.18083 -1381.8834
-348.19025 -255.33948 -1382.5358
-349.42856 -279.54272 -1372.5707
-388.6445 -336.82516 -1056.9851
-323.44302 254.13388 -1395.7672
-323.10617 230.79018 -1398.6718
-323.09238 207.7023 -1398.7904
-323.12289 184.64172 -1398.5273
-323.15634 161.57832 -1398.239
-323.27844 138.54794 -1397.1863
-323.27646 115.45604 -1397.2031
-323.25479 92.358528 -1397.39
-323.23312 69.264351 -1397.5768
-323.26367 46.18063 -1397.3136
-323.27155 23.090895 -1397.2457
-323.27844 5.2979613e-05 -1397.1862
-323.28632 -23.09182 -1397.1183
-323.25183 -46.178772 -1397.4155
-323.24298 -69.266182 -1397.4919
-323.26562 -92.361488 -1397.2966
-323.22723 -115.43826 -1397.6278
-323.17505 -138.50351 -1398.0776
-323.2164 -161.6082 -1397.7211
-323.2489 -184.71362 -1397.4409
-323.26859 -207.8154 -1397.2711
-323.27155 -230.90816 -1397.2456
-323.2095 -253.95029 -1397.7805
-324.13867 -277.83313 -1389.7693
-298.6312 252.68814 -1411.6338
-298.46021 229.58484 -1413.2216
-298.39603 206.58199 -1413.8174
-298.39871 183.63007 -1413.7922
-298.45477 160.7065 -1413.2719
-298.49457 137.76683 -1412.9023
-298.55426 114.82864 -1412.348
-298.54703 91.86068 -1412.4153
-298.52621 68.890785 -1412.6084
-298.50632 45.924191 -1412.7931
-298.47647 22.959848 -1413.0703
-298.48279 0.00013417094 -1413.0116
-298.48553 -22.960384 -1412.9865
-298.47015 -45.918381 -1413.1292
-298.45929 -68.875069 -1413.2299
-298.54068 -91.858658 -1412.474
-298.5235 -114.81673 -1412.6335
-298.46832 -137.75461 -1413.1458
-298.50812 -160.73511 -1412.7764
-298.50089 -183.69273 -1412.8435
-298.47287 -206.63498 -1413.1038
-298.54791 -229.65213 -1412.4069
-298.44846 -252.53323 -1413.3306
-299.18076 -276.16675 -1406.5309
-274.1662 251.31914 -1426.6559
-274.03897 228.366 -1427.9357
-273.98035 205.48535 -1428.5254
-273.97623 182.65092 -1428.5667
-274.01089 159.83987 -1428.218
-274.01917 137.00978 -1428.135
-274.05713 114.19061 -1427.7529
-274.09018 91.363487 -1427.4205
-274.07779 68.519577 -1427.5452
-274.02658 45.67112 -1428.0602
-274.00266 22.833586 -1428.3011
-274.04144 0.00018514613 -1427.9108
-274.05136 -22.837536 -1427.811
-274.03235 -45.671906 -1428.0021
-274.01007 -68.502342 -1428.2263
-274.0968 -91.36554 -1427.3541
-274.08441 -114.20179 -1427.4786
-274.01254 -137.00618 -1428.2014
-274.06952 -159.87383 -1427.6283
-274.06622 -182.71075 -1427.6614
-274.04144 -205.53098 -1427.9106
-274.03897 -228.36574 -1427.9355
-274.01584 -251.18112 -1428.1682
-274.62735 -274.6272 -1422.0171
-249.96559 249.9657 -1441.5078
-249.80605 227.09647 -1443.2587
-249.81653 204.39539 -1443.1437
-249.84723 181.70718 -1442.8068
-249.86444 159.0047 -1442.6178
-249.86444 136.28969 -1442.6177
-249.83598 113.56196 -1442.9299
-249.88841 90.868546 -1442.3547
-249.86821 68.145943 -1442.5767
-249.85023 45.427349 -1442.7738
-249.83524 22.712326 -1442.9382
-249.85995 0.0001136088 -1442.667
-249.86821 -22.715298 -1442.5767
-249.86295 -45.429562 -1442.634
-249.85695 -68.142784 -1442.7
-249.88393 -90.866867 -1442.4039
-249.88167 -113.58248 -1442.4287
-249.84573 -136.27933 -1442.8232
-249.88992 -159.02074 -1442.3383
-249.90489 -181.7489 -1442.174
-249.87718 -204.44493 -1442.478
-249.83 -227.1181 -1442.9958
-249.86147 -249.86137 -1442.6506
-250.3364 -273.09424 -1437.4386
-226.16524 429.71405 -1454.4989
-226.16524 407.0975 -1454.499
-226.16524 384.4809 -1454.499
-226.16524 361.86453 -1454.499
-226.16524 339.24792 -1454.499
-226.16524 316.63138 -1454.499
-226.16524 294.01483 -1454.4989
-226.16524 271.39828 -1454.499
-226.16524 248.78191 -1454.499
-226.18953 226.18954 -1454.2056
-226.22192 203.59976 -1453.8143
-226.25435 181.00363 -1453.4231
-226.27055 158.3895 -1453.2274
-226.25774 135.75479 -1453.3823
-226.21652 113.10838 -1453.8796
-226.21045 90.484238 -1453.953
-226.23003 67.869171 -1453.7166
-226.21788 45.243702 -1453.8633
-226.22533 22.622526 -1453.7737
-226.2233 6.562622e-05 -1453.7981
-226.21248 -22.621168 -1453.9285
-226.22125 -45.244205 -1453.8225
-226.22667 -67.867897 -1453.7573
-226.226 -90.490288 -1453.7655
-226.23207 -113.11592 -1453.6921
-226.24287 -135.74567 -1453.5616
-226.2233 -158.35623 -1453.7981
-226.21315 -180.97041 -1453.9204
-226.2287 -203.6058 -1453.7329
-226.2233 -226.22322 -1453.7981
-226.2449 -248.86932 -1453.5372
-226.42944 -271.71527 -1451.3097
-206.05577 251.84605 -1420.8737
-205.88844 228.76511 -1423.1178
-205.44008 205.44019 -1429.1313
-205.29909 182.48814 -1431.0222
-205.29352 159.67278 -1431.0968
-205.2404 136.82701 -1431.8094
-205.23608 114.02007 -1431.8673
-205.24782 91.221375 -1431.71
-205.22745 68.409233 -1431.9833
-205.22127 45.604847 -1432.066
-205.22745 22.803127 -1431.9833
-205.22559 0.00014410823 -1432.0081
-205.20953 -22.801054 -1432.2235
-205.24597 -45.610218 -1431.7347
-205.2756 -68.425194 -1431.3372
-205.2299 -91.213226 -1431.9502
-205.24966 -114.0275 -1431.6851
-205.25027 -136.83347 -1431.6768
-205.28983 -159.66971 -1431.1466
-205.31578 -182.50281 -1430.7985
-205.29662 -205.2966 -1431.0553
-205.3436 -228.15938 -1430.4254
-205.36278 -250.99886 -1430.1682
-205.61038 -274.14713 -1426.847
-185.36819 231.7104 -1387.5647
-184.89841 208.01073 -1394.6531
-184.70522 184.70517 -1397.5684
-184.51578 161.45143 -1400.4268
-184.48265 138.36201 -1400.9266
-184.47142 115.29477 -1401.0959
-184.4675 92.233826 -1401.1553
-184.45457 69.170631 -1401.35
-184.43158 46.107895 -1401.697
-184.42204 23.052832 -1401.8411
-184.42764 0.00017183708 -1401.7563
-184.41475 -23.051794 -1401.951
-184.5141 -46.128494 -1400.4521
-184.5141 -69.192703 -1400.452
-184.50679 -92.253334 -1400.5624
-184.51353 -115.32085 -1400.4606
-184.49612 -138.37206 -1400.7233
-184.52533 -161.45955 -1400.2827
-184.52588 -184.52579 -1400.2742
-184.4978 -207.55997 -1400.6979
-184.59274 -230.74077 -1399.2655
-184.63715 -253.87604 -1398.5953
-184.98755 -277.48123 -1393.3081
-164.10631 234.43767 -1354.6427
-163.81493 210.61928 -1359.6675
-163.51703 186.87675 -1364.8047
-163.46361 163.46373 -1365.7258
-163.43742 140.08922 -1366.1772
-163.40672 116.71927 -1366.7069
-163.39665 93.369568 -1366.8804
-163.3896 70.024216 -1367.0018
-163.44498 46.698669 -1366.047
-163.3896 23.341482 -1367.002
-163.39716 7.2315364e-05 -1366.8717
-163.40924 -23.344154 -1366.6635
-163.42534 -46.692833 -1366.3857
-163.46159 -70.054939 -1365.7604
-163.4752 -93.414291 -1365.526
-163.49132 -116.77951 -1365.2478
-163.52307 -140.1626 -1364.7004
-163.46916 -163.4691 -1365.6301
-163.48427 -186.83905 -1365.3695
-163.54524 -210.27235 -1364.318
-163.5508 -233.64388 -1364.2223
-163.59215 -257.07324 -1363.5092
-164.06976 -281.26236 -1355.2729
-142.14793 213.22192 -1324.7592
-142.00632 189.3418 -1327.6082
-141.95624 165.61574 -1328.6161
-141.91768 141.91776 -1329.3915
-141.88315 118.23598 -1330.0863
-141.90794 94.605347 -1329.5874
-141.93495 70.96756 -1329.0438
-141.92654 47.308945 -1329.2133
-141.90485 23.650902 -1329.6498
-141.93053 1.6733138e-05 -1329.1329
-141.94824 -23.657949 -1328.7765
-141.97528 -47.324974 -1328.2325
-142.00233 -71.001122 -1327.6885
-142.02495 -94.683167 -1327.2334
-142.02185 -118.35153 -1327.2959
-142.03072 -142.03061 -1327.1173
-142.17015 -165.8651 -1324.3121
-142.3981 -189.86414 -1319.726
-205.17072 -307.7561 -56.838604
-206.91754 -344.86246 -21.695621
-209.95958 -384.92569 39.505772
-120.05427 216.09776 -1286.1885
-119.9266 191.88272 -1289.2706
-119.8189 167.74648 -1291.8705
-119.88789 143.86555 -1290.205
-119.8606 119.8606 -1290.864
-119.8011 95.841003 -1292.3004
-119.87462 71.924828 -1290.5253
-119.88752 47.954994 -1290.214
-119.92204 23.984449 -1289.3806
-120.03753 9.6064032e-06 -1286.5924
-120.07405 -24.01478 -1285.7108
-171.51343 -68.605354 -43.853851
-170.84839 -102.50895 -59.909332
-170.44571 -136.3564 -69.631378
-170.37367 -170.37363 -71.370392
-170.62839 -204.75392 -65.221382
-171.24989 -239.74976 -50.216354
-172.18211 -275.49124 -27.71067
-173.30902 -311.95621 -0.50452113
-174.94048 -349.88089 38.881767
-177.88629 -391.3497 110.00018
-97.44912 219.2606 -1243.7673
-97.423752 194.84749 -1244.533
-97.420624 170.48613 -1244.6274
-97.442223 146.16339 -1243.9755
-97.471046 121.83893 -1243.1056
-97.087708 97.087769 -1254.6741
-97.092995 72.819839 -1254.5144
-97.118813 48.559525 -1253.7354
-97.430321 24.357569 -1244.3345
-99.112579 -7.9880556e-06 -1193.5681
-103.12731 -25.781727 -1072.413
-138.62503 -69.312355 -1.1742533
-138.28609 -103.71449 -11.403017
-138.07193 -138.07182 -17.865572
-138.1015 -172.62682 -16.973259
-138.33658 -207.50485 -9.8794641
-138.9128 -243.09729 7.509644
-139.78201 -279.5639 33.740494
-140.86282 -316.94122 66.357124
-73.894241 221.68279 -1211.28
-73.868073 196.98172 -1212.333
-73.873833 172.37228 -1212.1012
-73.863274 147.72661 -1212.526
-74.007774 123.34637 -1206.7118
-73.196251 97.595108 -1239.3649
-73.178581 73.178642 -1240.0759
-73.221947 48.814693 -1238.3312
-73.408485 24.469616 -1230.8256
-74.520332 0.00010617154 -1186.0881
-77.576668 -25.858912 -1063.1107
-105.24025 -70.160004 49.985859
-105.00694 -105.00677 40.598312
-104.92505 -139.89999 37.303143
-105.06274 -175.10455 42.843769
-105.46335 -210.92657 58.962734
-114.90615 -268.11429 438.91168
-49.938187 224.72192 -1170.5187
-49.894127 199.57663 -1173.1779
-49.86261 174.51924 -1175.0798
-49.870163 149.61057 -1174.6244
-49.967979 124.92007 -1168.7202
-49.411377 98.822861 -1202.3142
-49.411861 74.117821 -1202.285
-49.426846 49.426941 -1201.3806
-49.492859 24.746407 -1197.3965
-50.125626 0.0001028139 -1159.2056
-51.752743 -25.876289 -1061.0004
-75.991524 -75.991356 401.93948
-76.342506 -114.51368 423.12311
-76.670364 -153.3405 442.91083
-76.976402 -192.44095 461.38251
-77.282944 -231.84869 479.88312
-77.682594 -271.88892 504.0043
-25.302631 227.7238 -1130.2567
-25.27799 202.22398 -1133.2316
-25.258276 176.80792 -1135.6112
-25.266527 151.59926 -1134.6151
-25.309561 126.54797 -1129.4204
-25.035574 100.14238 -1162.4935
-25.034086 75.102318 -1162.6733
-25.040869 50.081783 -1161.8546
-25.07185 25.071966 -1158.1146
-25.329102 0.00010174 -1127.0618
-25.966005 -25.965931 -1050.1807
-38.512848 -77.025497 464.35733
-38.692371 -116.07691 486.02737
-38.855236 -155.42078 505.68698
-39.012043 -195.06006 524.61572
-39.17519 -235.0511 544.30896
-39.387341 -275.7113 569.91797
-38.868786 -388.68774 507.3226
-38.813446 -426.94781 500.64264
6.3658132e-22 230.96013 -1086.8501
1.2675862e-21 204.90442 -1092.7861
6.4584004e-22 179.24969 -1093.5071
1.383478e-21 153.65504 -1093.2563
3.2688296e-22 128.18359 -1089.931
8.0286179e-22 101.52213 -1120.8566
6.2802678e-22 76.125717 -1121.4927
3.0663329e-22 50.718369 -1123.4401
6.5690096e-22 25.387665 -1120.0048
1.5087268e-21 7.800899e-05 -1088.8313
6.157979e-22 -26.235748 -1017.6069
-2.9503837e-22 -78.088249 528.49738
6.385593e-22 -117.65751 549.61932
9.6838131e-22 -157.54597 569.81915
5.2027379e-22 -195.04507 524.25208
1.4506993e-22 -233.28667 508.81509
4.2074352e-22 -271.31052 494.02917
1.4367573e-21 -309.51205 485.62219
-2.9822396e-22 -348.16891 485.19281
2.1552215e-22 -386.95517 486.40891
9.6865e-22 -426.09247 491.25546
26.010744 234.09674 -1044.7804
25.958624 207.66902 -1051.0718
25.952845 181.67009 -1051.7693
25.955599 155.73373 -1051.4366
25.980427 129.90225 -1048.4401
25.725468 102.90196 -1079.2162
25.698599 77.095833 -1082.4595
25.704439 51.409004 -1081.7545
25.736038 25.736044 -1077.9402
26.008064 0.00015543925 -1045.1036
26.632208 -26.632063 -969.763
38.417965 -76.835838 452.90408
38.429848 -115.28934 454.33844
38.441936 -153.76753 455.79724
38.464375 -192.32179 458.5058
38.491917 -230.95132 461.83072
38.527729 -269.69406 466.15363
38.567333 -308.53848 470.93436
38.634968 -347.71454 479.09848
38.745583 -387.45575 492.45065
39.275684 -432.03247 556.43994
52.638264 210.55319 -1007.5544
52.616703 184.1586 -1008.8558
52.616337 157.849 -1008.8779
52.674664 131.68675 -1005.3574
52.16328 104.32664 -1036.2224
52.154125 78.231255 -1036.775
52.166512 52.166622 -1036.0275
52.181061 26.090637 -1035.1494
52.692978 0.00010349377 -1004.2522
54.315742 -27.157709 -906.30963
76.351738 -76.351517 423.67999
76.514389 -114.77151 433.49695
76.676567 -153.35313 443.28549
76.805954 -192.01471 451.09442
76.947098 -230.84116 459.61368
77.102882 -269.86008 469.0162
77.257729 -309.03073 478.3616
77.491959 -348.71368 492.49857
77.903389 -389.51675 517.33044
80.093361 213.58246 -961.84668
80.020912 186.71555 -964.76172
80.011909 160.0239 -965.12439
80.116508 133.5276 -960.91541
79.446571 105.92886 -987.87152
79.332359 79.332413 -992.4671
79.353958 52.902683 -991.59808
79.382217 26.460833 -990.46088
80.145882 4.6555055e-05 -959.73364
82.299393 -27.433052 -873.08301
114.56973 -76.379753 425.37537
114.89395 -114.89387 438.42105
115.17391 -153.56509 449.68555
115.42358 -192.37248 459.73148
115.70672 -231.41335 471.12393
116.03387 -270.74557 484.28726
116.39742 -310.39304 498.91577
116.95305 -350.85892 521.27271
117.94808 -393.16013 561.30988
108.33025 216.66068 -915.40051
108.22234 189.38924 -918.65668
108.19839 162.29773 -919.37933
108.33605 135.42024 -915.22528
107.3691 107.36926 -944.40552
107.23844 80.428864 -948.34851
107.27031 53.635155 -947.3866
107.40029 26.85005 -943.46423
108.55991 0.00011246998 -908.46991
111.0612 -27.765251 -832.98651
153.97472 -76.987137 462.04318
154.01225 -115.5091 463.17657
154.30624 -154.30603 472.04803
154.68182 -193.35213 483.38187
155.18465 -232.77692 498.55603
155.76353 -272.58603 516.02582
156.43956 -312.879 536.42645
157.60506 -354.61127 571.59894
160.02698 -400.06729 644.68622
137.36105 219.77776 -868.36542
137.24266 192.13989 -871.22394
137.2188 164.6626 -871.79974
137.36752 137.36758 -868.20892
136.15921 108.92763 -897.3808
135.97696 81.586212 -901.78052
136.01064 54.404228 -900.96747
136.1871 27.2376 -896.7074
137.32571 8.7042943e-05 -869.21875
141.69147 -28.338198 -763.82019
194.94884 -77.979538 521.92657
194.60742 -116.76432 513.68402
194.67641 -155.74117 515.34973
195.08331 -195.08319 525.17334
195.83746 -235.00487 543.38007
196.7077 -275.39066 564.38928
198.08458 -316.93518 597.62994
200.24512 -360.44101 649.79016
206.32477 -412.64951 796.56586
167.25174 223.0024 -819.70959
167.11835 194.97151 -822.39319
167.09747 167.09749 -822.81323
167.24744 139.37294 -819.79626
166.16566 110.77718 -841.55981
165.50703 82.753502 -854.81036
165.5498 55.183388 -853.94983
165.7574 27.626322 -849.77332
167.29973 9.5903604e-05 -818.74396
174.79182 -29.131884 -668.01477
237.34789 -79.115692 590.51587
236.43094 -118.21538 572.06854
236.45799 -157.63864 572.61285
237.11891 -197.59901 585.90942
238.13345 -238.1333 606.32031
239.45645 -279.36563 632.93695
241.42068 -321.89417 672.45422
244.55635 -366.83444 735.53912
198.20277 226.51761 -766.67029
197.86789 197.86801 -772.44519
197.86862 169.60178 -772.4325
198.01115 141.43652 -769.97437
197.44737 112.8272 -779.69672
196.06235 84.026855 -803.58038
196.14137 56.040531 -802.2179
196.19579 28.028107 -801.27966
197.8797 3.79185e-05 -772.24158
207.33249 -29.6187 -609.23407
281.05609 -80.301598 662.08405
280.16995 -120.07278 646.80316
280.15662 -160.08937 646.57343
280.74374 -200.53119 656.69781
282.07529 -241.77866 679.65948
283.79553 -283.79547 709.32397
286.27185 -327.16766 752.02661
290.93942 -374.06488 832.51593
292.1507 -417.35806 853.40369
229.9985 229.99869 -714.14539
229.59698 200.89758 -720.20392
229.55786 172.16852 -720.79401
229.71791 143.57376 -718.37933
229.32431 114.66226 -724.31836
227.46162 85.298248 -752.42413
227.52307 56.880795 -751.49664
227.81204 28.47648 -747.13654
230.07443 0.00017315091 -712.99945
240.42908 -30.053629 -556.76019
325.78076 -81.445038 731.09747
324.68686 -121.75739 714.59161
324.85214 -162.42587 717.08545
325.80002 -203.62488 731.38812
327.0249 -245.26859 749.86975
327.86136 -286.87857 762.49133
328.09735 -328.09729 766.052
328.62732 -369.70554 774.04822
329.52753 -411.90942 787.63165
262.90527 233.69363 -658.39124
262.26437 203.98338 -666.98718
262.20084 174.80072 -667.83923
262.35211 145.75125 -665.80994
262.10413 116.49079 -669.13629
259.85535 86.618622 -699.29755
259.91776 57.759552 -698.46069
260.23407 28.915037 -694.21796
263.12231 0.00010042866 -655.48022
282.00705 -31.334118 -402.19202
360.62799 -80.139427 652.29523
361.82175 -120.60703 668.30579
362.99054 -161.32913 683.98254
363.86386 -202.14636 695.69574
364.55234 -243.03467 704.92944
365.70358 -284.43604 720.37061
366.66885 -325.92764 733.31714
367.72845 -367.7283 747.52875
369.16144 -410.17932 766.74854
296.86917 237.49532 -601.02679
295.90363 207.1326 -612.68213
295.85742 177.51448 -613.23975
295.9487 147.9744 -612.138
297.53467 119.01411 -592.99365
293.19281 87.958008 -645.40417
293.26544 58.653175 -644.52765
293.49371 29.349525 -641.77216
296.54739 7.218658e-05 -604.91113
315.46063 -31.545984 -376.60764
400.67023 -80.133949 651.96277
400.80161 -120.24029 653.54858
401.83868 -160.7354 666.06726
403.06113 -201.53052 680.82361
404.03671 -242.42203 692.59979
405.35712 -283.74988 708.5387
406.96573 -325.57239 727.95624
408.22403 -367.40149 743.1452
410.47043 -410.47025 770.26141
330.72507 210.46152 -555.27795
330.57162 180.31183 -556.96149
330.58734 150.26712 -556.789
331.75824 120.63958 -543.94006
327.4527 89.305283 -591.18768
327.53632 59.55209 -590.27002
327.95895 29.814423 -585.63208
331.95773 0.00011080551 -541.75104
377.71594 -34.337742 -39.613823
443.53 -80.64164 682.60974
442.52466 -120.6884 671.57758
442.70331 -160.98283 673.53729
443.62204 -201.64633 683.61975
445.07867 -242.77007 699.60425
446.70761 -284.26843 717.47949
448.53183 -326.2048 737.49799
450.41965 -368.52502 758.21448
455.02939 -413.66293 808.8006
366.71951 213.91975 -495.64111
366.42697 183.21352 -498.58411
366.41516 152.67308 -498.70316
367.64758 122.5492 -486.30573
362.87265 90.718285 -534.33795
362.92911 60.488308 -533.7699
363.41788 30.284904 -528.85321
368.39069 0.00012332245 -478.83044
412.44434 -34.370193 -35.685226
485.25021 -80.87484 696.6853
483.86896 -120.96703 682.79089
484.09305 -161.36423 685.04517
484.9035 -202.043 693.19794
485.97888 -242.9893 704.01495
487.40356 -284.3186 718.34637
489.36798 -326.24527 738.10718
492.02353 -369.01749 764.81982
403.73624 217.39645 -435.68738
403.47998 186.2216 -438.06717
403.49316 155.18971 -437.94431
404.60504 124.49393 -427.62009
399.79929 92.26136 -472.24374
399.72952 61.497025 -472.8916
400.09149 30.776415 -469.53015
405.69803 0.0001110445 -417.47141
447.01337 -34.385658 -33.840233
525.77191 -80.887985 697.46698
525.00421 -121.1548 690.33875
525.0014 -161.53873 690.31262
525.47186 -202.10429 694.68066
526.51086 -243.00485 704.32849
528.17621 -284.40256 719.79218
530.21143 -326.28384 738.69006
533.4613 -369.31931 768.86652
442.31879 221.15948 -370.79761
441.76996 189.33017 -375.52966
441.81595 157.7916 -375.13312
442.94107 126.55466 -365.43213
437.87924 93.831429 -409.07608
437.58487 62.512222 -411.61423
438.04919 31.289337 -407.61072
456.89383 0.00018416767 -245.12895
481.03668 -34.359638 -36.964352
566.84204 -80.977234 702.86578
566.0014 -121.28584 695.6178
566.0014 -161.71455 695.6178
566.42749 -202.29544 699.29132
567.65179 -243.27922 709.84753
569.5257 -284.76282 726.005
572.05286 -326.88721 747.79468
576.03448 -370.30774 782.12476
482.04782 224.95578 -305.33325
481.37015 192.5481 -310.78687
481.44354 160.4814 -310.19635
482.65775 128.70883 -300.42523
477.12137 95.424469 -344.97879
477.17743 63.623829 -344.52759
477.81723 31.854605 -339.37857
489.04892 8.9995556e-05 -248.99284
520.41266 -34.694088 3.4028406
607.80811 -81.04097 706.70746
606.67603 -121.33498 697.59705
606.53687 -161.74301 696.47711
607.21722 -202.40565 701.95233
608.85962 -243.54366 715.16901
611.47638 -285.35562 736.22723
614.57056 -327.77081 761.12714
620.04791 -372.02859 805.20544
523.11725 228.86391 -237.93994
522.28131 195.85555 -244.24655
522.33752 163.23059 -243.82225
523.18042 130.79521 -237.46307
517.86261 97.099243 -277.58304
517.92676 64.740959 -277.09937
518.46265 32.404087 -273.05615
526.6731 0.00010981399 -211.1129
566.66107 -35.416321 90.573021
648.57831 -81.072144 708.59082
647.21783 -121.35319 698.3266
647.1073 -161.77666 697.4928
648.17963 -202.55602 705.58301
650.45709 -243.92126 722.76501
653.22528 -285.78601 743.6496
656.92346 -328.46167 771.55005
663.84296 -373.41156 823.75391
565.9743 233.0484 -165.7818
564.62 199.2778 -175.3979
564.63733 166.07001 -175.27498
565.50726 133.06059 -169.09787
560.10834 98.842842 -207.43361
559.78955 65.857704 -209.69737
560.23743 32.955173 -206.51685
569.34583 2.4890451e-06 -141.84171
616.55298 -36.267761 193.35863
689.16608 -81.078194 708.95734
688.0105 -121.41354 700.75171
688.04358 -161.89249 700.98669
689.58661 -202.81941 711.9433
691.64862 -244.11116 726.58484
694.77429 -286.08344 748.77875
699.24268 -329.05527 780.5072
708.47876 -375.07681 846.08966
610.30756 237.34193 -91.741493
608.48358 202.82794 -103.97304
608.43475 169.00975 -104.30071
609.43231 135.42961 -97.610954
603.06061 100.51018 -140.34047
602.96729 66.99659 -140.96626
603.7572 33.542286 -135.66891
613.27905 0.00014876873 -71.81424
656.1839 -36.454464 215.91238
730.12708 -81.125175 711.78613
729.24493 -121.54063 705.87048
729.63501 -162.14098 708.48621
731.85449 -203.29289 723.37048
733.84271 -244.61404 736.70361
737.34918 -286.74673 760.2182
742.60742 -330.04761 795.48102
752.5376 -376.26877 862.07489
654.03644 206.53792 -29.3344
653.90875 172.08141 -30.145985
654.88721 137.87119 -23.929682
648.61273 102.41264 -63.792587
648.65363 68.279518 -63.532803
648.81732 34.148296 -62.492821
656.91882 5.2032206e-05 -11.022227
700.99426 -36.894436 268.99753
772.14856 -81.278648 721.05457
773.28473 -122.09748 728.27301
775.56714 -163.27727 742.77362
778.91925 -204.97864 764.07013
781.76111 -246.87189 782.12469
785.30835 -289.32401 804.66132
791.02887 -333.06467 841.00476
805.74207 -381.66714 934.48041
701.39716 210.41937 48.751396
701.15381 175.2885 47.282719
701.93634 140.38751 52.005741
695.62543 104.34394 13.916263
694.84741 69.48481 9.2201071
695.35101 34.767708 12.259928
703.13788 0.00019490042 59.257778
827.6153 -41.380692 810.54565
829.71289 -82.971107 823.20544
831.88507 -124.78265 836.31573
834.24304 -166.84854 850.54755
836.89624 -209.22392 866.56079
839.58032 -251.87402 882.76068
849.50909 -297.32794 942.68604
750.56482 214.4472 129.7878
750.18982 178.61679 127.63194
750.75256 143.00053 130.86642
743.70789 106.24409 90.373306
743.26678 70.787514 87.83757
744.28528 35.442142 93.691963
754.33582 0.00013698504 151.46367
865.26843 -41.203079 789.11841
867.42828 -82.612228 801.53412
869.68463 -124.24062 814.50354
872.11993 -166.1181 828.50189
874.77563 -208.27975 843.76691
877.55389 -250.72949 859.73718
887.05267 -295.68411 914.3371
801.60156 218.61873 213.71202
800.7431 181.98717 209.00169
801.63629 145.75223 213.90245
793.80072 108.24568 170.9101
793.81586 72.16507 170.99326
794.56488 36.116711 175.10307
803.89349 0.00019929234 226.28754
902.62915 -41.028381 768.03503
904.82367 -82.256561 780.07623
907.22144 -123.71187 793.23206
909.72614 -165.40463 806.97516
912.39948 -207.36337 821.64343
915.24933 -249.61331 837.28027
924.30634 -294.09741 886.97455
854.65491 222.95349 300.92242
853.51666 185.54716 294.94812
854.56689 148.62048 300.46057
847.50342 110.54401 263.38913
845.51776 73.523468 252.96797
846.48273 36.803715 258.03217
856.95746 0.00012684768 313.00696
939.80115 -40.860859 747.79468
942.03088 -81.915565 759.49683
944.52191 -123.19845 772.5705
947.07245 -164.70827 785.95673
949.70929 -206.45839 799.79541
952.62628 -248.51108 815.10443
961.24176 -292.55176 860.32135
909.92291 227.48074 392.00443
908.70465 189.31361 385.87668
909.23157 151.53864 388.52698
901.0741 112.63445 347.49811
901.02502 75.085587 347.25113
901.06519 37.544506 347.45334
915.40924 0.00017551925 419.59808
976.7597 -40.69812 728.1673
979.05731 -81.587883 739.72339
981.66766 -122.70822 752.85248
984.30267 -164.05031 766.10547
986.91431 -205.60701 779.24109
989.77679 -247.44412 793.63843
998.28949 -291.16766 836.45361
967.53644 232.20894 487.12454
965.38208 193.07643 476.72235
965.84961 154.53601 478.97983
959.47632 115.13724 448.20712
956.85486 76.548447 435.54944
958.19531 38.327881 442.02167
972.61749 0.00015455249 511.65805
1013.7886 -40.551437 710.44983
1015.9741 -81.277855 721.00195
1018.5356 -122.22421 733.37012
1021.2256 -163.39595 746.35895
1023.9633 -204.79256 759.57709
1026.7655 -246.42369 773.10797
1035.2992 -289.88367 814.31213
1028.0836 237.25023 588.54773
1026.108 197.32848 579.37592
1026.386 157.90565 580.66626
1020.2954 117.72638 552.3894
1016.1964 78.168961 533.35889
1016.8781 39.11079 536.52399
1048.5446 0.00010215014 683.54193
1050.7755 -40.41433 693.90021
1053.168 -81.012802 705.00787
1055.5037 -121.78869 715.85144
1058.0654 -162.77924 727.74524
1060.7939 -203.99866 740.41272
1063.5939 -245.4447 753.41229
1071.8267 -288.56851 791.6344
1089.9984 242.22186 688.57269
1087.652 201.41705 678.08221
1087.7213 161.14395 678.3924
1086.8547 120.76176 674.51801
1087.9584 80.589577 679.45245
1088.0857 40.299557 680.02148
1089.0818 6.0863513e-05 684.47485
1089.4818 -40.351067 686.26361
1091.5917 -80.858582 695.69586
1093.7622 -121.52895 705.40002
1096.0588 -162.37889 715.6676
1098.3593 -203.39975 725.95221
1100.8055 -244.62332 736.88898
1108.2642 -287.32755 770.23468
1156.2056 247.75854 799.9585
1152.094 205.73114 782.23248
1150.6696 164.38147 776.09167
1149.4915 123.15984 771.01306
1149.3607 82.097351 770.44946
1149.6534 41.05909 771.71112
1150.0336 0.00016041647 773.34967
1149.1989 -41.042629 769.75165
1149.6036 -82.114342 771.49615
1150.1519 -123.23038 773.86017
1150.8007 -164.3999 776.6568
1150.1956 -205.39197 774.04834
1151.1066 -246.66545 777.97546
