# .PCD v0.7 - Point Cloud Data file format
VERSION 0.7
FIELDS x y z
SIZE 4 4 4
TYPE F F F
COUNT 1 1 1
WIDTH 1386
HEIGHT 1
VIEWPOINT 0 0 0 1 0 0 0
POINTS 1386
DATA ascii
-33.540848 7.0612326 -14.268574
-32.658192 7.0612326 -14.268574
-31.089737 7.7724376 -16.568123
-31.775539 7.0612326 -14.268574
-28.949921 7.444262 -20.969614
-30.892887 7.0612326 -14.268574
-27.495827 7.2783046 -23.195496
-30.010233 7.0612326 -14.268574
-26.249178 7.1588693 -24.797468
-29.127577 7.0612326 -14.268574
-25.137951 7.0700469 -25.98872
-28.244923 7.0612326 -14.268574
-24.118479 7.0021391 -26.89954
-26.5075 6.8406439 -17.596949
-23.584248 7.8614163 -25.918625
-23.343515 7.0030532 -26.887262
-25.494776 6.7986093 -18.231258
-22.325832 7.6985626 -27.884443
-22.56835 7.0039735 -26.874977
-24.601269 6.7865534 -18.413082
-24.900339 -20.607176 -17.168224
-21.118567 7.542345 -29.770157
-21.792904 7.0048618 -26.863018
-23.752857 6.7865338 -18.413481
-23.845383 5.9613447 -18.014591
-23.845383 5.1097236 -18.014591
-23.845383 4.2581024 -18.014591
-23.845383 3.4064817 -18.014593
-23.845383 2.5548644 -18.014589
-23.845383 1.7032429 -18.014591
-23.845383 0.8516221 -18.014591
-23.845383 1.3258611e-06 -18.014591
-23.845383 -0.85162026 -18.014591
-23.845383 -1.7032405 -18.014593
-23.845383 -2.5548623 -18.014593
-23.845383 -3.4064829 -18.014593
-23.845383 -4.2581038 -18.014593
-23.845383 -5.1097255 -18.014595
-23.845383 -5.9613461 -18.014595
-23.845383 -6.8129635 -18.014593
-23.845383 -7.6645846 -18.014593
-23.845383 -8.5162058 -18.014593
-23.845383 -9.3678265 -18.014593
-23.845383 -10.219447 -18.014595
-23.845383 -11.071068 -18.014595
-23.845383 -11.92269 -18.014595
-23.845383 -12.774311 -18.014595
-23.845383 -13.625932 -18.014595
-23.845383 -14.477558 -18.014587
-23.845383 -15.329179 -18.014587
-23.845383 -16.180796 -18.014587
-23.845383 -17.032419 -18.014589
-23.845383 -17.884039 -18.014587
-23.845383 -18.735661 -18.014587
-23.845383 -19.58728 -18.014587
-23.845383 -20.438902 -18.014589
-19.972736 7.3973079 -31.520893
-21.017336 7.0057802 -26.850731
-22.852764 6.7711902 -18.644964
-22.852764 5.9247918 -18.644966
-22.852764 5.0783939 -18.64497
-22.852764 4.2319908 -18.644962
-22.852764 3.3855932 -18.644966
-22.852764 2.5391948 -18.644966
-22.85285 1.6928043 -18.644577
-22.85285 0.84640127 -18.644571
-22.85285 -1.1462718e-06 -18.644575
-22.85285 -0.84639871 -18.644577
-22.85285 -1.6928061 -18.644573
-22.85285 -2.5392036 -18.644575
-22.85285 -3.385607 -18.644569
-22.85285 -4.2320085 -18.644575
-22.85285 -5.0784121 -18.644569
-22.85285 -5.9248137 -18.644573
-22.85285 -6.7712121 -18.644575
-22.85285 -7.6176195 -18.644573
-22.85285 -8.4640169 -18.644575
-22.85285 -9.3104248 -18.644571
-22.85285 -10.156822 -18.644573
-22.85285 -11.003224 -18.644579
-22.85285 -11.849627 -18.644571
-22.85285 -12.69603 -18.644577
-22.85285 -13.542432 -18.644571
-22.85285 -14.388829 -18.644573
-22.85285 -15.235232 -18.644577
-22.85285 -16.081635 -18.644571
-22.85285 -16.928038 -18.644577
-22.85285 -17.774441 -18.644571
-22.85285 -18.620842 -18.644575
-22.85285 -19.467245 -18.644569
-22.85285 -20.313644 -18.644573
-19.044996 7.3249974 -32.393764
-20.24135 7.0066233 -26.839434
-21.872324 6.7299461 -19.267275
-21.872324 5.8887072 -19.267273
-21.872324 5.0474591 -19.267265
-21.872324 4.2062159 -19.267267
-21.872324 3.3649728 -19.267269
-21.872324 2.5237308 -19.267271
-21.872324 1.6824877 -19.267273
-21.872324 0.8412447 -19.267275
-21.872324 -3.3690983e-06 -19.267267
-21.872324 -0.84124643 -19.267269
-21.872324 -1.6824853 -19.267267
-21.872324 -2.5237284 -19.267269
-21.872324 -3.3649709 -19.267271
-21.872324 -4.206214 -19.267273
-21.872324 -5.047462 -19.267265
-21.872324 -5.8887053 -19.267267
-21.872324 -6.7299476 -19.267269
-21.872324 -7.5711913 -19.267271
-21.872324 -8.4124346 -19.267273
-21.872324 -9.2536726 -19.267271
-21.872324 -10.094915 -19.267273
-21.872324 -10.936163 -19.267267
-21.872324 -11.777407 -19.267267
-21.872324 -12.618649 -19.267269
-21.872324 -13.459892 -19.267271
-21.872324 -14.301135 -19.267273
-21.872324 -15.142378 -19.267273
-21.872324 -15.983625 -19.267267
-21.872324 -16.824867 -19.267267
-21.872324 -17.666111 -19.267269
-21.872324 -18.507351 -19.267269
-21.872324 -19.348595 -19.267271
-21.872324 -20.189837 -19.267273
-18.199743 7.2798963 -32.938179
-19.460632 7.0058289 -26.850063
-20.905823 6.6898661 -19.872072
-20.905823 5.8536339 -19.872072
-20.905823 5.0174017 -19.872074
-20.905823 4.1811647 -19.872066
-20.905823 3.3449323 -19.872068
-20.905823 2.5086958 -19.872072
-20.905823 1.6724648 -19.872074
-20.905823 0.83623284 -19.872074
-20.905823 8.7923524e-07 -19.872076
-20.905823 -0.83623612 -19.872068
-20.905823 -1.6724689 -19.87207
-20.905823 -2.5087004 -19.87207
-20.905823 -3.3449323 -19.872072
-20.905903 -4.1811824 -19.871685
-20.905903 -5.0174189 -19.871689
-20.905903 -5.853651 -19.871689
-20.905903 -6.6898918 -19.871685
-20.905903 -7.5261235 -19.871687
-20.905903 -8.36236 -19.871691
-20.905903 -9.1985998 -19.871685
-20.905903 -10.034832 -19.871687
-20.905903 -10.871069 -19.871691
-20.905903 -11.707306 -19.871685
-20.905903 -12.543542 -19.871689
-20.905903 -13.379778 -19.871691
-20.905903 -14.216014 -19.871685
-20.905903 -15.052251 -19.871689
-20.905903 -15.888485 -19.871691
-20.905903 -16.724724 -19.871685
-20.905903 -17.560957 -19.871687
-20.905903 -18.397194 -19.871691
-20.905903 -19.233433 -19.871685
-20.905903 -20.069666 -19.871687
-17.311016 7.2129245 -33.746628
-18.680557 7.0052085 -26.858372
-19.951292 6.6504316 -20.467058
-19.951292 5.8191252 -20.467056
-19.951292 4.987824 -20.467062
-19.951292 4.156518 -20.46706
-19.951292 3.3252163 -20.467056
-19.951292 2.4939146 -20.467062
-19.951292 1.6626078 -20.467058
-19.951292 0.8313027 -20.467058
-19.951292 8.9830928e-07 -20.467062
-19.951292 -0.83130085 -20.46706
-19.951292 -1.662607 -20.467056
-19.951292 -2.4939137 -20.467054
-19.951292 -3.3252146 -20.46706
-19.951292 -4.1565204 -20.467058
-19.951292 -4.9878268 -20.467056
-19.951292 -5.8191242 -20.46706
-19.951368 -6.6504598 -20.466677
-19.951368 -7.4817624 -20.466682
-19.951368 -8.3130674 -20.466681
-19.951368 -9.1443787 -20.466681
-19.951368 -9.9756842 -20.466679
-19.951368 -10.806994 -20.466679
-19.951368 -11.6383 -20.466677
-19.951368 -12.469607 -20.466675
-19.951368 -13.300911 -20.466682
-19.951368 -14.132218 -20.466682
-19.951368 -14.963529 -20.466682
-19.951368 -15.794834 -20.466681
-19.951368 -16.626141 -20.466679
-19.951368 -17.457451 -20.466677
-19.951368 -18.288755 -20.466675
-19.951368 -19.120066 -20.466675
-19.951368 -19.951368 -20.466682
-16.382862 7.1229849 -34.832306
-17.900555 7.0045648 -26.86701
-19.007952 6.6114621 -21.055075
-19.007952 5.785027 -21.055071
-19.007952 4.9585972 -21.055075
-19.007952 4.1321616 -21.055071
-19.007952 3.3057315 -21.055073
-19.007952 2.479295 -21.055067
-19.007952 1.6528653 -21.055071
-19.007952 0.82643485 -21.055075
-19.007952 -6.0714956e-07 -21.055071
-19.007952 -0.82643026 -21.055075
-19.007952 -1.6528658 -21.055071
-19.007952 -2.4792964 -21.055073
-19.007952 -3.3057318 -21.055067
-19.007952 -4.1321621 -21.055071
-19.007952 -4.9585919 -21.055075
-19.007952 -5.785028 -21.055071
-19.007952 -6.6114573 -21.055073
-19.007952 -7.4378939 -21.055069
-19.007952 -8.2643242 -21.055073
-19.007952 -9.0907583 -21.055067
-19.008022 -9.9172306 -21.054697
-19.008022 -10.743668 -21.054693
-19.008022 -11.570102 -21.054699
-19.008022 -12.396537 -21.054695
-19.008022 -13.222972 -21.054701
-19.008022 -14.049406 -21.054695
-19.008022 -14.875846 -21.054693
-19.008022 -15.702277 -21.054697
-19.008022 -16.528717 -21.054695
-19.008022 -17.35515 -21.054701
-19.008022 -18.181587 -21.054697
-19.008022 -19.008024 -21.054695
-19.008022 -19.834455 -21.054699
-15.542682 7.0648537 -35.533974
-17.120697 7.0039229 -26.875641
-18.0756 6.5729427 -21.636232
-18.0756 5.7513289 -21.636236
-18.0756 4.9297099 -21.636238
-18.0756 4.1080899 -21.636232
-18.0756 3.2864721 -21.636236
-18.0756 2.4648571 -21.636238
-18.0756 1.6432341 -21.636234
-18.0756 0.82161927 -21.636236
-18.0756 3.1546216e-07 -21.636238
-18.0756 -0.82161862 -21.636232
-18.0756 -1.6432343 -21.636234
-18.0756 -2.4648573 -21.636232
-18.0756 -3.2864721 -21.636232
-18.0756 -4.1080899 -21.636238
-18.0756 -4.9297099 -21.63623
-18.0756 -5.7513275 -21.636234
-18.0756 -6.5729423 -21.636236
-18.0756 -7.394567 -21.636232
-18.0756 -8.2161808 -21.636232
-18.0756 -9.0378008 -21.636238
-18.0756 -9.8594198 -21.636232
-18.0756 -10.681038 -21.636236
-18.0756 -11.502652 -21.636236
-18.075666 -12.324322 -21.635862
-18.075666 -13.145942 -21.635866
-18.075666 -13.967564 -21.635862
-18.075666 -14.789181 -21.635864
-18.075666 -15.610805 -21.63586
-18.075666 -16.432423 -21.635864
-18.075666 -17.254047 -21.63586
-18.075666 -18.075665 -21.635864
-18.075666 -18.897291 -21.635862
-18.075666 -19.71891 -21.635866
-18.075666 -20.540533 -21.635862
-15.094126 7.9064493 -34.051353
-14.715823 7.0075331 -36.225891
-16.340981 7.0032773 -26.884275
-17.154047 6.534873 -22.210665
-17.154047 5.7180147 -22.210667
-17.154047 4.9011526 -22.210663
-17.154047 4.0842943 -22.210667
-17.154047 3.2674406 -22.210667
-17.154047 2.4505775 -22.210661
-17.154047 1.6337196 -22.210665
-17.154047 0.81686151 -22.210667
-17.154047 -4.5915215e-07 -22.210663
-17.154047 -0.81685847 -22.210667
-17.154047 -1.6337165 -22.210669
-17.154047 -2.4505794 -22.210663
-17.154047 -3.2674375 -22.210667
-17.154047 -4.0842953 -22.210669
-17.154047 -4.9011583 -22.210663
-17.154047 -5.7180157 -22.210667
-17.154047 -6.5348787 -22.210661
-17.154047 -7.3517365 -22.210665
-17.154047 -8.1685944 -22.210669
-17.154047 -8.9854574 -22.210663
-17.154047 -9.8023148 -22.210667
-17.154047 -10.619173 -22.210669
-17.154047 -11.436036 -22.210663
-17.154047 -12.252889 -22.210663
-17.154047 -13.069746 -22.210667
-17.154047 -13.886609 -22.210661
-17.15411 -14.703525 -22.2103
-17.15411 -15.520389 -22.210297
-17.15411 -16.337248 -22.2103
-17.15411 -17.154114 -22.210297
-17.15411 -17.970974 -22.2103
-17.15411 -18.787838 -22.210297
-17.15411 -19.604698 -22.210302
-17.15411 -20.421564 -22.210299
-14.197733 7.8087535 -35.123417
-13.949224 6.9746108 -36.623302
-15.561463 7.002656 -26.892572
-16.243109 6.4972405 -22.778479
-16.243109 5.6850882 -22.778481
-16.243109 4.8729358 -22.778482
-16.243109 4.0607748 -22.778481
-16.243109 3.2486229 -22.778482
-16.243109 2.4364653 -22.778477
-16.243109 1.6243093 -22.778482
-16.243109 0.81215245 -22.778477
-16.243109 -1.7265012e-07 -22.778479
-16.243109 -0.81215197 -22.778481
-16.243109 -1.6243137 -22.778479
-16.243109 -2.4364655 -22.778481
-16.243109 -3.2486231 -22.778475
-16.243109 -4.0607791 -22.778481
-16.243109 -4.8729305 -22.778484
-16.243109 -5.6850877 -22.778479
-16.243109 -6.4972448 -22.778484
-16.243109 -7.3094015 -22.778479
-16.243109 -8.1215534 -22.778481
-16.243109 -8.9337149 -22.778479
-16.243109 -9.7458668 -22.778481
-16.243109 -10.558019 -22.778482
-16.243109 -11.370176 -22.778479
-16.243109 -12.182332 -22.778482
-16.243109 -12.994489 -22.778477
-16.243109 -13.806642 -22.778481
-16.243109 -14.618795 -22.778484
-16.243109 -15.430955 -22.778481
-16.243109 -16.243109 -22.778482
-16.24317 -17.055328 -22.778118
-16.24317 -17.867483 -22.778122
-16.24317 -18.679646 -22.77812
-16.24317 -19.491804 -22.778114
-16.24317 -20.303961 -22.77812
-13.323178 7.7134209 -36.169582
-13.253106 6.9753194 -36.614769
-14.782032 7.0020146 -26.901205
-15.342602 6.4600439 -23.339794
-15.342602 5.6525378 -23.33979
-15.342602 4.8450317 -23.339794
-15.342602 4.0375257 -23.33979
-15.342602 3.2300236 -23.339792
-15.342602 2.4225132 -23.33979
-15.342602 1.6150112 -23.339792
-15.342602 0.8075009 -23.33979
-15.342602 -3.7029758e-07 -23.339792
-15.342602 -0.80750644 -23.339788
-15.342602 -1.6150117 -23.339794
-15.342602 -2.4225137 -23.339798
-15.342602 -3.23002 -23.339792
-15.342602 -4.0375252 -23.339798
-15.342602 -4.8450317 -23.339792
-15.342602 -5.6525378 -23.339798
-15.342602 -6.4600439 -23.339792
-15.342602 -7.2675452 -23.339794
-15.342602 -8.0750561 -23.339792
-15.342602 -8.8825579 -23.339796
-15.342602 -9.6900654 -23.339792
-15.342602 -10.497569 -23.339796
-15.342602 -11.305076 -23.33979
-15.342602 -12.112578 -23.339794
-15.342602 -12.920088 -23.33979
-15.342602 -13.72759 -23.339794
-15.342602 -14.535098 -23.33979
-15.342602 -15.342601 -23.339794
-15.342602 -16.15011 -23.339792
-15.342602 -16.957611 -23.339794
-15.342602 -17.76512 -23.33979
-15.342602 -18.572624 -23.339794
-15.342659 -19.380201 -23.339434
-15.342659 -20.187706 -23.339439
-12.469722 7.6203876 -37.19051
-12.556888 6.9760489 -36.605965
-14.002744 7.0013738 -26.90983
-14.452349 6.4232664 -23.894714
-14.452349 5.6203613 -23.89472
-14.452349 4.8174505 -23.894714
-14.452349 4.014544 -23.894718
-14.452349 3.2116327 -23.894714
-14.452349 2.4087274 -23.89472
-14.452349 1.6058161 -23.894714
-14.452349 0.80290991 -23.894718
-14.452349 -1.4030993e-06 -23.894714
-14.452349 -0.80290586 -23.89472
-14.452349 -1.6058172 -23.894714
-14.452349 -2.4087234 -23.894718
-14.452349 -3.2116346 -23.894714
-14.452349 -4.0145402 -23.89472
-14.452349 -4.8174505 -23.894714
-14.452349 -5.6203566 -23.894718
-14.452349 -6.4232669 -23.894716
-14.452349 -7.2261734 -23.89472
-14.452349 -8.0290842 -23.894714
-14.452349 -8.8319902 -23.89472
-14.452349 -9.634902 -23.894714
-14.452349 -10.437807 -23.89472
-14.452349 -11.240719 -23.894714
-14.452349 -12.043625 -23.89472
-14.452349 -12.846536 -23.894716
-14.452349 -13.649439 -23.894718
-14.452349 -14.45235 -23.894714
-14.452349 -15.255256 -23.894718
-14.452349 -16.058167 -23.894714
-14.452349 -16.861073 -23.894718
-14.452349 -17.663984 -23.894714
-14.452349 -18.46689 -23.894718
-14.452349 -19.2698 -23.894714
-14.452349 -20.072706 -23.894718
-11.636643 7.5295944 -38.186848
-11.860485 6.9767561 -36.597427
-13.223599 7.0007296 -26.918459
-13.572174 6.3869052 -24.443357
-13.572174 5.588541 -24.443357
-13.572174 4.790175 -24.443352
-13.572174 3.991818 -24.443352
-13.572174 3.1934559 -24.443356
-13.572174 2.3950899 -24.443352
-13.572174 1.5967288 -24.443356
-13.572174 0.79836166 -24.44335
-13.572174 6.2566789e-07 -24.443354
-13.572174 -0.79836142 -24.443356
-13.572174 -1.5967267 -24.443352
-13.572174 -2.3950877 -24.443356
-13.572174 -3.1934547 -24.44335
-13.572174 -3.9918151 -24.443354
-13.572174 -4.7901769 -24.443356
-13.572174 -5.5885429 -24.443352
-13.572174 -6.3869052 -24.443356
-13.572174 -7.1852713 -24.44335
-13.572174 -7.9836321 -24.443356
-13.572174 -8.7819948 -24.443357
-13.572174 -9.5803604 -24.443354
-13.572174 -10.378722 -24.443357
-13.572174 -11.177089 -24.443352
-13.572174 -11.975451 -24.443356
-13.572174 -12.773811 -24.443359
-13.572174 -13.572175 -24.443352
-13.572174 -14.370536 -24.443356
-13.572174 -15.168902 -24.443352
-13.572174 -15.967264 -24.443354
-13.572174 -16.765625 -24.443357
-13.572174 -17.563992 -24.443354
-13.572174 -18.362354 -24.443356
-13.572174 -19.160719 -24.443352
-13.572174 -19.95908 -24.443354
-10.882668 7.4818325 -38.71093
-11.163976 6.9774871 -36.588619
-12.444641 7.0001101 -26.92675
-12.701908 6.3509569 -24.985817
-12.701908 5.5570827 -24.985815
-12.701908 4.7632141 -24.985817
-12.701908 3.9693446 -24.985815
-12.701908 3.1754763 -24.985815
-12.701908 2.3816087 -24.985817
-12.701908 1.5877411 -24.985817
-12.701908 0.79386866 -24.985821
-12.701908 1.1172713e-06 -24.985821
-12.701908 -0.79387224 -24.985813
-12.701908 -1.5877398 -24.985815
-12.701908 -2.3816073 -24.985815
-12.701908 -3.1754758 -24.985817
-12.701908 -3.9693475 -24.985819
-12.701908 -4.7632151 -24.985821
-12.701908 -5.5570874 -24.985813
-12.701908 -6.3509564 -24.985815
-12.701908 -7.1448231 -24.985817
-12.701908 -7.9386907 -24.985817
-12.701908 -8.7325583 -24.985817
-12.701908 -9.5264311 -24.985821
-12.701908 -10.320304 -24.985813
-12.701908 -11.114171 -24.985815
-12.701908 -11.90804 -24.985817
-12.701908 -12.701909 -24.985817
-12.701908 -13.495777 -24.985819
-12.701908 -14.289644 -24.985819
-12.701908 -15.08352 -24.985813
-12.701908 -15.877388 -24.985815
-12.701908 -16.671255 -24.985815
-12.701908 -17.465126 -24.985817
-12.701908 -18.258993 -24.985819
-12.701908 -19.05286 -24.985819
-12.701908 -19.846737 -24.985813
-12.701908 -20.640604 -24.985815
-10.191545 7.4737988 -38.799107
-10.467289 6.9781938 -36.580074
-11.667098 7.000257 -26.924761
-11.841385 6.3154063 -25.522205
-11.841385 5.5259795 -25.522207
-11.841385 4.7365561 -25.522207
-11.841385 3.9471273 -25.522207
-11.841385 3.1577039 -25.522207
-11.841385 2.3682754 -25.522207
-11.841385 1.5788488 -25.522203
-11.841385 0.78942931 -25.522209
-11.841385 -1.8887488e-07 -25.522209
-11.841385 -0.78942579 -25.522203
-11.841385 -1.5788553 -25.522203
-11.841385 -2.3682749 -25.522209
-11.841385 -3.1577053 -25.522207
-11.841385 -3.9471307 -25.522205
-11.841385 -4.7365494 -25.522209
-11.841385 -5.5259809 -25.522209
-11.841385 -6.3154044 -25.522205
-11.841385 -7.1048331 -25.522203
-11.841385 -7.8942547 -25.522207
-11.841385 -8.6836834 -25.522207
-11.841385 -9.4731092 -25.522205
-11.841385 -10.262535 -25.522202
-11.841385 -11.051959 -25.522209
-11.841385 -11.841385 -25.522205
-11.841385 -12.630814 -25.522205
-11.841385 -13.420235 -25.522209
-11.841385 -14.209661 -25.522207
-11.841385 -14.999089 -25.522205
-11.841385 -15.788516 -25.522203
-11.841385 -16.57794 -25.522209
-11.841385 -17.367367 -25.522207
-11.841385 -18.156794 -25.522205
-11.841385 -18.946215 -25.522209
-11.841385 -19.735641 -25.522209
-11.841385 -20.525068 -25.522205
-9.5266609 7.4852352 -38.673622
-9.7704926 6.9789228 -36.571259
-10.892794 7.002511 -26.894566
-10.990363 6.2802095 -26.053301
-10.990363 5.4951835 -26.053303
-10.990363 4.7101536 -26.053303
-10.990363 3.9251313 -26.053303
-10.990363 3.1401021 -26.053301
-10.990363 2.355078 -26.053297
-10.990363 1.5700538 -26.053303
-10.990363 0.7850256 -26.053303
-10.990363 -3.5302446e-07 -26.053299
-10.990363 -0.78502953 -26.053297
-10.990363 -1.5700487 -26.053303
-10.990363 -2.355078 -26.053301
-10.990363 -3.1401069 -26.053301
-10.990363 -3.925127 -26.053305
-10.990363 -4.7101555 -26.053303
-10.990363 -5.4951797 -26.053299
-10.990363 -6.2802095 -26.053297
-10.990363 -7.0652337 -26.053307
-10.990363 -7.8502588 -26.053301
-10.990363 -8.6352873 -26.053299
-10.990363 -9.4203157 -26.053299
-10.990363 -10.205337 -26.053303
-10.990363 -10.990365 -26.053303
-10.990363 -11.775391 -26.053299
-10.990363 -12.560418 -26.053297
-10.990363 -13.345441 -26.053303
-10.990363 -14.130467 -26.053301
-10.990363 -14.915494 -26.053297
-10.990363 -15.700519 -26.053305
-10.990363 -16.485544 -26.053303
-10.990363 -17.270571 -26.053299
-10.990363 -18.055599 -26.053297
-10.990363 -18.840622 -26.053303
-10.990363 -19.62565 -26.053301
-10.990363 -20.410677 -26.053299
-8.8904266 7.5226688 -38.262821
-9.0735493 6.9796557 -36.56245
-10.117991 7.0047636 -26.864351
-10.148704 6.2453556 -26.579178
-10.148704 5.4646869 -26.579174
-10.148704 4.6840158 -26.579176
-10.148704 3.9033465 -26.57918
-10.148704 3.1226764 -26.579174
-10.148704 2.3420069 -26.579176
-10.148704 1.5613377 -26.579174
-10.148704 0.78066736 -26.579174
-10.148704 2.1793755e-07 -26.579174
-10.148704 -0.78067017 -26.579176
-10.148704 -1.5613403 -26.57918
-10.148704 -2.3420067 -26.579178
-10.148704 -3.1226771 -26.57918
-10.148704 -3.9033501 -26.579172
-10.148704 -4.6840186 -26.579174
-10.148704 -5.464685 -26.579174
-10.148704 -6.2453561 -26.579176
-10.148704 -7.0260272 -26.579178
-10.148704 -7.8066926 -26.579178
-10.148704 -8.5873642 -26.57918
-10.148704 -9.3680305 -26.57918
-10.148704 -10.148706 -26.579174
-10.148704 -10.929372 -26.579174
-10.148704 -11.710043 -26.579176
-10.148704 -12.490711 -26.579176
-10.148704 -13.27138 -26.579178
-10.148704 -14.052048 -26.579178
-10.148704 -14.832719 -26.57918
-10.148704 -15.613394 -26.579174
-10.148704 -16.39406 -26.579174
-10.148704 -17.17473 -26.579176
-10.148704 -17.955399 -26.579176
-10.148704 -18.736067 -26.579178
-10.148704 -19.516735 -26.579178
-10.148704 -20.297405 -26.579182
-8.2847843 7.5943866 -37.475826
-8.3766727 6.9805608 -36.551498
-9.3427229 7.0070443 -26.833786
-9.3163328 6.210886 -27.099249
-9.3163328 5.4345264 -27.099249
-9.3163328 4.658165 -27.099247
-9.3163328 3.8818061 -27.099247
-9.3163328 3.1054442 -27.099245
-9.3163328 2.3290811 -27.099249
-9.3163328 1.55272 -27.099247
-9.3163328 0.77635813 -27.099245
-9.3163328 -9.7936379e-07 -27.099245
-9.3163328 -0.77636003 -27.099245
-9.3163328 -1.5527231 -27.099251
-9.3163328 -2.329083 -27.099253
-9.3163328 -3.1054461 -27.099245
-9.3163328 -3.8818061 -27.099245
-9.3163328 -4.658165 -27.099249
-9.3163328 -5.4345279 -27.099253
-9.3163328 -6.2108912 -27.099245
-9.3163328 -6.9872513 -27.099245
-9.3163328 -7.7636104 -27.099249
-9.3163328 -8.5399685 -27.099249
-9.3163328 -9.3163385 -27.099245
-9.3163328 -10.092696 -27.099245
-9.3163328 -10.869056 -27.099247
-9.3163328 -11.645415 -27.099249
-9.3163328 -12.421777 -27.099251
-9.3163328 -13.19814 -27.099243
-9.3163328 -13.974501 -27.099247
-9.3163328 -14.75086 -27.099249
-9.3163328 -15.527219 -27.099249
-9.3163328 -16.303585 -27.099243
-9.3163328 -17.079945 -27.099245
-9.3163328 -17.856306 -27.099249
-9.3163328 -18.632666 -27.099249
-9.3163328 -19.409023 -27.099251
-9.3163328 -20.18539 -27.099245
-9.3010483 -20.927359 -27.252998
-7.6674819 7.6674814 -36.673687
-7.679883 6.9817119 -36.537601
-8.5669193 7.0092988 -26.803528
-8.5020447 6.1833038 -27.515448
-8.5020447 5.4103894 -27.515446
-8.5020447 4.6374769 -27.51545
-8.5020447 3.8645692 -27.51545
-8.5020447 3.0916536 -27.515448
-8.5020447 2.3187408 -27.515448
-8.5020447 1.5458263 -27.515448
-8.5020447 0.77291363 -27.51545
-8.5020447 1.1499034e-06 -27.515451
-8.5020447 -0.77291554 -27.515446
-8.5020447 -1.5458282 -27.515448
-8.5020447 -2.3187408 -27.51545
-8.5020447 -3.0916495 -27.515448
-8.5020447 -3.864567 -27.515444
-8.5020447 -4.6374793 -27.515446
-8.5020447 -5.4103913 -27.515448
-8.5020447 -6.1833038 -27.51545
-8.5020151 -6.9561963 -27.515772
-8.5020151 -7.7291036 -27.515772
-8.5020151 -8.502017 -27.515774
-8.5020151 -9.2749252 -27.515774
-8.5020151 -10.047837 -27.515776
-8.5020151 -10.820746 -27.515776
-8.5020151 -11.593657 -27.515778
-8.5020151 -12.366567 -27.515778
-8.5020151 -13.139475 -27.515776
-8.5020151 -13.912386 -27.515778
-8.5020151 -14.685295 -27.515779
-8.5020151 -15.458212 -27.515772
-8.5020151 -16.231121 -27.515772
-8.5020151 -17.00403 -27.515774
-8.5020151 -17.776941 -27.515774
-8.5020151 -18.549852 -27.515774
-8.5020151 -19.322762 -27.515774
-8.5020151 -20.095671 -27.515776
-8.4726858 -20.796595 -27.837626
-7.0381818 7.7419987 -35.855953
-6.9828634 6.9828649 -36.523701
-7.790617 7.0115552 -26.773256
-7.7298098 6.1838479 -27.507259
-7.7298098 5.4108682 -27.507259
-7.7298098 4.6378875 -27.507259
-7.7298098 3.8649073 -27.507259
-7.7298098 3.0919268 -27.507259
-7.7298098 2.3189454 -27.507259
-7.7298098 1.5459609 -27.507261
-7.7298098 0.77297926 -27.507257
-7.7298098 8.6118263e-07 -27.507261
-7.7298098 -0.77297956 -27.507261
-7.7298098 -1.545961 -27.507259
-7.7298098 -2.3189414 -27.507259
-7.7298098 -3.0919211 -27.507259
-7.7298098 -3.8649023 -27.507259
-7.7298098 -4.6378865 -27.507263
-7.7298098 -5.4108663 -27.507263
-7.7298098 -6.183847 -27.507261
-7.7298098 -6.9568281 -27.507261
-7.7298098 -7.7298079 -27.507261
-7.7298098 -8.5027895 -27.507261
-7.7298098 -9.2757683 -27.507261
-7.7298098 -10.04875 -27.507261
-7.7298098 -10.821731 -27.507259
-7.7298098 -11.594713 -27.507261
-7.7298098 -12.367693 -27.507261
-7.7298098 -13.140676 -27.507263
-7.7298098 -13.913655 -27.507263
-7.7298098 -14.686637 -27.507263
-7.7298098 -15.459617 -27.507261
-7.7298098 -16.232605 -27.507256
-7.7298098 -17.005585 -27.507254
-7.7298098 -17.778564 -27.507254
-7.7298098 -18.551546 -27.507254
-7.7298098 -19.32453 -27.507256
-7.7298098 -20.097509 -27.507256
-7.7016873 -20.794554 -27.846731
-6.3972931 7.8189149 -35.011921
-6.2855935 6.9839921 -36.510063
-7.0138383 7.0138383 -26.74263
-7.0106368 6.231679 -26.78557
-7.0106368 5.4527164 -26.78557
-7.0106368 4.6737585 -26.785568
-7.0106368 3.8947966 -26.785568
-7.0106368 3.115839 -26.785566
-7.0106368 2.3368802 -26.785564
-7.0106368 1.5579185 -26.785566
-7.0106368 0.77896285 -26.785568
-7.0106368 6.4290077e-08 -26.785568
-7.0106368 -0.77895766 -26.785568
-7.0106368 -1.5579205 -26.785568
-7.0106368 -2.3368781 -26.785566
-7.0106368 -3.11584 -26.785566
-7.0106368 -3.8947978 -26.785566
-7.0106368 -4.6737614 -26.785566
-7.0106368 -5.4527192 -26.785564
-7.0106368 -6.2316809 -26.785564
-7.0106368 -7.0106387 -26.785564
-7.0106368 -7.7895956 -26.785572
-7.0106368 -8.5685539 -26.785568
-7.0106368 -9.347517 -26.78557
-7.010612 -10.126441 -26.785904
-7.010612 -10.905398 -26.7859
-7.010612 -11.684354 -26.785898
-7.010612 -12.463313 -26.785896
-7.010612 -13.242266 -26.785904
-7.010612 -14.021224 -26.785902
-7.010612 -14.800182 -26.7859
-7.010612 -15.579141 -26.785898
-7.010612 -16.358099 -26.785896
-7.010612 -17.137053 -26.785902
-7.010612 -17.91601 -26.7859
-7.010612 -18.694967 -26.7859
-7.010612 -19.473925 -26.785896
-7.010612 -20.252878 -26.785902
-6.9649725 -20.894917 -27.398033
-5.7441044 7.8981452 -34.142471
-5.624845 7.0310559 -35.941967
-6.2354283 7.0148573 -26.728977
-6.7760344 6.7760358 -18.571857
-6.7760344 5.9290309 -18.571857
-6.7760344 5.0820274 -18.571857
-6.7760344 4.235023 -18.571857
-6.7760344 3.3880181 -18.571857
-6.7760344 2.5410137 -18.571856
-6.7760344 1.6940091 -18.571856
-6.7760344 0.84700441 -18.571854
-6.7760344 3.5218414e-07 -18.571856
-6.7760344 -0.84700376 -18.571856
-6.7760344 -1.6940092 -18.571854
-6.7760344 -2.5410137 -18.571854
-6.7760344 -3.3880179 -18.571854
-6.7760344 -4.2350225 -18.571854
-6.7760344 -5.082027 -18.571852
-6.7760344 -5.9290309 -18.571852
-4.9561181 7.0801682 -35.349117
-5.4565792 7.0156045 -26.718983
-6.0012751 6.8586016 -17.326036
-6.0012751 6.0012741 -17.326035
-6.0012751 5.1439514 -17.32604
-6.0012751 4.286624 -17.326038
-6.0012751 3.4292965 -17.326036
-6.0012751 2.5719781 -17.326038
-6.0012751 1.7146505 -17.326036
-6.0012751 0.85732329 -17.326035
-6.0012751 7.8780727e-07 -17.32604
-6.0012751 -0.85732675 -17.326038
-6.0012751 -1.7146503 -17.326035
-6.0012751 -2.5719728 -17.32604
-6.0012751 -3.4293008 -17.326036
-6.0012751 -4.2866282 -17.326035
-6.0012751 -5.1439509 -17.32604
-6.0012751 -6.0012746 -17.326036
-4.2779698 7.1299505 -34.748211
-4.6775646 7.0163455 -26.708984
-5.2947345 7.0596452 -14.292485
-5.2074013 6.0752997 -16.049488
-5.2074013 5.2074041 -16.04949
-5.2074013 4.3395033 -16.049486
-5.2074013 3.4715981 -16.049482
-5.2074013 2.6037025 -16.049486
-5.2074013 1.7357978 -16.049484
-5.2074013 0.86790204 -16.049486
-5.2074013 -3.1122511e-06 -16.049484
-5.2074013 -0.8678984 -16.049488
-5.2074013 -1.7358035 -16.049486
-5.2074013 -2.6036992 -16.049488
-5.2074013 -3.4716003 -16.049484
-5.2074013 -4.3395 -16.04949
-5.2074013 -5.2074008 -16.049484
-5.2074013 -6.0753002 -16.04949
-3.5888951 7.1777902 -34.170731
-3.8983848 7.0170932 -26.698988
-4.411819 7.058908 -14.303584
-4.3936987 6.1511769 -14.741051
-4.3936987 5.2724409 -14.741051
-4.3936987 4.3937006 -14.741052
-4.3936987 3.514955 -14.741046
-4.3936987 2.636219 -14.741046
-4.3936987 1.7574787 -14.741047
-4.3936987 0.87873805 -14.741049
-4.3936987 1.8637079e-06 -14.741048
-4.3936987 -0.87873787 -14.74105
-4.3936987 -1.7574786 -14.741052
-4.3936987 -2.6362193 -14.741053
-4.3936987 -3.5149603 -14.741045
-4.3936987 -4.3937001 -14.741046
-4.3936987 -5.2724409 -14.741048
-4.3936987 -6.1511769 -14.741048
-2.8874683 7.2186685 -33.677254
-3.1190281 7.0178118 -26.689322
-3.5291016 7.0581999 -14.314256
-3.5593991 6.2289457 -13.399947
-3.5593991 5.3391027 -13.399952
-3.5593991 4.4492507 -13.399951
-3.5594134 3.5594149 -13.399518
-3.5594134 2.6695633 -13.399517
-3.5594134 1.7797071 -13.399519
-3.5594134 0.88985491 -13.399517
-3.5594134 3.3013139e-06 -13.399517
-3.5594134 -0.88985288 -13.399518
-3.5594134 -1.779705 -13.399517
-3.5594134 -2.6695576 -13.399516
-3.5594134 -3.5594127 -13.399518
-3.5594134 -4.4492655 -13.399516
-3.5594134 -5.3391171 -13.399515
-3.5594134 -6.2289734 -13.399516
-2.1833701 7.2779021 -32.962296
-2.3395195 7.0185604 -26.679317
-2.6465504 7.0574665 -14.325353
-2.7037442 6.308733 -12.024055
-2.7037442 5.4074898 -12.024058
-2.7037442 4.506238 -12.024055
-2.7037442 3.6049912 -12.02406
-2.7037442 2.703743 -12.024054
-2.7037442 1.802496 -12.024058
-2.7037442 0.90124428 -12.024055
-2.7037442 1.2530721e-06 -12.024058
-2.7037442 -0.90125042 -12.024055
-2.7037442 -1.8024976 -12.024058
-2.7037442 -2.7037406 -12.024061
-2.7037442 -3.6049926 -12.024058
-2.7037442 -4.5062394 -12.024062
-2.7037442 -5.4074874 -12.024057
-2.7037442 -6.3087344 -12.024062
-1.4716393 7.3581982 -31.993032
-1.5598456 7.0193033 -26.669313
-1.7641832 7.0567327 -14.336449
-1.8258841 6.3905959 -10.612464
-1.8258841 5.4776516 -10.612461
-1.8258841 4.5647073 -10.612459
-1.8258841 3.6517684 -10.612464
-1.8258841 2.7388244 -10.612462
-1.8258841 1.8258803 -10.612459
-1.8258841 0.91294497 -10.612463
-1.8258841 1.0660451e-06 -10.61246
-1.8258841 -0.91294289 -10.612457
-1.8258841 -1.8258822 -10.612463
-1.8258841 -2.738826 -10.61246
-1.8258841 -3.6517704 -10.612458
-1.8258841 -4.5647092 -10.612464
-1.8258841 -5.477653 -10.612461
-1.8258841 -6.3905978 -10.612459
-0.74338526 7.4338508 -31.079782
-0.78000569 7.0200496 -26.659307
-0.88199967 7.0559993 -14.347536
-0.92493969 6.4745808 -9.1642218
-0.92494357 5.5496602 -9.1637516
-0.92494357 4.6247187 -9.1637497
-0.92494357 3.6997731 -9.1637506
-0.92494357 2.7748315 -9.1637487
-0.92494357 1.8498861 -9.1637497
-0.92494357 0.92494071 -9.1637506
-0.92494357 -7.5424367e-07 -9.1637487
-0.92494357 -0.92494625 -9.1637497
-0.92494357 -1.8498877 -9.1637478
-0.92494357 -2.7748334 -9.1637487
-0.92494357 -3.699775 -9.1637468
-0.92494357 -4.6247153 -9.1637554
-0.92494357 -5.5496612 -9.1637564
3.095648e-24 7.5126424 -30.128681
-1.6459984e-23 7.0207748 -26.649632
2.1317513e-23 7.0552897 -14.358195
1.7623495e-23 6.5608258 -7.6769238
1.0591562e-23 5.6235642 -7.6769218
-1.0319175e-23 4.6863046 -7.6769309
-2.4628676e-23 3.7490435 -7.67693
-1.5145778e-23 2.8117933 -7.6764431
3.6319456e-24 1.8745284 -7.6764445
-5.3844103e-24 0.93726325 -7.676445
-1.936385e-23 1.9165395e-06 -7.6764436
1.0682344e-24 -0.93726277 -7.6764445
-1.1256844e-23 -1.8745282 -7.6764455
-2.3581922e-23 -2.8117936 -7.6764464
-3.425264e-23 -3.7490585 -7.6764474
-1.3490493e-23 -4.6863236 -7.6764479
-2.6807784e-23 -5.6235886 -7.6764488
0.76001751 7.6001759 -29.07209
0.78016877 7.0215182 -26.639622
0.88181955 7.0545554 -14.369282
0.94991469 6.6494026 -6.1494718
0.94991469 5.6994915 -6.1494746
0.94991469 4.7495713 -6.1494722
0.94991469 3.7996604 -6.1494751
0.94991469 2.8497446 -6.1494699
0.94991469 1.8998294 -6.1494756
0.94991469 0.94991326 -6.1494699
0.94991469 2.1320595e-06 -6.1494727
0.94991469 -0.94991785 -6.1494708
0.94991469 -1.8998288 -6.1494732
0.94991469 -2.849745 -6.1494679
0.94991469 -3.79966 -6.1494737
0.94991469 -4.7495708 -6.1494765
0.94991469 -5.6994872 -6.1494713
1.5396479 7.6982427 -27.888342
1.5605034 7.0222673 -26.629608
1.7634554 7.0538216 -14.380369
1.9258296 6.7404037 -4.5802112
1.9258296 5.7774901 -4.580214
1.9258296 4.8145719 -4.5802093
1.9258296 3.8516586 -4.5802126
1.9258296 2.8887453 -4.5802155
1.9258296 1.9258271 -4.5802107
1.9258296 0.9629178 -4.5802112
1.9258296 -3.6088124e-07 -4.5802064
1.9258296 -0.96291375 -4.5802093
1.9258296 -1.925827 -4.5802126
1.9258296 -2.8887448 -4.5802073
1.9258296 -3.8516583 -4.5802107
1.9258296 -4.8145714 -4.580214
1.9258296 -5.7774897 -4.5802088
2.3396604 7.7988691 -26.673647
2.3410039 7.0230126 -26.619591
2.6449184 7.0531158 -14.391026
2.9288146 6.8339005 -2.9679203
2.9288146 5.8576283 -2.9679217
2.9288275 4.8813772 -2.9673998
2.9288275 3.9051054 -2.9674013
2.9288275 2.9288249 -2.9673977
2.9288275 1.9525532 -2.9673991
2.9288275 0.97627741 -2.9674032
2.9288275 8.0628223e-07 -2.9673967
2.9288275 -0.97627509 -2.9674008
2.9288275 -1.9525508 -2.9674046
2.9288275 -2.9288273 -2.9673982
2.9288275 -3.9051032 -2.9674022
2.9288275 -4.8813801 -2.9673958
2.9288275 -5.8576555 -2.9673998
3.1608651 7.9021645 -25.426779
3.1202104 7.0204735 -26.653635
3.5261903 7.0523806 -14.402102
4.0846047 7.1480608 2.4495335
3.9600332 5.940052 -1.3097436
3.9600332 4.9500442 -1.3097438
3.9600332 3.960032 -1.3097358
3.9600332 2.9700243 -1.309736
3.9600513 1.9800236 -1.309199
3.9600513 0.99001217 -1.3092016
3.9600513 6.6182605e-07 -1.3092042
3.9600513 -0.9900108 -1.3092067
3.9600513 -1.9800273 -1.3092012
3.9600513 -2.9700389 -1.3092039
3.9600513 -3.9600503 -1.3092065
3.9600513 -4.9500666 -1.309201
3.9600513 -5.9400783 -1.3092035
4.927403 -8.6229534 27.883223
4.927403 -9.8548059 27.883223
4.927403 -11.086654 27.883226
4.927403 -12.318504 27.883224
4.927403 -13.550357 27.883224
4.927403 -14.782208 27.883224
4.927403 -16.014061 27.883226
4.927403 -17.245913 27.883228
4.927403 -18.47776 27.883228
4.927403 -19.709614 27.88323
3.9092665 7.0366783 -26.436277
4.407279 7.051651 -14.413187
5.1049509 7.1469302 2.4300997
5.0206866 6.0248246 0.39576918
5.0206866 5.0206876 0.39577106
5.0206866 4.0165496 0.39577278
5.0206866 3.0124123 0.39577466
5.0206866 2.0082746 0.39577651
5.0206866 1.0041381 0.3957679
5.0206866 5.4501561e-07 0.39576977
5.0206866 -1.0041369 0.39577165
5.0206866 -2.0082746 0.39577356
5.0206866 -3.0124121 0.39577541
5.0206866 -4.0165496 0.3957774
5.0206866 -5.0206861 0.39576864
5.0206866 -6.0248237 0.3957707
6.1277099 -8.5787945 27.121685
6.1277099 -9.8043375 27.121689
6.1277099 -11.029877 27.121683
6.1277099 -12.25542 27.121685
6.1277099 -13.480965 27.121689
6.1277099 -14.706503 27.121683
6.1277099 -15.932047 27.121687
6.1277099 -17.157591 27.121689
6.1277099 -18.383131 27.121687
6.1277099 -19.608673 27.121687
4.7361465 7.1042199 -25.530403
5.2881846 7.0509157 -14.424263
6.1249752 7.1458039 2.4106688
6.112052 6.1120543 2.1506696
6.112052 5.0933757 2.1506746
6.112052 4.0747018 2.1506715
6.112052 3.0560279 2.1506681
6.112052 2.037349 2.1506732
6.112052 1.018675 2.1506701
6.112052 1.050587e-06 2.150667
6.112052 -1.0186778 2.1506717
6.112052 -2.0373478 2.150671
6.112052 -3.0560217 2.1506681
6.112052 -4.0747004 2.1506727
6.112052 -5.0933743 2.1506696
6.112052 -6.1120534 2.1506746
7.3159471 -8.5352716 26.371174
7.3159471 -9.7545958 26.37117
7.3159471 -10.973916 26.371168
7.3159471 -12.193245 26.371172
7.3159471 -13.412569 26.371168
7.3159471 -14.631895 26.371176
7.3159471 -15.851219 26.37117
7.3159471 -17.070539 26.37117
7.3159471 -18.289867 26.371172
7.3159471 -19.509192 26.371168
5.5780439 7.1717706 -24.624393
6.1689315 7.0502048 -14.434902
7.1446776 7.1446767 2.3912482
7.2354498 6.2018142 3.9565458
7.2354498 5.1681795 3.9565418
7.2354836 4.1345639 3.9571266
7.2354836 3.1009245 3.9571309
7.2354836 2.0672808 3.9571323
7.2354836 1.0336421 3.9571259
7.2354836 2.5769427e-06 3.95713
7.2354836 -1.0336411 3.9571314
7.2354836 -2.0672848 3.9571331
7.2354836 -3.1009195 3.957129
7.2354836 -4.134563 3.9571304
7.2354836 -5.1682029 3.9571345
7.2354836 -6.2018414 3.9571278
8.49261 -8.4926081 25.635492
8.49261 -9.7058363 25.635494
8.49261 -10.919069 25.635492
8.49261 -12.132298 25.635494
8.49261 -13.34553 25.635492
8.49261 -14.558758 25.635492
8.49261 -15.771986 25.635494
8.49261 -16.985218 25.635492
8.49261 -18.198448 25.635492
8.49261 -19.411674 25.635492
6.4308887 7.2347507 -23.779703
7.0494733 7.0494733 -14.445975
8.1640596 7.1435533 2.3718302
8.3923759 6.2942796 5.8168583
8.3923759 5.245235 5.816853
8.3923759 4.1961851 5.8168559
8.3923759 3.1471443 5.8168535
8.3923759 2.0980949 5.8168564
8.3923759 1.04905 5.8168516
8.392415 1.4469388e-06 5.8174539
8.392415 -1.0490483 5.8174567
8.392415 -2.0981021 5.8174577
8.392415 -3.1471558 5.8174577
8.392415 -4.1962094 5.8174582
8.392415 -5.2452593 5.817461
8.392415 -6.294313 5.817461
9.657568 -8.4503679 24.907133
9.657568 -9.657567 24.907129
9.657568 -10.864762 24.907129
9.657568 -12.071963 24.907139
9.657568 -13.279159 24.907137
9.657568 -14.486355 24.907137
9.657568 -15.69355 24.907139
9.657568 -16.900745 24.907139
9.657568 -18.107941 24.907137
9.657568 -19.315136 24.907139
7.3330693 7.3330722 -22.461008
7.9298325 7.048737 -14.457041
9.1831198 7.1424251 2.3524201
9.5843239 6.3895493 7.7334771
9.5843239 5.3246231 7.733479
9.5843239 4.259697 7.7334809
9.5843239 3.1947751 7.7334752
9.5843239 2.1298492 7.7334771
9.5843239 1.0649233 7.733479
9.5843239 -3.3056326e-06 7.7334814
9.5843239 -1.0649242 7.7334757
9.5843239 -2.1298504 7.7334776
9.5843697 -3.1947904 7.7341037
9.5843697 -4.2597208 7.7341037
9.5843697 -5.3246508 7.7341027
10.810996 -7.2073302 24.185984
10.810996 -8.4085531 24.185989
10.810996 -9.6097746 24.185984
10.810996 -10.810993 24.185984
10.810996 -12.012219 24.185987
10.810996 -13.213437 24.185986
10.810996 -14.41466 24.185982
10.810996 -15.615886 24.185986
10.810996 -16.817104 24.185984
10.810996 -18.018326 24.18598
10.810996 -19.219549 24.185986
10.810996 -20.420771 24.185984
8.2395821 7.4156232 -21.353765
8.810008 7.0480099 -14.468112
10.201859 7.1413002 2.3330123
10.812906 6.4877477 9.7090092
10.812906 5.4064569 9.7090092
10.812906 4.3251619 9.7090168
10.812906 3.2438724 9.7090168
10.812906 2.1625783 9.7090139
10.812906 1.0812883 9.7090139
10.812906 -1.4512677e-06 9.709013
10.812906 -1.0812917 9.7090139
10.812906 -2.1625817 9.709013
10.812906 -3.2438715 9.709012
10.812906 -4.3251615 9.709013
10.812906 -5.4064512 9.709012
11.953065 -7.1718402 23.471939
11.953065 -8.3671446 23.471941
11.953065 -9.5624533 23.471941
11.953065 -10.757761 23.471939
11.953065 -11.953066 23.471943
11.953065 -13.148374 23.471939
11.953065 -14.343673 23.471933
11.953065 -15.538981 23.471933
11.953065 -16.734289 23.471933
11.953065 -17.929594 23.471935
11.953065 -19.124903 23.471933
11.953065 -20.320206 23.471935
9.210948 7.536231 -19.73616
9.6900396 7.0473032 -14.478748
11.220277 7.1401753 2.3136156
12.079781 6.588974 11.745548
12.079781 5.4908113 11.745553
12.079781 4.3926477 11.745557
12.079781 3.2944858 11.745551
12.079842 2.1963348 11.746219
12.079842 1.0981685 11.746209
12.079842 1.3454926e-06 11.746211
12.079842 -1.098166 11.746214
12.079842 -2.1963332 11.746216
12.079842 -3.2945042 11.746215
12.079842 -4.3926716 11.746218
12.079842 -5.4908338 11.746211
13.08394 -7.1366925 22.764887
13.08394 -8.3261433 22.764891
13.08394 -9.5155926 22.764893
13.08394 -10.705037 22.764885
13.08394 -11.89449 22.764885
13.08394 -13.083941 22.764887
13.08394 -14.273391 22.764889
13.08394 -15.46284 22.764891
13.08394 -16.652285 22.764885
13.08394 -17.841734 22.764887
13.08394 -19.031183 22.764887
13.08394 -20.220633 22.764889
10.237706 7.6782799 -17.830944
10.569853 7.0465708 -14.489811
12.238374 7.1390495 2.2942183
13.386884 6.6934452 13.847333
13.386884 5.5778713 13.847333
13.386884 4.4622979 13.847331
13.386884 3.3467233 13.84733
13.386884 2.2311449 13.847337
13.386884 1.1155709 13.847337
13.386884 1.0864001e-06 13.847338
13.386952 -1.1155792 13.848021
13.386952 -2.2311568 13.848017
13.386952 -3.3467348 13.848013
13.386952 -4.4623179 13.848018
13.386952 -5.5778956 13.848014
14.203786 -7.1018915 22.064735
14.203786 -8.2855425 22.064739
14.203786 -9.4691877 22.064732
14.203786 -10.652838 22.064734
14.203786 -11.836488 22.064734
14.203786 -13.020138 22.064735
14.203786 -14.203789 22.064737
14.203786 -15.387433 22.06473
14.203786 -16.571083 22.06473
14.203786 -17.75473 22.064735
14.203786 -18.938379 22.064735
14.203786 -20.12203 22.064735
11.304317 7.8260674 -15.848793
11.454293 7.0487967 -14.456194
13.25615 7.1379275 2.2748344
14.736103 6.8012815 16.016836
14.736103 5.6677327 16.016836
14.736103 4.5341868 16.016838
14.736103 3.4006381 16.016838
14.736103 2.2670934 16.01684
14.736103 1.1335447 16.01684
14.736103 -8.5756028e-08 16.016842
14.736103 -1.1335493 16.016842
14.736103 -2.2670896 16.016836
14.736103 -3.4006383 16.016836
14.736179 -4.5342093 16.017544
14.736179 -5.6677618 16.017542
15.312763 -7.0674329 21.371378
15.312763 -8.2453289 21.371372
15.312763 -9.4232349 21.371372
15.312763 -10.60114 21.371372
15.312763 -11.779046 21.371372
15.312763 -12.956952 21.371372
15.312763 -14.134857 21.371372
15.312763 -15.312759 21.371374
15.312763 -16.490665 21.371374
15.312763 -17.66857 21.371374
15.312763 -18.846476 21.371374
15.312763 -20.024382 21.371374
12.419195 7.983767 -13.733644
12.329473 7.0454135 -14.507253
14.273606 7.1368055 2.2554502
16.129423 6.9126101 18.256668
16.129423 5.7605062 18.256666
16.129509 4.6084337 18.257393
16.129509 3.45632 18.257395
16.129509 2.3042152 18.257391
16.129509 1.1521062 18.257397
16.129509 1.7354168e-06 18.257393
16.129509 -1.1521032 18.257391
16.129509 -2.3042161 18.257393
16.129509 -3.4563203 18.257389
16.129509 -4.6084304 18.257395
16.129509 -5.7605348 18.257391
16.41103 -7.0332966 20.684711
16.41103 -8.205513 20.68471
16.41103 -9.3777304 20.684719
16.41103 -10.549946 20.684715
16.41103 -11.722162 20.684713
16.41103 -12.89438 20.684711
16.41103 -14.066595 20.68471
16.41103 -15.238811 20.684717
16.41103 -16.411028 20.684715
16.41103 -17.583244 20.684713
16.41103 -18.755461 20.684711
16.41103 -19.927677 20.68471
13.209303 7.0449576 -14.514049
15.290743 7.1356783 2.2360744
17.421379 6.9685497 19.382114
17.499016 5.8330064 20.006891
17.499016 4.6664023 20.006895
17.499016 3.4998038 20.006889
17.499016 2.3332 20.006893
17.499016 1.1666014 20.006889
17.499016 -2.5441682e-06 20.006893
17.499016 -1.1665975 20.006891
17.499016 -2.3332014 20.006895
17.499016 -3.4998004 20.006891
17.499016 -4.6664042 20.006895
17.499016 -5.8330035 20.006889
17.499016 -6.9996071 20.006893
17.499016 -8.1662064 20.006889
17.499016 -9.3328085 20.006891
17.499016 -10.499408 20.006887
17.499016 -11.666012 20.006891
17.499016 -12.832611 20.006887
17.499016 -13.999214 20.006891
17.499016 -15.165813 20.006887
17.499016 -16.332413 20.006893
17.499016 -17.499012 20.006889
17.499016 -18.665615 20.006891
17.499016 -19.832218 20.006895
14.26429 7.1321454 -13.198557
16.307558 7.1345592 2.2167032
18.58349 6.9688048 19.387289
18.577707 5.8055372 19.34366
18.577707 4.6444283 19.343664
18.577707 3.4833231 19.343658
18.577707 2.3222141 19.343662
18.577707 1.1611044 19.343664
18.577707 6.8863756e-08 19.34366
18.577707 -1.1611056 19.343666
18.577707 -2.3222094 19.34366
18.577707 -3.4833193 19.343662
18.577707 -4.6444244 19.343658
18.577707 -5.8055339 19.343662
18.577806 -6.9666758 19.3444
18.577806 -8.1277885 19.3444
18.577806 -9.2889023 19.3444
18.577806 -10.450016 19.3444
18.577806 -11.611129 19.3444
18.577806 -12.772243 19.344402
18.577806 -13.933356 19.344404
18.577806 -15.09447 19.344404
18.577806 -16.255583 19.344404
18.577806 -17.416687 19.344398
18.577806 -18.577803 19.3444
18.577806 -19.738914 19.3444
15.370169 7.2330213 -11.676468
17.324053 7.1334348 2.1973403
19.733297 6.9646921 19.304491
19.646389 5.7783484 18.687386
19.646389 4.6226788 18.687387
19.646389 3.4670131 18.68738
19.646389 2.3113432 18.687384
19.646389 1.155673 18.687384
19.646389 -9.8377052e-07 18.687384
19.646389 -1.1556712 18.687384
19.646389 -2.311342 18.687387
19.646389 -3.4670069 18.68738
19.646389 -4.6226778 18.687384
19.646389 -5.7783475 18.687384
19.646389 -6.9340177 18.687386
19.646389 -8.0896921 18.687386
19.646389 -9.2453623 18.687387
19.646389 -10.401027 18.68738
19.646389 -11.556698 18.687384
19.646389 -12.712368 18.687384
19.646389 -13.868038 18.687386
19.646389 -15.023708 18.687387
19.646389 -16.179382 18.687387
19.646389 -17.335047 18.68738
19.646389 -18.490719 18.687384
19.646389 -19.646387 18.687384
19.608303 -20.76173 18.41696
16.520372 7.3423867 -10.026245
18.341757 7.1329079 2.1882353
20.88175 6.9605837 19.221796
20.766521 5.7684798 18.449064
20.766521 4.6147809 18.449064
20.766521 3.4610858 18.449066
20.766521 2.3073912 18.449068
20.766521 1.1536931 18.449066
20.766521 2.7909643e-06 18.44906
20.766521 -1.1536918 18.449062
20.766521 -2.3073907 18.449062
20.766521 -3.4610856 18.449064
20.766521 -4.6147833 18.449062
20.766521 -5.7684779 18.449064
20.766521 -6.922173 18.449066
20.766521 -8.0758715 18.449066
20.766521 -9.2295666 18.449068
20.766521 -10.383256 18.449062
20.766521 -11.536955 18.44906
20.766521 -12.69065 18.449062
20.766521 -13.844344 18.449064
20.766521 -14.998043 18.449062
20.766521 -16.151737 18.449066
20.766521 -17.305437 18.449064
20.766521 -18.459131 18.449066
20.766521 -19.612825 18.44907
20.712791 -20.712795 18.088753
17.916342 7.5437236 -6.988327
19.386496 7.1423922 2.351845
22.028847 6.9564791 19.139204
19.55283 7.8211336 -2.8025522
20.433924 7.151875 2.5153208
23.345135 7.0035415 20.086033
21.484234 7.1614113 2.679806
25.306435 7.2304091 24.650295
22.498093 7.1584854 2.6293182
26.52951 7.235322 24.749092
23.721386 7.2195506 3.682405
27.754246 7.2402382 24.848026
25.889053 7.5509748 9.3975554
28.98065 7.2451673 24.947098
30.229298 7.2550287 25.145636
