# .PCD v0.7 - Point Cloud Data file format
VERSION 0.7
FIELDS x y z
SIZE 4 4 4
TYPE F F F
COUNT 1 1 1
WIDTH 1491
HEIGHT 1
VIEWPOINT 0 0 0 1 0 0 0
POINTS 1491
DATA ascii
-85.102707 -25.728724 -12.87561
-85.108238 -27.709646 -12.860104
-85.114128 -29.690969 -12.843554
-85.119652 -31.672432 -12.828033
-85.125175 -33.65414 -12.812529
-85.131081 -35.636265 -12.795968
-85.136604 -37.6185 -12.780442
-85.142136 -39.600983 -12.764932
-85.147659 -41.58374 -12.749405
-85.153564 -43.56694 -12.73284
-85.159096 -45.550213 -12.717308
-85.164627 -47.533741 -12.701777
-85.170166 -49.517536 -12.686247
-85.176071 -51.501804 -12.669673
-85.181602 -53.486122 -12.654142
-85.187141 -55.470688 -12.638606
-85.193039 -57.455769 -12.622027
-85.19857 -59.440872 -12.606474
-85.204117 -61.42622 -12.590938
-85.209656 -63.411839 -12.57538
-85.215569 -65.397987 -12.558795
-85.2211 -67.384125 -12.543257
-85.226639 -69.370522 -12.527699
-85.232185 -71.357178 -12.51214
-85.23735 -73.343773 -12.497624
-85.242531 -75.330605 -12.483097
-85.247696 -77.317673 -12.468579
-85.252876 -79.305 -12.454055
-85.258057 -81.292564 -12.439518
-85.263229 -83.280365 -12.424987
-85.268394 -85.268402 -12.410467
-85.273216 -87.256302 -12.39697
-75.81266 14.440516 -33.887642
-75.349281 12.558209 -35.219429
-75.349579 10.764227 -35.218571
-78.430504 9.3369732 -26.363804
-78.430504 7.4695745 -26.363806
-78.430504 5.6021829 -26.3638
-78.430504 3.7347929 -26.363796
-78.430824 1.8673991 -26.362873
-78.430824 4.1392138e-07 -26.362873
-78.430824 -1.8673983 -26.362875
-78.430824 -3.734797 -26.362875
-78.430824 -5.6021957 -26.362877
-78.430824 -7.4695945 -26.362879
-78.430824 -9.3370008 -26.362885
-83.440277 -11.92004 -11.965389
-83.445717 -13.907622 -11.949757
-83.451515 -15.895528 -11.933079
-83.456955 -17.883638 -11.91745
-83.462395 -19.871996 -11.901812
-83.468201 -21.86072 -11.885133
-83.47364 -23.849606 -11.869498
-83.479088 -25.838768 -11.85385
-83.484528 -27.828173 -11.838215
-83.490334 -29.817972 -11.821531
-83.495773 -31.807917 -11.805882
-83.501221 -33.798119 -11.790232
-83.506668 -35.78857 -11.774576
-83.512474 -37.779446 -11.757889
-83.517929 -39.770439 -11.742219
-83.523003 -41.761505 -11.72761
-83.528091 -43.752815 -11.712991
-83.53318 -45.744358 -11.698376
-83.538261 -47.736156 -11.683757
-83.542992 -49.727966 -11.670184
-83.54808 -51.720238 -11.655559
-83.553169 -53.712746 -11.640942
-83.558258 -55.705498 -11.626314
-83.563347 -57.698502 -11.61168
-83.568436 -59.691738 -11.597052
-83.573158 -61.684948 -11.583469
-83.578247 -63.678665 -11.568836
-83.583351 -65.67263 -11.554198
-83.58844 -67.666824 -11.539564
-83.593529 -69.66127 -11.524923
-83.598625 -71.655968 -11.510274
-83.603722 -73.650902 -11.495634
-83.608452 -75.645744 -11.482045
-83.613548 -77.641151 -11.467396
-83.618637 -79.636803 -11.452741
-83.623734 -81.632698 -11.438097
-83.628838 -83.628838 -11.423445
-83.633934 -85.625221 -11.408796
-71.40062 13.931828 -41.562992
-71.400894 12.190394 -41.562187
-71.401169 10.448955 -41.561394
-74.310303 9.0622377 -32.996422
-74.310303 7.2497873 -32.996422
-74.310303 5.4373379 -32.996422
-74.310303 3.6248963 -32.996414
-74.310303 1.8124456 -32.996414
-74.310303 -4.8538941e-06 -32.996414
-74.310303 -1.8124365 -32.996426
-74.310303 -3.6248851 -32.996426
-74.310303 -5.437335 -32.996426
-74.3106 -7.2498198 -32.995548
-74.3106 -9.0622692 -32.995544
-81.802231 -11.971064 -10.938968
-81.807228 -13.967087 -10.924263
-81.812225 -15.963356 -10.909551
-81.817223 -17.959873 -10.894829
-81.82222 -19.956638 -10.880121
-81.827225 -21.95364 -10.865399
-81.831863 -23.950794 -10.851718
-81.836868 -25.948271 -10.837012
-81.841866 -27.946003 -10.822282
-81.84687 -29.943975 -10.80756
-81.851868 -31.94219 -10.792828
-81.856873 -33.940659 -10.77809
-81.861877 -35.939358 -10.763357
-81.866524 -37.938141 -10.74969
-81.871529 -39.937321 -10.734954
-81.876534 -41.936752 -10.720213
-81.881538 -43.936436 -10.705465
-81.886543 -45.936356 -10.690724
-81.891556 -47.93652 -10.675998
-81.896202 -49.936703 -10.662297
-81.901207 -51.937351 -10.647548
-81.906219 -53.93824 -10.632808
-81.911232 -55.939377 -10.618057
-81.916245 -57.940758 -10.603299
-81.921249 -59.942383 -10.588553
-81.926262 -61.944252 -10.573795
-81.930916 -63.946079 -10.560098
-81.935928 -65.948425 -10.545339
-81.940941 -67.951027 -10.530573
-81.945961 -69.953865 -10.515816
-81.950974 -71.956947 -10.501047
-81.955986 -73.960274 -10.486292
-81.960999 -75.963852 -10.471527
-81.96566 -77.967331 -10.457813
-81.97068 -79.971397 -10.443033
-81.975693 -81.9757 -10.428261
-81.980713 -83.98024 -10.413495
-81.985733 -85.985031 -10.398722
-67.676971 13.535398 -47.544754
-67.677216 11.843512 -47.543991
-67.739624 10.160944 -47.355663
-70.425644 8.8032093 -39.249889
-70.425644 7.0425715 -39.249886
-70.425644 5.2819176 -39.249874
-70.425644 3.5212815 -39.249874
-70.425644 1.7606374 -39.249882
-70.425644 1.1099334e-06 -39.249874
-70.425644 -1.760643 -39.249882
-70.425644 -3.5212789 -39.249882
-70.425644 -5.2819238 -39.249886
-70.425644 -7.0425601 -39.249886
-70.425644 -8.8032036 -39.249889
-64.159363 13.160895 -53.195496
-64.159592 11.515824 -53.194778
-64.528702 9.9274988 -52.052357
-66.75663 8.5585508 -45.15657
-66.75663 6.8468313 -45.156563
-66.75663 5.1351295 -45.156563
-66.75663 3.4234202 -45.15657
-66.75663 1.7117085 -45.156555
-66.75663 -8.629271e-07 -45.156563
-66.75663 -1.7117021 -45.15657
-66.75663 -3.4234235 -45.156559
-66.75663 -5.1351233 -45.156563
-66.75663 -6.8468328 -45.15657
-66.756882 -8.5585709 -45.155788
-61.525112 14.571736 -56.337605
-60.831383 12.806611 -58.54129
-60.831383 11.205784 -58.541283
-62.877758 9.9280653 -52.040779
-63.286282 8.3271418 -50.743069
-63.286282 6.661715 -50.743061
-63.286282 4.9962888 -50.743073
-63.286282 3.330862 -50.743065
-63.286282 1.6654257 -50.743061
-63.286282 1.1602009e-06 -50.743076
-63.286282 -1.6654272 -50.743065
-63.286282 -3.3308637 -50.743061
-63.286282 -4.9962783 -50.743069
-63.286282 -6.661715 -50.743065
-63.286282 -8.3271332 -50.743073
-57.67749 14.029654 -63.608093
-57.67749 12.470811 -63.608089
-57.677689 10.912001 -63.607452
-59.998436 9.7294779 -56.036129
-59.998436 8.1078959 -56.036133
-59.998436 6.4863162 -56.036125
-59.998436 4.8647366 -56.036133
-59.998436 3.2431567 -56.036121
-59.998436 1.6215749 -56.036125
-59.998436 2.7276201e-06 -56.036121
-59.998436 -1.6215771 -56.036129
-59.998436 -3.2431607 -56.036137
-59.998436 -4.8647327 -56.036133
-59.998436 -6.4863148 -56.036137
-59.998646 -8.1079235 -56.035446
-59.998646 -9.7295151 -56.035435
-54.684948 13.671235 -68.415375
-54.684948 12.152212 -68.415359
-54.685131 10.633219 -68.414772
-56.879475 9.4799166 -61.056965
-56.879475 7.8999295 -61.056957
-56.879475 6.3199453 -61.056957
-56.879475 4.7399545 -61.056961
-56.879475 3.1599703 -61.056961
-56.879475 1.5799897 -61.056965
-56.879475 7.0221072e-06 -61.056965
-56.879475 -1.5799915 -61.056961
-56.879475 -3.159972 -61.056961
-56.879475 -4.7399549 -61.056961
-56.879475 -6.3199372 -61.056961
-56.879475 -7.89992 -61.056961
-56.879475 -9.4799109 -61.056969
-51.841499 13.330671 -72.983139
-51.841499 11.849484 -72.983131
-51.841663 10.368336 -72.982559
-53.916332 9.2428007 -65.827286
-53.916332 7.7023349 -65.827293
-53.916332 6.1618652 -65.827286
-53.916332 4.621398 -65.827293
-53.916332 3.0809324 -65.827293
-53.916332 1.5404689 -65.827286
-53.916332 1.6934666e-06 -65.827286
-53.916332 -1.5404623 -65.827293
-53.916332 -3.0809336 -65.827286
-53.916332 -4.6213975 -65.827293
-53.916332 -6.1618648 -65.827293
-53.916332 -7.7023358 -65.827293
-53.916515 -9.2428322 -65.826668
-49.906731 14.678449 -74.593498
-49.136272 13.006662 -77.328865
-49.136272 11.56148 -77.328865
-49.136429 10.116324 -77.328316
-50.906082 8.983428 -71.045486
-50.918251 7.4879823 -71.002281
-50.930428 5.9918146 -70.959061
-50.942608 4.4949379 -70.91581
-50.954628 2.9973326 -70.873131
-50.96682 1.4990225 -70.829849
-50.979019 1.340798e-06 -70.78653
-50.991226 -1.4997436 -70.743195
-51.003433 -3.0002024 -70.699852
-51.015484 -4.5013604 -70.657074
-51.02771 -6.0032544 -70.613678
-51.039936 -7.5058737 -70.570267
-51.05217 -9.0091991 -70.526833
-51.064411 -10.513262 -70.483383
-51.076485 -12.018001 -70.440498
-51.088737 -13.523489 -70.396996
-51.100994 -15.02971 -70.353477
-51.113258 -16.53664 -70.309944
-51.125526 -18.044306 -70.26638
-51.136456 -19.552174 -70.227577
-51.146889 -21.060488 -70.190544
-51.15749 -22.569475 -70.152916
-51.168095 -24.079103 -70.11525
-51.178707 -25.58935 -70.077583
-51.189152 -27.100138 -70.040497
-47.802883 14.485724 -76.919937
-47.644112 12.99385 -77.500702
-47.644112 11.550087 -77.500694
-47.644112 10.106322 -77.500702
-48.21772 8.76686 -75.402504
-48.228504 7.3073573 -75.363052
-48.239296 5.847187 -75.323578
-48.250244 4.3863888 -75.283516
-48.261051 2.9249139 -75.244011
-48.272007 1.4627832 -75.203918
-48.282818 2.6719424e-06 -75.164368
-48.293793 -1.4634461 -75.124237
-48.304611 -2.9275501 -75.084656
-48.315594 -4.392323 -75.044495
-48.326424 -5.8577442 -75.004875
-48.33741 -7.323853 -74.964676
-48.348255 -8.790597 -74.925018
-48.359253 -10.258021 -74.884781
-48.370102 -11.726086 -74.845093
-48.381115 -13.194848 -74.804817
-48.391975 -14.664236 -74.765091
-48.402996 -16.134333 -74.724785
-48.413864 -17.605042 -74.68502
-48.424896 -19.076473 -74.644669
-48.435776 -20.548508 -74.604874
-48.446659 -22.02121 -74.565063
-48.457706 -23.494642 -74.524666
-48.468597 -24.968672 -74.484802
-48.479656 -26.443453 -74.444359
-48.490559 -27.91881 -74.40448
-48.501625 -29.394918 -74.364006
-48.512539 -30.871613 -74.324081
-48.523613 -32.349075 -74.283569
-48.534534 -33.827106 -74.243614
-48.54562 -35.305901 -74.203072
-48.556553 -36.785275 -74.163063
-48.567654 -38.265423 -74.122482
-48.578598 -39.74612 -74.082451
-48.589703 -41.227623 -74.041824
-48.600655 -42.709667 -74.001747
-48.611771 -44.192516 -73.961105
-48.622738 -45.6759 -73.920998
-48.633705 -47.159954 -73.880875
-48.644833 -48.644836 -73.840149
-48.655811 -50.130234 -73.799995
-48.666954 -51.616459 -73.759254
-48.67794 -53.10321 -73.719063
-48.689095 -54.590805 -73.678261
-48.700092 -56.078899 -73.638023
-48.71125 -57.567841 -73.597206
-48.722263 -59.057289 -73.556931
-48.733433 -60.547596 -73.516075
-48.744453 -62.038399 -73.475761
-48.755634 -63.530075 -73.434853
-48.766663 -65.022217 -73.394516
-48.777855 -66.515259 -73.353577
-48.788891 -68.008759 -73.313202
-48.800095 -69.503166 -73.272232
-48.811146 -70.998024 -73.231819
-48.822197 -72.493568 -73.191368
-46.581394 14.556686 -76.063324
-46.403992 13.051117 -76.732521
-46.403992 11.601 -76.732521
-46.40414 10.150907 -76.731964
-46.90374 8.7944508 -74.847366
-46.906898 7.3292041 -74.835457
-46.910053 5.8637567 -74.823547
-46.913067 4.3981028 -74.812195
-46.916222 2.9322646 -74.800278
-46.91938 1.4662309 -74.788361
-46.92239 -3.031987e-07 -74.777016
-46.925552 -1.4664162 -74.765099
-46.928711 -2.9330468 -74.753174
-46.931721 -4.3998442 -74.741814
-46.934883 -5.8668642 -74.729897
-46.938046 -7.3340688 -74.717972
-46.941055 -8.801445 -74.706612
-46.944218 -10.269046 -74.694679
-46.94738 -11.736845 -74.682747
-46.950394 -13.204797 -74.671387
-46.953556 -14.672988 -74.659447
-46.956718 -16.141373 -74.647514
-46.959736 -17.6099 -74.636154
-46.962898 -19.078678 -74.624207
-46.966064 -20.547653 -74.612267
-46.969078 -22.016754 -74.600899
-46.972248 -23.486122 -74.588951
-46.975414 -24.955688 -74.577011
-46.978428 -26.425364 -74.565628
-46.981594 -27.895325 -74.55368
-46.984764 -29.365479 -74.541733
-46.987778 -30.835732 -74.53035
-46.990952 -32.306278 -74.518394
-46.994118 -33.777023 -74.506439
-46.997139 -35.247856 -74.495049
-47.000305 -36.718983 -74.483101
-47.003475 -38.190315 -74.471146
-47.006496 -39.661732 -74.459747
-47.00967 -41.133461 -74.447777
-47.01284 -42.605389 -74.435822
-47.015862 -44.077366 -74.424423
-47.019035 -45.54969 -74.41246
-47.022205 -47.022205 -74.40049
-47.025227 -48.49477 -74.389091
-47.028404 -49.967678 -74.377113
-47.031574 -51.440788 -74.36515
-47.034599 -52.913933 -74.353737
-47.037773 -54.387428 -74.341759
-47.040947 -55.86113 -74.329788
-47.043972 -57.334839 -74.318375
-47.04715 -58.808933 -74.306396
-47.050327 -60.283234 -74.294403
-47.053352 -61.757519 -74.283005
-47.056683 -63.232414 -74.270439
-47.05986 -64.707306 -74.258446
-47.063187 -66.18261 -74.245895
-47.066364 -67.657906 -74.233902
-47.069698 -69.133621 -74.221336
-47.072876 -70.609314 -74.209351
-47.07621 -72.085442 -74.196785
-45.34803 14.628394 -75.197701
-45.153038 13.10895 -75.956985
-45.153038 11.652399 -75.956985
-45.153038 10.195847 -75.956985
-45.638405 8.8332443 -74.067009
-45.641491 7.3615317 -74.054985
-45.644577 5.8896241 -74.042969
-45.647514 4.4175005 -74.031525
-45.650604 2.9452021 -74.019508
-45.653694 1.4727026 -74.007484
-45.656628 3.4443381e-06 -73.996033
-45.659718 -1.4728918 -73.984009
-45.662807 -2.9459848 -73.971977
-45.665749 -4.4192595 -73.960526
-45.668839 -5.8927531 -73.948502
-45.671932 -7.3664389 -73.936462
-45.674873 -8.8402967 -73.925003
-45.677959 -10.31438 -73.912971
-45.681053 -11.788653 -73.900932
-45.683998 -13.263098 -73.889465
-45.687092 -14.737767 -73.877434
-45.690186 -16.212641 -73.865387
-45.693127 -17.68766 -73.853928
-45.69622 -19.162931 -73.841881
-45.699314 -20.638395 -73.829834
-45.702259 -22.113998 -73.818359
-45.705353 -23.589857 -73.806305
-45.70845 -25.06592 -73.794266
-45.711399 -26.542095 -73.782784
-45.714493 -28.018559 -73.770729
-45.71759 -29.495218 -73.758667
-45.720535 -30.971983 -73.747192
-45.723637 -32.449036 -73.73513
-45.726734 -33.926285 -73.723068
-45.729679 -35.403629 -73.711578
-45.73278 -36.881268 -73.699524
-45.735878 -38.359123 -73.687454
-45.738831 -39.83704 -73.675964
-45.741928 -41.315289 -73.663902
-45.745026 -42.793739 -73.651825
-45.747982 -44.27224 -73.640335
-45.75108 -45.751083 -73.62825
-45.754185 -47.230118 -73.616188
-45.757137 -48.709209 -73.604691
-45.760239 -50.188652 -73.592606
-45.763336 -51.668285 -73.580513
-45.766293 -53.147961 -73.569016
-45.769398 -54.627998 -73.556923
-45.772503 -56.108227 -73.544846
-45.775459 -57.588486 -73.533333
-45.778561 -59.069103 -73.521255
-45.781666 -60.549946 -73.509155
-45.784775 -62.030979 -73.497063
-45.787727 -63.512012 -73.48555
-45.790833 -64.993446 -73.473465
-45.793941 -66.475075 -73.461372
-45.79705 -67.956909 -73.449272
-45.800007 -69.438721 -73.437744
-45.803116 -70.920944 -73.425652
-45.806221 -72.403381 -73.413544
-44.102448 14.700817 -74.323517
-43.890808 13.167241 -75.17511
-43.890808 11.704209 -75.175102
-43.890945 10.241224 -75.174538
-44.361858 8.8723755 -73.279732
-44.364868 7.3941445 -73.267616
-44.367886 5.9157152 -73.255493
-44.370754 4.4370761 -73.243942
-44.373768 2.9582539 -73.231812
-44.376781 1.4792287 -73.219681
-44.37965 2.3878279e-06 -73.20813
-44.382668 -1.4794252 -73.195999
-44.385681 -2.9590456 -73.183868
-44.388554 -4.4388552 -73.17231
-44.391571 -5.9188728 -73.160164
-44.394588 -7.3990955 -73.148033
-44.397461 -8.8794937 -73.136482
-44.400478 -10.360113 -73.124336
-44.4035 -11.840929 -73.11219
-44.406372 -13.321907 -73.100624
-44.409389 -14.803131 -73.088478
-44.412411 -16.28455 -73.076332
-44.415283 -17.766113 -73.064758
-44.418304 -19.247931 -73.052605
-44.421326 -20.72995 -73.040451
-44.424202 -22.212101 -73.028877
-44.427223 -23.694513 -73.016724
-44.430244 -25.177145 -73.004555
-44.433121 -26.659874 -72.992981
-44.436146 -28.142891 -72.980827
-44.439167 -29.626114 -72.968651
-44.442047 -31.109436 -72.957077
-44.445068 -32.593044 -72.944916
-44.448093 -34.07687 -72.932747
-44.451118 -35.560902 -72.92057
-44.454002 -37.044994 -72.908981
-44.457027 -38.529415 -72.896812
-44.460052 -40.014046 -72.884636
-44.462933 -41.498734 -72.873047
-44.465958 -42.983765 -72.860863
-44.468983 -44.468987 -72.848686
-44.472015 -45.954414 -72.836494
-44.474895 -47.439884 -72.824905
-44.477921 -48.925724 -72.812714
-44.480953 -50.411751 -72.800529
-44.483982 -51.89798 -72.788345
-44.486866 -53.384239 -72.776741
-44.489895 -54.870869 -72.764549
-44.492924 -56.357708 -72.752357
-44.495811 -57.844555 -72.740746
-44.49884 -59.331791 -72.728539
-44.501877 -60.819225 -72.716347
-44.504906 -62.306866 -72.70414
-44.507793 -63.794502 -72.692528
-44.510826 -65.282555 -72.680321
-44.513859 -66.770798 -72.668114
-44.516895 -68.259232 -72.655922
-44.519783 -69.747658 -72.644287
-44.522816 -71.236504 -72.632088
-44.525852 -72.725555 -72.619881
-42.844475 14.773959 -73.440628
-42.617432 13.226098 -74.385674
-42.617432 11.756536 -74.385681
-42.617432 10.286969 -74.385681
-43.073948 8.9118519 -72.485458
-43.076889 7.4270468 -72.473228
-43.079689 5.9420271 -72.461571
-43.082626 4.4568214 -72.449341
-43.085564 2.9714184 -72.437103
-43.088367 1.4858109 -72.425453
-43.091305 2.1394267e-06 -72.413223
-43.094246 -1.4860051 -72.40097
-43.097046 -2.9722052 -72.389313
-43.099987 -4.4586139 -72.377075
-43.102928 -5.9452305 -72.364838
-43.105869 -7.4320512 -72.352585
-43.108673 -8.9190388 -72.340919
-43.111614 -10.406249 -72.328667
-43.114563 -11.893669 -72.316414
-43.117504 -13.381297 -72.304161
-43.120308 -14.869073 -72.292488
-43.123253 -16.357098 -72.280235
-43.126198 -17.845318 -72.267982
-43.129143 -19.333752 -72.255722
-43.131947 -20.822317 -72.244041
-43.134895 -22.31115 -72.231781
-43.13784 -23.800186 -72.219513
-43.140644 -25.289345 -72.207832
-43.143597 -26.778784 -72.195557
-43.146542 -28.268423 -72.183289
-43.14949 -29.758268 -72.171021
-43.152298 -31.248213 -72.15934
-43.155247 -32.738461 -72.147057
-43.158195 -34.228912 -72.134789
-43.161148 -35.719563 -72.122505
-43.163956 -37.210308 -72.110817
-43.166904 -38.701363 -72.098526
-43.169857 -40.192619 -72.08625
-43.172668 -41.683952 -72.074547
-43.175621 -43.175625 -72.062256
-43.178574 -44.667492 -72.049965
-43.181522 -46.159561 -72.037682
-43.184338 -47.651676 -72.025978
-43.18729 -49.144157 -72.01368
-43.190243 -50.636837 -72.001381
-43.193199 -52.129723 -71.989098
-43.196011 -53.622635 -71.977379
-43.198967 -55.115917 -71.965088
-43.20192 -56.609406 -71.952782
-43.204876 -58.103115 -71.940475
-43.207695 -59.596813 -71.928757
-43.210651 -61.090919 -71.916443
-43.213608 -62.585224 -71.904144
-43.216423 -64.079514 -71.892426
-43.235725 -65.59903 -71.81208
-43.238827 -67.094727 -71.799164
-43.241787 -68.590424 -71.786835
-43.244888 -70.086548 -71.773926
-43.247849 -71.582649 -71.761597
-43.250954 -73.079193 -71.748695
-41.573921 14.847838 -72.548912
-41.332497 13.285447 -73.589729
-41.332497 11.809289 -73.589729
-41.33263 10.333156 -73.589157
-41.815319 8.9604244 -71.508232
-41.813816 7.4667525 -71.514694
-41.813816 5.9733992 -71.514702
-41.813816 4.4800553 -71.514702
-41.813816 2.9867015 -71.514702
-41.813816 1.4933542 -71.514702
-41.813816 9.4347206e-07 -71.514694
-41.813816 -1.4933528 -71.514702
-41.813816 -2.9866967 -71.514694
-41.813816 -4.4800539 -71.514702
-41.813816 -5.9733977 -71.514702
-41.813816 -7.4667554 -71.514702
-41.814503 -8.960248 -71.511757
-40.036102 13.345372 -72.786018
-40.036102 11.862556 -72.786026
-40.036102 10.379731 -72.786026
-40.503925 9.0008688 -70.694511
-40.806995 7.5568523 -69.339539
-40.806995 6.0454807 -69.339546
-40.806995 4.5341091 -69.339546
-40.806995 3.0227411 -69.339539
-40.806995 1.5113693 -69.339546
-40.806995 -2.4050955e-06 -69.339546
-40.806995 -1.5113684 -69.339539
-40.806995 -3.0227423 -69.339539
-40.806995 -4.5341105 -69.339546
-40.806995 -6.0454764 -69.339539
-40.806995 -7.5568485 -69.339539
-40.502995 -9.0006618 -70.698662
-38.727837 13.405794 -71.975624
-38.727962 11.916297 -71.975044
-38.727962 10.426765 -71.975037
-39.180508 9.0416527 -69.874008
-39.473705 7.5910997 -68.512772
-39.473705 6.0728812 -68.512772
-39.473705 4.5546589 -68.512772
-39.473705 3.0364408 -68.512779
-39.473705 1.518217 -68.512772
-39.473705 2.1716364e-06 -68.512779
-39.473705 -1.5182219 -68.512779
-39.473705 -3.036432 -68.512772
-39.473705 -4.554656 -68.512772
-39.473705 -6.0728769 -68.512772
-39.473705 -7.591095 -68.512772
-39.179733 -9.0414772 -69.877594
-37.407795 13.466803 -71.157257
-37.407795 11.970498 -71.157257
-37.407795 10.474183 -71.157265
-37.845043 9.0828104 -69.046028
-38.128147 7.6256299 -67.679092
-38.128147 6.100503 -67.679092
-38.128147 4.5753779 -67.679085
-38.128147 3.0502493 -67.679085
-38.128147 1.52513 -67.679092
-38.128147 4.7158605e-06 -67.679092
-38.128147 -1.5251238 -67.679092
-38.128147 -3.0502491 -67.679092
-38.128147 -4.5753741 -67.679092
-38.128147 -6.1005049 -67.679085
-38.128147 -7.6256242 -67.679092
-37.844292 -9.082634 -69.04966
-36.075558 13.528332 -70.332008
-36.07568 12.025226 -70.331421
-36.07568 10.522069 -70.331413
-36.497364 9.1243439 -68.210495
-36.77029 7.6604772 -66.837791
-36.77029 6.1283865 -66.837784
-36.77029 4.5962906 -66.837791
-36.77029 3.0641904 -66.837791
-36.77029 1.5320964 -66.837784
-36.77029 6.4147571e-07 -66.837791
-36.77029 -1.5320998 -66.837784
-36.77029 -3.0641878 -66.837784
-36.77029 -4.5962863 -66.837784
-36.77029 -6.1283841 -66.837791
-36.77029 -7.6604762 -66.837784
-36.496761 -9.1241884 -68.213547
-34.731213 13.590476 -69.498581
-34.731213 12.080422 -69.498589
-34.731213 10.570371 -69.498589
-35.137424 9.1662874 -67.366653
-35.399967 7.6956429 -65.988762
-35.399967 6.1565175 -65.988754
-35.399967 4.6173897 -65.988762
-35.399967 3.078258 -65.988762
-35.399967 1.5391322 -65.988762
-35.399967 -3.0190545e-06 -65.988762
-35.399967 -1.539133 -65.988762
-35.399967 -3.0782523 -65.988762
-35.399967 -4.6173825 -65.988762
-35.399967 -6.1565175 -65.988754
-35.399967 -7.6956434 -65.988762
-35.136723 -9.1660995 -67.370346
-33.374344 13.653146 -68.658073
-33.374454 12.13617 -68.657463
-33.374454 10.619149 -68.657463
-33.764812 9.2085876 -66.515648
-34.01712 7.7311654 -65.131264
-34.01712 6.184936 -65.131271
-34.01712 4.6387019 -65.131264
-34.01712 3.0924728 -65.131271
-34.01712 1.5462292 -65.131271
-34.01712 -1.7003299e-07 -65.131279
-34.01712 -1.5462356 -65.131271
-34.01712 -3.0924616 -65.131271
-34.01712 -4.6386971 -65.131271
-34.01712 -6.1849265 -65.131271
-34.01712 -7.7311621 -65.131271
-33.764244 -9.2084303 -66.518761
-32.005013 13.716439 -67.809166
-32.005013 12.192389 -67.809166
-32.005013 10.668338 -67.809158
-32.379471 9.2512789 -65.656754
-32.621334 7.7669897 -64.266464
-32.621334 6.2135916 -64.266464
-32.621334 4.6601882 -64.266464
-32.621334 3.1067965 -64.266464
-32.621334 1.5533969 -64.266472
-32.621334 3.1091326e-06 -64.266464
-32.621334 -1.5533952 -64.266464
-32.621334 -3.1067946 -64.266464
-32.621334 -4.6601887 -64.266464
-32.621334 -6.2135859 -64.266472
-32.621334 -7.7669797 -64.266464
-32.379028 -9.2511511 -65.659256
-30.622826 13.780276 -66.952965
-30.622927 12.249175 -66.952339
-30.622927 10.718027 -66.952354
-30.98122 9.294364 -64.789856
-31.212557 7.8031435 -63.393612
-31.212557 6.2425113 -63.393608
-31.212557 4.6818833 -63.393612
-31.212557 3.1212585 -63.393616
-31.212557 1.5606261 -63.393612
-31.212557 -5.3919871e-07 -63.393612
-31.212557 -1.5606207 -63.393608
-31.212557 -3.1212513 -63.393604
-31.212557 -4.6818795 -63.393608
-31.212557 -6.242506 -63.393612
-31.212557 -7.8031397 -63.393608
-30.980803 -9.29424 -64.792389
-29.22781 13.844752 -66.088135
-29.22781 12.306451 -66.088135
-29.22781 10.76814 -66.088135
-29.569988 9.3378935 -63.914204
-29.790606 7.839632 -62.512596
-29.790606 6.2717061 -62.512592
-29.790606 4.7037768 -62.512585
-29.790606 3.1358554 -62.512592
-29.790606 1.567928 -62.512589
-29.790606 -3.1356906e-06 -62.512585
-29.790606 -1.5679229 -62.512592
-29.790606 -3.1358507 -62.512585
-29.790606 -4.7037735 -62.512592
-29.790606 -6.2717013 -62.512585
-29.790606 -7.8396244 -62.512596
-29.569586 -9.3377647 -63.916752
-27.819584 13.909793 -65.215805
-27.819677 12.364298 -65.215172
-27.819677 10.818769 -65.215164
-28.14538 9.381793 -63.030964
-28.355385 7.8764997 -61.622639
-28.355385 6.3011966 -61.622639
-28.355385 4.7259035 -61.622635
-28.355385 3.1506007 -61.622635
-28.355385 1.5752996 -61.622639
-28.355385 3.1282605e-06 -61.622635
-28.355385 -1.5752982 -61.622635
-28.355385 -3.1506009 -61.622639
-28.355385 -4.7258959 -61.622631
-28.355385 -6.3011951 -61.622635
-28.355385 -7.8764935 -61.622643
-28.144995 -9.3816605 -63.033543
-26.398153 13.975492 -64.334602
-26.398153 12.422662 -64.334595
-26.398153 10.869827 -64.334595
-26.707312 9.4261084 -62.13937
-26.906511 7.9136844 -60.724934
-26.906511 6.3309455 -60.724934
-26.906511 4.7482066 -60.724934
-26.906511 3.1654718 -60.724937
-26.762384 1.5742605 -61.748325
-26.906511 3.8799703e-06 -60.72493
-26.906511 -1.5827309 -60.724934
-26.906511 -3.1654713 -60.724934
-26.906511 -4.7482047 -60.724937
-26.906511 -6.330945 -60.724937
-26.906511 -7.9136758 -60.72493
-26.707037 -9.4260168 -62.141323
-24.963146 14.041775 -63.445667
-24.963232 12.481614 -63.445026
-24.963232 10.921412 -63.44503
-25.255594 9.4708519 -61.239311
-25.443893 7.9512215 -59.818718
-25.443893 6.3609786 -59.818718
-25.443893 4.7707329 -59.81871
-25.443893 3.1804922 -59.81871
-25.443893 1.590241 -59.818718
-25.443893 5.5074679e-08 -59.818718
-25.443893 -1.5902429 -59.818718
-25.443893 -3.180486 -59.818718
-25.443893 -4.7707233 -59.818718
-25.443893 -6.3609667 -59.818718
-25.443893 -7.9512177 -59.818707
-25.255335 -9.4707479 -61.241295
-23.516802 14.11008 -62.529457
-23.514545 12.541097 -62.547626
-23.514626 10.973492 -62.546974
-23.790113 9.5160437 -60.330017
-23.967335 7.9891152 -58.903862
-23.967335 6.3912859 -58.903858
-23.967335 4.7934718 -58.903862
-23.967335 3.1956422 -58.903858
-23.967335 1.5978285 -58.903858
-23.967335 4.8936295e-07 -58.903854
-23.967335 -1.5978215 -58.903862
-23.967335 -3.195637 -58.903866
-23.967335 -4.793469 -58.903854
-23.967335 -6.3912845 -58.903858
-23.967335 -7.9891062 -58.903862
-23.789867 -9.5159483 -60.332008
-22.065058 14.184687 -61.528919
-22.052061 12.601175 -61.640972
-22.052061 11.026031 -61.640968
-22.310499 9.5616465 -59.412659
-22.476711 8.0273924 -57.979557
-22.476711 6.4219198 -57.979553
-22.476711 4.8164406 -57.979557
-22.476711 3.2109597 -57.979557
-22.476711 1.6054808 -57.979557
-22.476711 5.825872e-06 -57.979568
-22.476711 -1.6054791 -57.979561
-22.476711 -3.2109661 -57.979553
-22.476711 -4.8164411 -57.979561
-22.476711 -6.4219165 -57.979549
-22.476711 -8.0273914 -57.979557
-22.310266 -9.5615463 -59.414669
-20.597881 14.260072 -60.517742
-20.575424 12.661805 -60.726257
-20.575495 11.079116 -60.72559
-20.816637 9.6076851 -58.486477
-20.971659 8.0660276 -57.047047
-20.971659 6.4528232 -57.047047
-20.971659 4.8396163 -57.047043
-20.971659 3.2264137 -57.047043
-20.971659 1.6132056 -57.047039
-20.971659 8.8574852e-06 -57.047047
-20.971659 -1.6132096 -57.047047
-20.971659 -3.2264061 -57.047054
-20.971659 -4.839613 -57.04705
-20.971659 -6.4528227 -57.047047
-20.971659 -8.066021 -57.047054
-20.816494 -9.607605 -58.487843
-19.115292 14.33647 -59.493073
-19.084579 12.723056 -59.802025
-19.084579 11.132673 -59.802021
-19.308323 9.6541653 -57.551327
-19.452053 8.1050243 -56.105518
-19.452053 6.4840178 -56.105518
-19.452053 4.863019 -56.105515
-19.452053 3.2420087 -56.105511
-19.452053 1.6210082 -56.105522
-19.452053 -2.7372255e-07 -56.105522
-19.452053 -1.621001 -56.105511
-19.452053 -3.242013 -56.105511
-19.452053 -4.8630118 -56.105522
-19.452053 -6.4840121 -56.105515
-19.452053 -8.1050215 -56.105511
-19.308256 -9.6541357 -57.55201
-17.616856 14.41379 -58.45602
-17.579178 12.78486 -58.869476
-17.579239 11.186791 -58.868805
-17.785404 9.7011299 -56.606407
-17.917746 8.1444368 -55.154137
-17.917746 6.5155454 -55.15414
-17.917746 4.8866644 -55.15414
-17.917746 3.2577734 -55.15414
-17.917746 1.6288924 -55.15414
-17.917746 -3.271507e-07 -55.15414
-17.917746 -1.6288813 -55.15414
-17.917746 -3.2577643 -55.154137
-17.917746 -4.886652 -55.15414
-17.917746 -6.5155382 -55.15414
-17.917746 -8.1444254 -55.154144
-17.785278 -9.7010565 -56.60778
-16.102167 14.491956 -57.407715
-16.059135 12.84731 -57.927158
-16.059135 11.24139 -57.927155
-16.247711 9.7486277 -55.650841
-16.368385 8.1841955 -54.194164
-16.368385 6.5473557 -54.194172
-16.368385 4.9105215 -54.194172
-16.368385 3.2736762 -54.194157
-16.368385 1.6368359 -54.194164
-16.368385 3.6237304e-07 -54.194164
-16.368385 -1.6368316 -54.194168
-16.368385 -3.2736738 -54.194172
-16.368385 -4.9105172 -54.19416
-16.368385 -6.5473499 -54.19416
-16.368385 -8.1841927 -54.194172
-16.24748 -9.7484894 -55.653625
-14.570963 14.570969 -56.34798
-14.524117 12.910331 -56.976265
-14.524169 11.296578 -56.975582
-14.698298 9.7988701 -54.640125
-14.803823 8.2243481 -53.224773
-14.803823 6.5794864 -53.224781
-14.803823 4.9346108 -53.224773
-14.803823 3.2897477 -53.224781
-14.803823 1.6448725 -53.224773
-14.803823 9.108674e-06 -53.224781
-14.803823 -1.644866 -53.224773
-14.803823 -3.2897375 -53.224785
-14.803823 -4.9346128 -53.224777
-14.803823 -6.579474 -53.224785
-14.803823 -8.2243509 -53.224777
-14.696828 -9.797884 -54.659832
-13.022969 14.650844 -55.276623
-12.974014 12.974012 -56.015308
-12.974014 11.352262 -56.015301
-13.132878 9.849659 -53.618225
-13.223833 8.2649002 -52.245823
-13.223833 6.6119151 -52.245823
-13.223833 4.9589319 -52.245827
-13.223833 3.3059652 -52.245834
-13.223833 1.6529838 -52.245838
-13.223833 6.8726531e-06 -52.245831
-13.223833 -1.6529762 -52.245834
-13.223833 -3.3059595 -52.245831
-13.223833 -4.9589343 -52.245831
-13.223833 -6.6119194 -52.245831
-13.223833 -8.2648926 -52.245827
-13.131936 -9.8489475 -53.632442
-11.45787 14.731549 -54.194168
-11.408501 13.038287 -55.045521
-11.408542 11.408545 -55.044815
-11.603949 9.9462404 -51.675133
-11.628228 8.3058834 -51.256458
-11.628228 6.6447024 -51.256458
-11.628228 4.9835272 -51.256447
-11.628228 3.3223555 -51.256458
-11.628228 1.6611803 -51.256451
-11.628228 -1.1491298e-06 -51.256447
-11.628228 -1.6611745 -51.256458
-11.628228 -3.3223462 -51.256447
-11.628228 -4.9835196 -51.256458
-11.628228 -6.6447029 -51.256458
-11.628228 -8.3058777 -51.256447
-9.8754673 14.813206 -53.099007
-9.8274336 13.103245 -54.065365
-9.8274336 11.465343 -54.065369
-9.9468184 9.9468145 -51.663528
-9.9429617 8.2858047 -51.741135
-9.9429617 6.6286492 -51.741135
-9.9429617 4.9714813 -51.741135
-9.9429617 3.3143237 -51.741135
-9.9429617 1.6571661 -51.741135
-9.9429617 6.454869e-06 -51.741131
-9.9429617 -1.6571577 -51.741135
-9.9429617 -3.3143153 -51.741135
-9.9429617 -4.9714751 -51.741131
-9.9429617 -6.6286407 -51.741135
-9.9429617 -8.2857971 -51.741131
-8.275425 14.895762 -51.991627
-8.230504 13.168809 -53.076118
-8.2305336 11.522748 -53.075401
-8.2894955 9.9473972 -51.65192
-8.49681 8.4968081 -46.646908
-8.4949169 6.7959418 -46.692642
-8.4949169 5.0969453 -46.692631
-8.4949169 3.397969 -46.692631
-8.4949169 1.6989844 -46.692638
-8.4949169 -2.0490579e-06 -46.692642
-8.4949169 -1.6989784 -46.692642
-8.4393873 -3.3757544 -48.033215
-6.6574469 14.979253 -50.871845
-6.6175375 13.235078 -52.076191
-6.6175375 11.58069 -52.076195
-6.6320057 9.9480124 -51.639599
-6.8339419 8.5424252 -45.545616
-6.8301396 6.830143 -45.66037
-6.8301396 5.1226044 -45.660358
-6.8301396 3.4150791 -45.660366
-6.8301396 1.7075323 -45.660358
-6.8301654 -2.9201635e-06 -45.659588
-6.8301654 -1.707538 -45.659595
-6.7850938 -3.3925424 -47.019756
-4.9882374 13.301972 -51.066883
-4.9882555 11.639256 -51.066151
-4.9948483 9.9896965 -50.800896
-5.127142 8.5452385 -45.477802
-5.148519 6.8646965 -44.617649
-5.148519 5.1485209 -44.617649
-5.1485391 3.4323547 -44.616863
-5.1485391 1.7161787 -44.616859
-5.1485391 4.7653384e-06 -44.616863
-5.1485391 -1.7161789 -44.616871
-5.1142597 -3.4095078 -45.996147
-3.3423965 13.369593 -50.046589
-3.3423965 11.698388 -50.046581
-3.3459671 10.037907 -49.831093
-3.4269962 8.5674887 -44.940559
-3.4498112 6.8996224 -43.563538
-3.4498112 5.1747193 -43.563534
-3.4498112 3.44981 -43.563541
-3.4498112 1.7249087 -43.563541
-3.4498112 7.4788481e-06 -43.563541
-3.4498112 -1.7249039 -43.563541
-3.4266365 -3.4266338 -44.962257
-1.6797309 13.437848 -49.016602
-1.679737 11.758161 -49.015862
-1.6810831 10.0865 -48.853371
-1.7220476 8.6102467 -43.908535
-1.7337209 6.9348798 -42.499439
-1.7337209 5.2011647 -42.499447
-1.7337209 3.4674375 -42.499435
-1.7337209 1.7337224 -42.499447
-1.7337275 6.4749934e-06 -42.498646
-1.7337275 -1.7337289 -42.498642
-1.7219697 -3.443933 -43.917927
1.847008e-23 13.506855 -47.975296
-5.2892215e-23 11.818499 -47.975304
5.9737723e-24 10.135568 -47.866138
-6.9743634e-24 8.6534481 -42.865353
-8.6926407e-23 6.97051 -41.424423
3.8035844e-24 5.2278972 -41.423611
-4.9883127e-23 3.4852693 -41.423618
-8.3175348e-24 1.7426312 -41.423599
-4.8769356e-23 3.489155e-06 -41.423607
-3.6281619e-23 -1.7426323 -41.423618
6.0157775e-24 -3.4614246 -42.862984
1.6970667 13.576528 -46.924007
1.6970729 11.879519 -46.923252
1.6975138 10.185083 -46.870026
1.7394185 8.6970873 -41.811668
1.7516311 7.0065255 -40.337475
1.7516311 5.254889 -40.337471
1.7516311 3.5032637 -40.337479
1.7516311 1.7516329 -40.337467
1.7516311 6.085073e-06 -40.337475
1.7516311 -1.7516291 -40.337471
1.7395377 -3.4790759 -41.797287
3.4117448 13.64698 -45.861034
3.4117448 11.941111 -45.861053
3.4117448 10.235237 -45.861046
3.4964724 8.7411795 -40.747299
3.5214448 7.0428934 -39.240055
3.5214448 5.2821679 -39.240059
3.5214448 3.5214436 -39.240067
3.5214586 1.7607265 -39.239243
3.5214586 1.9522768e-06 -39.239246
3.5214586 -1.7607306 -39.239239
3.4969134 -3.4969192 -40.720665
5.1442914 13.718115 -44.787769
5.144311 12.003393 -44.786991
5.144311 10.288628 -44.786995
5.2717342 8.7862196 -39.659847
5.3097258 7.0796351 -38.131191
5.3097467 5.3097401 -38.130367
5.3097467 3.5398324 -38.130379
5.3097467 1.7699156 -38.130375
5.3097467 -3.2532623e-06 -38.130367
5.3097467 -1.7699201 -38.130363
5.2723827 -3.5149224 -39.63377
7.5448523 -7.5448494 51.80336
6.8950191 13.790048 -43.702461
6.8950191 12.066281 -43.702454
6.8950191 10.342534 -43.702454
7.065824 8.8322897 -38.547966
7.1167917 7.1167879 -37.009865
7.1167917 5.3375969 -37.009869
7.1167917 3.5583975 -37.009861
7.1167917 1.7792016 -37.009876
7.1167917 1.2212919e-06 -37.009865
7.1168194 -1.7792019 -37.009029
7.0659609 -3.53298 -38.543839
9.932312 -7.4492245 47.955956
8.6641703 13.862667 -42.606495
8.6642027 12.129892 -42.605713
8.6642027 10.397048 -42.605709
8.8788214 8.8788271 -37.424366
8.9428921 7.1543221 -35.877552
8.9428921 5.3657441 -35.877552
8.9428921 3.5771604 -35.87756
8.9429264 1.7885842 -35.876701
8.9429264 -1.4748579e-06 -35.876709
8.9429264 -1.7885784 -35.876709
8.8786831 -3.5514729 -37.427689
12.26008 -7.3560414 44.206448
10.452096 13.936132 -41.498135
10.452096 12.194112 -41.498131
10.452096 10.452091 -41.498131
10.711026 8.9258556 -36.288837
10.788392 7.1922655 -34.73238
10.788392 5.3941936 -34.732368
10.788392 3.5961337 -34.732372
10.788392 1.7980731 -34.73238
10.788392 2.0995617e-06 -34.732365
10.788392 -1.7980595 -34.732372
10.710733 -3.5702381 -36.294739
14.530329 -7.2651625 40.54958
12.259024 14.010314 -40.378769
12.25907 12.25907 -40.377964
12.25907 10.507777 -40.377953
12.562747 8.9733877 -35.141239
12.653524 7.2305923 -33.575855
12.653524 5.4229398 -33.57584
12.653524 3.6152904 -33.575848
12.653524 1.8076482 -33.575848
12.653524 7.8023986e-06 -33.575851
12.653574 -1.8076509 -33.574986
12.562304 -3.5892341 -35.148884
16.745077 -7.1764641 36.980469
14.085346 14.085349 -39.246613
14.085346 12.324678 -39.246613
14.085346 10.564006 -39.246605
14.434297 9.0214329 -33.981339
14.53864 7.2693262 -32.406933
14.53864 5.4519887 -32.406929
14.538697 3.6346793 -32.406059
14.538697 1.8173418 -32.406059
14.538697 4.3950113e-06 -32.406059
14.538697 -1.817333 -32.406059
14.433613 -3.6084023 -33.991653
18.906496 -7.0899382 33.498932
18.906496 -9.4532413 33.498928
15.931273 14.161139 -38.103085
15.931335 12.391041 -38.102249
15.931335 10.620893 -38.102245
16.325994 9.0699987 -32.808964
16.444126 7.3085012 -31.224546
16.444126 5.4813704 -31.224535
16.444126 3.6542511 -31.224543
16.444126 1.8271309 -31.224548
16.444126 7.0926956e-07 -31.224537
16.444126 -1.8271203 -31.224543
16.325024 -3.6277835 -32.821991
21.016413 -7.0054665 30.100342
21.016413 -9.3406267 30.100348
17.801052 14.240844 -36.900356
17.797243 12.458068 -36.946335
17.797243 10.678351 -36.946346
18.238169 9.1190863 -31.623892
18.370193 7.3480802 -30.030226
18.370193 5.5110617 -30.030239
18.278629 3.6557233 -31.135496
18.370193 1.8370155 -30.030228
18.370266 4.8879265e-06 -30.029337
18.370266 -1.8370219 -30.029333
18.236933 -3.6473892 -31.638819
23.076536 -6.9229603 26.780376
23.076536 -9.2306099 26.780371
19.698786 14.326397 -35.609539
19.683523 12.525879 -35.777008
19.683523 10.736473 -35.777012
20.171152 9.1687088 -30.425922
20.31723 7.3880877 -28.82291
20.31723 5.5410662 -28.822906
20.317312 3.6940606 -28.822016
20.317312 1.8470299 -28.822016
20.317312 7.5324697e-06 -28.822012
20.317312 -1.847023 -28.822012
20.169537 -3.6671832 -30.443682
25.08882 -6.8424029 23.539064
25.08882 -9.1232052 23.539076
21.619371 14.412919 -34.303974
21.590366 12.594389 -34.595745
21.590366 10.795183 -34.595741
22.125288 9.218874 -29.214842
22.285677 7.4285579 -27.601458
22.285677 5.5714173 -27.601458
22.285677 3.7142782 -27.60146
22.285677 1.857138 -27.60146
22.285677 -1.209973e-06 -27.601461
22.285677 -1.8571422 -27.601461
22.123236 -3.6872051 -29.235476
27.054811 -6.7637014 20.372339
27.054811 -9.0182695 20.372335
23.563391 14.500546 -32.981674
23.518272 12.663695 -33.40062
23.518272 10.854592 -33.400627
24.100925 9.2695923 -27.990444
24.275711 7.4694481 -26.367481
24.275711 5.6020927 -26.367477
24.275711 3.7347293 -26.367479
24.275711 1.867365 -26.367481
24.27581 6.3616635e-06 -26.366558
24.27581 -1.8673652 -26.366566
24.098484 -3.7074544 -28.013117
28.975952 -6.6867514 17.2763
28.975952 -8.9156771 17.276306
25.531195 14.589263 -31.643211
25.467415 12.733708 -32.193138
25.467415 10.914611 -32.193142
26.098421 9.3208675 -26.752493
26.287775 7.5107942 -25.119823
26.287775 5.6330929 -25.119829
26.287882 3.7554133 -25.118898
26.287882 1.8777119 -25.118904
26.287882 1.1462418e-05 -25.11891
26.287882 -1.8777092 -25.118902
26.095442 -3.7279246 -26.778168
30.854021 -6.6115746 14.251209
30.854021 -8.8154383 14.251209
27.523113 14.678991 -30.289137
27.438341 12.804563 -30.971346
27.438341 10.975337 -30.97134
28.118137 9.372714 -25.500769
28.322355 7.5526299 -23.857367
28.322355 5.6644745 -23.857355
28.322355 3.7763209 -23.857365
28.322355 1.8881569 -23.857357
28.322355 3.6994325e-06 -23.857367
28.322355 -1.8881603 -23.857361
28.114563 -3.7486067 -25.529518
32.690331 -6.5380602 11.293377
32.690331 -8.7174168 11.293377
29.540405 14.770204 -28.912916
29.431206 12.876148 -29.736771
29.431206 11.036699 -29.736765
30.16045 9.4251385 -24.235039
30.379599 7.594903 -22.581703
30.379599 5.6961808 -22.581697
30.379599 3.7974515 -22.581697
30.379723 1.8987318 -22.580744
30.379723 1.3553109e-06 -22.580744
30.379723 -1.8987281 -22.580744
30.156349 -3.7695398 -24.265993
34.486088 -6.4661355 8.3993683
34.486088 -8.6215239 8.3993807
42.652977 -13.329052 70.013794
42.65696 -15.996355 70.043816
42.660934 -18.664165 70.073845
42.664913 -21.332458 70.103882
42.668896 -24.001249 70.133904
42.673126 -26.670698 70.165825
42.677109 -29.340504 70.195862
42.681095 -32.010818 70.225922
42.685074 -34.681618 70.255966
42.689312 -37.353149 70.287918
42.693298 -40.024967 70.317986
42.697285 -42.697285 70.348061
42.701267 -45.370098 70.378136
42.705505 -48.04369 70.410103
42.709496 -50.717518 70.440193
42.713982 -53.392467 70.474045
42.718472 -56.067982 70.507912
42.722965 -58.744076 70.541794
42.727451 -61.420708 70.575661
42.731945 -64.097916 70.609566
42.736435 -66.775681 70.643456
42.740932 -69.454002 70.677361
42.745422 -72.132896 70.711258
42.74992 -74.812355 70.745186
42.754414 -77.492378 70.779099
42.758915 -80.172958 70.813034
42.763412 -82.854111 70.846977
42.767914 -85.53582 70.880913
31.583048 14.862617 -27.518591
31.446606 12.948603 -28.48741
31.446606 11.098807 -28.487413
32.225739 9.4781637 -22.955084
32.459999 7.6376414 -21.291666
32.460136 5.7282577 -21.290712
32.460136 3.8188374 -21.290703
32.460136 1.9094257 -21.290709
32.460136 -3.7421858e-06 -21.290707
32.460136 -1.9094152 -21.290712
32.221462 -3.7907596 -22.985422
36.242935 -6.3958068 5.5695457
36.242935 -8.5277443 5.5695515
44.983917 -13.230558 67.636002
44.987301 -15.877861 67.660027
44.990948 -18.525675 67.685913
44.994331 -21.173798 67.709946
44.997978 -23.822449 67.735832
45.001366 -26.471392 67.759888
45.005013 -29.120882 67.785774
45.008396 -31.770634 67.809837
45.011784 -34.420776 67.833893
45.015438 -37.071533 67.859795
45.018826 -39.722496 67.883873
45.022472 -42.374088 67.90979
45.025864 -45.025864 67.933853
45.029518 -47.678303 67.959778
45.032906 -50.330894 67.983856
45.036556 -52.98418 68.009796
45.039951 -55.637585 68.033882
45.043602 -58.291718 68.059822
45.046997 -60.945938 68.083916
45.050388 -63.600548 68.108017
45.054047 -66.255943 68.133965
45.057438 -68.911369 68.158066
45.061096 -71.567627 68.184036
45.064495 -74.223869 68.208145
45.06815 -76.880966 68.234116
45.071548 -79.538025 68.258232
45.075207 -82.195969 68.284218
45.078865 -84.854332 68.310196
33.651276 14.956126 -26.107609
33.484676 13.02182 -27.224831
33.484676 11.161553 -27.224827
34.314392 9.5317764 -21.660631
34.564098 7.6809139 -19.986063
34.564098 5.7606888 -19.986067
34.564098 3.8404641 -19.986073
34.564098 1.9202288 -19.986061
34.564098 3.4897805e-06 -19.986065
34.564247 -1.9202398 -19.98509
34.310104 -3.8122358 -21.689404
37.961979 -6.3269973 2.8006167
37.961979 -8.4359951 2.8006208
47.899158 -13.305319 69.440811
47.902782 -15.967589 69.465118
47.906403 -18.630266 69.489418
47.910305 -21.293467 69.515594
47.913933 -23.956959 69.539894
47.917839 -26.621012 69.566086
47.921745 -29.2855 69.592278
47.925652 -31.950436 69.618484
47.929554 -34.615791 69.644684
47.933464 -37.281582 69.670891
47.937374 -39.947811 69.697098
47.94128 -42.614464 69.723297
47.94519 -45.281567 69.749527
47.9491 -47.949104 69.775742
47.953011 -50.617058 69.801964
47.956921 -53.285465 69.828201
47.960835 -55.954304 69.854431
47.964748 -58.623577 69.880676
47.968658 -61.293278 69.906906
47.972576 -63.963432 69.933159
47.97649 -66.634003 69.959412
47.980408 -69.305023 69.985664
47.984318 -71.976471 70.011925
47.988235 -74.648361 70.038193
47.992153 -77.320686 70.064461
47.996071 -79.993446 70.090736
47.999989 -82.666641 70.117004
48.00391 -85.340279 70.143295
35.745838 15.050882 -24.677832
35.546074 13.095922 -25.94697
35.546074 11.225071 -25.946962
36.426815 9.5860071 -20.35146
36.692017 7.7246346 -18.66658
36.692017 5.7934809 -18.666582
36.692017 3.8623173 -18.666571
36.692173 1.9311736 -18.665602
36.692173 1.2064456e-06 -18.665592
36.692173 -1.9311601 -18.665602
36.422691 -3.8339679 -20.377657
39.644241 -6.2596221 0.089496247
39.644241 -8.3461552 0.089483313
37.630913 13.170824 -24.655409
37.630913 11.289283 -24.655413
38.563408 9.6408596 -19.027309
38.844299 7.7688675 -17.33198
38.844463 5.8266778 -17.330986
38.844463 3.8844559 -17.330986
38.844463 1.9422328 -17.330984
38.844463 1.4089791e-06 -17.330986
38.844463 -1.9422212 -17.330984
38.559505 -3.8559482 -19.05085
41.291241 -6.193687 -2.5633795
41.291241 -8.2582502 -2.5633707
39.739899 13.246634 -23.348045
39.739899 11.354252 -23.34804
40.724594 9.6963367 -17.687902
41.021542 7.8136311 -15.981003
41.021542 5.8602242 -15.980997
41.021542 3.9068093 -15.980996
41.021542 1.9534134 -15.981007
41.021542 6.5167833e-06 -15.981001
41.021721 -1.9534121 -15.979987
40.720795 -3.8781707 -17.709736
42.903904 -6.129128 -5.1609459
42.903904 -8.1721706 -5.1609387
41.873135 13.32327 -22.026501
41.873306 11.419998 -22.025551
42.910797 9.752449 -16.333002
43.223839 7.8588886 -14.615383
43.223839 5.8941674 -14.615385
43.223839 3.9294455 -14.615386
43.224026 1.9647378 -14.614366
43.224026 -2.9197852e-06 -14.614355
43.224026 -1.9647237 -14.614357
42.907318 -3.9006703 -16.352079
44.483105 -6.0658789 -7.7059979
44.483105 -8.0878296 -7.7060041
44.03138 13.400863 -20.68862
44.03138 11.486448 -20.688608
45.122456 9.8092365 -14.962333
45.451794 7.9046669 -13.233857
45.451992 5.9285278 -13.232823
45.451992 3.9523501 -13.232827
45.451992 1.9761804 -13.232826
45.451992 7.4953164e-07 -13.232809
45.451992 -1.9761771 -13.232813
45.119354 -3.923418 -14.978577
46.030239 -6.003943 -10.198007
46.030239 -8.0052538 -10.198005
46.21471 13.479286 -19.336023
46.214901 11.553735 -19.335054
47.360012 9.8666716 -13.575607
47.357151 7.8928638 -13.589984
47.357151 5.9196444 -13.589982
47.357151 3.946435 -13.589995
47.357353 1.9732186 -13.588954
47.357353 9.2379214e-06 -13.588967
47.357353 -1.973219 -13.58897
47.357353 -3.9464388 -13.588967
47.546101 -5.9432654 -12.639636
47.546101 -7.9243488 -12.639629
48.423954 13.558714 -17.96653
48.423954 11.621748 -17.966528
49.031631 9.8063354 -15.032411
49.031631 7.8450565 -15.032406
49.031631 5.8837962 -15.032413
49.031631 3.9225256 -15.032402
49.031631 1.9612647 -15.032408
49.031631 4.4535163e-06 -15.032414
49.031631 -1.9612664 -15.032405
49.031631 -3.9225266 -15.032412
49.031631 -5.8837976 -15.032401
49.031631 -7.845058 -15.032408
50.659172 13.639012 -16.581789
50.659389 11.690633 -16.580797
51.264427 9.8585501 -13.77177
51.639374 7.9445152 -12.031001
51.639374 5.9583859 -12.030999
51.639374 3.9722569 -12.030998
51.639374 1.9861281 -12.030997
51.639374 -1.3624347e-06 -12.030995
51.639374 -1.9861302 -12.030995
51.639374 -3.9722493 -12.031011
51.639374 -5.9583864 -12.031014
51.639374 -7.9445152 -12.031013
52.921249 13.720329 -15.179543
52.921249 11.760275 -15.179543
53.573616 9.9210405 -12.262983
53.94437 7.9917622 -10.60541
53.94437 5.993825 -10.60542
53.94437 3.995878 -10.605414
53.94437 1.99795 -10.605421
53.94437 3.102954e-06 -10.605416
53.94437 -1.9979436 -10.605411
53.94437 -3.995872 -10.605416
53.94437 -5.9938192 -10.605411
53.94437 -7.991756 -10.605422
55.210464 13.802613 -13.760471
55.210464 11.830812 -13.760468
56.923931 10.164989 -6.3735466
56.276943 8.0395575 -9.1627636
56.276943 6.0296807 -9.1627769
56.276943 4.0197849 -9.1627798
56.276943 2.0098977 -9.1627769
56.276943 1.0057772e-05 -9.1627741
56.276943 -2.0098858 -9.162776
56.276943 -4.0197735 -9.1627731
56.276943 -6.0296693 -9.162775
56.276943 -8.0395575 -9.1627722
57.52705 13.885842 -12.325321
57.52705 11.902143 -12.325316
58.961128 10.165713 -6.3560853
58.637856 8.0879812 -7.7016797
58.637856 6.0659862 -7.7016897
58.637856 4.0439901 -7.7016783
58.637856 2.0219958 -7.7016883
58.637856 -3.8525874e-07 -7.7016764
58.637856 -2.0219948 -7.7016859
58.637856 -4.0439916 -7.7016745
58.637856 -6.0659857 -7.701684
58.637856 -8.0879717 -7.7016888
59.872005 13.970145 -10.871709
59.872005 11.9744 -10.871704
60.998878 10.16648 -6.3375368
61.027096 8.1369495 -6.2239833
61.027096 6.1027045 -6.2239795
61.027096 4.0684786 -6.2239871
61.027096 2.0342338 -6.2239833
61.027096 7.6756278e-06 -6.2239909
61.027096 -2.0342371 -6.2239871
61.027096 -4.0684733 -6.223978
61.027096 -6.1027079 -6.2239909
61.027096 -8.1369448 -6.2239819
62.245335 14.055399 -9.4013968
62.245335 12.047484 -9.4013958
63.036655 10.167204 -6.3200755
63.44545 8.1865129 -4.728282
63.44545 6.1398787 -4.728281
63.44545 4.0932527 -4.7282753
63.44545 2.0466368 -4.7282863
63.44545 2.5175998e-06 -4.7282858
63.44545 -2.0466237 -4.7282801
63.44545 -4.0932579 -4.7282791
63.44545 -6.139884 -4.7282734
63.44545 -8.1865072 -4.7282891
64.648094 14.141771 -7.9119477
64.648094 12.121519 -7.9119415
65.07473 10.167936 -6.3026094
65.893738 8.2367277 -3.2131352
65.893738 6.1775351 -3.2131267
65.893738 4.1183615 -3.2131295
65.545174 2.0482836 -4.527988
65.893738 -4.6457449e-06 -3.2131238
65.893738 -2.0591784 -3.2131267
65.893738 -4.1183519 -3.2131298
65.893738 -6.1775336 -3.2131376
65.893738 -8.2367172 -3.2131238
67.080276 14.229155 -6.4051833
67.080276 12.196415 -6.4051714
67.180916 10.178933 -6.0370536
68.371933 8.2875147 -1.6804136
68.371933 6.2156329 -1.680409
68.371933 4.1437516 -1.6804038
68.371933 2.0718808 -1.6804157
68.371933 -4.1798936e-07 -1.6804109
68.371933 -2.0718818 -1.6804061
68.371933 -4.1437445 -1.6804128
68.371933 -6.2156258 -1.6804079
68.376892 -8.2881021 -1.6622813
69.543007 14.317678 -4.8785563
69.543007 12.272295 -4.8785658
69.625839 10.239094 -4.5844612
70.880882 8.3389292 -0.1286761
70.880882 6.2542005 -0.12868051
70.880882 4.1694622 -0.12866825
70.880882 2.084734 -0.12867254
70.880882 5.8038559e-06 -0.12867695
70.880882 -2.0847328 -0.12866463
70.880882 -4.1694608 -0.12866905
