# .PCD v0.7 - Point Cloud Data file format
VERSION 0.7
FIELDS x y z
SIZE 4 4 4
TYPE F F F
COUNT 1 1 1
WIDTH 1508
HEIGHT 1
VIEWPOINT 0 0 0 1 0 0 0
POINTS 1508
DATA ascii
-20.863365 -12.272568 27.328682
-21.115856 -13.663197 29.121511
-15.414257 11.560697 -4.522738
-15.462364 10.630376 -4.1597867
-15.611967 9.7574768 -3.0311205
-15.764493 8.867527 -1.8804055
-15.919956 7.959981 -0.70752376
-16.07859 7.0343847 0.48927456
-16.239742 6.0899062 1.7050799
-16.404083 5.1262755 2.9449313
-16.571859 4.1429677 4.2107134
-16.743105 3.1393349 5.5026569
-16.917927 2.1147428 6.8215814
-17.096437 1.0685295 8.1683416
-17.278671 2.9058001e-06 9.5431881
-17.464918 -1.0915562 10.948306
-17.655222 -2.2068999 12.384051
-17.849722 -3.3468225 13.851433
-18.04846 -4.5121112 15.350796
-18.251768 -5.7036777 16.884649
-18.459709 -6.9223895 18.45344
-18.672443 -8.1691923 20.058395
-18.886595 -9.4432983 21.674036
-19.105921 -10.747077 23.32872
-19.331142 -12.081965 25.027893
-19.561522 -13.448545 26.765963
-19.816057 -14.862042 28.686277
-14.268729 11.414985 -5.988452
-14.317973 10.49985 -5.5921645
-14.454786 9.6365261 -4.4911771
-14.594175 8.7565041 -3.3694651
-14.73595 7.8591757 -2.2285595
-14.880304 6.94414 -1.0668777
-15.027514 6.011003 0.11777961
-15.177596 5.0591979 1.3255498
-15.330778 4.088212 2.5582583
-15.487084 3.0974205 3.8161073
-15.646609 2.0862114 5.0998731
-15.809456 1.0539609 6.410357
-15.975649 7.094954e-07 7.7477794
-16.145454 -1.076365 9.1142616
-16.318907 -2.1758544 10.510105
-16.496126 -3.299228 11.936261
-16.677153 -4.4472432 13.393058
-16.862286 -5.62076 14.882874
-17.051571 -6.8206301 16.406136
-17.245157 -8.0477371 17.963985
-17.443188 -9.3030367 19.557621
-17.641012 -10.584606 21.149582
-17.845495 -11.896995 22.795147
-18.05517 -13.240461 24.482483
-18.269428 -14.615541 26.206686
-13.150036 12.210747 -7.4321971
-13.152055 11.273188 -7.4147778
-13.201346 10.372489 -6.989789
-13.325714 9.5183678 -5.9174647
-13.452154 8.6478138 -4.8272705
-13.581017 7.7605805 -3.7161868
-13.712372 6.8561869 -2.5836217
-13.846294 5.9341249 -1.4289238
-13.982793 4.993855 -0.25199363
-14.122075 4.0348806 0.94891506
-14.26416 3.0566075 2.1740012
-14.409133 2.0584488 3.4239895
-14.557084 1.0397931 4.6996455
-14.708033 -2.9237765e-07 6.0011616
-14.862218 -1.0615895 7.3305721
-15.01967 -2.1456654 8.6881504
-15.180493 -3.2529612 10.074797
-15.344722 -4.3842082 11.490813
-15.51262 -5.5402207 12.93846
-15.684234 -6.7218118 14.418148
-15.859687 -7.9298439 15.930938
-16.03911 -9.165204 17.477962
-16.221615 -10.428179 19.051546
-16.404478 -11.717481 20.628229
-16.59437 -13.038428 22.265509
-16.78871 -14.390323 23.941143
-16.995522 -15.781551 25.724321
-12.021539 12.02154 -9.1890802
-12.054451 11.127185 -8.8834791
-12.111123 10.247874 -8.3572483
-12.22342 9.4026327 -7.3145304
-12.337977 8.5416756 -6.2508025
-12.454702 7.6644335 -5.1669631
-12.573657 6.7704334 -4.0624132
-12.694906 5.8591881 -2.9365578
-12.81846 4.9301796 -1.7893161
-12.944501 3.9829242 -0.61897868
-13.073045 3.0168564 0.57460493
-13.204165 2.03141 1.7921276
-13.337882 1.0259937 3.033746
-13.4744 -1.1946224e-07 4.3013597
-13.613738 -1.0472108 5.5951948
-13.755989 -2.1163051 6.91606
-13.901246 -3.2079799 8.2648239
-14.049534 -4.3229313 9.6417332
-14.201088 -5.461957 11.048992
-14.355949 -6.6258245 12.486946
-14.514225 -7.8153501 13.956601
-14.676029 -9.0314054 15.459027
-14.841405 -10.274818 16.994614
-15.008503 -11.545001 18.546198
-15.177316 -12.842341 20.113682
-15.352436 -14.171479 21.739761
-15.531563 -15.531565 23.403032
-10.951035 11.863623 -10.655401
-10.980393 10.980392 -10.360085
-11.046508 10.125965 -9.6950207
-11.147798 9.2898293 -8.6761322
-11.250435 8.4378281 -7.6436849
-11.35576 7.570508 -6.5841894
-11.463077 6.6867957 -5.5046701
-11.572237 5.7861176 -4.40659
-11.683447 4.8681006 -3.2879162
-11.796866 3.932291 -2.1470089
-11.91251 2.9781258 -0.98372775
-12.030441 2.0050743 0.20258726
-12.150678 1.0125575 1.4120557
-12.273397 -2.1511919e-06 2.6465287
-12.398622 -1.0332186 3.9061823
-12.526427 -2.0877402 5.1918144
-12.656897 -3.1642199 6.50422
-12.790049 -4.2633524 7.8436351
-12.926096 -5.38587 9.2121611
-13.065067 -6.5325313 10.610117
-13.207061 -7.7041168 12.038462
-13.352175 -8.9014463 13.498189
-13.500444 -10.125333 14.989661
-13.652113 -11.376763 16.515341
-13.804055 -12.653717 18.043751
-13.959122 -13.959119 19.6036
-14.119598 -15.29623 21.217871
-14.284579 -16.665344 22.877459
-9.9083338 11.709846 -12.083259
-9.9342651 10.837381 -11.798691
-10.006966 10.006967 -11.000895
-10.097972 9.1799755 -10.002225
-10.189835 8.3371382 -8.9941587
-10.283383 7.4788237 -7.9675789
-10.378798 6.6046891 -6.9205194
-10.476863 5.7146511 -5.8443875
-10.576659 4.8075705 -4.7492547
-10.678045 3.8829255 -3.6366746
-10.781394 2.940382 -2.5025599
-10.886764 1.979411 -1.3462706
-10.994161 0.99947011 -0.16770953
-11.103751 6.4712128e-07 1.0348979
-11.215548 -1.019593 2.2617164
-11.329618 -2.0599296 3.5134954
-11.446033 -3.1216416 4.7909985
-11.564811 -4.2053828 6.0944214
-11.686135 -5.3118796 7.4258008
-11.810032 -6.4418354 8.7854128
-11.936584 -7.5960083 10.174152
-12.065878 -8.7751856 11.592988
-12.197942 -9.9801321 13.042214
-12.332992 -11.211811 14.524207
-12.470808 -12.470809 16.036566
-12.608326 -13.754536 17.545639
-12.749715 -15.067843 19.097206
-12.895822 -16.412867 20.700539
-12.094509 16.932308 25.179321
-8.8922796 11.559962 -13.475003
-8.9150734 10.698089 -13.19986
-8.9915361 9.890687 -12.276875
-9.0723486 9.0723524 -11.30138
-9.1542854 8.2388592 -10.312323
-9.2373276 7.3898635 -9.3099155
-9.3218899 6.5253248 -8.2891579
-9.4080143 5.6448112 -7.2495365
-9.4961557 4.7480788 -6.1855779
-9.5865059 3.8346047 -5.0949516
-9.6785498 2.9035673 -3.983881
-9.7719889 1.954398 -2.8559806
-9.8671598 0.98671544 -1.7071579
-9.9642487 2.0392135e-06 -0.53520197
-10.063266 -1.0063298 0.66005671
-10.164272 -2.0328548 1.8793061
-10.267325 -3.0801942 3.1232724
-10.372442 -4.1489792 4.3921423
-10.479784 -5.2398896 5.6878595
-10.58937 -6.3536181 7.010674
-10.701271 -7.4908905 8.3614454
-10.815563 -8.6524487 9.7410707
-10.932268 -9.8390398 11.149831
-11.051575 -11.051576 12.589993
-11.173514 -12.290865 14.061934
-11.296957 -13.556347 15.552027
-11.421144 -14.847488 17.05109
-11.54906 -16.168686 18.595175
-11.756216 -17.634319 21.095758
-10.990538 18.317564 26.594049
-7.8828568 12.262222 -15.08709
-7.9019079 11.413867 -14.831574
-7.9296103 10.572816 -14.460024
-7.999433 9.7770844 -13.523543
-8.070529 8.9672565 -12.569983
-8.1428661 8.142869 -11.599771
-8.2158651 7.3029923 -10.620685
-8.290185 6.4479232 -9.6238956
-8.3658257 5.5772142 -8.6093702
-8.4428959 4.6905003 -7.5756912
-8.5213985 3.7872903 -6.5227833
-8.6020851 2.8673656 -5.4405942
-8.6844664 1.9298831 -4.3356709
-8.7684021 0.97426718 -3.2099013
-8.8537378 1.6856561e-08 -2.0653479
-8.9405899 -0.99340206 -0.90045607
-9.0291634 -2.0064828 0.28751272
-9.1195087 -3.0398347 1.4992573
-9.2116385 -4.0940604 2.7349167
-9.3056917 -5.1698308 3.9963951
-9.4016857 -6.2677922 5.2838922
-9.4996805 -7.3886371 6.5982246
-9.59974 -8.5331039 7.9402542
-9.7018814 -9.7018833 9.3102112
-9.8062687 -10.895852 10.710283
-9.9129286 -12.115799 12.140816
-10.021931 -13.362577 13.602812
-10.131442 -14.634303 15.071599
-10.24242 -15.932649 16.560059
-10.356937 -17.261562 18.096012
-9.7682838 18.315536 26.577703
-6.9149876 12.10123 -16.47521
-6.9328709 11.265917 -16.205376
-6.9691925 10.453791 -15.657322
-7.0298901 9.6660967 -14.74147
-7.0916252 8.8645306 -13.809961
-7.1544538 8.0487623 -12.861947
-7.2181101 7.2181077 -11.901446
-7.2826381 6.3723111 -10.927795
-7.3483305 5.5112495 -9.9365749
-7.4152188 4.6345115 -8.9273071
-7.4833364 3.7416661 -7.8994927
-7.5527167 2.832269 -6.8526287
-7.6235271 1.9058843 -5.7841763
-7.6963167 0.96204078 -4.6858597
-7.7704763 -3.6185511e-07 -3.56688
-7.8461137 -0.98076308 -2.4256086
-7.9231305 -1.9807814 -1.2635072
-8.0013838 -3.0005205 -0.082750119
-8.0811615 -4.0405831 1.1209961
-8.1625843 -5.1016135 2.3495638
-8.2456636 -6.184247 3.6031377
-8.330452 -7.2891479 4.8824949
-8.4170017 -8.4170017 6.1884327
-8.5053282 -9.5684948 7.5211701
-8.5955696 -10.744461 8.8828125
-8.687747 -11.945653 10.273659
-8.7819223 -13.172883 11.69466
-8.8781614 -14.427011 13.146799
-8.9741106 -15.70469 14.594547
-9.0720615 -17.010117 16.072517
-9.2892952 -18.57859 19.350317
-8.6167841 19.695513 27.776804
-5.9544358 12.759507 -18.133749
-5.9695892 11.939181 -17.872433
-5.9847975 11.114624 -17.610176
-6.0304179 10.337859 -16.823486
-6.0820875 9.5575638 -15.932472
-6.1348939 8.7641306 -15.021853
-6.1886506 7.9568381 -14.094861
-6.2433066 7.135211 -13.152345
-6.2984738 6.2984734 -12.201019
-6.3546247 5.4468226 -11.232739
-6.4117856 4.5798492 -10.247038
-6.4699836 3.6971359 -9.2434387
-6.5292211 2.7982368 -8.2219296
-6.589581 1.8827381 -7.181067
-6.6510673 0.95014846 -6.1207671
-6.7140923 3.3823803e-06 -5.0339479
-6.7786207 -0.96837485 -3.9211824
-6.8443713 -1.955538 -2.7873516
-6.9114418 -2.9620492 -1.6307724
-6.9798069 -3.9884608 -0.45185274
-7.0492487 -5.0351777 0.74562752
-7.1200528 -6.1028996 1.9665967
-7.1922941 -7.1922936 3.2123525
-7.2660155 -8.3040171 4.4836416
-7.3412299 -9.4387236 5.7806606
-7.4180532 -10.597219 7.1054306
-7.496501 -11.780216 8.4582205
-7.5766258 -12.988503 9.839921
-7.6584821 -14.222895 11.25148
-7.7415819 -15.483164 12.684483
-7.8248754 -16.767591 14.120836
-7.9099808 -18.079958 15.588424
-7.4641933 21.14855 29.353659
-7.404736 19.745966 28.157467
-5.0375848 12.593964 -19.465939
-5.0491576 11.78137 -19.233114
-5.0694847 10.983885 -18.824162
-5.1121969 10.224395 -17.964863
-5.1553731 9.4515181 -17.096224
-5.1996126 8.6660204 -16.206194
-5.2446384 7.8669586 -15.300341
-5.290451 7.0539346 -14.378667
-5.3368554 6.2263298 -13.445083
-5.3838835 5.383884 -12.498951
-5.431725 4.5264382 -11.53645
-5.4804478 3.6536334 -10.556229
-5.5300522 2.7650261 -9.5582581
-5.5805631 1.8601878 -8.5420618
-5.6320047 0.93866938 -7.5071287
-5.6844039 4.8481974e-07 -6.452939
-5.7377625 -0.9562934 -5.3794537
-5.7927165 -1.9309047 -4.27387
-5.8487592 -2.9243767 -3.1463802
-5.90587 -3.9372447 -1.9973923
-5.9641342 -4.9701123 -0.82520419
-6.0235319 -6.0235333 0.3697978
-6.0839849 -7.0979819 1.5860102
-6.1455207 -8.1940289 2.8240137
-6.2082853 -9.3124266 4.0867267
-6.2723742 -10.453956 5.3760996
-6.3377995 -11.619303 6.6923733
-6.4046054 -12.809208 8.0363874
-6.4728336 -14.024475 9.4090462
-6.5424995 -15.26583 10.810608
-6.6127539 -16.531883 12.224021
-6.6836543 -17.823078 13.650421
-6.2149634 21.130877 29.228174
-4.1291094 13.213152 -21.12879
-4.1432528 12.429757 -20.78735
-4.1527405 11.627674 -20.55829
-4.1790853 10.865625 -19.922276
-4.213913 10.113392 -19.081453
-4.2491951 9.3482285 -18.229668
-4.2850227 8.5700455 -17.364708
-4.3217144 7.7790861 -16.478897
-4.3590574 6.9744921 -15.577364
-4.3970156 6.1558223 -14.660966
-4.4353013 5.3223648 -13.73667
-4.474278 4.4742785 -12.795689
-4.5139456 3.6111557 -11.838028
-4.5543227 2.7325914 -10.863231
-4.5954294 1.8381706 -9.8708401
-4.6372843 0.92745596 -8.8603735
-4.6798887 6.2917934e-08 -7.8318067
-4.7233038 -0.94465935 -6.7836833
-4.7675314 -1.9070126 -5.7159185
-4.8127432 -2.8876452 -4.6244226
-4.8591633 -3.8873332 -3.5037379
-4.906466 -4.9064674 -2.361753
-4.9547205 -5.945662 -1.1967822
-5.003911 -7.005476 -0.0092056207
-5.054112 -8.0865822 1.2027376
-5.1052589 -9.1894646 2.4375257
-5.157258 -10.314515 3.692909
-5.2103276 -11.462719 4.9741173
-5.2645006 -12.634797 6.2819676
-5.3198118 -13.831509 7.6173034
-5.3762717 -15.053557 8.9803638
-5.43397 -16.301912 10.373318
-5.4916859 -17.573397 11.766714
-5.5874662 -18.997383 14.079053
-3.2649906 13.059963 -22.284512
-3.2719417 12.269782 -22.074745
-3.2808404 11.482939 -21.806204
-3.3076551 10.74988 -20.99699
-3.3349247 10.004772 -20.174065
-3.3626087 9.2471733 -19.338614
-3.3905609 8.4763994 -18.495089
-3.4191937 7.6931882 -17.631018
-3.4483955 6.896791 -16.749777
-3.4781003 6.0866756 -15.853354
-3.5081675 5.2622499 -14.945996
-3.5386455 4.423306 -14.026245
-3.5696576 3.5696552 -13.090367
-3.601218 2.7009132 -12.137946
-3.6333265 1.8166647 -11.168992
-3.666028 0.91650671 -10.182134
-3.6993234 1.1820622e-06 -9.1773548
-3.7332294 -0.93330473 -8.1541567
-3.7677627 -1.8838847 -7.1120238
-3.8029404 -2.8522058 -6.0504332
-3.8387647 -3.8387632 -4.9693475
-3.8755603 -4.8444514 -3.8589416
-3.9131899 -5.869782 -2.7233717
-3.9515393 -6.9151955 -1.5660629
-3.9906662 -7.9813352 -0.3853035
-4.0305572 -9.0687532 0.81850946
-4.0712729 -10.178185 2.0472093
-4.1127996 -11.310198 3.3003983
-4.155026 -12.465076 4.5746827
-4.1980882 -13.643788 5.8742051
-4.2420321 -14.847114 7.2003255
-4.2869263 -16.075974 8.5551271
-4.332653 -17.330614 9.9350605
-4.3782992 -18.607769 11.312543
-2.4072587 13.641134 -23.953707
-2.4174266 12.892941 -23.544584
-2.4227738 12.11387 -23.329422
-2.4349034 11.362884 -22.84137
-2.4545946 10.636577 -22.049061
-2.4746161 9.8984671 -21.243456
-2.4949574 9.1481781 -20.424988
-2.515502 8.385006 -19.598341
-2.5363779 7.6091342 -18.758358
-2.557801 6.8208003 -17.896351
-2.5795994 6.0190663 -17.019253
-2.6017418 5.2034802 -16.128309
-2.6240904 4.3734832 -15.229077
-2.6468155 3.5290873 -14.314684
-2.6699486 2.6699507 -13.383883
-2.6934896 1.7956582 -12.436667
-2.7174492 0.90581751 -11.472601
-2.7418394 -1.1382236e-06 -10.491229
-2.7666709 -0.92222267 -9.4920797
-2.7919447 -1.8612933 -8.4751425
-2.8176963 -2.8176947 -7.4389706
-2.8439276 -3.791903 -6.3835049
-2.870652 -4.7844167 -5.3082085
-2.8978958 -5.7957907 -4.2119937
-2.9259472 -6.8272071 -3.0833042
-2.9545333 -7.878757 -1.9330734
-2.9836972 -8.9510889 -0.75961477
-3.0134289 -10.044767 0.43670031
-3.0437732 -11.160502 1.6576519
-3.0747201 -12.298881 2.9028673
-3.1063178 -13.46071 4.1742558
-3.1384819 -14.646251 5.4684477
-3.171243 -15.856217 6.7866564
-3.2046955 -17.091711 8.1326733
-3.2385118 -18.351566 9.4933338
-1.5858972 13.480126 -25.096958
-1.5895441 12.716352 -24.876842
-1.593802 11.953517 -24.619867
-1.6064727 11.245309 -23.855112
-1.6193289 10.525639 -23.07918
-1.6323984 9.7943888 -22.290358
-1.6456746 9.0512085 -21.489075
-1.6591121 8.2955627 -20.678045
-1.6727201 7.5272412 -19.856733
-1.6866241 6.7464938 -19.017544
-1.7008337 5.9529185 -18.159933
-1.7152845 5.1458526 -17.287741
-1.7299014 4.3247533 -16.405519
-1.7447214 3.4894421 -15.511059
-1.7597973 2.6396971 -14.601148
-1.7751361 1.7751333 -13.675366
-1.7907448 0.89537084 -12.733307
-1.8066303 2.8448227e-07 -11.774534
-1.8227925 -0.91139692 -10.79905
-1.8392544 -1.8392568 -9.8054953
-1.8560162 -2.7840242 -8.7938318
-1.8730862 -3.7461727 -7.7635546
-1.8904734 -4.7261801 -6.7141585
-1.9081862 -5.7245584 -5.6450953
-1.9262257 -6.7417912 -4.5563087
-1.9447039 -7.7788134 -3.4410501
-1.9636542 -8.8364429 -2.2973068
-1.9829682 -9.9148426 -1.1315939
-2.0026753 -11.014711 0.057820432
-2.0227685 -12.136607 1.2705581
-2.0432785 -13.281312 2.508456
-2.0641992 -14.449392 3.7711194
-2.0855622 -15.641719 5.0605078
-2.1073523 -16.85882 6.3756499
-2.1295097 -18.100836 7.712965
-2.1687167 -19.518454 10.079316
-0.78030419 14.045476 -26.623266
-0.78226173 13.29845 -26.386978
-0.78414243 12.546278 -26.159956
-0.78876108 11.831417 -25.602438
-0.7949959 11.129941 -24.849823
-0.80130678 10.416988 -24.088028
-0.80770683 9.692481 -23.315477
-0.81420994 8.9563093 -22.530481
-0.82080024 8.208003 -21.734964
-0.82746077 7.447144 -20.930962
-0.83422714 6.6738143 -20.114191
-0.84117258 5.8882089 -19.275805
-0.84824443 5.089467 -18.422163
-0.85542291 4.2771177 -17.555645
-0.86266977 3.4506781 -16.680864
-0.87004054 2.610121 -15.791133
-0.87753832 1.7550775 -14.886072
-0.88516295 0.88516462 -13.965706
-0.89292473 -3.7292102e-07 -13.028761
-0.90082389 -0.90082765 -12.075247
-0.90886408 -1.8177303 -11.10471
-0.91704917 -2.7511444 -10.116695
-0.92538291 -3.7015288 -9.1107235
-0.93386555 -4.6693306 -8.0867701
-0.94250917 -5.6550531 -7.0433927
-0.95131433 -6.6591983 -5.9805131
-0.9602856 -7.6822877 -4.8975878
-0.96942765 -8.7248449 -3.7940521
-0.97882372 -9.7882376 -2.6598415
-0.98842591 -10.872687 -1.5007429
-0.99821395 -11.978566 -0.31923807
-1.0082023 -13.106629 0.88647008
-1.0183878 -14.257428 2.1159737
-1.0287862 -15.43179 3.3711579
-1.039394 -16.630306 4.6516485
-1.050228 -17.853876 5.9594188
-1.0610651 -19.099176 7.2675767
-4.1146007e-24 13.862453 -27.850634
2.8697466e-24 13.123491 -27.629297
-8.8829304e-24 12.397729 -27.280661
-2.9174569e-24 11.712118 -26.562468
8.451698e-24 11.016881 -25.824671
1.5755222e-23 10.310559 -25.076265
1.3843458e-23 9.5926723 -24.319479
6.7710929e-24 8.8633461 -23.550632
4.9542169e-24 8.1222715 -22.769798
-2.2519006e-23 7.3687425 -21.982578
1.9168405e-24 6.6029854 -21.18298
-1.7155954e-23 5.8249135 -20.367308
2.1311292e-23 5.0342817 -19.532372
-1.8605994e-23 4.2303996 -18.683449
-1.2667276e-24 3.4127669 -17.824957
-1.4006667e-24 2.5812027 -16.954752
-2.1804781e-23 1.7354602 -16.070137
-2.2200621e-23 0.87518692 -15.169894
1.0990743e-23 2.6764411e-07 -14.254042
-2.1764287e-23 -0.89049321 -13.322177
1.9492221e-23 -1.7967016 -12.373864
-2.6359331e-23 -2.7190356 -11.408682
-2.803541e-23 -3.6579244 -10.426616
-6.4873673e-24 -4.6138458 -9.4262848
9.3969845e-24 -5.5872416 -8.4076643
1.3302186e-23 -6.5786123 -7.3702421
-3.136386e-23 -7.5884457 -6.3134966
1.481014e-24 -8.6172743 -5.2368708
-1.1683301e-23 -9.6655903 -4.1403246
2.1417668e-23 -10.734228 -3.0201547
1.0056052e-24 -11.824588 -1.8681599
1.6955366e-23 -12.936427 -0.693946
-1.0357003e-23 -14.0705 0.50422895
-7.4146441e-24 -15.227353 1.725984
-1.8678891e-23 -16.407825 2.973175
-1.5003e-23 -17.61249 4.2454262
-2.2543149e-23 -18.84226 5.544703
0.75838125 14.409244 -29.269611
0.76016968 13.683055 -29.053715
0.76206428 12.955092 -28.825024
0.76711738 12.273878 -28.215054
0.77301627 11.595245 -27.502998
0.7790038 10.906054 -26.780243
0.78508753 10.20614 -26.045868
0.79124153 9.4948978 -25.303015
0.79748118 8.7722931 -24.549829
0.80381703 8.038167 -23.785015
0.81021869 7.2919679 -23.012276
0.81670487 6.533639 -22.229321
0.82329881 5.7630925 -21.433357
0.83004707 4.9802809 -20.618773
0.83693236 4.1846642 -19.787651
0.84391659 3.3756669 -18.944576
0.85096908 2.5529082 -18.093269
0.85814035 1.7162809 -17.227615
0.86543357 0.86543536 -16.34724
0.87285185 -2.604273e-06 -15.451777
0.88039833 -0.88039863 -14.540831
0.88807297 -1.7761436 -13.614431
0.89588612 -2.687655 -12.671295
0.90383804 -3.6153526 -11.711413
0.91193235 -4.5596633 -10.734341
0.92017293 -5.5210395 -9.7396126
0.92856389 -6.4999461 -8.7267399
0.93710524 -7.496841 -7.6957054
0.9458093 -8.5122805 -6.6450443
0.95467645 -9.5467644 -5.5746775
0.9637115 -10.600826 -4.484046
0.97291917 -11.67503 -3.372577
0.98235714 -12.770642 -2.2333183
0.99202919 -13.888412 -1.0657988
1.001889 -15.028338 0.12438519
1.0119514 -16.191223 1.3390268
1.0222132 -17.377625 2.5777376
1.0326902 -18.588425 3.842422
1.4944458 14.944456 -30.616535
1.4974495 14.225772 -30.435247
1.5011252 13.510126 -30.213394
1.5080041 12.818034 -29.798216
1.5191907 12.153528 -29.123053
1.5307518 11.480639 -28.425266
1.5424957 10.797469 -27.716459
1.5544159 10.103705 -26.997017
1.5665162 9.3990955 -26.26671
1.5787438 8.6830912 -25.528702
1.5911583 7.9557924 -24.779423
1.6037285 7.2167807 -24.020739
1.6164397 6.4657574 -23.253555
1.6293478 5.7027192 -22.474474
1.6424762 4.9274273 -21.68211
1.6559547 4.1398854 -20.868607
1.6696501 3.3392975 -20.042023
1.68349 2.5252378 -19.206703
1.6975223 1.6975259 -18.359791
1.7117902 0.8558954 -17.498638
1.7263001 -3.2905839e-06 -16.622885
1.7410512 -0.87052435 -15.732584
1.7560637 -1.7560644 -14.826504
1.7713372 -2.6570032 -13.904669
1.7868786 -3.5737586 -12.966649
1.8026954 -4.5067396 -12.01203
1.8187945 -5.4563832 -11.040361
1.8351761 -6.4231153 -10.051641
1.8518634 -7.407454 -9.0444784
1.8688569 -8.4098539 -8.0188332
1.886165 -9.4308224 -6.9741864
1.9037969 -10.470882 -5.9100075
1.9217615 -11.530571 -4.8257499
1.9400599 -12.610391 -3.7213478
1.9587187 -13.711033 -2.5951869
1.9779264 -14.834448 -1.4358965
1.9975238 -15.980193 -0.25309259
2.0175226 -17.148941 0.95394093
2.0379164 -18.341246 2.184819
2.0624492 -19.593266 3.6654959
2.213963 14.759753 -31.731316
2.2183952 14.049837 -31.552982
2.2241025 13.344614 -31.323338
2.2398973 12.692751 -30.687811
2.2566502 12.035465 -30.013727
2.2736633 11.368317 -29.32917
2.2909269 10.690993 -28.634535
2.3084629 10.003341 -27.928942
2.326261 9.305047 -27.212795
2.3442779 8.5956869 -26.487865
2.3625247 7.8750825 -25.753656
2.3810413 7.1431222 -25.008615
2.3997192 6.3992519 -24.257074
2.4186838 5.6435914 -23.493998
2.4379594 4.8759174 -22.718405
2.4576361 4.0960617 -21.926676
2.4777541 3.3036723 -21.117201
2.4981565 2.4981585 -20.296257
2.518754 1.6791695 -19.467484
2.5396841 0.84656048 -18.625326
2.5609748 7.4059278e-07 -17.768652
2.5826254 -0.8608712 -16.897493
2.6046455 -1.7364331 -16.011473
2.6270442 -2.627044 -15.110225
2.6498313 -3.5331116 -14.193335
2.6730068 -4.4550123 -13.260837
2.6966019 -5.3932023 -12.311446
2.7206171 -6.3481073 -11.345139
2.745064 -7.3201704 -10.361466
2.7699544 -8.3098631 -9.3599539
2.7953005 -9.3176651 -8.3401117
2.8211026 -10.344042 -7.3019261
2.8473973 -11.389589 -6.2438908
2.8741872 -12.454814 -5.1659513
2.9014859 -13.54027 -4.0675411
2.9293082 -14.646542 -2.948056
2.9577484 -15.77466 -1.8037034
2.9869761 -16.926199 -0.62767661
3.0167735 -18.100641 0.57127577
3.0480433 -19.304277 1.8294784
2.9248514 14.624257 -32.549118
2.9309063 13.921806 -32.366398
2.9378583 13.220363 -32.156597
2.9580092 12.57154 -31.548491
2.9799304 11.919721 -30.886959
3.0021687 11.258132 -30.215864
3.0247517 10.586629 -29.534363
3.0476661 9.9049158 -28.842852
3.0709414 9.2128248 -28.140457
3.0945532 8.5100193 -27.42791
3.1183987 7.7959957 -26.708319
3.1426251 7.0709047 -25.977213
3.1670492 6.3340979 -25.240162
3.1918209 5.5856886 -24.492605
3.2169948 4.8254895 -23.732906
3.2425573 4.0531983 -22.9615
3.2687838 3.2687836 -22.170034
3.2954628 2.4715943 -21.364923
3.3224056 1.6611998 -20.551859
3.3497286 0.83743197 -19.727314
3.3775046 -1.721858e-06 -18.889095
3.4057455 -0.85143507 -18.036854
3.4344623 -1.717231 -17.170246
3.4636676 -2.5977509 -16.288898
3.49336 -3.4933579 -15.392848
3.5235801 -4.4044757 -14.480878
3.5543277 -5.3314886 -13.552993
3.5856166 -6.274826 -12.60877
3.617461 -7.2349243 -11.64777
3.6498764 -8.2122231 -10.669553
3.6828623 -9.20716 -9.6741123
3.7164657 -10.220279 -8.6600428
3.7506881 -11.252062 -7.627296
3.7855463 -12.303025 -6.5753489
3.8210588 -13.373704 -5.5036669
3.8572435 -14.464664 -4.4116883
3.8941035 -15.576413 -3.2993507
3.9316916 -16.70969 -2.1650229
3.9702814 -17.866264 -1.0004768
4.0097823 -19.046465 0.19156514
3.6342046 14.536819 -33.076859
3.640599 13.834276 -32.922485
3.6503296 13.141187 -32.687569
3.6625481 12.452661 -32.39259
3.6894193 11.806141 -31.743862
3.7167006 11.150101 -31.085234
3.7443752 10.484249 -30.417107
3.7724779 9.808445 -29.738642
3.800993 9.1223812 -29.05023
3.8299553 8.4259005 -28.351013
3.8592546 7.7185106 -27.643673
3.8889229 7.0000596 -26.927414
3.9189112 6.2702556 -26.203426
3.9492667 5.5289745 -25.470583
3.9800818 4.7760987 -24.726648
4.0113811 4.0113797 -23.971004
4.0432811 3.2346249 -23.200878
4.0759487 2.4455698 -22.412205
4.1090565 1.6436231 -21.612907
4.142489 0.82849985 -20.805796
4.1764688 1.978487e-06 -19.985439
4.2110114 -0.84220088 -19.15151
4.2461138 -1.6984472 -18.304062
4.2818227 -2.5690911 -17.441973
4.3181376 -3.4545093 -16.565262
4.3550735 -4.3550768 -15.673542
4.3926468 -5.2711763 -14.766449
4.4308739 -6.2032204 -13.843559
4.4697542 -7.1516094 -12.904902
4.5093412 -8.1168146 -11.949188
4.5496359 -9.0992718 -10.97639
4.5906572 -10.099445 -9.9860506
4.6324248 -11.117821 -8.9776821
4.6749597 -12.154896 -7.9508033
4.7182627 -13.211138 -6.9053817
4.7623959 -14.287188 -5.8399158
4.8073621 -15.383561 -4.7543244
4.8531861 -16.500832 -3.6480403
4.8998919 -17.639608 -2.5204635
4.947505 -18.800518 -1.3709733
4.3472385 13.766256 -33.354637
4.3605418 13.081624 -33.086994
4.3748822 12.395499 -32.798477
4.389493 11.705317 -32.504536
4.4176345 11.044086 -31.938375
4.4502282 10.383865 -31.282637
4.4832916 9.7137966 -30.617455
4.5168653 9.0337315 -29.942007
4.55093 8.3433723 -29.256674
4.5855122 7.642519 -28.560934
4.6204143 6.9306221 -27.858765
4.6557693 6.2076926 -27.147472
4.6914697 5.473381 -26.429237
4.727705 4.727705 -25.700237
4.764504 3.9704199 -24.959888
4.8018985 3.2012661 -24.207584
4.8401504 2.4200759 -23.438013
4.8791428 1.6263816 -22.653549
4.9185119 0.81974995 -21.861498
4.9584284 2.8667037e-06 -21.058443
4.9989791 -0.83316052 -20.242622
5.0402179 -1.6800741 -19.41296
5.0821433 -2.5410733 -18.569494
5.1247716 -3.4165161 -17.711878
5.1681204 -4.3067694 -16.839756
5.2122102 -5.2122102 -15.952756
5.2570367 -6.1332078 -15.050909
5.3026624 -7.0702176 -14.132988
5.3490872 -8.023634 -13.19899
5.3963323 -8.9938879 -12.248495
5.4444189 -9.9814358 -11.281063
5.4933705 -10.986739 -10.296235
5.5431867 -12.010238 -9.2940073
5.5939388 -13.052527 -8.2729492
5.6456294 -14.114078 -7.2330279
5.6982832 -15.195422 -6.1737089
5.7519288 -16.297132 -5.0944457
5.8065939 -17.419785 -3.994662
5.8623605 -18.564144 -2.8727334
5.9822583 -19.940863 -0.46057051
5.0724959 13.043562 -33.342258
5.0809417 12.339428 -33.196613
5.097631 11.651727 -32.908817
5.1146507 10.959965 -32.615326
5.1426764 10.285348 -32.132042
5.1805363 9.6209946 -31.479172
5.2189398 8.9467525 -30.816916
5.257936 8.2624712 -30.144461
5.2975001 7.5678587 -29.462193
5.3375349 6.862545 -28.771816
5.3780866 6.1463838 -28.072544
5.4188957 5.4188929 -27.368803
5.46033 4.6802816 -26.654305
5.5024219 3.9303021 -25.928453
5.5451479 3.1686573 -25.191673
5.588583 2.3951073 -24.442652
5.6331568 1.6094733 -23.674006
5.6783013 0.81118304 -22.895514
5.7238984 8.2401874e-07 -22.109217
5.7702346 -0.82431918 -21.310186
5.8173261 -1.6620964 -20.498116
5.8651929 -2.5136514 -19.672688
5.9138541 -3.3793433 -18.833553
5.9633064 -4.2595038 -17.980776
6.0136166 -5.1545262 -17.113218
6.0647821 -6.0647812 -16.230894
6.1168261 -6.9906578 -15.333426
6.1697712 -7.9325614 -14.420427
6.2236409 -8.8909149 -13.491479
6.2784338 -9.8661098 -12.546613
6.3342257 -10.858671 -11.58451
6.3910184 -11.869035 -10.605152
6.4488387 -12.897681 -9.6080704
6.5077152 -13.945101 -8.5927896
6.5676761 -15.011831 -7.5588007
6.6287236 -16.098333 -6.5060649
6.6909752 -17.205366 -5.4325771
6.7546439 -18.334038 -4.3346491
6.8659916 -19.617117 -2.4145303
5.7995248 11.59905 -33.306252
5.8185501 10.909783 -33.019176
5.8380103 10.216516 -32.72554
5.8645649 9.5299158 -32.324871
5.9076447 8.8614664 -31.674845
5.9513426 8.1830969 -31.015501
5.9957118 7.4946389 -30.346022
6.0407057 6.7957935 -29.667107
6.0861487 6.0861487 -28.981421
6.1319828 5.3654838 -28.289848
6.1784029 4.6338 -27.589415
6.2255535 3.8909693 -26.877968
6.2734075 3.1367047 -26.155912
6.3220253 2.3707573 -25.422325
6.3716326 1.5929072 -24.673809
6.4223061 0.80278718 -23.909201
6.4734344 4.7050668e-07 -23.137728
6.5252876 -0.81566286 -22.355333
6.5779777 -1.6444941 -21.560297
6.6315255 -2.4868236 -20.752319
6.6859269 -3.3429644 -19.931467
6.7412548 -4.2132869 -19.096638
6.7975049 -5.0981307 -18.247885
6.8547025 -5.9978666 -17.384842
6.9128709 -6.9128709 -16.507158
6.9720345 -7.8435378 -15.614441
7.0321913 -8.7902374 -14.706747
7.0934243 -9.753459 -13.782816
7.1557331 -10.733601 -12.842649
7.2191458 -11.731108 -11.885823
7.2836919 -12.74646 -10.91189
7.3494039 -13.780132 -9.9203787
7.4162803 -14.832566 -8.9112825
7.4844174 -15.904386 -7.8831806
7.5540767 -16.996674 -6.8321004
7.6251116 -18.10964 -5.7602715
7.7290788 -19.322699 -4.1915293
6.5163326 10.860558 -33.415325
6.537683 10.169728 -33.128967
6.5595646 9.4749231 -32.835484
6.5833206 8.7777605 -32.516861
6.6315751 8.1052589 -31.869661
6.6805191 7.4227986 -31.213207
6.7302141 6.7302132 -30.546684
6.7804685 6.027082 -29.87266
6.8311491 5.3131166 -29.192913
6.8823781 4.5882506 -28.505819
6.9343567 3.8524208 -27.808664
6.9871264 3.1053903 -27.100901
7.04073 2.346909 -26.381945
7.0951376 1.5766975 -25.652214
7.1509352 0.79454505 -24.903849
7.2075119 -8.5809762e-07 -24.145027
7.2646441 -0.80718565 -23.378748
7.3226628 -1.6272582 -22.600586
7.3816433 -2.4605458 -21.809528
7.4415812 -3.3073716 -21.005615
7.502501 -4.1680551 -20.188547
7.5644259 -5.0429487 -19.357985
7.6273818 -5.9324093 -18.513607
7.6913643 -6.8367662 -17.655449
7.7564602 -7.7564597 -16.782364
7.8226671 -8.6918564 -15.894377
7.8900137 -9.6433506 -14.991101
7.9585299 -10.611377 -14.072137
8.0282469 -11.596357 -13.137071
8.099164 -12.5987 -12.185929
8.1713772 -13.618961 -11.217373
8.2448902 -14.657584 -10.231396
8.3199482 -15.71546 -9.2246971
8.3965273 -16.793053 -8.1975994
8.4744921 -17.890598 -7.1518998
8.5706806 -19.045959 -5.8617973
7.2319264 10.124695 -33.517246
7.2550197 9.4315262 -33.238487
7.2793198 8.7351818 -32.945152
7.3048015 8.0352793 -32.637566
7.3523479 7.3523469 -32.063629
7.4064927 6.665844 -31.410048
7.461441 5.9691496 -30.746761
7.5167994 5.2617583 -30.078524
7.5726209 4.5435734 -29.404692
7.6292515 3.8146248 -28.721102
7.6867628 3.0747075 -28.026884
7.74512 2.3235359 -27.322453
7.8043699 1.5608751 -26.607239
7.8647299 0.78647292 -25.87862
7.9264884 -2.4047322e-06 -25.133137
7.98876 -0.79887629 -24.381454
8.0519285 -1.6103863 -23.618937
8.1161051 -2.4348333 -22.844255
8.1813135 -3.2725272 -22.057129
8.2475767 -4.1237879 -21.257256
8.3148918 -4.9889359 -20.4447
8.3833456 -5.8683434 -19.618383
8.4529371 -6.7623506 -18.778345
8.5236931 -7.6713238 -17.92424
8.595643 -8.5956411 -17.055721
8.6688185 -9.5357027 -16.172417
8.7432508 -10.491902 -15.273946
8.8189363 -11.464618 -14.360333
8.8959808 -12.45437 -13.430334
8.9743824 -13.461574 -12.483941
9.054327 -14.486923 -11.518917
9.1359367 -15.531093 -10.533804
9.2189922 -16.594189 -9.5312319
9.3036108 -17.676863 -8.5097933
9.3910389 -18.782078 -7.4544501
7.9435072 9.3877811 -33.644669
7.9705405 8.6951332 -33.348015
7.9972563 7.9972544 -33.054836
8.0252428 7.2956758 -32.747726
8.0699835 6.6027131 -32.256756
8.129283 5.9122043 -31.60602
8.1892939 5.2113662 -30.947477
8.2495518 4.4997559 -30.28623
8.3106451 3.777565 -29.615812
8.3726788 3.0446117 -28.935064
8.4356165 2.3006215 -28.244404
8.4995375 1.5453691 -27.542955
8.5644054 0.77857989 -26.831121
8.6307316 1.3773399e-06 -26.103289
8.6981544 -0.79074383 -25.363394
8.7662277 -1.5938587 -24.616386
8.8353748 -2.409647 -23.857586
8.9056206 -3.2384076 -23.086727
8.9769602 -4.0804362 -22.303867
9.0494852 -4.9360828 -21.508003
9.1231909 -5.8056688 -20.699167
9.1981077 -6.6895304 -19.877056
9.2742653 -7.5880384 -19.041321
9.3516951 -8.501543 -18.191637
9.4303913 -9.4303932 -17.328051
9.5104599 -10.375051 -16.449396
9.5919008 -11.335881 -15.555696
9.6747484 -12.313314 -14.646553
9.7591181 -13.30789 -13.7207
9.845293 -14.320428 -12.775051
9.9329615 -15.350941 -11.812996
10.022247 -16.400043 -10.833197
10.113111 -17.468098 -9.8360968
10.211489 -18.566347 -8.7565155
8.6843023 7.9606104 -33.456985
8.7134314 7.2611947 -33.16396
8.743886 6.5579133 -32.857616
8.784503 5.8563333 -32.449039
8.8489113 5.1618667 -31.801138
8.9135494 4.4567733 -31.15093
8.9789562 3.74123 -30.492992
9.0452986 3.0150979 -29.825642
9.1126289 2.278156 -29.148352
9.1809998 1.5301671 -28.460588
9.2503729 0.77086186 -27.762747
9.3208685 -2.3949178e-06 -27.053619
9.3931484 -0.78276098 -26.32655
9.4660149 -1.5776678 -25.593569
9.5398827 -2.3849723 -24.850513
9.6149464 -3.2049825 -24.095423
9.6912022 -4.0380025 -23.32835
9.7686768 -4.8843379 -22.549017
9.8473997 -5.7443199 -21.75712
9.9274025 -6.6182694 -20.952358
10.008677 -7.5065084 -20.134792
10.091333 -8.4094486 -19.303341
10.175365 -9.3274174 -18.458048
10.260809 -10.260807 -17.598555
10.347699 -11.21001 -16.724504
10.436073 -12.175421 -15.835524
10.52639 -13.157987 -14.927011
10.618241 -14.157655 -14.003063
10.711752 -15.174982 -13.062416
10.806881 -16.210323 -12.105498
10.903714 -17.264214 -11.131432
11.002344 -18.337242 -10.139283
10.316581 9.5229959 -25.020361
10.211418 8.6404314 -25.996838
9.3962574 7.2278905 -33.565971
9.4278278 6.5269575 -33.272812
9.4607382 5.8219934 -32.967228
9.4959269 5.1131916 -32.640491
9.5649834 4.414609 -31.999264
9.6345015 3.7055774 -31.353765
9.7050037 2.9861577 -30.699118
9.7765789 2.2561328 -30.034512
9.849184 1.5152586 -29.360342
9.9228754 0.76329702 -28.676079
9.9977131 6.7896661e-07 -27.981182
10.074008 -0.77492487 -27.272757
10.15169 -1.5617985 -26.551437
10.230143 -2.360801 -25.822973
10.309817 -3.1722558 -25.08316
10.390742 -3.9964409 -24.331738
10.472947 -4.8336668 -23.56843
10.556463 -5.6842489 -22.792944
10.641282 -6.548481 -22.00536
10.727516 -7.426743 -21.204638
10.81516 -8.3193512 -20.390841
10.904246 -9.2266703 -19.563625
10.994812 -10.149057 -18.722683
11.086895 -11.086896 -17.867649
11.180884 -12.040951 -16.994925
11.276525 -13.011375 -16.106865
11.37386 -13.998596 -15.203061
11.472844 -15.002954 -14.283942
11.573613 -16.025007 -13.348257
11.676121 -17.065102 -12.396432
11.780413 -18.123711 -11.428045
11.266644 10.461883 -23.67116
11.087264 9.5033674 -25.217813
11.032614 8.6684837 -25.689005
11.018692 7.870492 -25.809048
10.112771 6.5010672 -33.620075
10.140453 5.7945442 -33.381397
10.175773 5.0878849 -33.076859
10.212422 4.3767505 -32.76086
10.27767 3.6705942 -32.198284
10.352163 2.9577632 -31.555984
10.42778 2.2345231 -30.903999
10.504475 1.5006392 -30.242729
10.582305 0.75588125 -29.571659
10.661334 2.4520187e-07 -28.890251
10.741515 -0.76725471 -28.198915
10.823672 -1.5462377 -27.490551
10.906554 -2.3371205 -26.775915
10.990638 -3.1401796 -26.050938
11.076027 -3.9557264 -25.314686
11.162715 -4.7840204 -24.567255
11.25081 -5.6254072 -23.807684
11.340307 -6.4801736 -23.036026
11.431239 -7.3486543 -22.251991
11.523641 -8.2311745 -21.455276
11.61755 -9.1280766 -20.645586
11.712955 -10.039675 -19.822971
11.810305 -10.966709 -18.983612
11.909378 -11.909375 -18.129387
12.010174 -12.868041 -17.260309
12.112642 -13.843022 -16.376799
12.216923 -14.834832 -15.477673
12.322965 -15.843812 -14.563354
12.430815 -16.870392 -13.633451
12.540569 -17.9151 -12.687129
12.807425 -19.211138 -10.386248
11.97762 10.380605 -24.425877
11.905206 9.5241613 -25.008617
11.884042 8.714963 -25.178938
11.884768 7.9231768 -25.173086
11.885496 7.1312971 -25.167234
10.83305 5.7776265 -33.636662
10.851275 5.0639291 -33.489994
10.892759 4.3571033 -33.156155
10.934635 3.6448808 -32.819172
10.987168 2.9299119 -32.396412
11.066627 2.2133238 -31.756992
11.147241 1.4862962 -31.108252
11.229076 0.74860704 -30.449688
11.312085 1.8449067e-06 -29.781694
11.396328 -0.75975418 -29.10375
11.482076 -1.5309455 -28.413704
11.569529 -2.3139064 -27.709932
11.65783 -3.1087577 -26.999338
11.74745 -3.9158194 -26.278143
11.838498 -4.7353964 -25.545437
11.930971 -5.5677872 -24.801283
12.024899 -6.4132791 -24.045414
12.120317 -7.2721877 -23.277548
12.21726 -8.1448441 -22.497391
12.315723 -9.0315332 -21.705029
12.416065 -9.9328527 -20.897535
12.518246 -10.849143 -20.075256
12.62217 -11.780695 -19.238934
12.727786 -12.727785 -18.389008
12.835234 -13.690917 -17.524332
12.944408 -14.67033 -16.64576
13.055458 -15.66655 -15.75211
13.168481 -16.680075 -14.842566
13.283425 -17.711231 -13.917567
13.56041 -18.984573 -11.688565
12.898561 11.28624 -23.502199
12.794179 10.39527 -24.289688
12.762425 9.5718222 -24.529249
12.761686 8.7736616 -24.53483
12.762472 7.9765444 -24.5289
12.763258 7.1793327 -24.52297
12.764137 6.3820672 -24.51634
12.765062 5.5847173 -24.509361
11.567017 4.3376312 -33.547916
11.611245 3.6285136 -33.214233
11.655852 2.9139647 -32.877697
11.700805 2.1938996 -32.538563
11.777838 1.4722272 -31.957394
11.863479 0.74146962 -31.311283
11.950334 -1.2561666e-06 -30.65601
12.038511 -0.75240874 -29.990765
12.127958 -1.5159951 -29.315941
12.219378 -2.2911313 -28.626221
12.311759 -3.0779393 -27.929266
12.405502 -3.8767202 -27.222021
12.500685 -4.6877556 -26.503935
12.59734 -5.5113363 -25.774734
12.695499 -6.347753 -25.034168
12.795156 -7.1972775 -24.282324
12.896435 -8.0602722 -23.518227
12.999475 -8.9371414 -22.74085
13.104467 -9.8283491 -21.948751
13.211219 -10.734115 -21.143373
13.319673 -11.654712 -20.325144
13.429923 -12.590555 -19.49337
13.542013 -13.542012 -18.64772
13.655938 -14.509432 -17.788225
13.771795 -15.493268 -16.91415
13.889689 -16.494005 -16.024704
14.009565 -17.511955 -15.120313
14.294392 -18.761393 -12.971463
13.84874 12.219476 -22.47957
13.708033 11.28897 -23.478674
13.658208 10.444513 -23.832462
13.650436 9.635602 -23.887644
13.651282 8.8331823 -23.881638
13.65213 8.0306654 -23.875626
13.653075 7.2280974 -23.868904
13.654122 6.425467 -23.861479
13.655019 5.6226525 -23.855112
13.655965 4.8197503 -23.848387
12.296414 3.6165929 -33.502041
12.328861 2.9009089 -33.27166
12.376153 2.1840265 -32.935856
12.423851 1.4616293 -32.597172
12.485897 0.73446512 -32.156601
12.57644 -1.8548204e-06 -31.513691
12.668348 -0.74519491 -30.861086
12.761565 -1.5013614 -30.199184
12.85621 -2.2687445 -29.527153
12.952895 -3.0477431 -28.840622
13.050546 -3.8383965 -28.147242
13.14968 -4.6410646 -27.443333
13.250331 -5.4560161 -26.728643
13.352488 -6.2835207 -26.003269
13.456281 -7.1239138 -25.266268
13.561749 -7.9774985 -24.517389
13.669282 -8.8448296 -23.75383
13.778584 -9.7260628 -22.977709
13.889599 -10.62146 -22.189442
14.002416 -11.531404 -21.388367
14.117028 -12.456203 -20.574553
14.233531 -13.396264 -19.747307
14.352028 -14.352026 -18.905903
14.47246 -15.323781 -18.050764
14.594986 -16.31204 -17.180754
14.719546 -17.317114 -16.296297
15.00993 -18.541679 -14.234385
14.859165 13.20815 -21.166544
14.636888 12.197406 -22.657177
14.567102 11.329969 -23.125164
14.551216 10.509212 -23.231701
14.552071 9.7013788 -23.225967
14.552979 8.8934879 -23.219872
14.554049 8.0855837 -23.212704
14.555171 7.2775831 -23.205173
14.556132 6.4693894 -23.198723
14.557149 5.6611128 -23.191914
14.558111 4.8527017 -23.185453
14.559128 4.0441995 -23.178637
14.560091 3.2355785 -23.172186
13.045622 2.1742694 -33.32843
13.095502 1.4550539 -32.993935
13.145938 0.7303285 -32.655704
13.196765 -1.478893e-06 -32.31485
13.286229 -0.73812479 -31.714891
13.383059 -1.487008 -31.065536
13.481355 -2.2468917 -30.40634
13.581526 -3.0181177 -29.734583
13.682961 -3.8008232 -29.05435
13.785825 -4.5952787 -28.364521
13.890297 -5.4017806 -27.663923
13.996364 -6.2206073 -26.952618
14.104064 -7.0520329 -26.230364
14.213842 -7.8965783 -25.494177
14.325446 -8.7544355 -24.74575
14.438764 -9.625843 -23.985821
14.553835 -10.5111 -23.21414
14.670809 -11.410629 -22.429693
14.789623 -12.324687 -21.632902
14.910378 -13.253668 -20.823103
15.033178 -14.198005 -19.99959
15.15796 -15.15796 -19.162786
15.28483 -16.133987 -18.311975
15.413902 -17.126558 -17.446394
15.708904 -18.327055 -15.468066
15.581495 13.12126 -21.822063
15.489295 12.228392 -22.407831
15.464212 11.394681 -22.567181
15.465185 10.581442 -22.561007
15.466156 9.7681007 -22.554829
15.4673 8.9547529 -22.547564
15.468501 8.1413193 -22.539934
15.469588 7.3277001 -22.53303
15.470618 6.5139446 -22.526487
15.471705 5.7001009 -22.519577
15.472735 4.8861294 -22.513037
15.473823 4.0720563 -22.506123
15.474854 3.2578626 -22.499573
15.475941 2.4435709 -22.492664
13.759281 1.4483453 -33.398941
13.814081 0.72705674 -33.050781
13.867067 6.9840439e-08 -32.714153
13.9206 -0.73266363 -32.37405
13.99278 -1.4729264 -31.915482
14.094574 -2.2254572 -31.268759
14.197813 -2.9890122 -30.612862
14.303064 -3.7639661 -29.944176
14.40959 -4.5503964 -29.267401
14.517715 -5.3486342 -28.580462
14.627474 -6.158936 -27.883146
14.739218 -6.9817348 -27.173218
14.852891 -7.8173122 -26.451021
14.968226 -8.6658125 -25.718279
15.08542 -9.5276318 -24.973722
15.20441 -10.403019 -24.21776
15.325346 -11.292358 -23.449434
15.448164 -12.195917 -22.669142
15.572968 -13.114075 -21.87624
15.699862 -14.047245 -21.070053
15.828783 -14.995689 -20.250998
15.959839 -15.959839 -19.418373
16.092958 -16.939957 -18.572641
16.392332 -18.11784 -16.67066
16.558115 14.074398 -20.877251
16.425192 13.140151 -21.679522
16.389791 12.292343 -21.893183
16.390829 11.473579 -21.886921
16.391867 10.654713 -21.880659
16.393024 9.8358135 -21.873657
16.394367 9.016902 -21.865553
16.395527 8.1977634 -21.858553
16.396627 7.3784804 -21.851919
16.397787 6.5591168 -21.844923
16.398947 5.7396312 -21.837917
16.400047 4.9200115 -21.83128
16.401207 4.1003008 -21.824278
16.402308 3.2804573 -21.817635
16.403467 2.4605212 -21.810629
16.404568 1.6404573 -21.803989
16.405729 0.82028824 -21.796982
14.531733 1.1588583e-06 -33.107552
14.587435 -0.72937411 -32.771362
14.643517 -1.46435 -32.432877
14.700277 -2.2050402 -32.090298
14.802826 -2.9605658 -31.471359
14.911308 -3.7278285 -30.81661
15.02129 -4.5063868 -30.152815
15.132906 -5.2965164 -29.479147
15.246404 -6.0985594 -28.794128
15.36194 -6.9128757 -28.096807
15.479131 -7.7395668 -27.389494
15.598124 -8.5789671 -26.671316
15.719016 -9.4314079 -25.941662
15.841741 -10.29713 -25.20096
15.966395 -11.176476 -24.448599
16.093029 -12.069771 -23.684296
16.221567 -12.977253 -22.908503
16.352236 -13.899398 -22.119852
16.485025 -14.836524 -21.318384
16.619928 -15.788932 -20.504175
16.756929 -16.756929 -19.677303
17.07032 -17.923834 -17.785828
17.572973 15.062547 -19.802624
17.39472 14.081444 -20.827242
17.335758 13.208197 -21.16617
17.329195 12.377996 -21.203892
17.330299 11.553535 -21.197546
17.331598 10.729085 -21.190077
17.333029 9.9045877 -21.18186
17.334263 9.079854 -21.174765
17.335499 8.2550001 -21.167669
17.336668 7.4300022 -21.160938
17.337904 6.6049156 -21.153839
17.339073 5.7796926 -21.147114
17.340309 4.9543724 -21.140007
17.34148 4.1289244 -21.133274
17.342716 3.303375 -21.126173
17.343887 2.4776978 -21.11944
17.345123 1.6519209 -21.112339
17.346296 0.82601398 -21.105602
17.34753 -2.0527259e-06 -21.09849
15.246493 -0.72602481 -33.175526
15.306816 -1.4577892 -32.828785
15.365677 -2.1950991 -32.490448
15.424992 -2.9380951 -32.149502
15.507932 -3.6923637 -31.67275
15.62127 -4.463223 -31.021263
15.736332 -5.2454429 -30.359877
15.853481 -6.0394197 -29.686485
15.972388 -6.8453131 -29.002993
16.093037 -7.663352 -28.309492
16.215464 -8.4938126 -27.605766
16.33971 -9.3369789 -26.891577
16.465935 -10.193195 -26.166023
16.594124 -11.062747 -25.429174
16.724266 -11.945901 -24.68111
16.856524 -12.843067 -23.920862
16.990892 -13.754535 -23.148499
17.12742 -14.680647 -22.36372
17.266096 -15.621704 -21.566603
17.424156 -16.594437 -20.658041
17.750349 -17.750347 -18.783045
18.64184 16.099771 -18.529356
18.381695 15.039567 -19.956734
18.297323 14.13884 -20.419674
18.28068 13.295037 -20.510992
18.281853 12.4649 -20.504557
18.283232 11.634785 -20.496983
18.284681 10.804584 -20.489027
18.286131 9.9742527 -20.481075
18.287374 9.1436882 -20.474255
18.288687 8.3130388 -20.467054
18.289928 7.4822412 -20.460234
18.291241 6.6513591 -20.453033
18.292486 5.8203368 -20.446218
18.293798 4.9892159 -20.439009
18.295042 4.1579595 -20.432182
18.296354 3.3266106 -20.424982
18.2976 2.4951262 -20.418154
18.298912 1.6635349 -20.410948
18.300158 0.83182442 -20.404114
18.301332 1.2292024e-06 -20.397673
18.302439 -0.83192855 -20.391598
16.025949 -1.4569039 -32.882351
16.025312 -2.1852729 -32.885845
16.086897 -2.92489 -32.547947
16.148954 -3.6702168 -32.207439
16.21209 -4.4214826 -31.861027
16.328398 -5.1953988 -31.22287
16.448618 -5.9813137 -30.563234
16.570679 -6.7789125 -29.893505
16.694565 -7.5884399 -29.213757
16.820261 -8.4101305 -28.524088
16.94792 -9.2443218 -27.823633
17.077536 -10.091271 -27.112461
17.209146 -10.951275 -26.390335
17.342739 -11.824597 -25.657326
17.478485 -12.711631 -24.912502
17.616375 -13.612655 -24.155926
17.756392 -14.52796 -23.387676
17.898718 -15.457982 -22.606758
18.082619 -16.438744 -21.597727
19.385559 16.014158 -19.073275
19.273403 15.083533 -19.661909
19.245493 14.224929 -19.808384
19.246737 13.389034 -19.801855
19.248199 12.553175 -19.79418
19.249737 11.717229 -19.786114
19.251274 10.881155 -19.778048
19.25259 10.044833 -19.771132
19.253983 9.2084265 -19.763828
19.255301 8.371871 -19.756914
19.256691 7.5352263 -19.749613
19.258009 6.6984386 -19.742699
19.259401 5.8615561 -19.735388
19.260792 5.0245552 -19.728083
19.262112 4.1874146 -19.721167
19.263504 3.3501761 -19.713854
19.264822 2.5128033 -19.706936
19.266069 1.6753105 -19.70039
19.267242 0.83770573 -19.694237
19.268415 -1.3344318e-06 -19.68808
19.269588 -0.8378107 -19.681919
19.270761 -1.6757176 -19.675762
19.271935 -2.5137296 -19.669605
16.777996 -2.9179113 -32.758526
16.807177 -3.6537359 -32.60537
16.875515 -4.402308 -32.246719
16.948549 -5.1582546 -31.863409
17.03224 -5.9242587 -31.424179
17.157417 -6.7137718 -30.767204
17.284449 -7.5149765 -30.100513
17.413315 -8.3281088 -29.424181
17.544178 -9.1534843 -28.737377
17.677023 -9.9913626 -28.040167
17.811832 -10.841986 -27.332642
17.948778 -11.705729 -26.613913
18.087847 -12.582848 -25.88405
18.229084 -13.473669 -25.14279
18.37248 -14.378462 -24.390207
18.518217 -15.297662 -23.62533
18.728907 -16.286005 -22.519577
20.420572 17.017147 -18.106766
20.264408 16.042658 -18.892221
20.223841 15.167881 -19.096251
20.225159 14.326153 -19.08963
20.226706 13.484471 -19.081846
20.228411 12.642756 -19.073273
20.230036 11.800857 -19.0651
20.231506 10.958738 -19.057695
20.232903 10.116455 -19.05068
20.234375 9.2740908 -19.043274
20.235769 8.4315701 -19.036261
20.237242 7.5889645 -19.028849
20.238638 6.7462153 -19.021835
20.24011 5.9033675 -19.014427
20.241505 5.0603757 -19.007406
20.242979 4.2172856 -18.999992
20.244219 3.3740346 -18.993753
20.245461 2.5306814 -18.987513
20.246702 1.6872259 -18.981266
20.247944 0.84366477 -18.975021
20.249186 2.2141392e-06 -18.968782
20.250427 -0.84376794 -18.962532
20.251669 -1.6876385 -18.956287
20.252911 -2.531615 -18.950043
20.253687 -3.3756144 -18.946133
17.518909 -3.6497738 -32.701008
17.533211 -4.3833013 -32.629078
17.608706 -5.1358728 -32.249374
17.68491 -5.8949699 -31.866085
17.761778 -6.6606674 -31.479473
17.862961 -7.4428992 -30.97057
17.994915 -8.2476664 -30.30689
18.128834 -9.064415 -29.633337
18.264759 -9.8934126 -28.949669
18.402674 -10.734895 -28.256008
18.542753 -11.589224 -27.551462
18.684982 -12.456655 -26.836109
18.829344 -13.337454 -26.110031
18.976019 -14.232018 -25.372305
19.124929 -15.140571 -24.623344
19.363297 -16.136082 -23.42445
21.505735 18.064816 -16.975449
21.287884 17.030308 -18.027315
21.221153 16.128078 -18.349518
21.217554 15.276638 -18.366898
21.219193 14.42905 -18.358995
21.220909 13.581384 -18.350704
21.22271 12.733624 -18.342012
21.224264 11.885587 -18.334503
21.225821 11.037426 -18.326994
21.227293 10.189097 -18.319876
21.228848 9.3406954 -18.31237
21.230324 8.4921303 -18.305256
21.231878 7.643476 -18.297739
21.233355 6.794673 -18.290615
21.234909 5.9457741 -18.283106
21.236219 5.0966945 -18.276775
21.237532 4.2475076 -18.270441
21.238842 3.3982155 -18.264111
21.240154 2.5488219 -18.257782
21.241467 1.699317 -18.251448
21.242777 0.84971052 -18.245108
21.244089 -1.1005001e-06 -18.238779
21.245401 -0.84981501 -18.232447
21.246714 -1.6997406 -18.226105
21.247536 -2.5497046 -18.222151
21.248354 -3.3997376 -18.218184
21.249176 -4.2498369 -18.214226
21.249666 -5.0999222 -18.211845
18.300562 -5.1241574 -32.451385
18.341972 -5.8694324 -32.251446
18.421288 -6.6316638 -31.868471
18.501356 -7.4005427 -31.481874
18.582058 -8.1761055 -31.092203
18.702219 -8.977067 -30.512022
18.841017 -9.7973289 -29.841837
18.981958 -10.629897 -29.161312
19.125023 -11.475012 -28.470539
19.270262 -12.332968 -27.769264
19.417654 -13.204007 -27.057589
19.567389 -14.088522 -26.334604
19.718956 -14.986406 -25.602781
19.985535 -15.988429 -24.315622
22.630177 19.148613 -15.748785
22.337685 18.041975 -17.106743
22.240046 17.107727 -17.560055
22.224155 16.240732 -17.633825
22.22588 15.387145 -17.625805
22.227694 14.533494 -17.617393
22.229593 13.67975 -17.608572
22.231234 12.825713 -17.600964
22.232874 11.971548 -17.593346
22.23443 11.117212 -17.586124
22.236071 10.262801 -17.578505
22.237625 9.408227 -17.571285
22.239265 8.5535612 -17.563663
22.240822 7.69875 -17.556448
22.242205 6.843751 -17.550022
22.243587 5.9886556 -17.543602
22.24497 5.1334543 -17.53718
22.246353 4.2781425 -17.53076
22.247738 3.422729 -17.524336
22.249121 2.5672052 -17.517914
22.250505 1.7115791 -17.511488
22.251888 0.85584271 -17.505064
22.253271 9.3201152e-07 -17.498638
22.254658 -0.8559472 -17.492212
22.25561 -1.7119693 -17.487795
22.256475 -2.5680559 -17.483776
22.257254 -3.4241915 -17.480162
