# .PCD v0.7 - Point Cloud Data file format
VERSION 0.7
FIELDS x y z
SIZE 4 4 4
TYPE F F F
COUNT 1 1 1
WIDTH 1501
HEIGHT 1
VIEWPOINT 0 0 0 1 0 0 0
POINTS 1501
DATA ascii
-12.57579 35.212215 51.8284
-12.131221 31.541185 41.09552
-11.71707 28.120975 31.097025
-11.330206 24.926462 21.757338
-10.968074 21.936153 13.014646
-10.628372 19.131067 4.8135285
-10.309126 16.494604 -2.8937345
-10.008457 14.011841 -10.152541
-9.7248287 11.669797 -16.999935
-9.4568329 9.4568338 -23.469923
-9.203249 7.3625965 -29.591986
-8.9628735 5.3777232 -35.395142
-8.7347355 3.493897 -40.902882
-8.5179558 1.7035954 -46.13644
-8.3116446 -5.9562926e-06 -51.117226
-8.1150904 -1.623019 -55.86245
-7.927618 -3.1710465 -60.388435
-7.7486386 -4.6491785 -64.709373
-7.6242309 -6.0993824 -67.712852
-7.5794711 -7.5794716 -68.793442
-7.5790191 -9.09482 -68.804352
-7.5785666 -10.609994 -68.815277
-7.7603941 -12.416625 -64.425575
-7.7606049 -13.969082 -64.420486
-7.7608156 -15.521626 -64.415398
-7.7610264 -17.074259 -64.410301
-7.7612371 -18.626968 -64.405228
-7.7613692 -20.17956 -64.402039
-7.7614746 -21.732126 -64.399506
-7.7615538 -23.284655 -64.397591
-7.7616591 -24.837307 -64.395042
-7.7617645 -26.390003 -64.392494
-7.7618699 -27.942738 -64.389946
-7.7619753 -29.495512 -64.387398
-7.7830591 -68.490921 -63.878391
-7.7841988 -70.057793 -63.85088
-7.7853117 -71.624863 -63.824017
-7.7864251 -73.192406 -63.797123
-7.787539 -74.760376 -63.770241
-7.7888656 -76.330879 -63.73822
-10.520289 39.451096 65.69976
-10.132074 35.462273 53.984348
-9.7714405 31.757187 43.101223
-9.4355955 28.306787 32.966217
-9.1220694 25.08569 23.504742
-8.8287516 22.071886 14.653099
-8.5536699 19.245764 6.3517666
-8.2952118 16.590424 -1.4478992
-8.0519495 14.090914 -8.7889833
-7.822516 11.733779 -15.71277
-7.6057944 9.5072403 -22.252911
-7.4007583 7.4007559 -28.44043
-7.2065144 5.404882 -34.302254
-7.0221791 3.5110884 -39.865059
-6.8470397 1.711759 -45.150372
-6.6804228 5.3528306e-06 -50.178471
-6.5217462 -1.6304361 -54.966957
-6.37041 -3.1852067 -59.533924
-6.2259388 -4.6694527 -63.893745
-6.0878944 -6.0878944 -68.059586
-5.9996166 -7.4995193 -70.723602
-5.97194 -8.9579058 -71.558838
-5.9715886 -10.450284 -71.569427
-5.9712377 -11.942474 -71.580025
-6.1149015 -13.758525 -67.244598
-6.1150651 -15.287665 -67.239655
-6.1152282 -16.816879 -67.234718
-6.1153917 -18.346174 -67.22979
-6.1154943 -19.875355 -67.2267
-6.1155763 -21.404518 -67.224228
-6.1156578 -22.93371 -67.221771
-6.1157188 -24.462875 -67.219917
-6.1158013 -25.992149 -67.217445
-6.1158824 -27.521471 -67.214973
-6.1159639 -29.050831 -67.212509
-6.1160464 -30.580231 -67.210037
-6.1130824 -32.093681 -67.299477
-6.1275401 -59.743519 -66.863182
-6.1284227 -61.284222 -66.836555
-6.1292849 -62.825172 -66.810516
-6.1301479 -64.366554 -66.784492
-6.1309695 -65.907921 -66.759682
-6.1317921 -67.449707 -66.734879
-6.1328607 -68.994682 -66.702614
-6.1340742 -70.541855 -66.665993
-6.1352677 -72.089394 -66.62999
-6.1364822 -73.637787 -66.593338
-6.1376967 -75.18679 -66.556671
-7.9488249 39.744122 68.057961
-7.6533613 35.715683 56.169407
-7.3790755 31.975998 45.133003
-7.1238065 28.495235 34.861774
-6.8855734 25.247107 25.276022
-6.6627588 22.209206 16.310654
-6.4539433 19.361832 7.9085588
-6.2577901 16.687441 0.015967505
-6.0732083 14.17082 -7.4110332
-5.8992038 11.798405 -14.412434
-5.7349157 9.558197 -21.022856
-5.5795088 7.4393454 -27.275974
-5.4323015 5.4322982 -33.199139
-5.2926621 3.5284474 -38.817791
-5.1600413 1.7200171 -44.15403
-5.033886 9.3980434e-06 -49.230141
-4.9137521 -1.6379083 -54.063957
-4.7992353 -3.1994815 -58.671757
-4.6899185 -4.6899185 -63.07032
-4.5854707 -6.1139574 -67.272972
-4.4855742 -7.4759583 -71.292503
-4.4272814 -8.8545618 -73.638023
-4.4122591 -10.295269 -74.242462
-4.4120035 -11.765337 -74.252747
-4.4117484 -13.235244 -74.263023
-4.5181923 -15.060637 -69.980042
-4.5183115 -16.567141 -69.97525
-4.5184302 -18.073723 -69.970459
-4.5185046 -19.580191 -69.967461
-4.5185647 -21.08663 -69.965073
-4.5186238 -22.593122 -69.962669
-4.5186834 -24.09964 -69.960289
-4.5187283 -25.606127 -69.958488
-4.5187879 -27.112732 -69.956085
-4.518847 -28.61936 -69.953697
-4.5189066 -30.126041 -69.951302
-4.5189662 -31.632763 -69.948906
-4.5165267 -33.121193 -70.047081
-4.5238094 -51.269833 -69.754044
-4.524436 -52.785084 -69.728813
-4.5250626 -54.300747 -69.703606
-4.5256596 -55.816475 -69.679573
-4.526257 -57.332588 -69.655548
-4.5268397 -58.848911 -69.632111
-4.5274372 -60.365818 -69.60807
-4.528244 -61.885994 -69.5756
-4.5291262 -63.407764 -69.540108
-4.5300083 -64.930115 -69.504608
-4.5308909 -66.453072 -69.469086
-4.5341558 -68.012329 -69.337738
-4.5531011 -69.814217 -68.575424
-4.57341 -71.650085 -67.758263
-4.5939007 -73.502411 -66.933777
-4.6145759 -75.371399 -66.101875
-5.3388424 40.041328 70.449585
-5.1389942 35.972965 58.387684
-4.9535408 32.198021 47.194576
-4.7810068 28.686045 36.781223
-4.62011 25.410606 27.070238
-4.4696684 22.348341 17.990286
-4.3287153 19.479227 9.4829988
-4.1963801 16.785522 1.4958922
-4.0719147 14.251703 -6.0162716
-3.954603 11.863815 -13.096674
-3.8438611 9.6096573 -19.780521
-3.7391529 7.478301 -26.100227
-3.6400123 5.4600205 -32.083889
-3.5459795 3.5459797 -37.759281
-3.4566824 1.7283372 -43.148823
-3.3717849 4.7275907e-06 -48.272839
-3.290946 -1.6454755 -53.151905
-3.2138925 -3.2138901 -57.802505
-3.1403644 -4.7105451 -62.240299
-3.0701361 -6.1402712 -66.478958
-3.00297 -7.5074263 -70.532784
-2.9386802 -8.816041 -74.413033
-2.9047723 -10.166699 -76.459549
-2.8983469 -11.593384 -76.847351
-2.8981817 -13.04182 -76.857323
-2.8980162 -14.490082 -76.867302
-2.9681301 -16.324715 -72.635574
-2.9682069 -17.809242 -72.63092
-2.968255 -19.293657 -72.628014
-2.9682937 -20.778053 -72.625687
-2.9683323 -22.262491 -72.623367
-2.9683709 -23.746962 -72.621048
-2.9684093 -25.23148 -72.618713
-2.9684384 -26.715942 -72.616974
-2.9684765 -28.200531 -72.614632
-2.9685152 -29.68515 -72.61232
-2.9685538 -31.169819 -72.609985
-2.9685924 -32.65451 -72.607666
-2.9668303 -34.118542 -72.714035
-2.9694407 -43.056889 -72.556465
-2.9698455 -44.547684 -72.532028
-2.9702313 -46.038586 -72.508743
-2.9706173 -47.529881 -72.485451
-2.9709935 -49.021389 -72.462738
-2.9713798 -50.513458 -72.439438
-2.9717562 -52.005733 -72.416702
-2.9721425 -53.498566 -72.393394
-2.9726834 -54.994648 -72.360741
-2.9732535 -56.49181 -72.32634
-2.973824 -57.989567 -72.291908
-2.9745009 -59.490021 -72.251038
-2.9859602 -61.212185 -71.559425
-2.9990609 -62.980278 -70.768738
-3.0122769 -64.763962 -69.971054
-3.0256104 -66.563431 -69.166328
-3.039062 -68.378891 -68.354446
-3.052634 -70.210579 -67.535301
-3.0663278 -72.058701 -66.708817
-3.0802279 -73.925461 -65.869873
-3.0943589 -75.81179 -65.016975
-2.6895487 40.343235 72.879189
-2.5881259 36.233761 60.636372
-2.4940882 32.423149 49.284996
-2.4066315 28.879589 38.728069
-2.3251009 25.576109 28.886417
-2.248913 22.48913 19.689753
-2.1775703 19.598139 11.077905
-2.110605 16.884842 2.9944947
-2.0476353 14.333443 -4.606595
-1.9883232 11.929935 -11.766229
-1.9323421 9.6617193 -18.523756
-1.8794268 7.5177112 -24.911175
-1.8293326 5.4879985 -30.958084
-1.7818463 3.5636957 -36.690193
-1.7367563 1.7367622 -42.133034
-1.6938921 -1.7052453e-06 -47.307198
-1.6530926 -1.6530944 -52.232117
-1.6142182 -3.2284315 -56.924694
-1.5771247 -4.731369 -61.402287
-1.5416975 -6.1667905 -65.678711
-1.5078319 -7.5391641 -69.76664
-1.4754175 -8.8524981 -73.679413
-1.4450201 -10.11514 -77.348709
-1.4297363 -11.437887 -79.193634
-1.4282181 -12.853965 -79.376892
-1.4281379 -14.281379 -79.386581
-1.4280576 -15.708633 -79.396271
-1.4626993 -17.552391 -75.214645
-1.4627227 -19.015394 -75.211823
-1.4627414 -20.478378 -75.209564
-1.4627601 -21.941399 -75.207306
-1.4627788 -23.404457 -75.20504
-1.4627975 -24.867556 -75.202789
-1.4628161 -26.330688 -75.200531
-1.4628303 -27.793768 -75.198837
-1.4628489 -29.256979 -75.196571
-1.4619884 -30.701765 -75.300438
-1.4618481 -32.160667 -75.317368
-1.4618764 -33.623154 -75.31398
-1.4619604 -35.087048 -75.303841
-1.4623951 -36.559879 -75.251358
-1.4625823 -38.027134 -75.22876
-1.4627646 -39.494644 -75.206741
-1.4629519 -40.962646 -75.184151
-1.4631345 -42.430901 -75.162102
-1.4633218 -43.899654 -75.139496
-1.4635044 -45.368629 -75.117455
-1.4636917 -46.838139 -75.094833
-1.4639682 -48.310947 -75.06147
-1.4642448 -49.784321 -75.028091
-1.4645214 -51.258251 -74.994682
-1.4690522 -52.885876 -74.447792
-1.4753938 -54.589565 -73.682289
-1.4817904 -56.308029 -72.910149
-1.4882427 -58.041462 -72.131279
-1.4947516 -59.790058 -71.345596
-1.5013175 -61.554012 -70.553009
-1.5079365 -63.333332 -69.754044
-1.514614 -65.128403 -68.947975
-1.521361 -66.939888 -68.133545
-1.5282553 -68.771492 -67.301323
-1.5352123 -70.619766 -66.46154
-1.5422331 -72.484955 -65.614067
-1.5493129 -74.36702 -64.759453
-1.5564635 -76.266708 -63.896294
-2.3688887e-23 40.649017 75.339859
-3.7226157e-23 36.498169 62.916115
-8.3581069e-23 32.651272 51.403179
-1.0914142e-22 29.075607 40.699818
-7.9509082e-23 25.743919 30.727861
-1.0230288e-22 22.631824 21.412115
-1.7021861e-23 19.718416 12.691153
-6.3152134e-23 16.985344 4.5109348
-1.8019861e-23 14.416204 -3.1795499
-2.0813041e-23 11.996762 -10.421929
-5.1321943e-23 9.7143002 -17.254288
-4.2307879e-23 7.5575256 -23.709513
-2.7766099e-23 5.5162854 -29.819799
-2.9652505e-23 3.5815694 -35.611229
9.0235401e-24 1.7452416 -41.108109
-4.9109797e-23 9.5042315e-06 -46.331608
-6.0040696e-23 -1.6607832 -51.303062
-4.9335815e-23 -3.2431033 -56.039604
-1.5169751e-23 -4.7523813 -60.556828
-3.6535007e-23 -6.1935539 -64.870895
-4.0719731e-23 -7.5711341 -68.994606
-2.4183623e-23 -8.8892412 -72.940269
-1.9787623e-23 -10.151671 -76.718643
-3.2429397e-23 -11.381064 -80.051064
-1.7844772e-23 -12.671676 -81.82177
-5.5165535e-23 -14.078599 -81.83432
-2.8274857e-23 -15.485604 -81.843735
8.0133122e-24 -16.895624 -81.821243
-3.3467885e-23 -18.745098 -77.721611
-6.3152544e-24 -20.187222 -77.719955
-2.2383101e-23 -21.629444 -77.717766
-1.1879886e-23 -23.06675 -77.752884
-1.1648888e-23 -24.506104 -77.769341
-5.6355024e-23 -25.923204 -77.933197
-4.1290078e-23 -27.366829 -77.911301
1.0482434e-23 -28.810822 -77.889381
-3.7759641e-23 -30.255072 -77.868027
-3.9575069e-23 -31.699785 -77.846107
1.5057903e-24 -33.144764 -77.82473
-4.0662687e-23 -34.590191 -77.802803
-5.5469506e-23 -36.032478 -77.797859
-4.0438992e-23 -37.482044 -77.759468
-8.6252953e-23 -38.928566 -77.737534
-6.187582e-23 -40.375591 -77.715019
-5.6867399e-23 -41.825356 -77.682632
-3.1188891e-23 -43.275665 -77.650238
-5.3527494e-23 -44.822247 -77.245026
-3.3651828e-23 -46.464699 -76.503525
-1.6916194e-23 -48.121159 -75.755699
-5.6519505e-23 -49.791817 -75.00148
-1.2515569e-23 -51.476856 -74.240746
-5.6179897e-23 -53.176281 -73.474037
-6.4414254e-23 -54.89045 -72.700668
-5.6042496e-23 -56.619556 -71.920555
-4.2955789e-23 -58.363979 -71.133034
-4.4624707e-23 -60.123558 -70.339172
-1.6785095e-23 -61.901119 -69.531075
-3.8252162e-23 -63.696064 -68.71151
-7.4330627e-23 -65.507225 -67.884544
-5.5209491e-23 -67.334816 -67.050079
-1.0301607e-22 -69.17907 -66.207993
2.6260848 36.765198 65.21843
2.5293341 32.881355 53.539562
2.4394457 29.273357 42.689098
2.3557394 25.913141 32.584839
2.2775757 22.775768 23.149635
2.204443 19.839993 14.321733
2.1358507 17.086807 6.0419173
2.0714076 14.499864 -1.7370569
2.0107305 12.06439 -9.0614338
1.9534987 9.7674904 -15.969917
1.8994347 7.5977345 -22.496014
1.84829 5.5448732 -28.66971
1.7998204 3.5996442 -34.520523
1.7538279 1.7538246 -40.072304
1.7101274 1.3111916e-06 -45.347408
1.668558 -1.6685637 -50.365299
1.6289556 -3.257915 -55.145725
1.5911895 -4.7735658 -59.704491
1.5551349 -6.2205386 -64.056671
1.5206832 -7.6034122 -68.21537
1.4877199 -8.9263182 -72.194405
1.4561553 -10.193084 -76.00457
1.4259068 -11.407259 -79.655891
1.4008991 -12.608092 -82.674583
1.3881543 -13.881543 -84.21302
1.3880742 -15.268815 -84.222679
1.3879983 -16.655981 -84.231834
1.418978 -18.446714 -80.492271
1.4191542 -19.868155 -80.471016
1.4193259 -21.289885 -80.450279
1.4195021 -22.712032 -80.429001
1.419674 -24.134457 -80.408264
1.4198503 -25.557308 -80.386971
1.4200267 -26.980509 -80.365685
1.4201986 -28.403969 -80.344925
1.4203751 -29.827877 -80.323624
1.4205471 -31.252039 -80.302856
1.4207237 -32.676643 -80.281548
1.4209179 -34.102032 -80.258095
1.4211786 -35.529461 -80.226646
1.4234257 -37.009064 -79.955391
1.4293787 -38.59322 -79.236794
1.4353819 -40.190697 -78.512146
1.4414355 -41.801624 -77.781418
1.4475358 -43.426075 -77.045021
1.4536881 -45.064335 -76.302383
1.4598929 -46.716576 -75.553406
1.4661555 -48.383141 -74.797432
1.4724674 -50.063889 -74.03553
1.4788338 -51.759186 -73.267029
1.4852604 -53.469368 -72.491287
1.4917576 -55.19503 -71.706993
1.4983855 -56.938656 -70.906914
1.5050727 -58.697842 -70.099701
1.5118198 -60.472794 -69.285263
1.5186278 -62.263737 -68.463478
5.2908783 37.036156 67.55471
5.0945387 33.114498 55.704559
4.9122758 29.473654 44.704021
4.7425799 26.084196 34.461948
4.584239 22.92119 24.905243
4.43613 19.962595 15.966064
4.2972717 17.189091 7.5852089
4.1668611 14.584023 -0.28574774
4.0441151 12.132347 -7.6941199
3.9284105 9.8210325 -14.677516
3.8191264 7.638247 -21.27338
3.7157733 5.5736604 -27.511292
3.6178527 3.6178517 -33.421345
3.5249736 1.7624925 -39.027088
3.4367316 3.2382748e-06 -44.352985
3.352787 -1.676391 -49.419476
3.2728453 -3.2728467 -54.244358
3.1966386 -4.7949524 -58.843864
3.123889 -6.2477751 -63.234684
3.0543773 -7.6359477 -67.430092
2.9879014 -8.963707 -71.442261
2.924248 -10.234864 -75.284081
2.8632503 -11.452999 -78.96563
2.8047452 -12.621356 -82.496712
2.75963 -13.798149 -85.219666
2.7378213 -15.058018 -86.535934
2.7376735 -16.426039 -86.544846
2.7375262 -17.793921 -86.553741
2.7988143 -19.591702 -82.854675
2.7991569 -20.993675 -82.833992
2.7994914 -22.395927 -82.813828
2.7998338 -23.79859 -82.793137
2.8001683 -25.201509 -82.772964
2.8005111 -26.604851 -82.752258
2.8009057 -28.009052 -82.728455
2.803653 -29.438358 -82.562614
2.814862 -30.963482 -81.886108
2.8265016 -32.504765 -81.183601
2.8382289 -34.058743 -80.475792
2.850054 -35.625679 -79.762085
2.8619778 -37.205715 -79.042419
2.874011 -38.799145 -78.316154
2.8861368 -40.40591 -77.584297
2.8983653 -42.026295 -76.846245
2.910707 -43.660603 -76.101349
2.9231451 -45.308746 -75.350647
2.9356899 -46.971035 -74.593506
2.9483428 -48.647659 -73.829834
2.9612491 -50.341244 -73.050865
2.9743075 -52.050381 -72.262726
2.9874816 -53.774666 -71.467598
3.0010586 -55.519585 -70.648148
7.6964259 33.351189 57.902203
7.4191809 29.676731 46.746716
7.1611776 26.257656 36.365486
6.9205508 23.068504 26.683416
6.6955366 20.086613 17.62953
6.484725 17.292601 9.1471033
6.2867532 14.669089 1.1813613
6.1005387 12.201083 -6.3113375
5.9250126 9.875021 -13.373957
5.7593288 7.6791105 -20.040571
5.6026363 5.6026363 -26.345379
5.4542661 3.6361778 -32.315361
5.3135304 1.7711737 -37.978107
5.1798944 3.4602915e-06 -43.355202
5.0527973 -1.6842675 -48.469212
4.9318047 -3.287864 -53.337563
4.8164554 -4.8164577 -57.978882
4.7063937 -6.2751908 -62.407402
4.6012344 -7.6687207 -66.63868
4.5006871 -9.0013666 -70.68441
4.4044113 -10.276962 -74.558235
4.3121819 -11.499148 -78.269257
4.2237229 -12.671169 -81.828568
4.1388206 -13.796064 -85.244797
4.0780807 -14.952964 -87.688774
4.0505915 -16.202364 -88.794853
4.0503764 -17.551632 -88.803513
4.0501609 -18.900751 -88.812172
4.1411066 -20.705534 -85.152794
4.1427197 -22.094505 -85.087891
4.1584415 -23.564503 -84.455299
4.1753631 -25.052176 -83.774437
4.1924229 -26.552008 -83.088005
4.2096353 -28.064232 -82.395424
4.2269764 -29.588839 -81.697655
4.2444615 -31.126047 -80.994125
4.2620916 -32.676029 -80.284737
4.279882 -34.239056 -79.568893
4.2978086 -35.815071 -78.847603
4.3158855 -37.404335 -78.120239
4.3341155 -39.007038 -77.386726
4.3525133 -40.623463 -76.646431
4.3710546 -42.253532 -75.900398
4.389853 -43.898525 -75.144035
4.4089837 -45.55949 -74.374275
4.4282813 -47.234997 -73.597786
10.335774 33.591267 60.131493
9.9608688 29.882622 48.817753
9.6121597 26.433434 38.294525
9.2870874 23.217728 28.484579
8.9832382 20.212292 19.315117
8.6986828 17.397364 10.727916
8.4315624 14.755238 2.6668441
8.1803951 12.270599 -4.9127889
7.9437251 9.9296503 -12.054946
7.7203965 7.7203951 -18.794476
7.5092511 5.6319337 -25.166353
7.3093767 3.6546934 -31.198103
7.1198392 1.7799593 -36.9179
6.939909 -3.3103458e-06 -42.347782
6.7688241 -1.6922067 -47.510727
6.6059947 -3.3029923 -52.424538
6.4507928 -4.8380909 -57.10817
6.3027377 -6.3027391 -61.576118
6.1613059 -7.701633 -65.8442
6.0261021 -9.0391541 -69.924347
5.8966856 -10.319195 -73.829834
5.7727289 -11.545453 -77.570549
5.6538591 -12.721181 -81.157768
5.539803 -13.849507 -84.599716
5.4302411 -14.933165 -87.906036
5.3844771 -16.153427 -89.287094
5.4043145 -17.564022 -88.688431
5.4258599 -18.990511 -88.038246
5.5282006 -20.730753 -84.94986
5.5506291 -22.202515 -84.273018
5.5732398 -23.686268 -83.590668
5.5960531 -25.182236 -82.902222
5.6190367 -26.69042 -82.208633
5.6422095 -28.211044 -81.509323
5.665575 -29.74427 -80.80423
5.6891518 -31.290335 -80.09272
5.7129083 -32.849216 -79.375816
5.7368636 -34.421177 -78.652901
5.7610207 -36.006382 -77.923882
5.7854004 -37.605099 -77.188164
5.8102822 -39.21941 -76.437271
5.8354173 -40.847912 -75.678787
12.538071 30.091372 50.91774
12.096181 26.611599 40.249546
11.684437 23.368885 30.309206
11.299747 20.339552 21.021946
10.939631 17.50341 12.327989
10.601711 14.842402 4.1698771
10.284088 12.340907 -3.4982126
9.9848995 9.9849024 -10.721258
9.7026682 7.7621412 -17.534931
9.435914 5.661551 -23.974939
9.1834726 3.6733849 -30.069414
8.9441509 1.7888345 -35.847153
8.71702 6.4062544e-07 -41.330585
8.5011072 -1.7002225 -46.54319
8.2956619 -3.3182666 -51.503075
8.0998831 -4.8599339 -56.229588
7.9131594 -6.330523 -60.737499
7.7348251 -7.7348213 -65.04287
7.5643764 -9.0772514 -69.157875
7.4012537 -10.361759 -73.095993
7.2450409 -11.592061 -76.86731
7.095264 -12.771476 -80.483238
6.9515758 -13.903151 -83.952187
6.813571 -14.989854 -87.283913
6.7633667 -16.232079 -88.495949
6.7903619 -17.65494 -87.844231
6.8175731 -19.089205 -87.187286
6.9458528 -20.837559 -84.090347
6.9741998 -22.317444 -83.405983
7.0027575 -23.809376 -82.716545
7.0315499 -25.313578 -82.021423
7.0605807 -26.83021 -81.320572
7.0898738 -28.359495 -80.613373
7.1193891 -29.90143 -79.900818
7.1491508 -31.456263 -79.182289
7.179388 -33.025181 -78.452316
7.2100868 -34.608421 -77.711174
7.2448568 -36.224293 -76.871727
7.2749853 -37.829922 -76.144386
15.151533 30.303062 53.047253
14.613911 26.792179 42.231125
14.113208 23.522024 32.157742
13.645609 20.46841 22.750395
13.208066 17.61076 13.947701
12.79765 14.930588 5.6907849
12.412028 12.412035 -2.0673375
12.048913 10.040755 -9.3726511
11.70649 7.8043237 -16.261677
11.382944 5.691474 -22.770908
11.076846 3.6922793 -28.929119
10.786738 1.7977966 -34.765652
10.511477 2.3810394e-06 -40.303452
10.249879 -1.7083129 -45.566429
10.00102 -3.3336689 -50.573067
9.7639256 -4.8819675 -55.343056
9.5378447 -6.3585658 -59.891449
9.3219652 -7.7682996 -64.234612
9.1156712 -9.1156721 -68.384911
8.9182825 -10.404658 -72.356079
8.7292881 -11.639047 -76.158356
8.548111 -12.822165 -79.80336
8.3743267 -13.957214 -83.299614
8.2074442 -15.046978 -86.657043
8.1581011 -16.3162 -87.64975
8.1908083 -17.74675 -86.99173
8.2238035 -19.188873 -86.327919
8.3782139 -20.945532 -83.221413
8.4125586 -22.433489 -82.530457
8.4471855 -23.933693 -81.833801
8.4821262 -25.446375 -81.130867
8.5173826 -26.97171 -80.421555
8.5536537 -28.512177 -79.691841
8.5981226 -30.093426 -78.797211
8.633482 -31.656096 -78.085815
8.6691341 -33.231674 -77.368553
8.7050543 -34.820217 -76.645889
8.7413015 -36.422085 -75.916649
17.166044 26.97521 44.23978
16.574018 23.677174 34.030666
16.021389 20.598936 24.500879
15.504497 17.719435 15.58739
15.019843 15.019849 7.229856
14.564638 12.483982 -0.61986411
14.136151 10.097248 -8.008872
13.732214 7.8469877 -14.974523
13.350664 5.7217155 -21.554092
12.989798 3.7113709 -27.777037
12.647875 1.8068427 -33.673267
12.323539 5.4057864e-06 -39.266243
12.015376 -1.7164797 -44.58033
11.722292 -3.3492279 -49.634369
11.443126 -4.9041958 -54.448437
11.176984 -6.3868432 -59.037868
10.922904 -7.8020701 -63.419319
10.680155 -9.1544151 -67.605385
10.447927 -10.447922 -71.610008
10.225616 -11.686413 -75.443642
10.012536 -12.873259 -79.118057
9.8081865 -14.011694 -82.641945
9.6119814 -15.104542 -86.025375
9.567338 -16.401154 -86.795219
9.6059246 -17.839571 -86.129829
9.6448231 -19.289646 -85.459045
9.8254967 -21.054634 -82.343437
9.8819141 -22.587231 -81.370552
9.9219475 -24.096155 -80.680214
9.9622746 -25.617273 -79.984795
10.002962 -27.150896 -79.283157
10.043984 -28.697102 -78.57576
10.085312 -30.255934 -77.863091
10.127013 -31.827757 -77.143982
10.169061 -33.412617 -76.4189
10.211458 -35.010712 -75.687775
10.254179 -36.622066 -74.95108
19.753288 27.160772 46.276051
19.067411 23.834276 35.926956
18.42766 20.731115 26.273848
17.829355 17.829367 17.24614
17.268764 15.110175 8.7874527
16.742271 12.556705 0.84332699
16.247007 10.154384 -6.6296635
15.780133 7.8900709 -13.674245
15.339407 5.7522726 -20.324286
14.922569 3.7306442 -26.613892
14.527843 1.8159866 -32.569847
14.153408 -1.3600541e-06 -38.219635
13.79784 -1.7247261 -43.58474
13.45965 -3.3649054 -48.687634
13.137689 -4.9266286 -53.545647
12.830728 -6.4153609 -58.177361
12.537824 -7.8361344 -62.596912
12.257955 -9.1934662 -66.819817
11.990346 -10.491549 -70.857719
11.734135 -11.73414 -74.72364
11.488679 -12.924764 -78.427277
11.253249 -14.066562 -81.979652
11.035124 -15.173298 -85.270905
10.991361 -16.48704 -85.931252
11.035923 -17.933371 -85.258858
11.080813 -19.391424 -84.581482
11.307824 -21.202166 -81.156181
11.35369 -22.707382 -80.464104
11.399932 -24.224854 -79.76638
11.446551 -25.754738 -79.062958
11.493516 -27.297104 -78.354294
11.540906 -28.852262 -77.639244
11.588687 -30.420301 -76.918282
11.636828 -32.001278 -76.191879
11.68541 -33.595558 -75.458839
11.734399 -35.203186 -74.719673
11.783798 -36.824368 -73.974281
21.594225 23.993589 37.850109
20.865013 20.865026 28.069695
20.183342 17.940756 18.926928
19.544895 15.201587 10.36391
18.945517 12.630346 2.3248382
18.381886 10.212163 -5.2347484
17.850744 7.9336658 -12.35855
17.34951 5.7831717 -19.081268
16.875587 3.7501321 -25.437683
16.426929 1.8252172 -31.455189
16.001451 2.0093855e-06 -37.161839
15.597515 -1.7330565 -42.579536
15.213414 -3.3807611 -47.731209
14.84783 -4.9492726 -52.634544
14.499352 -6.4441533 -57.308422
14.166907 -7.8705039 -61.767296
13.849318 -9.2328777 -66.026894
13.545699 -10.535542 -70.099106
13.255066 -11.782281 -73.997177
12.976683 -12.976687 -77.730934
12.709712 -14.121902 -81.311615
12.4723 -15.243917 -84.495865
12.430337 -16.57378 -85.058693
12.481 -18.028109 -84.379189
12.532039 -19.494284 -83.694626
12.789056 -21.31509 -80.247437
12.841209 -22.828814 -79.547951
12.893789 -24.354935 -78.842735
12.946801 -25.893604 -78.131714
13.000211 -27.444889 -77.415375
13.054103 -29.009115 -76.692551
13.108445 -30.586374 -75.963707
13.163241 -32.176807 -75.22876
13.218453 -33.780495 -74.488228
13.274176 -35.3978 -73.740868
13.330369 -37.028801 -72.987198
23.334057 21.000656 29.888899
22.566927 18.053547 20.628849
21.848738 15.294123 11.959528
21.174753 12.704851 3.8238277
20.541199 10.270599 -3.8238668
19.944366 7.9777508 -11.02826
19.381321 5.8143916 -17.824818
18.849115 3.7698245 -24.249104
18.34543 1.8345466 -30.329128
17.867893 -1.9603476e-06 -36.09351
17.414654 -1.7414641 -41.564606
16.983776 -3.3967521 -46.765762
16.573765 -4.9721298 -51.715023
16.183025 -6.4732003 -56.431664
15.810342 -7.9051638 -60.930363
15.454384 -9.272624 -65.22715
15.114152 -10.579906 -69.334114
14.788528 -11.830816 -73.264725
14.476687 -13.029017 -77.028992
14.177681 -14.177678 -80.638313
13.922961 -15.315257 -83.713051
13.884577 -16.661493 -84.176384
13.941467 -18.123911 -83.489655
13.998655 -19.598116 -82.799339
14.286151 -21.429232 -79.328957
14.344768 -22.951628 -78.621399
14.403776 -24.48642 -77.909103
14.463318 -26.033972 -77.190369
14.523353 -27.594372 -76.465675
14.583843 -29.167692 -75.735489
14.644886 -30.754261 -74.99865
14.706442 -32.354179 -74.2556
14.768518 -33.967594 -73.506271
14.831071 -35.594566 -72.751205
14.894207 -37.235519 -71.989082
25.835409 21.138071 31.731915
24.980675 18.167763 22.352308
24.180798 15.38778 13.57472
23.430447 12.780254 5.3405938
22.725367 10.32972 -2.3967474
22.061386 8.0223255 -9.6830959
21.435192 5.8459659 -16.554728
20.843481 3.7897263 -23.047993
20.283642 1.8439699 -29.191505
19.75301 -4.7833407e-07 -35.014481
19.24951 -1.7499534 -40.539749
18.770969 -3.4129004 -45.791126
18.31571 -4.9951916 -50.78698
17.881948 -6.5025268 -55.546967
17.468317 -7.9401455 -60.086021
17.073332 -9.3127289 -64.420486
16.695868 -10.62464 -68.562653
16.334681 -11.879761 -72.526215
15.988841 -13.081777 -76.32135
15.657293 -14.2339 -79.959656
15.387216 -15.387217 -82.923401
15.354292 -16.750134 -83.284706
15.417493 -18.220676 -82.591141
15.480979 -19.703064 -81.89447
15.799366 -21.544588 -78.400589
15.864542 -23.075697 -77.685379
15.930156 -24.619329 -76.965355
15.996366 -26.175869 -76.238777
16.063129 -27.745405 -75.506134
16.130451 -29.328093 -74.767349
16.198288 -30.924006 -74.022934
16.26675 -32.533501 -73.271652
16.335794 -34.156658 -72.513992
16.405426 -35.793655 -71.74987
16.475603 -37.444546 -70.979782
27.425158 18.283445 24.097696
26.541597 15.482605 15.209793
25.713074 12.856531 6.8754907
24.934824 10.389507 -0.9531005
24.202194 8.0674028 -8.3227987
23.511486 5.8778768 -15.270784
22.859013 3.8098423 -21.834137
22.241869 1.8534877 -28.042137
21.657084 -5.506439e-07 -33.924618
21.102345 -1.7585293 -39.504871
20.575235 -3.429203 -44.807175
20.073893 -5.0184674 -49.850292
19.596331 -6.5321116 -54.654198
19.141029 -7.9754257 -59.234192
18.706341 -9.3531733 -63.606812
18.291018 -10.66976 -67.78463
17.893679 -11.929122 -71.781563
17.51329 -13.134968 -75.607964
17.148685 -14.290571 -79.275612
16.865347 -15.459899 -82.125771
16.839678 -16.83968 -82.383987
16.909416 -18.318535 -81.682465
16.979265 -19.809141 -80.979851
17.32896 -21.661201 -77.462173
17.400835 -23.201115 -76.739182
17.473251 -24.753775 -76.010727
17.546217 -26.319326 -75.276741
17.619852 -27.898096 -74.536049
17.694107 -29.490171 -73.789093
17.76899 -31.095732 -73.03582
17.844452 -32.714832 -72.276726
17.920616 -34.347843 -71.510582
17.997435 -35.994865 -70.737862
18.074852 -37.655941 -69.959084
29.900967 18.400593 25.865479
28.93153 15.57852 16.863844
28.023115 12.933745 8.4288101
27.169884 10.449953 0.50619239
26.367195 8.1129885 -6.947154
25.61046 5.9101057 -13.973758
24.896055 3.8301642 -20.607315
24.220327 1.8631036 -26.881756
23.580402 2.5916224e-06 -32.823734
22.973333 -1.7671753 -38.460625
22.396826 -3.4456644 -43.813774
21.848459 -5.0419507 -48.905567
21.326384 -6.5619626 -53.753288
20.8286 -8.0110016 -58.375416
20.353596 -9.3939743 -62.786034
19.899706 -10.715226 -67.000603
19.465683 -11.978884 -71.030701
19.050188 -13.188587 -74.888748
18.652 -14.347692 -78.58609
18.357452 -15.533232 -81.321091
18.341085 -16.930233 -81.473068
18.417397 -18.417397 -80.764496
18.50897 -19.932735 -79.914192
18.875204 -21.779083 -76.513542
18.953918 -23.3279 -75.782646
19.033232 -24.889612 -75.046188
19.113211 -26.464447 -74.303543
19.193804 -28.052483 -73.555206
19.275143 -29.654064 -72.79995
19.357172 -31.269276 -72.038277
19.439838 -32.89819 -71.270653
19.523281 -34.541183 -70.49588
19.607441 -36.198353 -69.714417
31.351416 15.675713 18.539848
30.361071 13.011892 10.000896
29.431242 10.511167 1.9837345
28.556803 8.1590929 -5.5558596
27.732702 5.9427204 -12.661392
26.954948 3.8507102 -19.367353
26.219519 1.8728235 -25.708357
25.523258 -1.2680422e-06 -31.711651
24.862919 -1.7759203 -37.405216
24.235981 -3.4622819 -42.810791
23.639795 -5.0656753 -47.951218
23.072321 -6.5920949 -52.844097
22.531372 -8.0469131 -57.50827
22.015282 -9.435113 -61.958088
21.522236 -10.761117 -66.209229
21.050858 -12.029057 -70.273544
20.599619 -13.242612 -74.164207
20.167381 -14.40527 -77.891029
19.863842 -15.607306 -80.508209
19.858665 -17.021715 -80.552841
19.941803 -18.517385 -79.836037
20.35338 -20.35338 -76.287323
20.43837 -21.898254 -75.554535
20.524071 -23.456081 -74.815598
20.610428 -25.026947 -74.071014
20.697515 -26.611092 -73.320129
20.785341 -28.208681 -72.562866
20.873848 -29.819782 -71.799751
20.963179 -31.444777 -71.02951
21.05328 -33.083725 -70.252647
21.144089 -34.736717 -69.469688
21.235752 -36.404148 -68.679329
33.801685 15.774117 20.236889
32.727448 13.090982 11.592101
31.719244 10.573081 3.4787004
30.771437 8.2057171 -4.1486578
29.878498 5.9757037 -11.334457
29.036047 3.871474 -18.113997
28.239685 1.882646 -24.522625
27.485949 3.8717185e-06 -30.58824
26.771297 -1.7847575 -36.339302
26.092966 -3.4790654 -41.798088
25.448067 -5.0896153 -46.98785
24.834366 -6.622488 -51.92654
24.249481 -8.0831623 -56.633316
23.691595 -9.4766293 -61.122837
23.158722 -10.807408 -65.411057
22.649368 -12.079661 -69.510017
22.161867 -13.297116 -73.433136
21.694977 -14.463317 -77.190376
21.384602 -15.682038 -79.68808
21.392803 -17.114243 -79.62207
21.482784 -18.618414 -78.897972
21.926672 -20.464893 -75.325836
22.018734 -22.01873 -74.584969
22.111572 -23.585676 -73.837868
22.205128 -25.165812 -73.084999
22.299473 -26.759367 -72.325752
22.394629 -28.366526 -71.56002
22.490522 -29.987364 -70.788315
22.587317 -31.622244 -70.009369
22.684948 -33.271259 -69.223701
22.783428 -34.934593 -68.431206
22.882687 -36.612297 -67.632416
35.122772 13.171048 13.202765
34.034363 10.635741 4.9913716
33.011532 8.252882 -2.7252843
32.048244 6.0090523 -9.9927282
31.139715 3.8924675 -16.847061
30.281153 1.8925664 -23.324409
29.468781 -7.1172934e-07 -29.453285
28.698746 -1.7936743 -35.262745
27.968035 -3.4960048 -40.775524
27.27351 -5.1137824 -46.015327
26.61274 -6.6531844 -51.00045
25.983137 -8.1197271 -55.750435
25.382723 -9.5185165 -60.280201
24.809349 -10.854083 -64.605988
24.261385 -12.130688 -68.740044
23.737026 -13.352078 -72.696014
23.23493 -14.521831 -76.484055
22.920065 -15.757545 -78.85952
22.94364 -17.207726 -78.681671
23.040745 -18.720604 -77.949074
23.5173 -20.577635 -74.353745
23.616585 -22.140547 -73.604675
23.716715 -23.716717 -72.849266
23.817698 -25.306307 -72.087402
23.919386 -26.909306 -71.320236
24.022026 -28.526154 -70.545876
24.125551 -30.156937 -69.764839
24.229893 -31.801735 -68.977646
24.335218 -33.46093 -68.183006
24.441465 -35.134613 -67.381432
24.548645 -36.822968 -66.572838
37.547569 13.252083 14.833258
36.377083 10.699145 6.5220699
35.277527 8.3005972 -1.2854557
34.242344 6.042768 -8.6359253
33.266319 3.9136832 -15.566292
32.344261 1.9026012 -22.113489
31.472065 -5.2809332e-06 -28.30662
30.645554 -1.8026773 -34.175381
29.861458 -3.5131073 -39.742962
29.116375 -5.1381793 -45.03352
28.407671 -6.6841593 -50.065746
27.73255 -8.1566277 -54.859535
27.088867 -9.5607729 -59.430099
26.474295 -10.90118 -63.793919
25.887079 -12.182157 -67.963539
25.325264 -13.407493 -71.952782
24.787395 -14.580818 -75.771988
24.47031 -15.833731 -78.023491
24.511587 -17.302299 -77.730385
24.615822 -18.823866 -76.990257
25.125547 -20.691626 -73.37088
25.232216 -22.263716 -72.61348
25.339794 -23.849218 -71.849617
25.44829 -25.448296 -71.079208
25.557552 -27.060936 -70.303383
25.667843 -28.687586 -69.520256
25.779089 -30.328339 -68.730331
25.891304 -31.983379 -67.93354
26.004412 -33.652771 -67.130394
26.118603 -35.336937 -66.31958
26.233797 -37.03595 -65.501617
38.747902 10.763304 8.0711479
37.569706 8.3488283 0.16995312
36.461201 6.0768743 -7.2638249
35.416084 3.9351265 -14.272518
34.429359 1.9127408 -20.889664
33.495987 5.5996484e-06 -27.148994
32.612019 -1.8117807 -33.077034
31.77338 -3.5303748 -38.70105
30.97691 -5.162817 -44.042294
30.219282 -6.7154007 -49.123051
29.497936 -8.1938753 -53.960506
28.810226 -9.6034079 -58.572388
28.153753 -10.948686 -62.974792
27.526627 -12.23406 -67.18042
26.926739 -13.46337 -71.203346
26.352526 -14.640294 -75.054108
26.035042 -15.9103 -77.183197
26.096783 -17.397858 -76.76915
26.208208 -18.92815 -76.021927
26.751631 -20.80682 -72.377655
26.865923 -22.388268 -71.611191
26.98111 -23.983212 -70.838737
27.097284 -25.591875 -70.059647
27.214376 -27.214376 -69.274391
27.332394 -28.850857 -68.482956
27.451534 -30.501699 -67.684006
27.571712 -32.166996 -66.878059
27.692951 -33.846939 -66.065025
27.815165 -35.541599 -65.24543
27.938557 -37.251411 -64.417931
41.147335 10.828245 9.6388998
39.888855 8.3976641 1.6435568
38.70525 6.111362 -5.8761358
37.589695 3.9568131 -12.96347
36.536797 1.9229907 -19.652718
35.54113 -3.2992932e-07 -25.978378
34.598431 -1.8209721 -31.967537
33.704315 -3.5478249 -37.648022
32.85537 -5.1876898 -43.041531
32.048023 -6.746953 -48.17075
31.27952 -8.2314548 -53.053219
30.546898 -9.6463938 -57.707703
29.847914 -10.996598 -62.148495
29.180105 -12.286357 -66.391205
28.541616 -13.519708 -70.447647
27.930384 -14.700201 -74.330925
27.614893 -15.987569 -76.335297
27.699675 -17.49453 -75.796677
27.818336 -19.033596 -75.042793
28.396009 -20.923374 -71.372719
28.517916 -22.514139 -70.598221
28.64097 -24.118711 -69.816437
28.764994 -25.737106 -69.028481
28.890001 -27.369473 -68.234299
29.016098 -29.016104 -67.433159
29.143206 -30.677055 -66.625633
29.27153 -32.352741 -65.810379
29.400988 -34.043247 -64.9879
29.531597 -35.748764 -64.158119
29.663267 -37.469383 -63.321579
42.235294 8.4470577 3.1344965
40.974907 6.1462359 -4.4726009
39.787395 3.9787393 -11.639889
38.666939 1.9333521 -18.402451
37.607704 -4.2535212e-06 -24.795494
36.605103 -1.8302509 -30.846729
35.654427 -3.5654435 -36.584541
34.752022 -5.212801 -42.031071
33.894039 -6.7788076 -47.209461
33.077518 -8.2693796 -52.137592
32.299297 -9.6897945 -56.834538
31.556967 -11.044939 -61.314922
30.847885 -12.339154 -65.594612
30.170069 -13.576531 -69.685585
29.521305 -14.760653 -73.601227
29.210167 -16.065588 -75.479118
29.320383 -17.592232 -74.813889
29.446503 -19.140223 -74.052704
30.058916 -21.041239 -70.356461
30.188692 -22.641523 -69.573181
30.319695 -24.255754 -68.782524
30.451736 -25.883978 -67.985573
30.584833 -27.526352 -67.182259
30.719097 -29.183142 -66.37191
30.854546 -30.854546 -65.554405
30.991091 -32.540642 -64.730301
31.12895 -34.24184 -63.89822
31.268047 -35.958252 -63.058708
31.408283 -37.689945 -62.212303
43.270626 6.1815243 -3.0529704
42.009594 4.0009122 -10.301562
40.820148 1.9438231 -17.138651
39.696041 -3.0247149e-06 -23.600157
38.632343 -1.8396326 -29.714437
37.624012 -3.5832345 -35.510445
36.667122 -5.2381563 -41.01078
35.757561 -6.8109646 -46.239044
34.892162 -8.3076553 -51.213467
34.067543 -9.7335835 -55.953499
33.281113 -11.093706 -60.473988
32.530064 -12.392408 -64.791122
31.812265 -13.633832 -68.917099
31.125364 -14.821607 -72.865501
30.825832 -16.146864 -74.587242
30.959396 -17.691082 -73.819511
31.093014 -19.248053 -73.051453
31.740662 -21.160444 -69.328682
31.878481 -22.770344 -68.536491
32.017498 -24.394287 -67.737396
32.157841 -26.032534 -66.930687
32.299206 -27.685036 -66.118103
32.441818 -29.352119 -65.298363
32.585693 -31.033998 -64.471329
32.730854 -32.730846 -63.636955
32.877193 -34.44278 -62.795742
33.024971 -36.170208 -61.946323
45.592857 6.2172098 -1.6169343
44.256695 4.0233455 -8.9482508
42.996807 1.954398 -15.861069
41.806492 9.5982216e-07 -22.39216
40.68047 -1.8491062 -28.570486
39.613354 -3.6012146 -34.425564
38.600945 -5.2637606 -39.980522
37.638851 -6.8434186 -45.25938
36.723682 -8.3462839 -50.280754
35.851837 -9.77777 -55.064449
35.020546 -11.142898 -59.625607
34.226818 -12.446115 -63.980667
33.468384 -13.691609 -68.142097
32.742725 -14.883055 -72.123672
32.475426 -16.237715 -73.590302
32.616932 -17.791056 -72.813873
32.758289 -19.357168 -72.038269
33.44157 -21.280998 -68.289207
33.587605 -22.90064 -67.487946
33.734921 -24.534489 -66.679642
33.883648 -26.182816 -65.863617
34.033577 -27.845654 -65.040985
34.184601 -29.523071 -64.212303
34.337097 -31.21554 -63.37561
34.490955 -32.923187 -62.531399
34.64608 -34.646072 -61.680264
34.802727 -36.38467 -60.820759
46.529129 4.0460124 -7.57967
45.197102 1.9650909 -14.570528
43.939404 -9.9501881e-07 -21.171307
42.74963 -1.8586773 -27.415579
41.622753 -3.6193721 -33.329746
40.553764 -5.2896175 -38.940136
39.538158 -6.8762007 -44.270325
38.572319 -8.3852854 -49.339329
37.652409 -9.8223648 -54.167286
36.775482 -11.192542 -58.769653
35.938351 -12.500286 -63.163174
35.138599 -13.74988 -67.360497
34.373554 -14.945023 -71.375671
34.143578 -16.32954 -72.582649
34.293198 -17.892101 -71.797401
34.442444 -19.467468 -71.014122
35.161976 -21.402943 -67.237801
35.316406 -23.032436 -66.427315
35.472198 -24.676311 -65.609673
35.629372 -26.334753 -64.784782
35.788063 -28.008049 -63.951916
35.947929 -29.696112 -63.112892
36.109108 -31.399218 -62.266983
36.271866 -33.11779 -61.412785
36.436092 -34.851917 -60.550865
36.601688 -36.601692 -59.681767
48.827324 4.0689454 -6.1955724
47.42181 1.975908 -13.264764
46.095142 1.3668603e-06 -19.937401
44.8405 -1.8683566 -26.247757
43.652523 -3.6377013 -32.222832
42.5257 -5.3157096 -37.890305
41.455746 -6.9092841 -43.271759
40.438164 -8.4246206 -48.389805
39.469482 -9.8673639 -53.261913
38.545986 -11.242576 -57.906738
37.664845 -12.554948 -62.338509
36.822968 -13.808617 -66.57283
36.018021 -15.007502 -70.621407
35.830818 -16.422459 -71.562965
35.988731 -17.994368 -70.76873
36.145897 -19.579029 -69.978241
36.902206 -21.526293 -66.174286
37.065216 -23.165768 -65.354408
37.229675 -24.819782 -64.52726
37.395599 -26.488548 -63.692726
37.563007 -28.172251 -62.850727
37.731922 -29.871101 -62.001156
37.9021 -31.585079 -61.145226
38.073956 -33.314709 -60.280872
38.247372 -35.060089 -59.408638
38.422375 -36.821442 -58.528435
49.67115 1.9868473 -11.944538
48.274078 3.1449173e-07 -18.690193
46.953255 -1.8781258 -25.067703
45.702965 -3.6562386 -31.104633
44.517361 -5.3420749 -36.829231
43.39188 -6.9427023 -42.263527
42.321751 -8.4643459 -47.430588
41.30328 -9.9127855 -52.348198
40.332535 -11.2931 -57.03537
39.406506 -12.610084 -61.506622
38.521915 -13.867889 -65.777779
37.686855 -15.07474 -69.809845
37.537251 -16.516388 -70.532188
37.703632 -18.097742 -69.728828
37.868988 -19.691866 -68.930428
38.662613 -21.65106 -65.098457
38.834396 -23.30064 -64.269005
39.007713 -24.964939 -63.432175
39.182579 -26.644152 -62.587841
39.35902 -28.338491 -61.735889
39.537064 -30.048166 -60.876244
39.716583 -31.77327 -60.009434
39.897598 -33.513985 -59.135406
40.080418 -35.27076 -58.252693
40.264915 -37.043724 -57.361847
51.945526 1.9979061 -10.609621
50.476578 9.0937368e-07 -17.42952
49.08823 -1.8880004 -23.875244
47.774399 -3.6749525 -29.974995
46.528881 -5.3687177 -35.757565
45.346828 -6.9764309 -41.245502
44.223183 -8.5044575 -46.462276
43.154034 -9.9586287 -51.426029
42.135212 -11.344097 -56.156136
41.163532 -12.6657 -60.667381
40.235516 -13.927683 -64.975891
39.393925 -15.151511 -68.883171
39.263443 -16.611456 -69.488953
39.438091 -18.202192 -68.678123
39.619049 -19.809528 -67.837967
40.44355 -21.777302 -64.010048
40.624294 -23.437098 -63.170898
40.806664 -25.111795 -62.324211
40.990677 -26.80159 -61.469891
41.176357 -28.50671 -60.607815
41.363731 -30.227341 -59.737904
41.55267 -31.963589 -58.860718
41.743343 -33.715778 -57.975475
41.935623 -35.483986 -57.082767
42.129837 -37.268703 -56.181087
50.093353 -94.406708 -19.208719
52.703037 7.1609697e-06 -16.155128
51.245785 -1.8979828 -22.670172
49.867149 -3.6938612 -28.833719
48.560558 -5.3956223 -34.675179
47.320866 -7.0104923 -40.217545
46.142727 -8.5449457 -45.484741
45.021988 -10.004889 -50.495289
43.954243 -11.395546 -55.268925
42.936123 -12.721804 -59.820721
41.963959 -13.987988 -64.167046
41.118469 -15.229065 -67.947014
41.009621 -16.707619 -68.433647
41.192684 -18.307863 -67.615204
42.057156 -20.249744 -63.750381
42.245369 -21.905003 -62.908901
42.435284 -23.575159 -62.059849
42.626907 -25.260386 -61.203144
42.820274 -26.960915 -60.338646
43.0154 -28.676935 -59.466274
43.212315 -30.408665 -58.58593
43.410885 -32.156208 -57.698158
43.611294 -33.919895 -56.802177
43.813557 -35.699936 -55.897903
44.017548 -37.496426 -54.985909
51.457005 -87.667488 -21.725838
51.452713 -89.565842 -21.745014
51.456573 -91.478355 -21.72776
51.459793 -93.389999 -21.713375
54.953846 5.2367141e-06 -14.866794
53.426277 -1.9080813 -21.452282
51.981544 -3.7129612 -27.680645
50.612698 -5.4227886 -33.581886
49.314281 -7.0448909 -39.179489
48.080635 -8.5858231 -44.49786
46.907379 -10.05158 -49.555874
45.789852 -11.447462 -54.373631
44.724491 -12.778425 -58.966515
43.707428 -14.048812 -63.351173
42.860619 -15.307357 -67.001846
42.775997 -16.804857 -67.366653
42.96777 -18.414751 -66.539902
43.870956 -20.368658 -62.646172
44.068455 -22.03422 -61.794765
44.267731 -23.714859 -60.935635
44.468822 -25.410751 -60.068718
44.671749 -27.122137 -59.193871
44.876537 -28.849209 -58.311016
45.083214 -30.59218 -57.420025
45.291637 -32.35117 -56.521484
45.501995 -34.126495 -55.614601
45.714325 -35.9184 -54.699238
45.928638 -37.7271 -53.775307
52.803204 -79.204803 -24.138391
52.791447 -81.072586 -24.18907
52.797325 -82.967224 -24.163738
52.802338 -84.860893 -24.142147
52.805603 -86.75206 -24.128065
52.808868 -88.643456 -24.113987
52.812134 -90.535095 -24.099897
52.815403 -92.426956 -24.085808
55.630074 -1.9182707 -20.221378
54.11771 -3.7322521 -26.516502
52.685612 -5.4502397 -32.47752
51.327148 -7.0796123 -38.132015
50.037174 -8.6271048 -43.501472
48.810268 -10.098672 -48.608398
47.642258 -11.499855 -53.47015
46.528683 -12.835498 -58.105347
45.466129 -14.110178 -62.52816
44.620926 -15.386519 -66.046272
44.563194 -16.90328 -66.286552
44.763855 -18.522976 -65.451317
45.706192 -20.488985 -61.528915
45.913166 -22.164982 -60.667381
46.122028 -23.85622 -59.798023
46.332798 -25.562927 -58.920696
46.545502 -27.285295 -58.035328
46.760166 -29.023556 -57.1418
46.976826 -30.77792 -56.239983
47.195499 -32.548615 -55.329773
47.415878 -34.33564 -54.412453
47.638493 -36.139549 -53.485817
54.109539 -72.767998 -26.550499
54.107777 -74.631409 -26.557852
54.114178 -76.506256 -26.531197
54.12014 -78.380882 -26.506386
54.123455 -80.252022 -26.492582
54.126762 -82.123367 -26.478796
54.129856 -83.994606 -26.465931
54.133171 -85.866409 -26.452124
54.165676 -87.785744 -26.316849
54.449669 -90.123596 -25.134722
54.7509 -92.510139 -23.88088
57.857555 -1.9285786 -18.977243
56.276413 -3.7517605 -25.339264
54.77961 -5.4779544 -31.361927
53.360165 -7.1146889 -37.073353
52.012615 -8.6687651 -42.495476
50.731258 -10.146252 -47.651226
49.5117 -11.552729 -52.558365
48.349232 -12.893135 -57.235771
47.240261 -14.172073 -61.697945
46.399372 -15.466462 -65.08139
46.3713 -17.002802 -65.194359
46.58102 -18.632402 -64.35051
47.563236 -20.610737 -60.398384
47.779907 -22.297289 -59.526562
47.998566 -23.999283 -58.646744
48.219231 -25.716923 -57.758869
48.441933 -27.45043 -56.862766
48.666706 -29.200027 -55.958351
48.893574 -30.965925 -55.045525
49.122562 -32.748375 -54.124134
49.353531 -34.547474 -53.194778
49.586506 -36.363434 -52.257374
55.398991 -64.632156 -28.869728
55.390942 -66.469124 -28.902126
55.397427 -68.323494 -28.876022
55.403915 -70.178291 -28.849928
55.410404 -72.033524 -28.823807
55.413982 -73.885307 -28.809406
55.417343 -75.737038 -28.795895
55.4207 -77.588982 -28.782379
55.424061 -79.441154 -28.768867
55.496254 -81.394501 -28.47839
55.796448 -83.694672 -27.270504
56.103115 -86.024788 -26.036543
56.41457 -88.382828 -24.783367
56.729263 -90.76683 -23.517117
57.047493 -93.177567 -22.236685
58.457802 -3.7714715 -24.149656
56.895031 -5.5059681 -30.234924
55.413422 -7.1501193 -36.004143
54.007225 -8.7108412 -41.47971
52.670437 -10.19428 -46.685013
51.398415 -11.606089 -51.638149
50.186207 -12.951284 -56.358349
49.030029 -14.234523 -60.860386
48.195087 -15.546793 -64.111565
48.200985 -17.103577 -64.088577
48.419788 -18.743137 -63.236618
49.442482 -20.73395 -59.254318
49.669071 -22.431194 -58.372025
49.897743 -24.14407 -57.481598
50.128532 -25.872795 -56.582932
50.361462 -27.617569 -55.67593
50.596569 -29.378649 -54.760445
50.833881 -31.156256 -53.836361
51.073433 -32.950607 -52.903587
51.315063 -34.761818 -51.962696
51.558804 -36.590115 -51.013596
56.653103 -58.480618 -31.176947
56.654236 -60.309353 -31.172531
56.660801 -62.144108 -31.146963
56.66737 -63.979294 -31.121384
56.673939 -65.814896 -31.095808
56.678474 -67.648499 -31.078152
56.681873 -69.481003 -31.06493
56.685268 -71.313728 -31.051685
56.688671 -73.146675 -31.038443
56.8134 -75.140305 -30.552782
57.118305 -77.386101 -29.365494
57.430229 -79.661285 -28.150908
57.745811 -81.961792 -26.922068
58.064877 -84.287727 -25.679644
58.387493 -86.639503 -24.423424
58.707634 -89.008354 -23.176817
59.032188 -5.5342593 -29.096336
57.487236 -7.1858983 -34.924221
56.021297 -8.7533274 -40.454029
54.628063 -10.242763 -45.70961
53.302639 -11.65995 -50.709385
52.039825 -13.009947 -55.472992
50.835636 -14.297526 -60.015434
50.009556 -15.627982 -63.131588
50.052319 -17.205488 -62.970272
50.280533 -18.855206 -62.10939
51.344158 -20.858557 -58.097198
51.581059 -22.566708 -57.203545
51.819977 -24.290613 -56.302296
52.061119 -26.030552 -55.392673
52.304512 -27.786774 -54.474533
52.550194 -29.559486 -53.547771
52.798187 -31.348927 -52.612259
53.048542 -33.155338 -51.667892
53.301086 -34.978844 -50.715233
53.556049 -36.819786 -49.753479
57.881977 -50.646729 -33.435169
57.885414 -52.458652 -33.422207
57.892052 -54.2738 -33.397156
57.898693 -56.089359 -33.372105
57.905338 -57.905338 -33.347034
57.911987 -59.721737 -33.321972
57.917488 -61.537323 -33.301224
57.920925 -63.351009 -33.288246
57.924366 -65.164917 -33.275269
57.92757 -66.978752 -33.263168
58.106297 -69.001228 -32.588978
58.416428 -71.195023 -31.419117
58.732471 -73.415596 -30.226915
59.052197 -75.660629 -29.020849
59.375427 -77.930244 -27.801577
59.70245 -80.225174 -26.567951
60.026943 -82.537041 -25.343901
61.191429 -5.5628567 -27.945969
59.581909 -7.2220478 -33.833439
58.055111 -8.7962341 -39.418301
56.604401 -10.291707 -44.724876
55.224621 -11.714316 -49.771969
53.910316 -13.069165 -54.579559
52.657299 -14.361078 -59.162971
51.842896 -15.709959 -62.141975
51.926022 -17.308678 -61.837898
52.16367 -18.968601 -60.96862
53.269012 -20.984764 -56.925385
53.516293 -22.70388 -56.020851
53.765686 -24.438944 -55.108608
54.017414 -26.190258 -54.187801
54.271515 -27.958048 -53.258343
54.528011 -29.742554 -52.32008
54.786945 -31.543999 -51.372925
55.048351 -33.362637 -50.416725
55.312061 -35.198582 -49.45211
55.578308 -37.052204 -48.478207
59.094276 -44.768391 -35.617153
59.098438 -46.562408 -35.601913
59.105156 -48.358757 -35.577366
59.11187 -50.155521 -35.552803
59.118584 -51.952694 -35.528236
59.125301 -53.750271 -35.503666
59.131786 -55.548042 -35.479935
59.135033 -57.343056 -35.468071
59.138508 -59.138512 -35.455357
59.141987 -60.934162 -35.442646
59.375847 -62.974384 -34.5872
59.691025 -65.117477 -33.434303
60.011002 -67.285057 -32.26387
60.334427 -69.475998 -31.080812
60.661842 -71.691269 -29.883142
60.992588 -73.930412 -28.673319
61.321224 -76.186974 -27.471203
61.697762 -7.2585602 -32.731628
60.108727 -8.8395195 -38.373199
58.599712 -10.341128 -43.730686
57.164394 -11.769143 -48.826511
55.797909 -13.128922 -53.677956
54.495041 -14.425161 -58.303558
53.695759 -15.792866 -61.141277
53.821777 -17.41293 -60.693855
54.069588 -19.083382 -59.814049
55.2173 -21.112494 -55.7393
55.474995 -22.842646 -54.824406
55.735302 -24.589096 -53.90023
55.997864 -26.351933 -52.968056
56.262913 -28.131453 -52.027058
56.530479 -29.927896 -51.077106
56.80061 -31.741522 -50.118065
57.073322 -33.57254 -49.14983
57.348461 -35.421108 -48.173008
57.626266 -37.287586 -47.186714
60.287491 -40.782711 -37.738537
60.294273 -42.560665 -37.714451
60.301052 -44.339012 -37.690376
60.307838 -46.117764 -37.666298
60.314625 -47.896908 -37.642208
60.321407 -49.676456 -37.618118
60.325386 -51.454006 -37.603992
60.328896 -53.231377 -37.591534
60.354187 -55.028824 -37.501732
60.622219 -57.056202 -36.550144
60.942524 -59.150101 -35.412952
61.266235 -61.266232 -34.263702
61.593395 -63.404964 -33.102161
61.924324 -65.566933 -31.927271
62.258823 -67.752243 -30.739695
62.591663 -69.955383 -29.558001
63.835121 -7.2954478 -31.618618
62.182899 -8.883276 -37.316925
60.614277 -10.391008 -42.726913
59.122631 -11.824521 -47.871414
57.702843 -13.189215 -52.768085
