# .PCD v0.7 - Point Cloud Data file format
VERSION 0.7
FIELDS x y z
SIZE 4 4 4
TYPE F F F
COUNT 1 1 1
WIDTH 1073
HEIGHT 1
VIEWPOINT 0 0 0 1 0 0 0
POINTS 1073
DATA ascii
-17.482903 -6.3574204 -24.888266
-18.565876 -6.1886244 -14.095284
-16.391733 -6.2444687 -26.592545
-20.371809 -6.1115456 2.1404338
-17.63526 -6.1723404 -14.376111
-15.606582 -6.2426353 -26.620258
-13.923243 -6.26546 -36.780113
-19.368275 -6.1162992 2.2360759
-16.757658 -6.1738763 -14.349669
-14.821894 -6.2407951 -26.647966
-13.25042 -6.2765145 -36.63184
-18.390532 -6.1301808 2.5153234
-15.879621 -6.175405 -14.323221
-14.037217 -6.2387614 -26.678652
-12.575176 -6.2875881 -36.483311
-12.384726 -6.8804049 -37.760502
-17.368189 -6.1299453 2.5107405
-15.001146 -6.1769438 -14.296758
-13.252771 -6.2365942 -26.711321
-11.884061 -6.291563 -36.430023
-11.674247 -6.8672037 -37.91983
-16.346001 -6.1297498 2.5067329
-14.122236 -6.1784782 -14.270281
-12.468869 -6.2344365 -26.743959
-11.182052 -6.289906 -36.452255
-10.994078 -6.8712964 -37.870411
-18.085033 -6.0283461 24.722792
-15.323878 -6.1295495 2.5027277
-13.242676 -6.1799169 -14.245498
-11.685512 -6.2322698 -26.776583
-10.480412 -6.2882485 -36.47448
-10.324477 -6.8829856 -37.729343
-16.881121 -6.0289698 24.737932
-14.301822 -6.1293497 2.4987228
-12.35998 -6.1799903 -14.244211
-10.902697 -6.2301149 -26.809181
-9.7791414 -6.2865915 -36.496689
-9.652565 -6.8946919 -37.588055
-15.676013 -6.0292301 24.744308
-13.279832 -6.1291494 2.4947174
-11.477261 -6.1800632 -14.242935
-10.12046 -6.2279792 -26.841425
-9.0782404 -6.284934 -36.51889
-8.978364 -6.9064336 -37.446285
-9.3235331 21.754911 -27.026815
-14.47088 -6.0295348 24.75149
-12.257908 -6.1289535 2.49071
-10.594522 -6.1801405 -14.241652
-9.338727 -6.2258153 -26.873983
-8.3777094 -6.2832804 -36.541077
-8.3018627 -6.91822 -37.304031
-8.5001945 21.636856 -27.535751
-8.5291433 20.935169 -27.218067
-8.5291433 20.159794 -27.218071
-8.5291433 19.384418 -27.218073
-8.5291739 18.609108 -27.217743
-8.5291739 17.833729 -27.217741
-8.5291739 17.058348 -27.217745
-8.5291739 16.282967 -27.217739
-8.5291739 15.507588 -27.217739
-8.5291739 14.732211 -27.217739
-8.5291739 13.956829 -27.217741
-8.5291739 13.181451 -27.217741
-8.5291739 12.406074 -27.217739
-8.5291739 11.630692 -27.217743
-8.5291739 10.855313 -27.217741
-8.5291739 10.079933 -27.217739
-8.5291739 9.3045521 -27.217741
-8.5291739 8.5291739 -27.217741
-8.5291739 7.7537961 -27.217739
-8.5291739 6.9784141 -27.217743
-8.5291739 6.2030363 -27.217743
-8.5291739 5.4276586 -27.217741
-8.5291739 4.6522737 -27.217739
-8.5291739 3.8768961 -27.217739
-8.5291739 3.1015177 -27.217739
-8.5291739 2.3261359 -27.217741
-8.5291739 1.5507582 -27.217741
-8.5291739 0.77538055 -27.217739
-8.5291739 8.396234e-07 -27.217737
-8.5291739 -0.77537972 -27.217743
-8.5291739 -1.5507594 -27.217739
-8.5291739 -2.3261352 -27.217741
-8.5291739 -3.1015189 -27.217741
-8.5291739 -3.8769004 -27.217735
-8.5291739 -4.6522741 -27.217739
-8.5291739 -5.427659 -27.217737
-8.5575352 -6.2236629 -26.906515
-7.6775455 -6.2816296 -36.563251
-7.6230721 -6.9300647 -37.16103
-7.7294569 21.642477 -27.511515
-7.743649 20.907854 -27.340208
-7.743649 20.133486 -27.340208
-7.743649 19.359123 -27.340208
-7.743649 18.584757 -27.340212
-7.743649 17.810392 -27.340206
-7.743649 17.036026 -27.340206
-7.743649 16.261663 -27.340206
-7.743649 15.487297 -27.34021
-7.743649 14.712934 -27.340208
-7.743649 13.938567 -27.34021
-7.743649 13.164205 -27.34021
-7.743649 12.389835 -27.340206
-7.743649 11.615474 -27.340206
-7.743649 10.841106 -27.340208
-7.743649 10.066744 -27.340208
-7.743649 9.2923775 -27.34021
-7.743649 8.5180149 -27.340208
-7.743649 7.7436485 -27.34021
-7.743649 6.9692836 -27.340204
-7.743649 6.1949167 -27.340208
-7.743649 5.4205546 -27.340208
-7.743649 4.6461868 -27.340208
-7.743649 3.871825 -27.340208
-7.743649 3.0974591 -27.34021
-7.743649 2.3230934 -27.340206
-7.743649 1.5487263 -27.340206
-7.743649 0.77436441 -27.340206
-7.743649 -3.7826265e-07 -27.340212
-7.743649 -0.77436733 -27.340204
-7.743649 -1.5487334 -27.340206
-7.743649 -2.323097 -27.340204
-7.743649 -3.0974598 -27.340204
-7.743649 -3.8718257 -27.340206
-7.743649 -4.6461878 -27.340204
-7.743649 -5.4205556 -27.340208
-7.7804847 -6.2243857 -26.895563
-6.9777513 -6.2799768 -36.585415
-6.9419308 -6.9419308 -37.017796
-6.9922552 21.753685 -27.032112
-6.9696269 20.908882 -27.335604
-6.9696269 20.13448 -27.335604
-6.9696269 19.360073 -27.335602
-6.9696269 18.585674 -27.335606
-6.9696269 17.811272 -27.335604
-6.9696269 17.036865 -27.335604
-6.9696269 16.262465 -27.335604
-6.9696269 15.488058 -27.335604
-6.9696269 14.713657 -27.335606
-6.9696269 13.939256 -27.335604
-6.9696269 13.164849 -27.335606
-6.9696269 12.390449 -27.335604
-6.9696269 11.616046 -27.335602
-6.9696269 10.841641 -27.335606
-6.9696269 10.067241 -27.335604
-6.9696269 9.2928381 -27.335602
-6.9696269 8.5184326 -27.335604
-6.9696269 7.7440305 -27.335602
-6.9696269 6.969625 -27.335604
-6.9696269 6.1952243 -27.335606
-6.9696269 5.4208221 -27.335602
-6.9696269 4.6464167 -27.335604
-6.9696269 3.8720164 -27.335606
-6.9696269 3.0976131 -27.335602
-6.9696269 2.3232086 -27.335606
-6.9696269 1.5488063 -27.335604
-6.9696269 0.77440089 -27.335606
-6.9696269 5.2758202e-07 -27.335606
-6.9696269 -0.77439982 -27.335608
-6.9696269 -1.5488093 -27.335602
-6.9696269 -2.3232105 -27.335602
-6.9696269 -3.097611 -27.335602
-6.9696269 -3.8720162 -27.335606
-6.9696269 -4.6464167 -27.335608
-6.9696269 -5.4208217 -27.3356
-7.0039706 -6.2257514 -26.874975
-6.2783237 -6.2783237 -36.607567
-6.2584534 -6.9538374 -36.874073
-6.1955295 20.90991 -27.330999
-6.1955295 20.135471 -27.331003
-6.1955295 19.361031 -27.331001
-6.1955295 18.58659 -27.330999
-6.1955295 17.812145 -27.331001
-6.1955295 17.037706 -27.331001
-6.1955295 16.263264 -27.330999
-6.1955295 15.488825 -27.330999
-6.1955295 14.71438 -27.331001
-6.1955295 13.939942 -27.331003
-6.1955295 13.165501 -27.331001
-6.1955295 12.39106 -27.330999
-6.1955295 11.616616 -27.331003
-6.1955295 10.842176 -27.331001
-6.1955295 10.067734 -27.330999
-6.1955295 9.2932959 -27.331001
-6.1955295 8.5188513 -27.331001
-6.1955295 7.7444096 -27.330999
-6.1955295 6.9699712 -27.331001
-6.1955295 6.1955295 -27.330999
-6.1955295 5.4210854 -27.330999
-6.1955295 4.6466455 -27.331001
-6.1955295 3.872205 -27.330999
-6.1955295 3.0977669 -27.331001
-6.1955295 2.3233252 -27.330999
-6.1955295 1.5488803 -27.331001
-6.1955295 0.77444142 -27.331001
-6.1955295 6.2218282e-07 -27.330999
-6.1955295 -0.77443814 -27.331003
-6.1955295 -1.5488852 -27.330999
-6.1955295 -2.3233232 -27.331001
-6.1955295 -3.0977638 -27.331001
-6.1955295 -3.8722067 -27.330996
-6.1955295 -4.6466494 -27.330999
-6.1955295 -5.4210873 -27.331001
-6.2271161 -6.2271161 -26.854387
-5.5792656 -6.2766733 -36.629707
-5.5726452 -6.9658079 -36.729591
-5.4213552 20.910942 -27.326393
-5.4213552 20.136459 -27.326397
-5.4213552 19.361982 -27.326399
-5.4213552 18.587503 -27.326397
-5.4213552 17.813025 -27.326399
-5.4213552 17.038546 -27.326397
-5.4213552 16.264065 -27.326397
-5.4213552 15.489587 -27.326397
-5.4213552 14.715107 -27.326395
-5.4213552 13.940629 -27.326395
-5.4213552 13.166145 -27.326395
-5.4213552 12.391668 -27.326399
-5.4213552 11.617189 -27.326399
-5.4213552 10.84271 -27.326397
-5.4213552 10.068232 -27.326397
-5.4213552 9.2937517 -27.326397
-5.4213552 8.5192728 -27.326397
-5.4213552 7.7447934 -27.326395
-5.4213552 6.9703145 -27.326395
-5.4213552 6.1958313 -27.326395
-5.4213552 5.4213548 -27.326399
-5.4213552 4.6468759 -27.326399
-5.4213552 3.8723962 -27.326397
-5.4213552 3.0979178 -27.326397
-5.4213552 2.3234377 -27.326397
-5.4213552 1.5489593 -27.326395
-5.4213552 0.77447993 -27.326395
-5.4213552 7.1678363e-07 -27.326395
-5.4213552 -0.77447975 -27.326401
-5.4213552 -1.5489612 -27.326395
-5.4213552 -2.3234384 -27.326399
-5.4213552 -3.097919 -27.326393
-5.4213552 -3.872396 -27.326397
-5.4213552 -4.6468735 -27.326401
-5.4213552 -5.4213538 -27.326395
-5.4489193 -6.2273388 -26.851063
-4.8805737 -6.2750235 -36.651833
-4.8844566 -6.9777966 -36.584881
-4.647121 20.912045 -27.321461
-4.647121 20.137524 -27.321466
-4.647121 19.363005 -27.321463
-4.647121 18.588482 -27.321465
-4.647121 17.813963 -27.321461
-4.647121 17.03944 -27.321463
-4.647121 16.264925 -27.321465
-4.647121 15.490405 -27.321463
-4.647121 14.715883 -27.321465
-4.647121 13.941364 -27.321461
-4.647121 13.166843 -27.321465
-4.647121 12.392323 -27.321461
-4.647121 11.617803 -27.321465
-4.647121 10.843283 -27.321461
-4.647121 10.068761 -27.321463
-4.647121 9.2942438 -27.321465
-4.647121 8.5197201 -27.321463
-4.647121 7.7452035 -27.321465
-4.647121 6.9706793 -27.321463
-4.647121 6.1961617 -27.321463
-4.647121 5.4216394 -27.321463
-4.647121 4.6471214 -27.321463
-4.647121 3.8726008 -27.321466
-4.647121 3.0980809 -27.321463
-4.647121 2.32356 -27.321466
-4.647121 1.5490403 -27.321463
-4.647121 0.77451843 -27.321465
-4.647121 1.6276806e-06 -27.321466
-4.647121 -0.77451819 -27.321463
-4.647121 -1.5490421 -27.321461
-4.647121 -2.3235569 -27.321465
-4.647121 -3.0980799 -27.321465
-4.647121 -3.8725998 -27.321461
-4.647121 -4.6471233 -27.321461
-4.647121 -5.421638 -27.321465
-4.6705523 -6.2274036 -26.850069
-4.1822495 -6.2733755 -36.67395
-4.1936417 -6.9894042 -36.444759
-3.8727915 20.913074 -27.31686
-3.8727915 20.138515 -27.316858
-3.8727915 19.36396 -27.316858
-3.8727915 18.589397 -27.316858
-3.8727915 17.81484 -27.316856
-3.8727915 17.040287 -27.31686
-3.8727915 16.265724 -27.316858
-3.8727915 15.491166 -27.316856
-3.8727915 14.716611 -27.316858
-3.8727915 13.94205 -27.31686
-3.8727915 13.167492 -27.316856
-3.8727915 12.392933 -27.316862
-3.8727915 11.618375 -27.316858
-3.8727915 10.843817 -27.316856
-3.8727915 10.069255 -27.316856
-3.8727915 9.2946997 -27.316858
-3.8727915 8.5201426 -27.316856
-3.8727915 7.7455802 -27.316856
-3.8727915 6.9710255 -27.316858
-3.8727915 6.1964674 -27.316856
-3.8727915 5.421906 -27.316858
-3.8727915 4.6473508 -27.316858
-3.8727915 3.8727934 -27.316858
-3.8727915 3.0982318 -27.316858
-3.8727915 2.3236756 -27.316858
-3.8727915 1.5491184 -27.316858
-3.8727915 0.77455693 -27.316858
-3.8727915 1.7222815e-06 -27.31686
-3.8727915 -0.77455568 -27.316856
-3.8727915 -1.549118 -27.316858
-3.8727915 -2.3236754 -27.316854
-3.8727915 -3.0982368 -27.316856
-3.8727915 -3.8727891 -27.316862
-3.8727915 -4.6473484 -27.31686
-3.8727915 -5.4219103 -27.31686
-3.8921542 -6.227447 -26.849396
-3.4842925 -6.2717271 -36.696056
-3.500514 -7.0010271 -36.30444
-3.0983965 20.914181 -27.311926
-3.0983965 20.13958 -27.311926
-3.0983965 19.364979 -27.311924
-3.0983965 18.590382 -27.311922
-3.0983965 17.815783 -27.311924
-3.0983965 17.041182 -27.311924
-3.0983965 16.266581 -27.311922
-3.0983965 15.491985 -27.311922
-3.0983965 14.717385 -27.311924
-3.0983965 13.942785 -27.311926
-3.0983965 13.168187 -27.31192
-3.0983965 12.393588 -27.311924
-3.0983965 11.618987 -27.311924
-3.0983965 10.844387 -27.311926
-3.0983965 10.069789 -27.31192
-3.0983965 9.2951889 -27.311922
-3.0983965 8.5205908 -27.311924
-3.0983965 7.7459941 -27.311924
-3.0983965 6.9713941 -27.311924
-3.0983965 6.1967921 -27.311922
-3.0983965 5.4221926 -27.311926
-3.0983965 4.6475968 -27.311924
-3.0983965 3.8729968 -27.311924
-3.0983965 3.0983949 -27.311922
-3.0983965 2.3237984 -27.311922
-3.0983965 1.5491995 -27.311924
-3.0983965 0.77459955 -27.311926
-3.0983965 -2.380584e-06 -27.311922
-3.0983965 -0.77459902 -27.311922
-3.0983965 -1.5491979 -27.311924
-3.0983965 -2.3237979 -27.311926
-3.0983965 -3.0983944 -27.311924
-3.0983965 -3.8729935 -27.311928
-3.0983965 -4.6475983 -27.31192
-3.0983965 -5.4221983 -27.311922
-3.1137564 -6.2275109 -26.848404
-2.7867019 -6.270081 -36.718151
-2.8050854 -7.0127125 -36.163383
-2.3239121 20.915209 -27.307322
-2.3239121 20.140572 -27.307318
-2.3239121 19.365934 -27.30732
-2.3239121 18.591297 -27.307316
-2.3239121 17.81666 -27.307318
-2.3239121 17.042019 -27.307318
-2.3239121 16.267385 -27.30732
-2.3239121 15.492746 -27.307318
-2.3239121 14.718112 -27.307318
-2.3239121 13.943472 -27.307316
-2.3239121 13.168835 -27.30732
-2.3239121 12.394198 -27.307318
-2.3239121 11.61956 -27.30732
-2.3239121 10.844924 -27.307316
-2.3239121 10.070286 -27.307318
-2.3239121 9.2956448 -27.307318
-2.3239121 8.5210123 -27.307318
-2.3239121 7.7463717 -27.307318
-2.3239121 6.9717379 -27.307318
-2.3239121 6.1970973 -27.307316
-2.3239121 5.4224639 -27.307318
-2.3239121 4.6478238 -27.307318
-2.3239121 3.8731854 -27.30732
-2.3239121 3.0985498 -27.307316
-2.3239121 2.3239117 -27.307318
-2.3239121 1.5492754 -27.307314
-2.3239121 0.77463806 -27.307318
-2.3239121 -2.2859831e-06 -27.307318
-2.3239121 -0.77463657 -27.307318
-2.3239121 -1.5492738 -27.307322
-2.3239121 -2.3239131 -27.307312
-2.3239121 -3.0985506 -27.307314
-2.3239121 -3.8731887 -27.30732
-2.3239121 -4.6478229 -27.30732
-2.3239121 -5.4224644 -27.307314
-2.3353422 -6.2275796 -26.847404
-2.0894775 -6.2684321 -36.740234
-2.1073246 -7.0244155 -36.022121
-1.5493565 20.916313 -27.302383
-1.5493565 20.141634 -27.302383
-1.5493565 19.366957 -27.302383
-1.5493565 18.592278 -27.302383
-1.5493565 17.8176 -27.302383
-1.5493565 17.042921 -27.302383
-1.5493565 16.268242 -27.302383
-1.5493565 15.493565 -27.302383
-1.5493565 14.718886 -27.302383
-1.5493565 13.944208 -27.302383
-1.5493565 13.16953 -27.302383
-1.5493565 12.394851 -27.302385
-1.5493565 11.620173 -27.302385
-1.5493565 10.845494 -27.302385
-1.5493565 10.07082 -27.302382
-1.5493565 9.2961416 -27.302383
-1.5493565 8.5214615 -27.30238
-1.5493565 7.7467828 -27.30238
-1.5493565 6.9721045 -27.30238
-1.5493565 6.1974263 -27.30238
-1.5493565 5.4227476 -27.30238
-1.5493565 4.6480699 -27.30238
-1.5493565 3.8733909 -27.30238
-1.5493565 3.0987132 -27.30238
-1.5493565 2.3240342 -27.302382
-1.5493565 1.5493563 -27.302382
-1.5493565 0.77467763 -27.302382
-1.5493565 -3.1438728e-06 -27.302378
-1.5493565 -0.77467805 -27.302383
-1.5493565 -1.5493598 -27.302378
-1.5493565 -2.3240356 -27.302383
-1.5493565 -3.0987158 -27.302378
-1.5493565 -3.8733914 -27.302383
-1.5493565 -4.6480732 -27.30238
-1.5493565 -5.422749 -27.302385
-1.5569112 -6.2276444 -26.846411
-1.392615 -6.2667685 -36.762569
-1.4072313 -7.036159 -35.880386
-0.77471638 20.917345 -27.297775
-0.77471638 20.142626 -27.297773
-0.77471638 19.36791 -27.297775
-0.77471638 18.593193 -27.297777
-0.77471638 17.818478 -27.297777
-0.77471638 17.043762 -27.297773
-0.77471638 16.269047 -27.297775
-0.77471638 15.494329 -27.297775
-0.77471638 14.719611 -27.297773
-0.77471638 13.944895 -27.297775
-0.77471638 13.170178 -27.297777
-0.77471638 12.395466 -27.297775
-0.77471638 11.620748 -27.297773
-0.77471638 10.846031 -27.297775
-0.77471638 10.071314 -27.297777
-0.77471638 9.2965956 -27.297775
-0.77471638 8.5218792 -27.297775
-0.77471638 7.7471623 -27.297777
-0.77471638 6.9724479 -27.297773
-0.77471638 6.1977315 -27.297773
-0.77471638 5.4230151 -27.297775
-0.77471638 4.6482987 -27.297777
-0.77471638 3.8735802 -27.297775
-0.77471638 3.0988641 -27.297775
-0.77471638 2.3241508 -27.297775
-0.77471638 1.5494325 -27.297773
-0.77471638 0.77471614 -27.297773
-0.77471638 -2.2380282e-06 -27.297771
-0.77471638 -0.77471662 -27.297777
-0.77471638 -1.5494357 -27.297775
-0.77471638 -2.3241494 -27.29777
-0.77471638 -3.0988636 -27.297775
-0.77471638 -3.8735836 -27.297773
-0.77471638 -4.6482968 -27.297779
-0.77471638 -5.4230165 -27.297775
-0.7784639 -6.2277131 -26.845411
-0.69612479 -6.2651229 -36.784626
-0.70484787 -7.0484786 -35.731647
-8.1593082e-24 20.918375 -27.293167
-1.4893871e-23 20.14362 -27.293169
-1.8987939e-23 19.368864 -27.293167
-2.5722501e-23 18.594109 -27.293171
-1.658168e-23 17.819357 -27.293167
-2.3316242e-23 17.044601 -27.293169
-1.417542e-23 16.269846 -27.293169
-5.0345986e-24 15.495092 -27.293165
-2.5004051e-23 14.720338 -27.293167
-1.5863229e-23 13.945581 -27.293167
-2.2597792e-23 13.170827 -27.293169
-1.345697e-23 12.396074 -27.293167
-2.0191532e-23 11.62132 -27.293169
-1.1050711e-23 10.846563 -27.293167
-3.1020163e-23 10.071813 -27.293167
-2.1879341e-23 9.2970552 -27.293167
-2.8613904e-23 8.5223007 -27.293169
-1.9473082e-23 7.7475443 -27.293169
-1.033226e-23 6.9727921 -27.293165
-2.3684268e-23 6.1980371 -27.293167
-1.4543446e-23 5.4232802 -27.293167
-2.1278008e-23 4.6485295 -27.293167
-1.8754632e-23 3.8737729 -27.293167
-2.5489194e-23 3.0990181 -27.293169
-1.6348372e-23 2.3242621 -27.293167
-2.970038e-23 1.5495114 -27.293167
-2.0559558e-23 0.77475464 -27.293167
-1.1418736e-23 -2.1434275e-06 -27.293167
-7.5589031e-24 -0.77475089 -27.293169
1.5819186e-24 -1.5495076 -27.293169
1.072274e-23 -2.3242645 -27.293169
1.3246117e-23 -3.0990205 -27.293167
3.032463e-23 -3.8737741 -27.293163
-2.2300782e-25 -4.6485252 -27.293169
2.3003689e-24 -5.4232826 -27.293169
-2.4708963e-23 -6.227777 -26.844418
-2.7723071e-23 -6.2749219 -36.653168
-4.1105144e-24 -7.0707111 -35.463303
0.77479541 20.919477 -27.288233
0.77479541 20.144682 -27.288235
0.77479541 19.369886 -27.288231
0.77479541 18.595091 -27.288231
0.77479541 17.820293 -27.288229
0.77479541 17.0455 -27.288229
0.77479541 16.270706 -27.288231
0.77479541 15.495911 -27.288231
0.77479541 14.721115 -27.288231
0.77479541 13.946321 -27.288231
0.77479541 13.171522 -27.288233
0.77479541 12.396727 -27.288233
0.77479541 11.62193 -27.288231
0.77479541 10.847135 -27.288229
0.77479541 10.072339 -27.288229
0.77479541 9.2975445 -27.288231
0.77479541 8.5227499 -27.288231
0.77479541 7.7479553 -27.288231
0.77479541 6.9731607 -27.288231
0.77479541 6.1983657 -27.288231
0.77479541 5.4235711 -27.288233
0.77479541 4.6487751 -27.288231
0.77479541 3.8739743 -27.288231
0.77479541 3.0991793 -27.288231
0.77479541 2.3243849 -27.288231
0.77479541 1.5495905 -27.288231
0.77479541 0.77479422 -27.288231
0.77479541 -2.1900735e-06 -27.288227
0.77479541 -0.77479738 -27.288227
0.77479541 -1.5495918 -27.288227
0.77479541 -2.324388 -27.288227
0.77479541 -3.0991833 -27.288227
0.77479541 -3.8739767 -27.288227
0.77479541 -4.6487722 -27.288227
0.77479541 -5.4235706 -27.288231
0.77847767 -6.2278204 -26.843758
0.69888484 -6.2899632 -36.45145
0.70930803 -7.093082 -35.193264
1.5496672 20.920507 -27.283623
1.5496672 20.145674 -27.283625
1.5496672 19.37084 -27.283623
1.5496672 18.596006 -27.283625
1.5496672 17.821175 -27.283627
1.5496672 17.046337 -27.283621
1.5496672 16.271509 -27.283623
1.5496672 15.496676 -27.283625
1.5496672 14.72184 -27.283621
1.5496672 13.947007 -27.283623
1.5496672 13.172174 -27.283623
1.5496672 12.39734 -27.283621
1.5496672 11.622506 -27.283623
1.5496672 10.847671 -27.283619
1.5496672 10.072838 -27.283621
1.5496672 9.2980051 -27.283623
1.5496672 8.5231695 -27.283621
1.5496672 7.7483368 -27.283623
1.5496672 6.9735041 -27.283625
1.5496672 6.1986685 -27.283621
1.5496672 5.4238353 -27.283623
1.5496672 4.6490026 -27.283623
1.5496672 3.8741679 -27.283623
1.5496672 3.0993342 -27.283625
1.5496672 2.3245013 -27.283625
1.5496672 1.5496656 -27.283623
1.5496672 0.77483273 -27.283623
1.5496672 -2.0954726e-06 -27.283621
1.5496672 -0.77483493 -27.283623
1.5496672 -1.5496677 -27.283625
1.5496672 -2.3245006 -27.283627
1.5496672 -3.0993333 -27.283627
1.5496672 -3.8741713 -27.283621
1.5496672 -4.649004 -27.283623
1.5496672 -5.4238334 -27.283621
1.5569717 -6.2278891 -26.842756
1.4011278 -6.3050752 -36.248772
1.4231186 -7.115591 -34.921516
2.3246236 20.921612 -27.278685
2.3246236 20.14674 -27.278685
2.3246236 19.371864 -27.278681
2.3246236 18.596989 -27.278687
2.3246236 17.822115 -27.278685
2.3246236 17.047243 -27.278685
2.3246236 16.272366 -27.278687
2.3246236 15.497492 -27.278685
2.3246236 14.722618 -27.278685
2.3246236 13.947741 -27.278685
2.3246236 13.172868 -27.278685
2.3246236 12.397994 -27.278683
2.3246236 11.623116 -27.278683
2.3246236 10.848244 -27.278683
2.3246236 10.073372 -27.278685
2.3246236 9.2984953 -27.278687
2.3246236 8.5236206 -27.278685
2.3246236 7.7487483 -27.278685
2.3246236 6.9738698 -27.278685
2.3246236 6.1989965 -27.278685
2.3246236 5.4241242 -27.278683
2.3246236 4.6492457 -27.278685
2.3246236 3.8743725 -27.278683
2.3246236 3.0994983 -27.278681
2.3246236 2.3246219 -27.278683
2.3246236 1.5497506 -27.278687
2.3246236 0.77487737 -27.278685
2.3246236 -2.9533624e-06 -27.278683
2.3246236 -0.77487338 -27.278685
2.3246236 -1.5497496 -27.278679
2.3246236 -2.3246241 -27.278685
2.3246236 -3.0994961 -27.278687
2.3246236 -3.8743715 -27.278681
2.3246236 -4.6492467 -27.278687
2.3246236 -5.4241214 -27.278683
2.3354824 -6.2279539 -26.841763
2.1067533 -6.3202581 -36.045113
2.1414747 -7.1382489 -34.648029
3.0996509 20.922642 -27.274076
3.0996509 20.147732 -27.274076
3.0996509 19.372818 -27.274073
3.0996509 18.597906 -27.274075
3.0996509 17.822996 -27.274075
3.0996509 17.04808 -27.274078
3.0996509 16.273169 -27.274078
3.0996509 15.498255 -27.274075
3.0996509 14.723344 -27.274075
3.0996509 13.948427 -27.274076
3.0996509 13.173516 -27.274076
3.0996509 12.398605 -27.274076
3.0996509 11.623693 -27.274076
3.0996509 10.84878 -27.274073
3.0996509 10.073863 -27.274075
3.0996509 9.2989521 -27.274075
3.0996509 8.5240412 -27.274076
3.0996509 7.7491293 -27.274076
3.0996509 6.9742131 -27.274078
3.0996509 6.1992993 -27.274073
3.0996509 5.4243884 -27.274075
3.0996509 4.649477 -27.274075
3.0996509 3.8745661 -27.274075
3.0996509 3.0996492 -27.274076
3.0996509 2.3247385 -27.274076
3.0996509 1.5498238 -27.274073
3.0996509 0.77491283 -27.274073
3.0996509 2.0087016e-06 -27.274075
3.0996509 -0.77491671 -27.274073
3.0996509 -1.5498255 -27.274076
3.0996509 -2.3247395 -27.274071
3.0996509 -3.0996492 -27.274075
3.0996509 -3.8745661 -27.274075
3.0996509 -4.6494756 -27.274078
3.0996509 -5.4243903 -27.274075
3.1140096 -6.2280178 -26.840759
2.8157856 -6.3355174 -35.840466
2.8644106 -7.161027 -34.373081
3.8747683 20.923752 -27.269138
3.8747683 20.148794 -27.269136
3.8747683 19.37384 -27.269136
3.8747683 18.598888 -27.269135
3.8747683 17.823935 -27.26914
3.8747683 17.048983 -27.269135
3.8747683 16.274027 -27.269136
3.8747683 15.49907 -27.269135
3.8747683 14.724121 -27.269136
3.8747683 13.949165 -27.269138
3.8747683 13.174213 -27.269135
3.8747683 12.39926 -27.269138
3.8747683 11.624303 -27.269138
3.8747683 10.849351 -27.269135
3.8747683 10.074395 -27.269136
3.8747683 9.2994452 -27.269136
3.8747683 8.5244904 -27.269136
3.8747683 7.7495337 -27.269136
3.8747683 6.9745841 -27.269138
3.8747683 6.1996274 -27.269136
3.8747683 5.4246764 -27.269136
3.8747683 4.6497202 -27.269135
3.8747683 3.8747706 -27.269136
3.8747683 3.0998144 -27.269136
3.8747683 2.324858 -27.269135
3.8747683 1.5499088 -27.269136
3.8747683 0.77495342 -27.269138
3.8747683 1.1508117e-06 -27.269135
3.8747683 -0.77495521 -27.269135
3.8747683 -1.5499105 -27.269135
3.8747683 -2.324857 -27.26914
3.8747683 -3.0998142 -27.269138
3.8747683 -3.8747654 -27.269138
3.8747683 -4.6497226 -27.269138
3.8747683 -5.4246783 -27.269136
3.8925533 -6.2280817 -26.839767
3.5282497 -6.3508492 -35.634838
3.5919867 -7.1839743 -34.096085
4.649951 20.924782 -27.264528
4.649951 20.149788 -27.264526
4.649951 19.374798 -27.264526
4.649951 18.599804 -27.264528
4.649951 17.824814 -27.264528
4.649951 17.04982 -27.264526
4.649951 16.27483 -27.264526
4.649951 15.499836 -27.264528
4.649951 14.724846 -27.264526
4.649951 13.949856 -27.264524
4.649951 13.174862 -27.264526
4.649951 12.399871 -27.264524
4.649951 11.624878 -27.264526
4.649951 10.849887 -27.264524
4.649951 10.074894 -27.264526
4.649951 9.2999029 -27.264524
4.649951 8.524909 -27.264526
4.649951 7.7499194 -27.264524
4.649951 6.974925 -27.264526
4.649951 6.1999354 -27.264524
4.649951 5.4249406 -27.264526
4.649951 4.6499519 -27.264524
4.649951 3.8749571 -27.264526
4.649951 3.0999663 -27.264524
4.649951 2.3249733 -27.264526
4.649951 1.5499827 -27.264524
4.649951 0.77498895 -27.264526
4.649951 1.2454125e-06 -27.264528
4.649951 -0.77498865 -27.264526
4.649951 -1.5499824 -27.264528
4.649951 -2.3249724 -27.264526
4.649951 -3.099967 -27.264526
4.649951 -3.8749576 -27.264528
4.649951 -4.6499505 -27.264526
4.649951 -5.4249411 -27.264528
4.672832 -6.2304468 -26.804193
4.2441568 -6.3662343 -35.428478
5.4252295 20.925882 -27.259583
5.4252295 20.150852 -27.259586
5.4252295 19.375818 -27.259586
5.4252295 18.600784 -27.259586
5.4252295 17.825754 -27.259584
5.4252295 17.050722 -27.259588
5.4252295 16.275688 -27.259586
5.4252295 15.500655 -27.259588
5.4252295 14.725621 -27.259586
5.4252295 13.950589 -27.259588
5.4252295 13.175559 -27.259584
5.4252295 12.400526 -27.259586
5.4252295 11.625491 -27.259584
5.4252295 10.85046 -27.259588
5.4252295 10.075425 -27.259586
5.4252295 9.3003931 -27.259588
5.4252295 8.5253582 -27.259586
5.4252295 7.7503304 -27.259586
5.4252295 6.975296 -27.259586
5.4252295 6.2002606 -27.259584
5.4252295 5.4252295 -27.259588
5.4252295 4.6501951 -27.259586
5.4252295 3.8751626 -27.259586
5.4252295 3.1001315 -27.259583
5.4252295 2.3251002 -27.259586
5.4252295 1.5500658 -27.259584
5.4252295 0.77503258 -27.259586
5.4252295 1.1987665e-06 -27.25959
5.4252295 -0.7750352 -27.259584
5.4252295 -1.5500684 -27.259586
5.4252295 -2.3250964 -27.259588
5.4252295 -3.1001289 -27.259588
5.4252295 -3.8751652 -27.259584
5.4252295 -4.6501975 -27.259586
5.4252295 -5.4252291 -27.259588
5.4551883 -6.2345004 -26.742968
4.9634604 -6.3815928 -35.222496
6.2005682 20.926912 -27.254974
6.2005682 20.151848 -27.254976
6.2005682 19.376776 -27.254976
6.2005682 18.601702 -27.254974
6.2005682 17.82663 -27.254976
6.2005682 17.051565 -27.254978
6.2005682 16.276491 -27.254976
6.2005682 15.501419 -27.254976
6.2005682 14.72635 -27.254974
6.2005682 13.951277 -27.254972
6.2005682 13.176208 -27.254978
6.2005682 12.401134 -27.254976
6.2005682 11.626066 -27.254974
6.2005682 10.850993 -27.254974
6.2005682 10.07592 -27.254972
6.2005682 9.3008509 -27.254978
6.2005682 8.5257816 -27.254974
6.2005682 7.7507091 -27.254974
6.2005682 6.9756365 -27.254974
6.2005682 6.2005706 -27.254976
6.2005682 5.425498 -27.254974
6.2005682 4.650425 -27.254974
6.2005682 3.8753531 -27.254976
6.2005682 3.1002846 -27.254972
6.2005682 2.3252137 -27.254976
6.2005682 1.5501409 -27.254974
6.2005682 0.77506906 -27.254976
6.2005682 3.3582427e-07 -27.254972
6.2005682 -0.77507043 -27.254976
6.2005682 -1.5501453 -27.254972
6.2005682 -2.3252101 -27.254974
6.2005682 -3.1002817 -27.254976
6.2005682 -3.8753557 -27.254972
6.2005682 -4.6504264 -27.254978
6.2005682 -5.425498 -27.254971
6.2376585 -6.2376599 -26.69532
5.6862435 -6.3970256 -35.015522
6.9760075 20.928022 -27.250032
6.9760075 20.152912 -27.250034
6.9760075 19.377798 -27.250031
6.9760075 18.602688 -27.250032
6.9760075 17.827572 -27.250034
6.9760075 17.05246 -27.250034
6.9760075 16.277349 -27.250034
6.9760075 15.502238 -27.250034
6.9760075 14.727125 -27.250032
6.9760075 13.952014 -27.250032
6.9760075 13.176905 -27.250036
6.9760075 12.401791 -27.250031
6.9760075 11.62668 -27.250034
6.9760075 10.851565 -27.250036
6.9760075 10.076453 -27.250034
6.9760075 9.301342 -27.250034
6.9760075 8.5262308 -27.250036
6.9760075 7.7511177 -27.250032
6.9760075 6.976007 -27.250034
6.9760075 6.2008967 -27.250034
6.9760075 5.4257836 -27.250032
6.9760075 4.6506724 -27.250032
6.9760075 3.8755629 -27.250034
6.9760075 3.1004455 -27.250034
6.9760075 2.3253343 -27.250036
6.9760075 1.5502239 -27.250036
6.9760075 0.77511072 -27.250032
6.9760075 2.8917827e-07 -27.250034
6.9760075 -0.77511293 -27.250031
6.9760075 -1.5502211 -27.250036
6.9760075 -2.3253353 -27.250032
6.9760075 -3.1004469 -27.250031
6.9760075 -3.87556 -27.250038
6.9760075 -4.6506734 -27.250036
6.9760075 -5.425786 -27.250031
7.0188322 -6.2389636 -26.675648
6.4125314 -6.4125295 -34.807541
7.7515011 20.929052 -27.245422
7.7515011 20.153902 -27.245422
7.7515011 19.378752 -27.245424
7.7515011 18.603601 -27.245424
7.7515011 17.828451 -27.245424
7.7515011 17.053301 -27.245424
7.7515011 16.278151 -27.245422
7.7515011 15.503001 -27.245424
7.7515011 14.72785 -27.245422
7.7515011 13.952702 -27.245424
7.7515011 13.17755 -27.245422
7.7515011 12.402399 -27.245422
7.7515011 11.62725 -27.245424
7.7515011 10.852098 -27.245422
7.7515011 10.076955 -27.245422
7.7515011 9.3018026 -27.24542
7.7515011 8.5266523 -27.245419
7.7515011 7.7515039 -27.245422
7.7515011 6.9763527 -27.24542
7.7515011 6.2012038 -27.245422
7.7515011 5.426053 -27.24542
7.7515011 4.6509013 -27.24542
7.7515011 3.8757524 -27.245422
7.7515011 3.1006017 -27.24542
7.7515011 2.3254528 -27.245422
7.7515011 1.5503011 -27.24542
7.7515011 0.77515024 -27.245419
7.7515011 -5.7376394e-07 -27.245417
7.7515011 -0.77514637 -27.245424
7.7515011 -1.5502981 -27.245422
7.7515011 -2.325448 -27.24542
7.7515011 -3.1006014 -27.245419
7.7515011 -3.8757524 -27.245417
7.7515011 -4.650898 -27.245424
7.7515011 -5.4260492 -27.245422
7.8003054 -6.2402411 -26.656303
7.1397767 -6.4258013 -34.629585
8.5271015 20.930161 -27.240482
8.5271015 20.154968 -27.240477
8.5271015 19.379776 -27.24048
8.5271015 18.604586 -27.240479
8.5271015 17.829393 -27.240482
8.5271015 17.054203 -27.24048
8.5271015 16.279015 -27.24048
8.5271015 15.503819 -27.24048
8.5271015 14.728629 -27.240479
8.5271015 13.953441 -27.240479
8.5271015 13.178247 -27.24048
8.5271015 12.403058 -27.24048
8.5271015 11.627869 -27.24048
8.5271015 10.852673 -27.240479
8.5271015 10.077483 -27.240479
8.5271015 9.30229 -27.24048
8.5271015 8.5271006 -27.24048
8.5271015 7.7519121 -27.240479
8.5271015 6.9767184 -27.240482
8.5271015 6.20153 -27.24048
8.5271015 5.4263387 -27.240477
8.5271015 4.651145 -27.24048
8.5271015 3.8759561 -27.24048
8.5271015 3.1007626 -27.240482
8.5271015 2.3255734 -27.240482
8.5271015 1.5503842 -27.24048
8.5271015 0.77518785 -27.240479
8.5271015 -1.4316538e-06 -27.240479
8.5271015 -0.77519071 -27.240479
8.5271015 -1.5503832 -27.24048
8.5271015 -2.3255732 -27.24048
8.5271015 -3.1007617 -27.24048
8.5271015 -3.8759551 -27.240482
8.5271015 -4.651145 -27.240482
8.5271015 -5.4263368 -27.240484
8.582099 -6.2415237 -26.636951
7.8698335 -6.4389572 -34.453136
9.3031111 21.70726 -27.232241
9.3027506 20.931192 -27.235867
9.3027506 20.15596 -27.235868
9.3027506 19.380732 -27.235867
9.3027506 18.605503 -27.235867
9.3027506 17.830276 -27.235868
9.3027506 17.055042 -27.235868
9.3027506 16.279816 -27.235868
9.3027506 15.504586 -27.235867
9.3027506 14.729359 -27.235867
9.3027506 13.954124 -27.235867
9.3027506 13.178897 -27.235867
9.3027506 12.403669 -27.235867
9.3027506 11.62844 -27.235865
9.3027506 10.853209 -27.235868
9.3027506 10.07798 -27.235867
9.3027506 9.3027515 -27.235867
9.3027506 8.5275249 -27.235868
9.3027506 7.7522912 -27.235868
9.3027506 6.9770646 -27.235868
9.3027506 6.2018337 -27.235865
9.3027506 5.4266062 -27.235867
9.3027506 4.6513753 -27.235868
9.3027506 3.8761456 -27.235867
9.3027506 3.1009188 -27.235867
9.3027506 2.3256891 -27.235865
9.3027506 1.5504581 -27.235868
9.3027506 0.77522737 -27.235865
9.3027506 3.5304101e-06 -27.23587
9.3027506 -0.77523321 -27.235865
9.3027506 -1.5504601 -27.235867
9.3027506 -2.3256886 -27.235867
9.3027506 -3.1009147 -27.235868
9.3027506 -3.8761523 -27.235863
9.3027506 -4.6513772 -27.235865
9.3027506 -5.4266047 -27.235867
9.3642483 -6.2428341 -26.61725
8.6152582 -6.4614415 -34.151516
10.050412 21.647039 -27.491861
10.079862 20.935099 -27.218403
10.079862 20.159723 -27.218397
10.079862 19.38435 -27.218403
10.079862 18.608974 -27.218397
10.079862 17.833603 -27.218401
10.079862 17.058228 -27.218401
10.079862 16.282852 -27.218397
10.079862 15.507481 -27.218399
10.079862 14.732103 -27.218399
10.079862 13.956732 -27.218399
10.079862 13.181357 -27.218397
10.079862 12.405983 -27.218401
10.079862 11.630609 -27.218399
10.079862 10.855237 -27.218399
10.079862 10.079859 -27.218399
10.079862 9.3044882 -27.218401
10.079862 8.5291147 -27.218399
10.079862 7.7537384 -27.218401
10.079862 6.9783645 -27.218399
10.079862 6.2029939 -27.218401
10.079862 5.4276161 -27.218401
10.079862 4.6522446 -27.218401
10.079862 3.8768699 -27.218399
10.079862 3.1014953 -27.218403
10.079862 2.3261216 -27.218399
10.079862 1.550748 -27.218397
10.079862 0.77537239 -27.218399
10.079862 9.3060839e-07 -27.218403
10.079862 -0.77537572 -27.218395
10.079862 -1.5507504 -27.218399
10.079862 -2.3261228 -27.218399
10.079862 -3.1014934 -27.218401
10.079862 -3.8768733 -27.218395
10.079862 -4.6522455 -27.218399
10.079862 -5.4276171 -27.218399
10.146688 -6.2441154 -26.597887
9.3659077 -6.4840894 -33.847775
10.843244 21.686487 -27.321791
10.899727 21.020901 -26.83478
10.899727 20.242352 -26.834784
10.899727 19.463797 -26.83478
10.899727 18.685247 -26.834782
10.899727 17.906693 -26.834778
10.899727 17.128141 -26.834782
10.899727 16.349588 -26.83478
10.899727 15.571038 -26.834782
10.899727 14.792488 -26.834784
10.899727 14.013934 -26.834782
10.899727 13.235383 -26.834784
10.899727 12.45683 -26.834782
10.899727 11.678279 -26.834782
10.899727 10.899726 -26.83478
10.899727 10.121175 -26.834782
10.899727 9.3426218 -26.83478
10.899727 8.5640717 -26.834782
10.899727 7.7855177 -26.83478
10.899727 7.0069671 -26.834782
10.899727 6.2284155 -26.834784
10.899727 5.449862 -26.834782
10.899727 4.6713114 -26.834782
10.899727 3.8927577 -26.83478
10.899727 3.114208 -26.834784
10.899727 2.3356545 -26.834782
10.899727 1.5571036 -26.834782
10.899727 0.77855015 -26.83478
10.899727 -1.3818099e-06 -26.834782
10.899727 -0.77855211 -26.834784
10.899727 -1.5571077 -26.834778
10.899727 -2.3356593 -26.83478
10.899727 -3.1142089 -26.834782
10.899727 -3.8927596 -26.834784
10.899727 -4.6713119 -26.834785
10.899727 -5.4498668 -26.83478
10.929488 -6.2454219 -26.578173
10.117884 -6.5043573 -33.575993
18.060997 -6.0203295 24.529366
15.302504 -6.1210017 2.3307285
13.280594 -6.1976128 -13.940351
11.712576 -6.246706 -26.55879
10.874574 -6.5247436 -33.302505
19.266117 -6.0206599 24.537317
16.321083 -6.1204042 2.3187449
14.176457 -6.2022014 -13.86121
12.495585 -6.2477951 -26.542404
11.636063 -6.5452857 -33.027012
17.348948 -6.123158 2.3741128
15.066366 -6.2037997 -13.833652
13.277831 -6.2483926 -26.533371
12.399772 -6.5645847 -32.768154
15.956412 -6.2052741 -13.808236
14.060227 -6.248991 -26.524342
13.205472 -6.6027384 -32.256458
16.845186 -6.20612 -13.793587
14.841087 -6.248879 -26.526014
14.008244 -6.6354828 -31.817236
17.733704 -6.2067962 -13.781952
15.621921 -6.2487698 -26.527689
14.819017 -6.6685576 -31.373638
18.622414 -6.2074728 -13.770306
16.402666 -6.2486353 -26.529692
15.637914 -6.7019634 -30.925589
17.183441 -6.2485271 -26.531368
16.465057 -6.7357063 -30.473034
17.964188 -6.2484145 -26.533041
17.300098 -6.7696018 -30.018385
18.744907 -6.2483006 -26.534714
18.142216 -6.8033328 -29.566019
19.52553 -6.2481713 -26.536718
18.992765 -6.8373961 -29.109133
20.283957 -6.2412171 -26.641624
19.865038 -6.8763556 -28.586548
21.018972 -6.2278466 -26.843416
