# .PCD v0.7 - Point Cloud Data file format
VERSION 0.7
FIELDS x y z
SIZE 4 4 4
TYPE F F F
COUNT 1 1 1
WIDTH 1482
HEIGHT 1
VIEWPOINT 0 0 0 1 0 0 0
POINTS 1482
DATA ascii
-45.852688 -23.716904 -60.919151
-46.060513 -25.412699 -60.054058
-46.270721 -27.124218 -59.179089
-46.483505 -28.851831 -58.293385
-46.698254 -30.595406 -57.399498
-46.915001 -32.355175 -56.497311
-47.133934 -34.13147 -55.586018
-47.354755 -35.924297 -54.666874
-47.577648 -37.733997 -53.739086
-54.351707 -76.842064 -25.542501
-54.359947 -78.728203 -25.508184
-54.368195 -80.614906 -25.473871
-54.376667 -82.502533 -25.438604
-54.384918 -84.390388 -25.404264
-54.393169 -86.278816 -25.369909
-54.400982 -88.167099 -25.337402
-54.400536 -90.042259 -25.33927
-54.407227 -91.929459 -25.311392
-54.615139 3.8015728e-06 -16.326977
-53.11071 -1.8968158 -22.812708
-51.686943 -3.6919148 -28.950716
-50.335537 -5.393095 -34.776737
-49.049244 -7.0070362 -40.322079
-47.827053 -8.5405426 -45.591068
-46.664284 -9.9994917 -50.603859
-45.556553 -11.389135 -55.379402
-44.500351 -12.714386 -59.932789
-43.492012 -13.979579 -64.279839
-42.633423 -15.226222 -67.981285
-42.518753 -16.7038 -68.475647
-42.707367 -18.303158 -67.662514
-43.619282 -20.251812 -63.731159
-43.814064 -21.907026 -62.891457
-44.010742 -23.577181 -62.043552
-44.209042 -25.262312 -61.188656
-44.409286 -26.96278 -60.325367
-44.612293 -28.679333 -59.450191
-44.817165 -30.41165 -58.566978
-45.023922 -32.159939 -57.675636
-45.232601 -33.924446 -56.776009
-45.443218 -35.705391 -55.868008
-45.655807 -37.502979 -54.951527
-53.042068 -85.246178 -23.108641
-53.050198 -87.1539 -23.07358
-53.058331 -89.062202 -23.038525
-53.066689 -90.971466 -23.002501
-53.074829 -92.880943 -22.967413
-53.90057 1.9963216 -10.801235
-52.381958 2.9524417e-06 -17.590576
-50.946579 -1.8869122 -24.007824
-49.587566 -3.6731498 -30.083664
-48.295586 -5.3661809 -35.85981
-47.067425 -6.9729471 -41.350647
-45.900173 -8.5000372 -46.569118
-44.789425 -9.9532089 -51.535046
-43.731003 -11.337666 -56.266991
-42.7216 -12.658246 -60.7798
-41.757744 -13.919238 -65.088982
-40.900806 -15.148441 -68.92012
-40.76429 -16.607674 -69.530479
-40.94421 -18.197428 -68.726082
-41.128056 -19.802395 -67.904152
-42.003071 -21.779369 -63.992172
-42.190372 -23.439093 -63.154793
-42.379353 -25.113688 -62.30991
-42.570179 -26.803446 -61.456764
-42.763325 -28.508881 -60.59325
-42.95853 -30.23008 -59.720528
-43.155525 -31.967056 -58.839806
-43.354336 -33.720039 -57.95097
-43.554985 -35.48925 -57.053905
-43.757504 -37.27491 -56.148518
-51.695934 -91.903885 -20.65764
-51.703941 -93.833084 -20.621836
-51.619194 1.985356 -12.124682
-50.172626 5.2285492e-07 -18.840689
-48.804924 -1.8771042 -25.190552
-47.509434 -3.6545706 -31.205158
-46.275894 -5.3395224 -36.932137
-45.10479 -6.9392018 -42.369232
-43.991493 -8.4599047 -47.537952
-42.931835 -9.9073448 -52.457642
-41.922024 -11.28669 -57.14592
-40.958485 -12.602612 -61.619354
-40.038376 -13.859447 -65.891151
-39.185928 -15.071509 -69.848824
-39.030025 -16.512701 -70.572639
-39.201176 -18.092852 -69.778046
-39.376312 -19.68816 -68.964935
-40.212925 -21.653111 -65.080772
-40.391201 -23.30261 -64.253098
-40.571201 -24.966888 -63.4174
-40.752674 -26.645983 -62.574863
-40.936203 -28.340445 -61.722805
-41.12196 -30.050655 -60.860394
-41.30941 -31.776468 -59.990112
-41.498573 -33.518082 -59.111862
-41.68948 -35.275707 -58.225552
-41.882149 -37.049595 -57.331032
-50.819969 4.0656004 -6.3975425
-49.36274 1.9745122 -13.433667
-47.986752 2.2209929e-07 -20.077524
-46.685204 -1.8674016 -26.361956
-45.450409 -3.6360288 -32.324089
-44.276165 -5.3131375 -37.993843
-43.16106 -6.9057684 -43.378033
-42.10075 -8.4201546 -48.497658
-41.091286 -9.8619137 -53.371784
-40.129097 -11.23615 -58.017647
-39.2108 -12.547454 -62.451572
-38.333721 -13.800138 -66.686478
-37.495022 -14.998006 -70.736076
-37.315487 -16.418812 -71.602959
-37.478184 -17.989527 -70.81739
-37.644535 -19.575155 -70.014168
-38.44342 -21.528316 -66.156815
-38.612862 -23.167717 -65.338669
-38.783936 -24.821722 -64.512642
-38.956406 -26.490353 -63.679916
-39.130409 -28.173893 -62.839733
-39.306923 -29.873259 -61.987457
-39.485039 -31.588028 -61.127449
-39.664909 -33.31852 -60.258949
-39.846287 -35.064735 -59.383156
-40.029335 -36.826988 -58.499332
-48.514366 4.0428629 -7.7696471
-47.130802 1.963786 -14.728426
-45.823971 8.7225098e-06 -21.301302
-44.587471 -1.8578105 -27.520401
-43.41217 -3.6176817 -33.431705
-42.296101 -5.2870102 -39.045128
-41.23597 -6.8726621 -44.377144
-40.227692 -8.3807669 -49.448395
-39.26754 -9.8168869 -54.277584
-38.352158 -11.186036 -58.881615
-37.478348 -12.492787 -63.276527
-36.643593 -13.741346 -67.475021
-35.845215 -14.935504 -71.490562
-35.620216 -16.32593 -72.6222
-35.774643 -17.887316 -71.845512
-35.932644 -19.463518 -71.050812
-36.694191 -21.404945 -67.220528
-36.855118 -23.034447 -66.411133
-37.017338 -24.678225 -65.59523
-37.180992 -26.336535 -64.772118
-37.346226 -28.00967 -63.941044
-37.513321 -29.69805 -63.100628
-37.682304 -31.401918 -62.250713
-37.852818 -33.121212 -61.393093
-38.024883 -34.85614 -60.527679
-38.198517 -36.606915 -59.654354
-47.624687 6.2119136 -1.8298856
-46.234402 4.0203891 -9.1265106
-44.922985 1.9531716 -16.00919
-43.683735 1.3701805e-07 -22.513149
-42.510498 -1.8482846 -28.67061
-41.394402 -3.5995154 -34.52821
-40.335411 -5.2611451 -40.086105
-39.329254 -6.839869 -45.366714
-38.372074 -8.3417521 -50.390293
-37.460373 -9.7722673 -55.175148
-36.590992 -11.13639 -59.737915
-35.760929 -12.438583 -64.09433
-34.967804 -13.683048 -68.256874
-34.209099 -14.873516 -72.238792
-33.94413 -16.234144 -73.62941
-34.090458 -17.786324 -72.861443
-34.240059 -19.353075 -72.076302
-34.964897 -21.282978 -68.272133
-35.117363 -22.902624 -67.471947
-35.271046 -24.536373 -66.665382
-35.426079 -26.18449 -65.851723
-35.5826 -27.847254 -65.030235
-35.740635 -29.524878 -64.200829
-35.900692 -31.217989 -63.360821
-36.062187 -32.926338 -62.513245
-36.225143 -34.650127 -61.658005
-36.38958 -36.389576 -60.794998
-45.294605 6.1765361 -3.2534201
-43.979649 3.9981554 -10.468357
-42.738892 1.9426829 -17.276205
-41.566055 7.2677776e-06 -23.711409
-40.453587 -1.8388034 -29.815338
-39.396801 -3.5815277 -35.613758
-38.393822 -5.2355237 -41.116951
-37.440647 -6.8073874 -46.346889
-36.533649 -8.3031025 -51.323433
-35.669559 -9.7280693 -56.064579
-34.845398 -11.087177 -60.586628
-34.058346 -12.384854 -64.905067
-33.306175 -13.625248 -69.03212
-32.586506 -14.812047 -72.980827
-32.293213 -16.146606 -74.590088
-32.425083 -17.686411 -73.866531
-32.566677 -19.243942 -73.089638
-33.25531 -21.162477 -69.311195
-33.399387 -22.772303 -68.520691
-33.544712 -24.396152 -67.723289
-33.691425 -26.034279 -66.918304
-33.839314 -27.686705 -66.106865
-33.988503 -29.353706 -65.288277
-34.139824 -31.036203 -64.457993
-34.292503 -32.733753 -63.620285
-34.446548 -34.446548 -62.775036
-34.60199 -36.174809 -61.922173
-44.308182 8.4396629 2.911027
-42.990913 6.1415625 -4.6608214
-41.749702 3.9761572 -11.795441
-40.577984 1.932284 -18.530645
-39.470398 -1.5068666e-06 -24.897182
-38.417675 -1.8294069 -30.948385
-37.419064 -3.5637219 -36.688511
-36.47105 -5.2101512 -42.13781
-35.569889 -6.7752194 -47.31781
-34.712185 -8.2648125 -52.247986
-33.894875 -9.6842432 -56.946014
-33.115162 -11.038381 -61.427895
-32.370407 -12.331584 -65.708824
-31.658524 -13.567936 -69.800842
-30.977272 -14.751079 -73.716751
-30.673321 -16.066978 -75.463913
-30.77841 -17.58766 -74.85984
-30.911959 -19.135973 -74.092171
-31.564871 -21.043247 -70.339172
-31.700846 -22.643463 -69.557549
-31.838001 -24.257519 -68.76918
-31.976452 -25.8857 -67.973328
-32.116005 -27.528006 -67.171158
-32.256893 -29.184811 -66.36132
-32.399349 -30.856529 -65.542465
-32.5434 -32.543404 -64.714439
-32.688736 -34.245342 -63.879032
-32.835381 -35.962555 -63.036125
-32.983341 -37.695248 -62.185608
-41.953407 8.3906832 1.4331616
-40.713165 6.1069822 -6.0523715
-39.544147 3.9544201 -13.108025
-38.440228 1.9220109 -19.770761
-37.395504 9.0831804e-09 -26.076241
-36.402439 -1.8201165 -32.069901
-35.460896 -3.5460885 -37.752632
-34.566826 -5.1850247 -43.148815
-33.716732 -6.7433395 -48.279591
-32.907448 -8.2268562 -53.164055
-32.136101 -9.6408262 -57.819534
-31.400089 -10.990021 -62.261776
-30.69693 -12.278771 -66.505699
-30.024675 -13.5111 -70.563133
-29.381231 -14.690614 -74.446648
-29.069324 -15.988128 -76.329163
-29.149931 -17.489954 -75.842667
-29.275803 -19.029274 -75.082962
-29.89337 -20.925356 -71.355621
-30.021421 -22.516064 -70.582764
-30.150677 -24.120535 -69.802643
-30.280947 -25.738802 -69.016396
-30.412348 -27.371115 -68.223305
-30.544998 -29.01775 -67.422691
-30.678808 -30.678808 -66.615074
-30.814419 -32.355145 -65.796585
-30.951235 -34.04636 -64.970833
-31.089378 -35.752781 -64.137062
-31.228651 -37.474384 -63.296478
-40.863438 10.75354 7.8352866
-39.625801 8.3422823 -0.027678013
-38.46093 6.0727758 -7.4283376
-37.362427 3.9328947 -14.407335
-36.325085 1.911841 -20.997765
-35.341343 1.2500753e-06 -27.247669
-34.407574 -1.8109244 -33.180084
-33.522003 -3.528635 -38.806278
-32.680878 -5.1601372 -44.150124
-31.880926 -6.7117682 -49.232365
-31.119204 -8.1892605 -54.071747
-30.393028 -9.5978022 -58.685257
-29.699974 -10.942087 -63.088383
-29.037724 -12.226414 -67.295784
-28.404457 -13.454739 -71.319054
-27.79822 -14.630637 -75.170586
-27.480999 -15.910051 -77.185959
-27.539534 -17.393391 -76.814087
-27.657701 -18.923695 -76.063324
-28.240494 -20.808781 -72.360741
-28.360788 -22.390099 -71.596481
-28.482204 -23.985014 -70.825096
-28.604572 -25.593569 -70.047661
-28.728092 -27.216085 -69.262932
-28.852587 -28.852591 -68.471992
-28.978163 -30.503328 -67.674179
-29.105425 -32.169147 -66.865669
-29.233906 -33.849785 -66.0494
-29.363527 -35.545326 -65.225876
-29.494305 -37.255962 -64.395042
-38.48378 10.689936 6.2998767
-37.324898 8.2944298 -1.4717417
-36.233616 6.0389395 -8.7900562
-35.204483 3.9116108 -15.691558
-34.232197 1.9017949 -22.211876
-33.308399 1.2495517e-06 -28.406994
-32.432892 -1.8018187 -34.278267
-31.602112 -3.5113468 -39.849606
-30.812946 -5.1354885 -45.141872
-30.062233 -6.6804872 -50.176262
-29.347231 -8.1520052 -54.971169
-28.665451 -9.5551462 -59.543297
-28.014626 -10.894573 -63.907803
-27.3927 -12.17453 -68.078537
-26.797701 -13.398848 -72.068703
-26.228085 -14.57116 -75.888634
-25.90811 -15.832737 -78.034424
-25.946739 -17.297823 -77.775375
-26.057543 -18.819334 -77.032303
-26.60593 -20.693502 -73.354736
-26.718718 -22.2656 -72.598358
-26.83238 -23.851004 -71.836128
-26.947012 -25.449959 -71.067375
-27.062717 -27.062723 -70.291435
-27.179333 -28.689295 -69.509415
-27.297045 -30.330048 -68.720024
-27.415966 -31.985291 -67.922523
-27.536295 -33.655468 -67.115578
-27.657684 -35.340374 -66.301514
-27.780151 -37.040195 -65.480247
-37.282864 13.158663 12.953689
-36.132095 10.62709 4.782526
-35.05024 8.2471161 -2.8993332
-34.031139 6.0054951 -10.135604
-33.069763 3.890563 -16.961987
-32.160015 1.8917639 -23.421757
-31.296335 5.220928e-06 -29.55442
-30.477833 -1.792817 -35.366302
-29.700937 -3.4942269 -40.882755
-28.962772 -5.1110749 -46.124172
-28.26041 -6.6495032 -51.111393
-27.591307 -8.1150866 -55.862446
-26.953156 -9.5128746 -60.393738
-26.343855 -10.847468 -64.720146
-25.761492 -12.123057 -68.855286
-25.204239 -13.34342 -72.812141
-24.670662 -14.512156 -76.600868
-24.350433 -15.756162 -78.874687
-24.371428 -17.203362 -78.725624
-24.474855 -18.716066 -77.991211
-24.989378 -20.579487 -74.337769
-25.094728 -22.142408 -73.589722
-25.20089 -23.718481 -72.835922
-25.308033 -25.308033 -72.075127
-25.41601 -26.911062 -71.308434
-25.52491 -28.527843 -70.535164
-25.634834 -30.158627 -69.754639
-25.745708 -31.803522 -68.967361
-25.858063 -33.463375 -68.169579
-25.971399 -35.137772 -67.364807
-26.085737 -36.826923 -66.552948
-36.018391 15.758049 19.959692
-34.878159 13.079306 11.357339
-33.807907 10.564979 3.282897
-32.801235 8.2003107 -4.3118563
-31.852917 5.972424 -11.46635
-30.957893 3.8697395 -18.21879
-30.109314 1.8818328 -24.620832
-29.304842 7.0999536e-06 -30.690115
-28.542236 -1.7838843 -36.443523
-27.818211 -3.4772711 -41.905865
-27.130108 -5.0868902 -47.097191
-26.475227 -6.6188068 -52.037895
-25.851215 -8.078496 -56.745701
-25.255945 -9.4709797 -61.236691
-24.687466 -10.800766 -65.525497
-24.14402 -12.072005 -69.625504
-23.623905 -13.288444 -73.549454
-23.125803 -14.453629 -77.307358
-22.807753 -15.680329 -79.706863
-22.813158 -17.109869 -79.666092
-22.909517 -18.613977 -78.93911
-23.390619 -20.466787 -75.309479
-23.488611 -22.020573 -74.570175
-23.587427 -23.587429 -73.824669
-23.687157 -25.167604 -73.072273
-23.787653 -26.761106 -72.314079
-23.889084 -28.368282 -71.548843
-23.991306 -29.989132 -70.777626
-24.094406 -31.623909 -69.999802
-24.198799 -33.27335 -69.212219
-24.30434 -34.937489 -68.415985
-24.410725 -36.616093 -67.613365
-33.558266 15.660525 18.277996
-32.502285 13.000919 9.7801027
-31.510731 10.503576 1.8007194
-30.577751 8.1540642 -5.7073207
-29.698557 5.9397106 -12.782511
-28.868391 3.8491197 -19.463202
-28.080038 1.8720037 -25.807373
-27.333597 4.7429694e-06 -31.814259
-26.625814 -1.7750516 -37.510059
-25.953663 -3.4604843 -42.919121
-25.314707 -5.0629416 -48.061039
-24.706453 -6.5883827 -52.955875
-24.126745 -8.0422516 -57.621006
-23.573618 -9.4294548 -62.072235
-23.045284 -10.754467 -66.323952
-22.540113 -12.021396 -70.389244
-22.056541 -13.233926 -74.280724
-21.593353 -14.395573 -78.008171
-21.279848 -15.605224 -80.531067
-21.271797 -17.017437 -80.595856
-21.361092 -18.512951 -79.877258
-21.809204 -20.355255 -76.271149
-21.90007 -21.900068 -75.539909
-21.991768 -23.457886 -74.801987
-22.084166 -25.028723 -74.058426
-22.177343 -26.612814 -73.308578
-22.271383 -28.210419 -72.551811
-22.366152 -29.821529 -71.789192
-22.461802 -31.446516 -71.019447
-22.558346 -33.085579 -70.242493
-22.656101 -34.739353 -69.455849
-22.754707 -36.407532 -68.662331
-32.167065 18.381184 25.572521
-31.128403 15.5642 16.616982
-30.154718 12.923461 8.2216749
-29.239965 10.442846 0.33451924
-28.379202 8.1083441 -7.0871511
-27.567671 5.9073606 -14.084339
-26.799911 3.8285618 -20.704096
-26.07185 1.8622774 -26.981585
-25.382298 1.5295359e-07 -32.927017
-24.728283 -1.7663038 -38.56609
-24.107033 -3.4438519 -43.922626
-23.516319 -5.0392079 -49.015869
-22.953861 -6.5582495 -53.865459
-22.417685 -8.0063162 -58.488503
-21.905983 -9.3882742 -62.900505
-21.417118 -10.708565 -67.11557
-20.949598 -11.971196 -71.146622
-20.501987 -13.179847 -75.006004
-20.073168 -14.337975 -78.703377
-19.766512 -15.530831 -81.347404
-19.746943 -16.925947 -81.516151
-19.829449 -18.413059 -80.804756
-19.940372 -19.940371 -79.848351
-20.328821 -21.780878 -76.499077
-20.413475 -23.329689 -75.76918
-20.498772 -24.891369 -75.033737
-20.584848 -26.466238 -74.29155
-20.671585 -28.054296 -73.543694
-20.759058 -29.655787 -72.789513
-20.84734 -31.271006 -72.02832
-20.936306 -32.899902 -71.261223
-21.02652 -34.543568 -70.483383
-21.117516 -36.201458 -69.698792
-29.680771 18.265091 23.820862
-28.728247 15.469055 14.976272
-27.834961 12.846908 6.6817207
-26.99543 10.382854 -1.1137034
-26.205173 8.063138 -8.4515858
-25.459867 5.8753595 -15.372072
-24.753414 3.8082135 -21.931789
-24.084425 1.8526469 -28.143658
-23.450644 -2.4142209e-06 -34.028595
-22.849361 -1.7576381 -39.611748
-22.278063 -3.4273932 -44.916531
-21.734713 -5.0156984 -49.961777
-21.217236 -6.5283794 -54.766769
-20.723825 -7.9706955 -59.348289
-20.252844 -9.3474674 -63.721554
-19.802794 -10.663036 -67.900475
-19.372311 -11.921423 -71.897705
-18.960085 -13.126213 -75.725395
-18.565096 -14.280845 -79.393044
-18.267538 -15.457146 -82.156006
-18.238451 -16.835489 -82.426094
-18.31419 -18.314192 -81.722809
-18.390617 -19.805283 -81.013145
-18.774643 -21.66305 -77.447319
-18.852339 -23.202879 -76.725861
-18.930683 -24.755507 -75.998413
-19.009739 -26.321177 -75.264328
-19.089399 -27.899887 -74.524658
-19.16979 -29.491987 -73.778183
-19.250799 -31.097448 -73.025978
-19.332497 -32.71653 -72.267403
-19.415207 -34.349979 -71.49939
-19.498755 -35.9977 -70.72361
-19.583025 -37.659653 -69.941124
-28.153286 21.114977 31.42211
-27.225685 18.150459 22.091177
-26.35726 15.375071 13.355505
-25.542406 12.771208 5.1586847
-24.776535 10.323564 -2.5453782
-24.055256 8.0184259 -9.8008919
-23.374384 5.8435946 -16.64991
-22.728548 3.7880957 -23.146521
-22.117441 1.8431276 -29.293787
-21.538336 -5.3043927e-06 -35.119125
-20.988783 -1.7490615 -40.647205
-20.466499 -3.4110796 -45.900982
-19.96965 -4.9924073 -50.898895
-19.496353 -6.4987793 -55.659897
-19.044971 -7.9354038 -60.200459
-18.614017 -9.3070049 -64.535515
-18.202135 -10.617918 -68.678726
-17.808086 -11.872053 -72.642548
-17.430681 -13.073009 -76.43895
-17.068995 -14.224161 -80.077232
-16.782717 -15.384154 -82.956963
-16.745996 -16.745995 -83.326355
-16.815168 -18.216431 -82.630547
-16.884912 -19.699062 -81.92897
-17.237133 -21.546417 -78.385895
-17.308083 -23.077442 -77.672195
-17.379673 -24.621201 -76.952065
-17.451803 -26.177704 -76.226494
-17.524532 -27.747175 -75.494873
-17.597927 -29.329876 -74.756584
-17.671885 -30.925798 -74.012634
-17.746464 -32.535183 -73.262413
-17.82185 -34.158543 -72.504089
-17.898115 -35.79623 -71.736938
-17.975033 -37.447979 -70.963211
-25.640772 20.978817 29.596008
-24.801224 18.037254 20.383074
-24.01491 15.28222 11.754297
-23.276817 12.696441 3.6546917
-22.58284 10.264929 -3.9607861
-21.929049 7.9742022 -11.135303
-21.310692 5.8120084 -17.92095
-20.724972 3.768173 -24.348473
-20.170588 1.8336898 -30.432133
-19.645088 -3.0656031e-07 -36.198795
-19.146275 -1.7405653 -41.672615
-18.672167 -3.3949368 -46.875347
-18.220905 -4.9693365 -51.827343
-17.791004 -6.4694586 -56.544971
-17.380919 -7.9004178 -61.045097
-16.989315 -9.2668953 -65.342445
-16.614967 -10.573156 -69.450417
-16.256763 -11.823102 -73.381264
-15.913626 -13.020236 -77.146744
-15.584723 -14.167933 -80.75602
-15.311854 -15.311855 -83.750404
-15.26928 -16.657398 -84.217598
-15.332016 -18.119654 -83.52916
-15.395317 -19.594034 -82.834511
-15.716092 -21.431034 -79.314407
-15.780433 -22.953354 -78.608368
-15.845351 -24.48827 -77.895958
-15.910756 -26.035784 -77.178223
-15.976755 -27.596212 -76.453987
-16.043251 -29.169544 -75.724281
-16.110304 -30.756042 -74.988449
-16.177971 -32.355942 -74.245903
-16.246157 -33.969231 -73.49765
-16.315237 -35.596882 -72.739578
-16.384962 -37.238548 -71.974449
-23.966547 23.96656 37.523762
-23.160452 20.84441 27.793329
-22.406816 17.925461 18.696133
-21.700579 15.190406 10.171091
-21.037596 12.622561 2.1681924
-20.413923 10.206965 -5.3602171
-19.826078 7.9304357 -12.456129
-19.269192 5.7807584 -19.178341
-18.742352 3.7484751 -25.537863
-18.243553 1.824353 -31.558889
-17.770615 -3.1294812e-06 -37.26775
-17.321579 -1.7321609 -42.688099
-16.894676 -3.378937 -47.841274
-16.488251 -4.9464684 -52.747276
-16.100977 -6.440393 -57.422085
-15.731477 -7.8657303 -61.882336
-15.378556 -9.2271395 -66.142456
-15.041124 -10.528784 -70.21563
-14.718181 -11.774549 -74.113899
-14.408813 -12.967931 -77.848297
-14.112142 -14.11214 -81.429451
-13.854753 -15.240229 -84.536407
-13.808149 -16.569782 -85.098961
-13.864581 -18.023956 -84.417755
-13.921477 -19.490068 -83.730957
-14.211254 -21.316883 -80.233047
-14.269168 -22.830669 -79.533966
-14.32751 -24.356768 -78.82972
-14.386331 -25.895393 -78.119698
-14.445683 -27.446791 -77.403259
-14.505479 -29.010956 -76.681442
-14.565774 -30.588121 -75.953621
-14.626618 -32.178558 -75.21917
-14.687926 -33.782227 -74.479111
-14.74994 -35.399853 -73.730545
-14.812625 -37.031555 -72.973869
-21.427832 23.808708 35.618389
-20.711712 20.711708 26.013582
-20.04191 17.815033 17.029978
-19.41398 15.099761 8.6080179
-18.824287 12.549536 0.69888902
-18.269363 10.149653 -6.7439151
-17.745686 7.8869758 -13.767659
-17.249527 5.7498455 -20.42227
-16.780361 3.7289705 -26.714867
-16.336039 1.8151151 -32.674244
-15.91464 5.1755255e-06 -38.326164
-15.514437 -1.7238275 -43.693829
-15.133866 -3.3630779 -48.798153
-14.771466 -4.9238181 -53.658764
-14.426067 -6.4115825 -58.291355
-14.096453 -7.8313627 -62.712254
-13.781564 -9.1877069 -66.935631
-13.480435 -10.484784 -70.974457
-13.192184 -11.726389 -74.840553
-12.916003 -12.916003 -78.544777
-12.651111 -14.056788 -82.09761
-12.41122 -15.169266 -85.315102
-12.362309 -16.483076 -85.971107
-12.412529 -17.929207 -85.297523
-12.463236 -19.387259 -84.617439
-12.722363 -21.203938 -81.141945
-12.773932 -22.709217 -80.450272
-12.825882 -24.226665 -79.75351
-12.878296 -25.756592 -79.050522
-12.9311 -27.298988 -78.342308
-12.984338 -28.854086 -77.628258
-13.038057 -30.422136 -76.907753
-13.092183 -32.003113 -76.181816
-13.146758 -33.597263 -75.449837
-13.201875 -35.205002 -74.710587
-13.25767 -36.826866 -73.962242
-19.595428 26.943726 43.894127
-18.922338 23.652916 33.737965
-18.293951 20.580698 24.256346
-17.705875 17.705879 15.382936
-17.154509 15.010194 7.0634785
-16.636444 12.477336 -0.75349021
-16.148684 10.092932 -8.1132545
-15.687633 7.8438201 -15.069965
-15.25135 5.7192621 -21.652966
-14.838677 3.7096748 -27.879709
-14.44775 1.8059726 -33.778355
-14.07689 -8.35224e-07 -39.374187
-13.724595 -1.7155699 -44.689922
-13.389501 -3.3473704 -49.746094
-13.070335 -4.9013767 -54.561939
-12.766074 -6.3830333 -59.152882
-12.475657 -7.797287 -63.534943
-12.198159 -9.1486187 -67.722061
-11.932737 -10.441143 -71.726959
-11.678621 -11.678617 -75.561287
-11.435102 -12.864485 -79.23571
-11.201496 -14.001869 -82.760536
-10.981132 -15.099055 -86.085579
-10.93152 -16.397274 -86.834175
-10.975663 -17.835451 -86.168091
-11.020265 -19.285463 -85.49511
-11.2492 -21.092249 -82.040733
-11.294522 -22.589043 -81.35688
-11.340212 -24.097948 -80.667488
-11.386307 -25.619192 -79.971962
-11.432742 -27.152763 -79.271294
-11.479559 -28.6989 -78.564888
-11.526797 -30.257843 -77.852135
-11.574389 -31.829563 -77.134033
-11.622411 -33.414433 -76.409416
-11.670797 -35.012394 -75.679337
-11.719812 -36.624409 -74.939758
-17.654465 30.264803 52.662277
-17.030605 26.762384 41.904221
-16.449417 23.499168 31.881975
-15.906588 20.451324 22.521214
-15.398365 17.598135 13.75724
-14.921684 14.921686 5.5371604
-14.473628 12.405973 -2.1892824
-14.051635 10.036888 -9.4662905
-13.651979 7.8011308 -16.358103
-13.27432 5.6889915 -22.870628
-12.916991 3.6905708 -29.032537
-12.578396 1.7969135 -34.871395
-12.257099 6.6095436e-06 -40.411968
-11.951808 -1.707404 -45.676525
-11.661355 -3.3318169 -50.685207
-11.384643 -4.8791375 -55.456924
-11.120798 -6.3547444 -60.006775
-10.868905 -7.7634993 -64.350502
-10.628171 -9.1098595 -68.501823
-10.39787 -10.397873 -72.473221
-10.177337 -11.631238 -76.276169
-9.9659653 -12.813384 -79.921143
-9.7631655 -13.947379 -83.418312
-9.5684824 -15.036183 -86.775497
-9.515521 -16.312319 -87.688782
-9.5537748 -17.742725 -87.029114
-9.5923958 -19.18479 -86.363129
-9.7737474 -20.943745 -83.235825
-9.8139591 -22.431904 -82.542389
-9.8545046 -23.932367 -81.843224
-9.9101515 -25.483248 -80.883621
-9.9503517 -27.008102 -80.190384
-9.9909115 -28.54546 -79.490967
-10.031771 -30.095312 -78.786369
-10.072967 -31.65789 -78.075974
-10.114533 -33.233471 -77.359177
-10.156412 -34.821991 -76.637001
-10.198771 -36.424179 -75.906563
-15.027473 30.054951 50.551353
-14.500074 26.583475 39.940903
-14.008439 23.34741 30.049969
-13.548982 20.323473 20.806412
-13.118771 17.491699 12.15121
-12.715038 14.834216 4.028729
-12.335357 12.33536 -3.6098349
-11.977329 9.9811125 -10.81282
-11.638362 7.7589102 -17.632303
-11.3181 5.6590538 -24.075476
-11.014992 3.6716619 -30.173555
-10.727695 1.7879477 -35.953522
-10.455003 -3.8599524e-06 -41.439632
-10.195832 -1.6993047 -46.653767
-9.9491987 -3.3163948 -51.615643
-9.7141819 -4.8570948 -56.343819
-9.4900436 -6.326694 -60.853123
-9.2760162 -7.7300096 -65.159035
-9.0714293 -9.0714293 -69.275009
-8.8756723 -10.354956 -73.213326
-8.6881857 -11.584245 -76.985275
-8.5084553 -12.762681 -80.601158
-8.3359861 -13.893309 -84.070984
-8.170393 -14.979053 -87.402443
-8.1141434 -16.228285 -88.534103
-8.1465712 -17.650902 -87.881706
-8.1793318 -19.085108 -87.22261
-8.3340616 -20.835154 -84.109703
-8.3681717 -22.315125 -83.423447
-8.4025631 -23.807261 -82.73156
-8.4372377 -25.31171 -82.033951
-8.4721994 -26.82863 -81.330566
-8.5074263 -28.358088 -80.621864
-8.5430536 -29.900686 -79.905098
-8.5800266 -31.460094 -79.161247
-8.6229 -33.054451 -78.298698
-8.6584101 -34.633644 -77.58429
-8.6942425 -36.226006 -76.863426
-8.7305384 -37.832329 -76.133209
-12.902875 33.547474 59.724911
-12.436728 29.848158 48.471138
-12.003152 26.406946 38.003674
-11.598789 23.197582 28.24147
-11.220726 20.197313 19.114233
-10.866584 17.386538 10.564479
-10.534112 14.747757 2.5378902
-10.221334 12.2656 -5.0132132
-9.9258204 9.9258232 -12.147569
-9.6464243 7.7171431 -18.892784
-9.3823652 5.629415 -25.267714
-9.1323786 3.6529546 -31.302942
-8.8953667 1.7790775 -37.024914
-8.6703463 -8.7898286e-07 -42.457382
-8.4564295 -1.6912897 -47.621788
-8.2528143 -3.3011293 -52.537502
-8.0587454 -4.835247 -57.222744
-7.873621 -6.2988987 -61.692036
-7.6968107 -7.6968074 -65.960617
-7.5277672 -9.0333147 -70.041695
-7.3659897 -10.312387 -73.94735
-7.2110186 -11.537626 -77.688675
-7.0624342 -12.712381 -81.275818
-6.9198289 -13.83966 -84.71862
-6.7828889 -14.922356 -88.024651
-6.7307553 -16.153809 -89.283264
-6.7538772 -17.560076 -88.725052
-6.7808971 -18.986511 -88.072731
-6.9092274 -20.727682 -84.974556
-6.9373598 -22.199551 -84.29538
-6.9657226 -23.683456 -83.610649
-6.994318 -25.179539 -82.920296
-7.0231485 -26.687965 -82.224258
-7.0522184 -28.208878 -81.522453
-7.0815296 -29.742424 -80.814819
-7.1110635 -31.288681 -80.101799
-7.1408677 -32.847992 -79.382278
-7.1709213 -34.420425 -78.656708
-7.2013664 -36.006836 -77.9217
-7.2322307 -37.607601 -77.176567
-10.249079 33.309513 57.515255
-9.8813934 29.644175 46.419353
-9.539175 26.232733 36.091991
-9.21982 23.049561 26.45463
-8.9211998 20.072704 17.442957
-8.6413164 17.28264 8.9967203
-8.3784218 14.66224 1.0631711
-8.1310873 12.196638 -6.4008145
-7.8969135 9.8711481 -13.467623
-7.6758184 7.6758223 -20.139753
-7.4667969 5.6000991 -26.447531
-7.268858 3.6344299 -32.420876
-7.0811415 1.7702909 -38.085716
-6.9028769 -1.1245205e-06 -43.465309
-6.7333679 -1.6833354 -48.580723
-6.5719833 -3.28599 -53.450912
-6.4181318 -4.8135991 -58.093792
-6.2713408 -6.2713423 -62.523617
-6.1311135 -7.663888 -66.755341
-5.9970207 -8.9955254 -70.801956
-5.8686676 -10.270166 -74.675354
-5.7456932 -11.491388 -78.386429
-5.6277671 -12.662475 -81.945175
-5.5145674 -13.786419 -85.361267
-5.4076858 -14.871138 -88.5867
-5.3602414 -16.080723 -90.018478
-5.3754263 -17.470135 -89.560226
-5.396821 -18.888866 -88.914589
-5.4990172 -20.621309 -85.830544
-5.5212922 -22.085167 -85.158325
-5.5437489 -23.560932 -84.480652
-5.5663886 -25.04875 -83.79744
-5.5892138 -26.548765 -83.10862
-5.612227 -28.061134 -82.414139
-5.6354303 -29.586008 -81.713905
-5.6588268 -31.123549 -81.007858
-5.6824183 -32.673908 -80.295929
-5.7061896 -34.237133 -79.578568
-5.7301779 -35.81361 -78.854652
-5.7543693 -37.4034 -78.124619
-5.7787657 -39.006664 -77.38839
-5.8033695 -40.623589 -76.645889
-5.8283515 -42.255547 -75.892006
-5.8536239 -43.902184 -75.129326
-7.9255428 36.985863 67.12117
-7.6327095 33.075081 55.338467
-7.360744 29.442993 44.39542
-7.1074934 26.060818 34.205383
-6.8710551 22.903526 24.691843
-6.6498733 19.949621 15.792171
-6.4424868 17.179968 7.4475861
-6.2476163 14.577772 -0.39340001
-6.06392 12.127849 -7.7847595
-5.8902373 9.8170595 -14.773203
-5.7262268 7.6349697 -21.372486
-5.5710797 5.5710831 -27.615129
-5.4241395 3.6160944 -33.527534
-5.2847519 1.7615865 -39.136074
-5.1523476 -2.5027362e-07 -44.4636
-5.0264168 -1.6754783 -49.530678
-4.9064941 -3.270987 -54.355995
-4.7921605 -4.7921572 -58.956413
-4.6830187 -6.2440257 -63.347958
-4.5787525 -7.6312532 -67.543304
-4.4790277 -8.9580517 -71.555893
-4.3835549 -10.228297 -75.397438
-4.2920671 -11.445512 -79.078621
-4.20432 -12.612959 -82.609299
-4.1200891 -13.733626 -85.998489
-4.0769172 -14.948694 -87.735596
-4.0635734 -16.254292 -88.272507
-4.0632963 -17.607613 -88.283653
-4.0630317 -18.960814 -88.294296
-4.1519227 -20.759611 -84.717606
-4.152287 -22.145529 -84.702942
-4.1526389 -23.531622 -84.688782
-4.1554818 -24.932896 -84.574402
-4.1701088 -26.410688 -83.985855
-4.1872401 -27.914932 -83.296524
-4.2044616 -29.431231 -82.603592
-4.2218256 -30.960052 -81.904922
-4.2393332 -32.501553 -81.20047
-4.2569866 -34.055893 -80.49015
-4.2747879 -35.623234 -79.77388
-4.2927251 -37.203617 -79.052139
-4.3108273 -38.797447 -78.323769
-4.3290825 -40.40477 -77.589241
-4.3474927 -42.025764 -76.848457
-4.3660607 -43.660603 -76.101349
-4.3847876 -45.309479 -75.347824
-4.4036765 -46.972557 -74.587814
-4.4229136 -48.65205 -73.813759
-4.4423194 -50.346287 -73.032936
-5.2453623 36.717529 64.807564
-5.0529108 32.843918 53.192078
-4.8740816 29.244488 42.398777
-4.7074533 25.890993 32.341877
-4.5518641 22.759323 22.951235
-4.4062309 19.828043 14.161498
-4.2696075 17.078434 5.9155459
-4.1412206 14.494275 -1.8332806
-4.0199409 12.059824 -9.1531763
-3.9054291 9.7635756 -16.064577
-3.7972603 7.5945239 -22.593119
-3.6949077 5.5423627 -28.770674
-3.5979416 3.5979455 -34.623081
-3.505935 1.752969 -40.176186
-3.4185162 -3.1927827e-06 -45.452351
-3.3353512 -1.6676699 -50.471809
-3.2561364 -3.2561369 -55.252846
-3.1805973 -4.7708855 -59.812042
-3.1084728 -6.2169423 -64.165138
-3.039557 -7.5988927 -68.32457
-2.9736307 -8.9208908 -72.303581
-2.9105034 -10.186762 -76.113647
-2.8500009 -11.400002 -79.765305
-2.7919621 -12.563828 -83.268242
-2.758914 -13.794565 -85.262878
-2.7471218 -15.109173 -85.974594
-2.746932 -16.481592 -85.986038
-2.7467508 -17.853878 -85.997002
-2.8075693 -19.652983 -82.326271
-2.8078105 -21.058577 -82.311707
-2.8080518 -22.464413 -82.297142
-2.8082933 -23.870489 -82.28257
-2.8085432 -25.276892 -82.267471
-2.8087852 -26.68346 -82.252892
-2.8090265 -28.09026 -82.238319
-2.8092766 -29.497406 -82.223213
-2.8093374 -30.902704 -82.219574
-2.8123085 -32.341549 -82.040222
-2.822942 -33.875305 -81.39843
-2.8347278 -35.434097 -80.687103
-2.846612 -37.005962 -79.969818
-2.858561 -38.590576 -79.248642
-2.8705924 -40.188293 -78.522491
-2.8827348 -41.79966 -77.789627
-2.89498 -43.424702 -77.05056
-2.90733 -45.063618 -76.305168
-2.9197857 -46.716576 -75.553406
-2.9323485 -48.383755 -74.795166
-2.94502 -50.065338 -74.030388
-2.9578016 -51.76152 -73.258949
-2.9707234 -53.473022 -72.479042
-2.983856 -55.201336 -71.686424
-2.9971051 -56.944992 -70.886765
-3.0104725 -58.704208 -70.079979
-2.7061169 40.591759 74.879143
-2.6037908 36.453068 62.527283
-2.5089209 32.615978 51.075508
-2.4207089 29.048513 40.427334
-2.3385007 25.723515 30.503935
-2.261693 22.616934 21.232428
-2.1897702 19.707933 12.550568
-2.1222708 16.978172 4.4026895
-2.05879 14.41153 -3.2601311
-1.9987606 11.992563 -10.506321
-1.9421326 9.7106571 -17.34193
-1.8886247 7.5545015 -23.800879
-1.8379791 5.5139365 -29.914366
-1.7899855 3.5799739 -35.707684
-1.7444348 1.7444315 -41.20615
-1.7011448 -1.4139084e-06 -46.431713
-1.6599513 -1.6599494 -51.404217
-1.6207057 -3.2414083 -56.141586
-1.5832731 -4.7498136 -60.660114
-1.5475252 -6.1901011 -64.975258
-1.5133609 -7.5668049 -69.099243
-1.4806725 -8.8840351 -73.045082
-1.4493663 -10.14556 -76.824066
-1.4193567 -11.354851 -80.446556
-1.4005644 -12.605079 -82.714981
-1.3931402 -13.931402 -83.611168
-1.3930467 -15.323515 -83.622429
-1.3929492 -16.715387 -83.634216
-1.4267163 -18.547312 -79.558159
-1.4266852 -19.973589 -79.56192
-1.4243612 -21.365414 -79.842461
-1.424543 -22.792688 -79.820496
-1.4246674 -24.219343 -79.805504
-1.4247917 -25.64625 -79.790497
-1.4249159 -27.073402 -79.77549
-1.4250448 -28.500895 -79.759941
-1.4251691 -29.928556 -79.744934
-1.4252934 -31.356462 -79.729919
-1.4254223 -32.78471 -79.714371
-1.4255468 -34.213123 -79.699348
-1.4256711 -35.641773 -79.684334
-1.4258 -37.070808 -79.668762
-1.4256711 -38.493122 -79.684326
-1.427839 -39.979492 -79.422653
-1.4335774 -41.573746 -78.729958
-1.4396566 -43.189705 -77.996132
-1.4457877 -44.819424 -77.25605
-1.4519711 -46.463074 -76.509651
-1.4581937 -48.120384 -75.758522
-1.4644604 -49.791653 -75.002052
-1.4707814 -51.477345 -74.239044
-1.477157 -53.177662 -73.469421
-1.4835883 -54.892769 -72.693108
-1.4900758 -56.622879 -71.909996
-1.4966203 -58.368183 -71.120018
-1.5032521 -60.130085 -70.319489
-1.5099778 -61.909088 -69.507622
-1.5167691 -63.704304 -68.687836
-1.5236167 -65.515511 -67.861267
-1.0504491e-22 40.290157 72.452011
-1.897545e-23 36.192383 60.279606
-5.8427677e-24 32.391174 48.988102
-5.0530242e-23 28.855291 38.483662
-3.3517053e-23 25.55818 28.689636
-3.1257705e-23 22.476315 19.534979
-2.1343449e-23 19.58918 10.957811
-4.3733638e-23 16.87908 2.9075015
-3.5871762e-23 14.329213 -4.6796165
-5.3479525e-23 11.926054 -11.844475
-6.8039695e-23 9.6583233 -18.60553
2.6002373e-23 7.5148964 -24.995977
-9.4711284e-23 5.4858084 -31.046398
-2.2546484e-23 3.5621805 -36.781498
-6.0923841e-23 1.7359822 -42.226147
-1.3167534e-23 -2.1269529e-06 -47.401833
-5.1975521e-24 -1.6522925 -52.328014
-7.7710303e-23 -3.2268159 -57.022316
-1.3865688e-23 -4.7289305 -61.500717
-1.0426488e-23 -6.1634831 -65.778419
-2.2317714e-23 -7.5349822 -69.867409
-3.2018539e-23 -8.8474836 -73.780487
2.3510781e-23 -10.104701 -77.528755
-4.6585859e-23 -11.378657 -80.087387
-4.1811957e-23 -12.719569 -81.179382
-6.4168382e-23 -14.131895 -81.190979
-3.7893666e-23 -15.543978 -81.20311
6.6891303e-24 -17.619965 -74.534904
-5.7577254e-24 -19.087744 -74.540024
-2.4302671e-23 -20.556295 -74.537743
-3.2285641e-23 -22.024885 -74.535469
-4.0301029e-23 -23.493511 -74.533195
5.4660361e-24 -24.962101 -74.531487
-3.6943328e-23 -26.052101 -77.06881
-1.49474e-24 -27.498915 -77.072128
-4.7188252e-23 -28.945583 -77.075996
-1.4625418e-23 -30.370182 -77.20639
9.1760995e-24 -31.821718 -77.177116
-7.7456018e-23 -33.271099 -77.161659
-6.9062765e-23 -34.720741 -77.146187
-6.1804179e-23 -36.170761 -77.130165
-6.1818694e-23 -37.620926 -77.114693
-3.2949868e-23 -39.071342 -77.099213
-7.8886217e-24 -40.522152 -77.083176
-6.6245383e-25 -41.973091 -77.067696
-1.7492505e-23 -43.424286 -77.052216
-1.8005845e-23 -44.87077 -77.056091
-4.6564244e-23 -46.314102 -77.071579
-9.4298773e-23 -47.860943 -76.707542
-2.3846823e-23 -49.517162 -75.976585
-4.6381872e-23 -51.193165 -75.21917
-5.1646219e-23 -52.883671 -74.455193
-3.4650646e-23 -54.588863 -73.684578
1.4907471e-23 -56.308956 -72.907234
-2.4013153e-23 -58.043922 -72.123665
-1.6259373e-23 -59.793385 -71.335571
-3.7630776e-23 -61.558266 -70.54052
-4.8981093e-23 -63.338547 -69.739029
-2.6271971e-23 -65.134865 -68.929817
-2.5706052e-23 -66.949684 -68.106659
-5.4097601e-23 -68.781372 -67.274811
1.4763844e-23 -70.62973 -66.435402
-7.356552e-23 -72.494972 -65.588326
2.6661997 39.993008 70.060699
2.5668144 35.935406 58.063866
2.4745591 32.169273 46.927639
2.3887177 28.664612 36.565678
2.3086324 25.394953 26.898493
2.2337315 22.337322 17.857185
2.1635487 19.471941 9.3853579
2.0976415 16.781137 1.4296682
2.0354044 14.247829 -6.0829864
1.9767118 11.860275 -13.167864
1.9213089 9.6065445 -19.855574
1.868927 7.4757099 -26.178623
1.8193182 5.4579639 -32.166931
1.7722819 3.5445707 -37.844715
1.7276164 1.7276226 -43.236313
1.685147 -6.2394952e-07 -48.362823
1.6447155 -1.6447135 -53.243351
1.6061786 -3.2123597 -57.895161
1.5694064 -4.7082162 -62.333961
1.5342748 -6.137095 -66.574699
1.5006868 -7.5034361 -70.629135
1.4685378 -8.8112278 -74.509865
1.4447873 -10.113511 -77.376816
1.4340224 -11.472177 -78.676239
1.4339236 -12.905309 -78.688179
1.4338201 -14.338201 -78.700668
1.4899592 -16.389553 -71.924072
1.4898477 -17.878172 -71.937546
1.4898137 -19.367577 -71.94165
1.489833 -20.857662 -71.939301
1.4898477 -22.347715 -71.937538
1.489867 -23.837868 -71.935211
1.4898864 -25.328064 -71.932861
1.489906 -26.81831 -71.930511
1.4899205 -28.308491 -71.928757
1.4899399 -29.7988 -71.926407
1.4899592 -31.289145 -71.924072
1.4899787 -32.77953 -71.92173
1.4685662 -33.777023 -74.506439
1.4681041 -35.234493 -74.562225
1.4684248 -38.179043 -74.523521
1.4687171 -39.655361 -74.48822
1.4690143 -41.132404 -74.452339
1.4691559 -42.605515 -74.435257
1.4692929 -44.078789 -74.418732
1.4694251 -45.552177 -74.402771
1.4695573 -47.025837 -74.38681
1.4696895 -48.499756 -74.37085
1.4698265 -49.974091 -74.354317
1.4698926 -51.446243 -74.346321
1.4697555 -52.911205 -74.362862
1.4696233 -54.376064 -74.378838
1.4735065 -55.99324 -73.910103
1.4799297 -57.717266 -73.134735
1.4864093 -59.456371 -72.352592
1.4929459 -61.210789 -71.563545
1.4995452 -62.980896 -70.766953
1.506198 -64.766518 -69.963875
1.5129102 -66.568047 -69.153641
1.5196825 -68.385712 -68.336159
1.5264902 -70.218559 -67.514389
1.5333643 -72.068123 -66.684624
1.5403628 -73.937416 -65.839821
1.5474256 -75.82386 -64.987267
5.2933593 39.700188 67.704399
5.097435 35.682049 55.879349
4.9154706 31.95055 44.896832
4.7460742 28.476456 34.672859
4.5879645 25.233805 25.1301
4.4400282 22.200142 16.20133
4.3013539 19.3561 7.8316116
4.1709657 16.683863 -0.038000405
4.0478201 14.167378 -7.4705186
3.9317374 11.795211 -14.476723
3.8221271 9.5553265 -21.092293
3.7184625 7.4369321 -27.349003
3.6202583 5.4303918 -33.276142
3.5271215 3.5271227 -38.897457
3.4386568 1.719332 -44.236778
3.3545208 3.6624613e-07 -49.314819
3.2744038 -1.6371943 -54.150311
3.1980245 -3.1980247 -58.760216
3.1251273 -4.6876903 -63.159946
3.055469 -6.1109371 -67.364197
2.9888582 -7.4721432 -71.384506
2.9359257 -8.8077688 -74.579285
2.9107628 -10.187667 -76.097992
2.9105496 -11.642194 -76.110855
2.9103365 -13.096513 -76.123711
3.0244696 -15.122352 -69.235168
3.0242398 -16.633316 -69.249054
3.0240197 -18.144121 -69.262321
3.0239596 -19.655739 -69.265953
3.0239897 -21.167925 -69.264137
3.0240295 -22.68022 -69.261726
3.0240695 -24.192551 -69.259315
3.0241098 -25.704935 -69.256897
3.0241396 -27.217249 -69.255096
3.0241797 -28.729712 -69.25267
3.0242195 -30.242195 -69.250267
3.0242596 -31.754728 -69.247841
2.9825616 -32.808178 -71.764542
2.9826784 -46.231518 -71.7575
2.9832916 -47.732666 -71.720497
2.9838948 -49.234261 -71.684082
2.9845083 -50.736645 -71.647049
2.9849174 -52.236057 -71.62236
2.9851999 -53.733604 -71.605309
2.9854727 -55.231255 -71.588837
2.9857457 -56.729164 -71.572372
2.9860282 -58.227551 -71.555305
2.9858141 -59.716278 -71.568253
2.9855411 -61.203587 -71.584732
2.9860282 -62.7066 -71.555305
2.9952304 -64.397453 -70.999908
3.0085018 -66.187035 -70.198921
3.0218916 -67.992554 -69.390778
3.0354009 -69.814217 -68.575424
3.0490315 -71.652237 -67.752739
3.0627849 -73.506836 -66.92263
3.0766635 -75.378258 -66.084999
7.882329 39.411644 65.382362
7.5925794 35.432045 53.723759
7.3234162 31.734806 42.893436
7.0726838 28.290739 32.804741
6.8385172 25.074572 23.382624
6.6193914 22.064638 14.565694
6.4138732 19.241619 6.2962503
6.220252 16.587337 -1.4944401
6.0376334 14.087818 -8.8424454
5.8654318 11.730867 -15.771305
5.7027807 9.5046425 -22.315887
5.5489068 7.3985515 -28.507288
5.4030976 5.4031 -34.374203
5.2647748 3.5098455 -39.939877
5.133358 1.7111225 -45.227695
5.0083418 -5.4227958e-06 -50.257946
4.8892698 -1.6297559 -55.049023
4.7757287 -3.1838195 -59.61758
4.6673412 -4.6673455 -63.978752
4.5637488 -6.0850019 -68.14698
4.475667 -7.4594436 -71.691132
4.4321442 -8.8642883 -73.44236
4.4318147 -10.340907 -73.455605
4.4315 -11.817333 -73.468285
4.6055598 -13.816671 -66.464653
4.6052041 -15.350675 -66.478958
4.6048484 -16.884449 -66.493263
4.6045089 -18.418036 -66.506935
4.6044312 -19.95253 -66.510063
4.6044931 -21.487633 -66.507568
4.6045551 -23.022774 -66.505081
4.6046171 -24.557957 -66.502586
4.6046634 -26.093098 -66.500717
4.6047249 -27.628345 -66.498245
4.6047869 -29.163651 -66.495743
4.6034422 -30.689615 -66.549843
4.5386558 -31.770588 -69.156662
4.5449557 -54.539471 -68.90316
4.5459046 -56.066158 -68.86499
4.5468388 -57.593296 -68.8274
4.5477886 -59.121246 -68.7892
4.5487232 -60.649647 -68.751579
4.5495529 -62.177219 -68.718201
4.5499754 -63.699661 -68.701195
4.5503979 -65.222366 -68.684196
4.5503979 -66.739166 -68.684196
4.5499601 -68.249405 -68.701797
4.5495377 -69.759583 -68.718803
4.5519834 -71.314407 -68.620399
4.5675783 -73.081253 -67.99292
4.5881548 -74.939857 -67.164978
10.844747 43.378986 75.491127
10.433936 39.127277 63.093811
10.053058 35.185703 51.599804
9.6990585 31.521938 40.916943
9.3691425 28.107435 30.960844
9.0608883 24.917442 21.658419
8.7723122 21.930782 12.949887
8.5015516 19.128489 4.778944
8.2459631 16.491932 -2.9341168
8.0052242 14.00915 -10.199067
7.7781425 11.667212 -17.051838
7.5635891 9.4544916 -23.526564
7.3605547 7.3605504 -29.653673
7.1681075 5.3760791 -35.461285
6.9854937 3.4927449 -40.972134
6.8119535 1.702988 -46.209183
6.6468267 3.617384e-06 -51.192329
6.4895158 -1.6223736 -55.93961
6.3394794 -3.1697385 -60.467358
6.1962228 -4.647161 -64.790489
6.066453 -6.0664492 -68.706657
6.0018611 -7.5023279 -70.655884
5.999774 -8.9996595 -70.718857
5.9993415 -10.498845 -70.731918
6.2353616 -12.470724 -63.609375
6.2348943 -14.028515 -63.623486
6.2344055 -15.586003 -63.638241
6.2339382 -17.143326 -63.65234
6.2334495 -18.700352 -63.667088
6.233386 -20.258505 -63.669014
6.2334704 -21.817142 -63.666451
6.2335343 -23.375755 -63.66452
6.2336192 -24.934471 -63.661961
6.2337046 -26.493246 -63.659386
6.233789 -28.052048 -63.656834
6.2205186 -29.547466 -64.057304
6.1445208 -30.722605 -66.350739
6.1588583 -64.668007 -65.918083
6.1601648 -66.221771 -65.878639
6.1614513 -67.77597 -65.839813
6.1627593 -69.331039 -65.800346
6.1640468 -70.886536 -65.76149
6.1653557 -72.442932 -65.721992
6.1658545 -73.99025 -65.70694
6.1652722 -75.524597 -65.724503
13.455023 43.056076 73.054939
12.948911 38.846737 60.836285
12.479561 34.942768 49.50518
12.043044 31.31192 38.966763
11.635976 27.92634 29.139223
11.25558 24.762278 19.95569
10.899269 21.798544 11.353569
10.564384 19.015894 3.2687716
10.248503 16.397606 -4.3573356
9.9509611 13.931349 -11.540606
9.6702089 11.604258 -18.318563
9.4048653 9.4048605 -24.724537
9.1536932 7.3229556 -30.788351
8.9155884 5.3493552 -36.536728
8.6895237 3.4758091 -41.994404
8.4746714 1.694932 -47.1814
8.2701874 5.8519322e-06 -52.118088
8.0753384 -1.6150644 -56.822147
7.8894591 -3.1557782 -61.309662
7.7119455 -4.6271648 -65.59523
7.6274099 -6.1019239 -67.636108
7.6166372 -7.6166382 -67.896187
7.6160531 -9.1392603 -67.910271
7.9162002 -11.082684 -60.664078
7.9155979 -12.664956 -60.678635
7.9149671 -14.246939 -60.693844
7.9143372 -15.828678 -60.709061
7.9137349 -17.410221 -60.723602
7.8310142 -18.794434 -62.720669
7.9130774 -20.574001 -60.739471
7.9131594 -22.156851 -60.737488
7.913269 -23.739803 -60.734852
7.9133787 -25.322813 -60.732201
7.9134884 -26.905861 -60.729557
7.8817086 -28.374157 -61.496777
7.8004246 -29.641609 -63.459164
7.8246627 -73.551826 -62.873997
7.8263497 -75.132965 -62.83326
7.828011 -76.714508 -62.793167
16.026726 42.737942 70.654762
15.428165 38.570427 58.612659
14.872787 34.703171 47.439293
14.356002 31.104681 37.042416
13.873856 27.747713 27.342369
13.423108 24.609034 18.274023
13.000728 21.667879 9.776391
12.602961 18.904444 1.7739221
12.228266 16.304356 -5.7643518
11.875207 13.854415 -12.867337
11.541964 11.541968 -19.571669
11.226913 9.3557673 -25.910009
10.928605 7.2857304 -31.911501
10.645739 5.3228703 -37.602333
10.377107 3.4590394 -43.006794
10.121736 1.6869563 -48.144459
9.8786316 2.2704041e-06 -53.035347
9.6469316 -1.607818 -57.696793
9.4258518 -3.1419489 -62.144585
9.3081131 -4.6540527 -64.513283
9.2846794 -6.1897831 -64.984749
9.2839565 -7.7366366 -64.999275
9.3038845 -9.3038826 -64.598366
9.6497135 -11.257997 -57.640816
9.6489668 -12.865289 -57.65583
9.6481867 -14.472281 -57.671532
9.64744 -16.079069 -57.686554
9.6466599 -17.685545 -57.702236
9.6459141 -19.291832 -57.717251
9.6458807 -20.899403 -57.71793
9.6460161 -22.50737 -57.715218
9.6461515 -24.115377 -57.712482
9.6462536 -25.723341 -57.710434
9.5888767 -27.168484 -58.864758
9.5083618 -28.52508 -60.484604
18.560595 42.424225 68.287918
17.872398 38.297997 56.420429
17.233416 34.466839 45.401546
16.638458 30.899996 35.141872
16.08329 27.571354 25.568331
15.563974 24.457685 16.613056
15.077075 21.538679 8.2167854
14.617779 18.794292 0.29652017
14.185639 16.212162 -7.1554523
13.778317 13.778315 -14.17949
13.393733 11.480341 -20.811411
13.030035 9.3071737 -27.08316
12.685566 7.2488999 -33.0233
12.358843 5.296649 -38.657455
12.04848 3.4424217 -44.009457
11.753367 1.6790588 -49.098503
11.472365 -4.7173362e-06 -53.944191
11.204487 -1.6006426 -58.563599
11.046692 -3.1561956 -61.284683
11.006392 -4.7170291 -61.979622
11.005522 -6.2888689 -61.994625
11.003934 -7.859951 -62.022018
11.439895 -9.8056221 -54.504158
11.438994 -11.439 -54.519657
11.438055 -13.072065 -54.535866
11.437157 -14.70492 -54.551373
11.436216 -16.337456 -54.567574
11.435276 -17.969721 -54.583794
11.434378 -19.601793 -54.599274
11.434418 -21.235342 -54.598583
11.434583 -22.869164 -54.595753
11.434705 -24.50293 -54.593655
11.343895 -25.928907 -56.159599
11.27112 -27.372717 -57.414562
20.741587 -53.335499 105.89777
21.057655 42.115314 65.957413
20.282349 38.029408 54.258957
19.562107 34.233692 43.391354
18.891167 30.69816 33.267643
18.264816 27.397226 23.816721
17.678665 24.308168 14.9724
17.128084 21.410114 6.6647663
16.609255 18.685408 -1.1637768
16.121002 16.121006 -8.5309258
15.660636 13.703062 -15.477309
15.225833 11.419374 -22.03797
14.814522 9.2590714 -28.244181
14.42485 7.2124238 -34.123898
14.05515 5.2706819 -39.702229
13.703876 3.4259713 -45.002537
13.369782 1.6712209 -50.043636
13.051589 -5.8071159e-06 -54.84478
12.846315 -1.60579 -57.942127
12.78441 -3.1960952 -58.876232
12.783382 -4.7937627 -58.891727
12.781506 -6.390749 -58.920033
13.288872 -8.3055401 -51.264465
13.28781 -9.9658594 -51.280483
13.2867 -11.625869 -51.29723
13.285591 -13.285588 -51.313984
13.28453 -14.94509 -51.330002
13.28342 -16.604269 -51.346737
13.282358 -18.263241 -51.362751
13.281249 -19.921877 -51.379478
13.281346 -21.582193 -51.378017
13.28154 -23.242687 -51.375118
13.148833 -24.654066 -53.377491
13.091429 -26.182858 -54.243652
23.518614 41.810867 63.660587
22.658733 37.764565 52.127602
21.859394 34.003506 41.406624
21.114637 30.498922 31.417749
20.418959 27.225283 22.087095
19.767565 24.160368 13.350396
19.154663 21.282963 5.1299891
18.577787 18.577787 -2.6072457
18.034721 16.030869 -9.891016
17.522503 13.628615 -16.761028
17.038578 11.359056 -23.251589
16.580664 9.2114782 -29.393267
16.146717 7.1763201 -35.213482
15.734906 5.2449741 -40.736809
15.343523 3.4096725 -45.986164
14.971191 1.6634643 -50.980003
14.710223 6.4168762e-07 -54.480179
14.621537 -1.6246129 -55.669647
14.620395 -3.2489791 -55.684971
14.618161 -4.8727217 -55.714924
15.155991 -6.7360005 -48.501404
15.209592 -8.4497662 -47.78249
15.197067 -10.131379 -47.950474
15.195777 -11.818932 -47.967785
15.194543 -13.506264 -47.984333
15.193253 -15.193254 -48.001637
15.192019 -16.880022 -48.018185
15.190729 -18.566439 -48.035484
15.18944 -20.252586 -48.052773
15.189664 -21.940624 -48.049774
15.005853 -23.342434 -50.515106
25.94425 41.510818 61.396744
25.002243 37.503368 50.025707
24.126118 33.776566 39.449955
23.309435 30.302277 29.591705
22.546232 27.055477 20.37903
21.83111 24.014223 11.746752
21.157316 21.157324 3.6133206
20.523773 18.471399 -4.0341849
19.927158 15.941727 -11.235968
19.36425 13.55498 -18.030878
18.83227 11.299362 -24.45244
18.328739 9.1643763 -30.530615
17.851433 7.1405768 -36.292217
17.398355 5.2195091 -41.761353
16.967644 3.3935287 -46.960495
16.641859 1.664192 -50.893051
16.520775 4.6061541e-06 -52.354675
16.519461 -1.6519473 -52.370522
16.516895 -3.3033814 -52.401489
17.612175 -5.2836437 -39.180309
17.611904 -7.0447607 -39.183582
16.91411 -8.4570513 -47.606689
16.918365 -10.151025 -47.555321
16.940428 -11.858297 -47.289028
17.000761 -13.600602 -46.560741
17.061462 -15.355311 -45.828011
17.122599 -17.122595 -45.090027
17.163534 -18.879892 -44.595871
17.162182 -20.594622 -44.612198
16.927635 -22.005928 -47.443439
28.335318 41.215004 59.165165
27.313414 37.245564 47.951077
26.362787 33.552639 37.519215
25.47611 30.108139 27.789066
24.647015 26.887653 18.690821
23.868822 23.86883 10.151203
23.136461 21.03315 2.1144583
22.447601 18.366222 -5.4448833
21.798668 15.853576 -12.566057
21.186203 13.482129 -19.287073
20.607212 11.240301 -25.640751
20.059027 9.1177435 -31.656374
