# .PCD v0.7 - Point Cloud Data file format
VERSION 0.7
FIELDS x y z
SIZE 4 4 4
TYPE F F F
COUNT 1 1 1
WIDTH 1490
HEIGHT 1
VIEWPOINT 0 0 0 1 0 0 0
POINTS 1490
DATA ascii
-49.421692 12.021493 -40.265118
-49.421692 10.685771 -40.265121
-49.421692 9.3500538 -40.265118
-49.421692 8.014328 -40.265114
-49.421692 6.6786079 -40.265118
-49.421692 5.3428826 -40.265114
-49.421692 4.0071645 -40.265121
-49.421692 2.6714365 -40.265114
-49.421692 1.3357249 -40.265118
-49.421692 -3.1033223e-06 -40.265114
-49.421692 -1.3357211 -40.265121
-49.421692 -2.6714456 -40.265118
-49.403133 -4.0056572 -40.325657
-49.403133 -5.3408823 -40.325657
-49.403133 -6.6761007 -40.325653
-49.403133 -8.0113192 -40.325665
-49.403133 -9.3465376 -40.325657
-49.403133 -10.681764 -40.325657
-49.403133 -12.016982 -40.325649
-49.403316 -13.352254 -40.325069
-49.403316 -14.687477 -40.325066
-49.403316 -16.022703 -40.325066
-49.403316 -17.357922 -40.325077
-49.403316 -18.693148 -40.325073
-49.403133 -20.028297 -40.325657
-49.403133 -21.363523 -40.325653
-49.403133 -22.698736 -40.325661
-48.510406 -23.599655 -43.238144
-46.056355 -23.650568 -51.244362
-45.683422 -24.693747 -52.46104
-46.85564 48.157188 -44.390514
-46.85564 46.85564 -44.390507
-46.854973 45.553448 -44.39275
-46.853142 44.250187 -44.398888
-46.851143 42.946884 -44.40559
-46.849144 41.643684 -44.412281
-46.847149 40.340603 -44.418983
-46.84515 39.037624 -44.425674
-46.853806 37.743343 -44.396648
-46.85564 36.443272 -44.390514
-46.85564 35.141727 -44.390518
-46.85564 33.840179 -44.390511
-46.85564 32.538635 -44.390514
-46.85564 31.237089 -44.390514
-46.85564 29.935545 -44.390514
-46.85564 28.634001 -44.390518
-46.85564 27.332453 -44.390511
-46.85564 26.030907 -44.390514
-46.85564 24.729362 -44.390514
-46.85564 23.427818 -44.390514
-46.85564 22.126274 -44.390518
-46.85564 20.824724 -44.390511
-46.85564 19.52318 -44.390514
-46.85564 18.221636 -44.390514
-46.855804 16.920149 -44.38995
-46.855804 15.618604 -44.389954
-46.855804 14.317049 -44.38995
-46.855804 13.015505 -44.389954
-46.855804 11.713948 -44.389954
-46.855804 10.412397 -44.389957
-46.855804 9.1108494 -44.389954
-46.855804 7.8092971 -44.389957
-46.855804 6.5077486 -44.389954
-46.855804 5.2061977 -44.389957
-46.855804 3.9046493 -44.389954
-46.855804 2.6030941 -44.38995
-46.855804 1.3015536 -44.389957
-46.855804 -1.3964395e-06 -44.389957
-46.855804 -1.3015499 -44.389954
-46.855804 -2.6031065 -44.389954
-46.835835 -3.9029891 -44.456921
-46.835835 -5.2039804 -44.456921
-46.835835 -6.5049787 -44.456924
-46.835835 -7.8059678 -44.456928
-46.835835 -9.1069736 -44.456921
-46.835999 -10.408003 -44.456367
-46.835999 -11.709008 -44.45636
-46.835999 -13.010005 -44.456364
-46.835999 -14.311004 -44.456371
-46.835999 -15.612009 -44.45636
-46.835999 -16.913 -44.45636
-46.835999 -18.213997 -44.456367
-46.835999 -19.515003 -44.45636
-46.835999 -20.816002 -44.456364
-46.835999 -22.116999 -44.456367
-47.197964 -23.59898 -43.242676
-44.777348 -23.632494 -51.359177
-43.311203 -24.061785 -56.275261
-43.311062 -25.264788 -56.275745
-44.417774 48.22501 -48.309544
-44.417774 46.955929 -48.309536
-44.41608 45.685112 -48.31538
-44.414234 44.414238 -48.321751
-44.412388 43.143456 -48.328114
-44.410694 41.872936 -48.33395
-44.408848 40.602379 -48.340321
-44.407005 39.331913 -48.346687
-44.405159 38.061565 -48.353054
-44.417774 36.803299 -48.309536
-44.417774 35.534218 -48.309544
-44.417774 34.265141 -48.30954
-44.417774 32.996063 -48.309536
-44.417774 31.726978 -48.30954
-44.417774 30.457903 -48.309536
-44.417774 29.18882 -48.309544
-44.417774 27.919744 -48.30954
-44.417774 26.65066 -48.30954
-44.417774 25.381582 -48.30954
-44.417774 24.112505 -48.309536
-44.417774 22.84342 -48.309536
-44.417774 21.574348 -48.30954
-44.417774 20.305265 -48.309544
-44.417774 19.036186 -48.30954
-44.417774 17.767109 -48.309536
-44.417774 16.498024 -48.309536
-44.417927 15.229003 -48.309013
-44.417927 13.959918 -48.30901
-44.417927 12.69083 -48.309006
-44.417927 11.421747 -48.30901
-44.417927 10.15267 -48.309006
-44.417927 8.8835869 -48.309006
-44.417927 7.6144996 -48.309006
-44.417927 6.3454165 -48.30901
-44.417927 5.0763335 -48.30901
-44.417927 3.8072484 -48.30901
-44.417927 2.5381651 -48.309013
-44.417927 1.269076 -48.309006
-44.417927 -7.0573651e-07 -48.309006
-44.417927 -1.2690839 -48.309006
-44.417927 -2.5381689 -48.309006
-44.396854 -3.8054407 -48.381699
-44.396854 -5.073926 -48.381699
-44.396854 -6.3424101 -48.381699
-44.396854 -7.610889 -48.381695
-44.397007 -8.879405 -48.381165
-44.397007 -10.147889 -48.381165
-44.397007 -11.416376 -48.381165
-44.397007 -12.684862 -48.381161
-44.397007 -13.953346 -48.381161
-44.397007 -15.22183 -48.381161
-44.397007 -16.490314 -48.381161
-44.397007 -17.758802 -48.381168
-44.397007 -19.02729 -48.381168
-44.397007 -20.295774 -48.381168
-44.397007 -21.564259 -48.381165
-44.397007 -22.832747 -48.381168
-43.532204 -23.631765 -51.363766
-41.416595 -23.666632 -58.660225
-41.057247 -24.634354 -59.899582
-42.098572 48.289532 -52.037811
-42.097717 47.050388 -52.04084
-42.096012 45.810364 -52.046906
-42.094303 44.570435 -52.052967
-42.092594 43.330616 -52.059032
-42.090885 42.090885 -52.065086
-42.089325 40.851395 -52.070641
-42.087616 39.61187 -52.076706
-42.085907 38.372448 -52.082767
-42.098572 37.145798 -52.037807
-42.098572 35.907604 -52.037811
-42.098572 34.669415 -52.037811
-42.098572 33.431217 -52.037807
-42.098572 32.193024 -52.037807
-42.098572 30.95483 -52.037807
-42.098572 29.716639 -52.037811
-42.098572 28.478445 -52.037811
-42.098572 27.240248 -52.037807
-42.098572 26.002056 -52.037807
-42.098572 24.763863 -52.037811
-42.098572 23.525669 -52.037811
-42.098572 22.287474 -52.037807
-42.098572 21.04928 -52.037807
-42.098572 19.811087 -52.037807
-42.098572 18.572895 -52.037811
-42.098572 17.334702 -52.037811
-42.098572 16.096506 -52.037807
-42.098572 14.858313 -52.037807
-42.098572 13.620129 -52.037807
-42.098572 12.381936 -52.037811
-42.098572 11.143739 -52.037804
-42.098572 9.9055462 -52.037807
-42.098572 8.6673536 -52.037807
-42.098572 7.4291611 -52.037807
-42.098572 6.1909685 -52.037811
-42.098572 4.9527717 -52.037804
-42.098572 3.7145789 -52.037807
-42.098572 2.4763863 -52.037807
-42.098572 1.2381935 -52.037807
-42.098572 8.4353917e-07 -52.037811
-42.098572 -1.2381959 -52.037807
-42.098572 -2.4763885 -52.037807
-42.076805 -3.7126586 -52.115074
-42.076805 -4.9502144 -52.115074
-42.07695 -6.187788 -52.114571
-42.07695 -7.4253435 -52.114571
-42.07695 -8.6629009 -52.114571
-42.07695 -9.9004526 -52.114578
-42.07695 -11.138021 -52.114578
-42.07695 -12.375576 -52.114574
-42.07695 -13.613137 -52.114571
-42.07695 -14.850693 -52.114571
-42.07695 -16.088253 -52.114567
-42.07695 -17.325802 -52.114578
-42.07695 -18.56336 -52.114578
-42.07695 -19.800919 -52.114571
-42.07695 -21.038477 -52.114571
-42.07695 -22.276035 -52.114567
-42.287277 -23.631126 -51.36784
-40.22443 -23.661428 -58.691612
-39.455662 -24.369675 -61.420963
-39.531311 -25.57909 -61.152374
-39.889309 48.350677 -55.589882
-39.887863 47.140194 -55.595181
-39.88628 45.929657 -55.600952
-39.884701 44.719204 -55.606731
-39.883121 43.508862 -55.612507
-39.881542 42.298603 -55.618286
-39.879967 41.088448 -55.624065
-39.878384 39.87838 -55.629841
-39.876938 38.668541 -55.635136
-39.889568 37.472023 -55.588913
-39.889568 36.263245 -55.588917
-39.889568 35.054474 -55.588913
-39.889568 33.845695 -55.588917
-39.889568 32.636921 -55.588913
-39.889568 31.428146 -55.588921
-39.889568 30.219376 -55.588917
-39.889568 29.010597 -55.588921
-39.889568 27.801825 -55.588917
-39.889568 26.593044 -55.588917
-39.889568 25.384274 -55.588917
-39.889568 24.175495 -55.588917
-39.889568 22.966721 -55.588913
-39.889568 21.757946 -55.588921
-39.889568 20.549175 -55.588921
-39.889568 19.340395 -55.588917
-39.889568 18.131622 -55.588917
-39.889568 16.922846 -55.588917
-39.889568 15.714073 -55.588917
-39.876804 14.500659 -55.635616
-39.889568 13.296522 -55.588913
-39.889568 12.087748 -55.588921
-39.889568 10.878973 -55.588917
-39.889568 9.6701946 -55.588921
-39.889568 8.4614239 -55.588917
-39.889568 7.2526436 -55.588917
-39.889568 6.0438714 -55.588917
-39.889568 4.835093 -55.588917
-39.889568 3.6263266 -55.588921
-39.889568 2.4175458 -55.588921
-39.889568 1.2087739 -55.588917
-39.889568 1.7031145e-06 -55.588917
-39.889568 -1.2087789 -55.588917
-39.889568 -2.4175494 -55.588913
-39.867203 -3.6242943 -55.670738
-39.867336 -4.8324022 -55.670254
-39.867336 -6.0405083 -55.670254
-39.867336 -7.2486033 -55.670254
-39.867336 -8.456707 -55.670258
-39.867336 -9.6648064 -55.670254
-39.867336 -10.872912 -55.67025
-39.867336 -12.081008 -55.670258
-39.867336 -13.289114 -55.670258
-39.867336 -14.497216 -55.670254
-39.867336 -15.705317 -55.670254
-39.867336 -16.91342 -55.670254
-39.867336 -18.121523 -55.67025
-39.867336 -19.329622 -55.67025
-39.867336 -20.537716 -55.670258
-39.867336 -21.745819 -55.670258
-39.867336 -22.95392 -55.670258
-39.040348 -23.660818 -58.695297
-38.463257 -24.47662 -60.806236
-38.398823 47.998531 -56.652576
-38.398823 46.798565 -56.652576
-38.398823 45.598602 -56.652576
-38.398823 44.398643 -56.65258
-38.398823 43.198681 -56.65258
-38.398823 41.998714 -56.652576
-38.398823 40.798752 -56.652576
-38.398823 39.598789 -56.652576
-38.398823 38.398827 -56.652573
-38.580589 37.374943 -55.966923
-38.580589 36.169304 -55.966923
-38.580589 34.963657 -55.966927
-38.580589 33.758011 -55.966919
-38.580589 32.552372 -55.966919
-38.580589 31.346724 -55.966927
-38.580589 30.141085 -55.966927
-38.580589 28.935444 -55.966927
-38.580589 27.729799 -55.966919
-38.580589 26.524151 -55.966923
-38.580589 25.31851 -55.966923
-38.580589 24.112871 -55.966923
-38.580589 22.907219 -55.966923
-38.580589 21.701578 -55.966923
-38.580589 20.495937 -55.966923
-38.580589 19.290298 -55.966923
-38.580589 18.084646 -55.966919
-38.580589 16.879005 -55.966919
-38.580589 15.673366 -55.966923
-38.594818 14.473053 -55.91325
-38.580589 13.262074 -55.966919
-38.580589 12.056433 -55.966919
-38.580589 10.850785 -55.966923
-38.580589 9.6451445 -55.966923
-38.580719 8.4395285 -55.966438
-38.580719 7.2338815 -55.966442
-38.580719 6.0282302 -55.966442
-38.580719 4.8225894 -55.966442
-38.580719 3.6169381 -55.966438
-38.580719 2.4112911 -55.966442
-38.580719 1.2056463 -55.966438
-38.580845 -1.3574215e-06 -55.965961
-38.580845 -1.2056526 -55.965961
-38.580845 -2.4113038 -55.965958
-38.594818 -3.618263 -55.913246
-38.594818 -4.8243542 -55.913246
-38.594818 -6.0304389 -55.913246
-38.594818 -7.2365336 -55.913246
-38.594818 -8.4426165 -55.913246
-38.594818 -9.6487074 -55.913246
-38.594818 -10.854795 -55.913246
-38.594818 -12.060884 -55.91325
-38.594818 -13.266969 -55.913246
-38.594818 -14.473057 -55.913246
-38.594818 -15.679149 -55.913246
-38.594818 -16.885239 -55.913242
-38.594818 -18.091322 -55.913246
-38.594818 -19.297417 -55.913242
-38.594818 -20.503502 -55.913246
-38.594818 -21.709591 -55.913242
-38.62318 -22.932514 -55.806255
-37.856693 -23.660435 -58.697609
-37.462223 -24.584583 -60.185638
-37.518703 48.411232 -55.407143
-37.518703 47.200947 -55.407143
-37.518581 45.99052 -55.407627
-37.518581 44.780239 -55.407623
-37.518581 43.569962 -55.407631
-37.518581 42.359688 -55.407635
-37.518456 41.149273 -55.408108
-37.518456 39.938999 -55.408112
-37.518456 38.728729 -55.408112
-48.214672 48.214668 -13.758185
-37.368301 36.162876 -55.99279
-37.368797 34.957905 -55.990875
-37.369164 33.752789 -55.989433
-37.369408 32.54755 -55.988476
-37.369778 31.34239 -55.987038
-37.370148 30.137218 -55.985603
-37.370518 28.932011 -55.984169
-37.370884 27.726786 -55.982731
-37.371254 26.521536 -55.981289
-37.371624 25.316256 -55.979855
-37.371624 24.110725 -55.979855
-37.371624 22.905186 -55.979855
-37.371624 21.69965 -55.979858
-37.371624 20.494118 -55.979855
-37.371624 19.28858 -55.979858
-37.368057 18.081322 -55.993748
-37.365723 16.87484 -56.002842
-37.368549 15.670681 -55.991829
-37.368919 14.465384 -55.990395
-37.369164 13.260027 -55.989437
-37.369534 12.054687 -55.987995
-37.369904 10.849322 -55.986561
-37.370274 9.6439409 -55.985126
-37.370518 8.4384995 -55.984165
-37.370884 7.2330723 -55.982735
-37.371254 6.0276217 -55.981293
-37.371502 4.8221292 -55.980335
-37.371502 3.6165962 -55.980331
-37.371502 2.4110603 -55.980335
-37.371502 1.2055271 -55.980331
-37.371502 1.6175146e-06 -55.980339
-37.371502 -1.2055315 -55.980335
-37.366211 -2.4107254 -56.000923
-37.367687 -3.6162312 -55.995182
-37.368671 -4.8217669 -55.991352
-37.369041 -6.0272698 -55.989918
-37.369408 -7.2327919 -55.98848
-37.369656 -8.4383154 -55.987518
-37.370026 -9.6438837 -55.98608
-37.370396 -10.849469 -55.984642
-37.370762 -12.055085 -55.983208
-37.37101 -13.260684 -55.98225
-37.37138 -14.466341 -55.980812
-37.371502 -15.671926 -55.980331
-37.371502 -16.877453 -55.980331
-37.371502 -18.082991 -55.980328
-37.371502 -19.288525 -55.980331
-37.371502 -20.494049 -55.980339
-37.370396 -21.698935 -55.98465
-37.582287 -23.034306 -55.159557
-36.674858 -23.661203 -58.692989
-36.452202 -24.693426 -59.55999
-36.469547 48.626057 -54.758831
-36.469547 47.410412 -54.758835
-36.469547 46.194759 -54.758827
-36.469547 44.979103 -54.758831
-36.469547 43.763454 -54.758835
-36.469425 42.547661 -54.759315
-36.469425 41.332016 -54.759319
-36.469425 40.116367 -54.759319
-36.469425 38.900719 -54.759315
-46.655396 48.210583 -13.774133
-36.323067 36.323059 -55.348221
-36.327873 35.11694 -55.328892
-36.328831 33.90691 -55.325031
-36.328831 32.695942 -55.325031
-36.328831 31.484983 -55.325027
-36.328831 30.274025 -55.325027
-36.328831 29.063066 -55.325027
-36.328831 27.852102 -55.325035
-36.328831 26.64114 -55.325027
-36.328831 25.430182 -55.325027
-36.328831 24.219223 -55.325027
-36.328831 23.008257 -55.325031
-36.328831 21.797295 -55.325027
-36.328831 20.586336 -55.325027
-36.328472 19.375185 -55.326477
-36.32415 18.162071 -55.343872
-36.321266 16.949926 -55.355473
-36.32547 15.741033 -55.338558
-36.328712 14.531485 -55.325512
-36.328712 13.320525 -55.325512
-36.328712 12.109568 -55.325508
-36.328712 10.898608 -55.325512
-36.328712 9.6876545 -55.325516
-36.328712 8.4767017 -55.325512
-36.328712 7.2657437 -55.325512
-36.328712 6.0547848 -55.325512
-36.328712 4.8438287 -55.325516
-36.328712 3.6328697 -55.325516
-36.328712 2.4219103 -55.325516
-36.328712 1.2109526 -55.325516
-36.328712 -1.6933552e-07 -55.325512
-36.326309 -1.2108827 -55.335178
-36.321869 -2.4214566 -55.35305
-36.323185 -3.6323192 -55.34774
-36.327751 -4.8437023 -55.329384
-36.328712 -6.0547915 -55.325512
-36.328712 -7.2657428 -55.325508
-36.328712 -8.4766998 -55.325508
-36.328712 -9.6876583 -55.325508
-36.328712 -10.898619 -55.325508
-36.328712 -12.109576 -55.325508
-36.328712 -13.320527 -55.325512
-36.328712 -14.531487 -55.325508
-36.328712 -15.742443 -55.325516
-36.328712 -16.953402 -55.325508
-36.328712 -18.164356 -55.325512
-36.328712 -19.375317 -55.325504
-36.328472 -20.586134 -55.326481
-36.323906 -21.794346 -55.344845
-36.531994 -23.136927 -54.507572
-35.510952 -23.673969 -58.615921
-35.433197 -24.803244 -58.928776
-35.411156 47.621891 -54.104244
-35.411156 46.400818 -54.104248
-35.411037 45.1796 -54.104736
-35.411037 43.958527 -54.10474
-35.411037 42.737453 -54.104736
-35.411037 41.516388 -54.104736
-35.411037 40.295319 -54.104736
-35.410919 39.074116 -54.105236
-45.09639 48.20649 -13.790067
-35.268528 36.484684 -54.697926
-35.273212 35.273212 -54.678421
-35.582932 34.355934 -53.389236
-35.582932 33.128937 -53.389236
-35.582932 31.901936 -53.389236
-35.582932 30.674938 -53.389233
-35.582932 29.447945 -53.389236
-35.582932 28.220943 -53.38924
-35.582932 26.993946 -53.389236
-35.582932 25.766951 -53.389233
-35.582932 24.539951 -53.38924
-35.582932 23.312954 -53.38924
-35.582932 22.085957 -53.389236
-35.582932 20.858959 -53.389233
-35.276962 19.463148 -54.662819
-35.270752 18.243492 -54.68866
-35.326359 17.054104 -54.457211
-35.271221 15.811231 -54.68671
-35.582932 14.72397 -53.38924
-35.582932 13.496974 -53.389236
-35.582932 12.26997 -53.389236
-35.582932 11.042974 -53.389233
-35.582932 9.8159809 -53.389236
-35.582932 8.5889845 -53.389233
-35.582932 7.3619809 -53.389236
-35.582932 6.1349854 -53.389236
-35.582932 4.9079938 -53.38924
-35.582932 3.6809895 -53.38924
-35.582932 2.4539938 -53.389236
-35.582932 1.2269962 -53.389233
-35.582932 -3.740415e-06 -53.38924
-35.272625 -1.2162991 -54.680862
-35.268295 -2.4322972 -54.698898
-35.269348 -3.6485574 -54.694515
-35.2738 -4.8653569 -54.675983
-35.582932 -6.1349888 -53.389236
-35.582932 -7.3619881 -53.389233
-35.582932 -8.5889902 -53.389236
-35.582932 -9.8159819 -53.389236
-35.582932 -11.042981 -53.389236
-35.582932 -12.269978 -53.389248
-35.582932 -13.49698 -53.389233
-35.582932 -14.723969 -53.38924
-35.582932 -15.950975 -53.389233
-35.582932 -17.177967 -53.389236
-35.582932 -18.404963 -53.38924
-35.582932 -19.631969 -53.389233
-35.274384 -20.678087 -54.673553
-35.269932 -21.891685 -54.69207
-35.472412 -23.240549 -53.849266
-34.457775 -23.763985 -58.072636
-34.405205 -24.91411 -58.29147
-34.343277 47.835278 -53.443802
-34.343166 46.608578 -53.444286
-34.343166 45.382034 -53.44429
-34.343166 44.155495 -53.444294
-34.343166 42.928951 -53.444294
-34.343048 41.702271 -53.444786
-34.343048 40.475739 -53.444786
-34.343048 39.249195 -53.44479
-34.343048 38.022663 -53.444786
-34.204563 36.647739 -54.041809
-34.209126 35.430885 -54.022137
-34.510159 34.510155 -52.72435
-34.510159 33.277649 -52.724354
-34.510159 32.045147 -52.724358
-34.510159 30.812645 -52.72435
-34.510159 29.580141 -52.724354
-34.510159 28.347631 -52.72435
-34.510159 27.115128 -52.724354
-34.510159 25.88262 -52.72435
-34.510159 24.650114 -52.724354
-34.510159 23.417606 -52.724354
-34.510159 22.185102 -52.724354
-34.510159 20.952593 -52.72435
-34.237106 19.564062 -53.901505
-34.207874 18.325644 -54.02755
-34.368717 17.184355 -53.334141
-34.207527 15.882066 -54.029022
-34.353748 14.723029 -53.398663
-34.510159 13.557562 -52.72435
-34.510159 12.325056 -52.72435
-34.510159 11.092548 -52.72435
-34.510159 9.8600445 -52.724354
-34.510159 8.6275349 -52.72435
-34.510159 7.395031 -52.724354
-34.510159 6.1625228 -52.72435
-34.510159 4.9300189 -52.724354
-34.510159 3.6975093 -52.72435
-34.510159 2.4650137 -52.72435
-34.510159 1.2325079 -52.724354
-34.510159 -1.8544099e-06 -52.72435
-34.209354 -1.2217635 -54.021152
-34.205246 -2.4432347 -54.03886
-34.206047 -3.6649342 -54.035416
-34.210384 -4.8872008 -54.01672
-34.510159 -6.1625328 -52.724354
-34.510159 -7.3950391 -52.724354
-34.510159 -8.6275434 -52.724354
-34.510159 -9.8600531 -52.724354
-34.510159 -11.09255 -52.72435
-34.510159 -12.325058 -52.724346
-34.510159 -13.557568 -52.724346
-34.510159 -14.790068 -52.724354
-34.510159 -16.022573 -52.724354
-34.510159 -17.255085 -52.72435
-34.510159 -18.487593 -52.724346
-34.510159 -19.720091 -52.724358
-34.210838 -20.770874 -54.014751
-34.206505 -21.989901 -54.033451
-34.403187 -23.345024 -53.18552
-33.396553 -23.854687 -57.525215
-33.367863 -25.0259 -57.648899
-33.265678 48.050419 -52.777905
-33.265678 46.818359 -52.777901
-33.265678 45.586296 -52.777897
-33.265564 44.354088 -52.778408
-33.265564 43.122028 -52.778404
-33.265564 41.889969 -52.778408
-33.265564 40.657909 -52.778404
-33.265564 39.425858 -52.778404
-33.265564 38.193794 -52.7784
-33.132046 36.813381 -53.37534
-33.135487 35.589962 -53.359959
-33.414726 34.652306 -52.111546
-33.42783 33.427826 -52.052963
-33.42783 32.189758 -52.052959
-33.42783 30.951691 -52.052971
-33.42783 29.713625 -52.052967
-33.42783 28.475559 -52.052963
-33.42783 27.237488 -52.052967
-33.42783 25.99942 -52.052963
-33.42783 24.761353 -52.052971
-33.42783 23.523285 -52.052967
-33.42783 22.285219 -52.052967
-33.42783 21.047146 -52.052967
-33.42783 19.80908 -52.052963
-33.135487 18.408602 -53.359959
-33.263218 17.247591 -52.78891
-33.134377 15.953588 -53.364922
-33.176281 14.745013 -53.177555
-33.42783 13.618742 -52.052967
-33.42783 12.380674 -52.052963
-33.42783 11.142612 -52.052967
-33.42783 9.9045391 -52.052967
-33.42783 8.6664753 -52.052967
-33.42783 7.4284 -52.052967
-33.42783 6.1903358 -52.052963
-33.42783 4.9522715 -52.052967
-33.42783 3.7142007 -52.052971
-33.42783 2.4761326 -52.052967
-33.42783 1.2380681 -52.052963
-33.42783 -6.5594882e-06 -52.052963
-33.136597 -1.2272817 -53.354996
-33.132488 -2.4542642 -53.373356
-33.133156 -3.6814668 -53.370377
-33.137371 -4.909245 -53.351513
-33.42783 -6.1903386 -52.052963
-33.42783 -7.4284115 -52.052963
-33.42783 -8.6664724 -52.052967
-33.42783 -9.9045486 -52.052963
-33.42783 -11.142617 -52.052959
-33.42783 -12.380672 -52.052971
-33.42783 -13.618747 -52.052971
-33.42783 -14.856812 -52.052967
-33.42783 -16.094883 -52.052967
-33.42783 -17.332947 -52.052963
-33.42783 -18.571018 -52.052963
-33.42783 -19.809088 -52.052963
-33.137707 -20.864481 -53.350033
-33.133488 -22.088995 -53.368893
-33.57412 -23.626234 -51.398937
-32.327198 -23.946079 -56.97361
-32.321178 -25.138691 -57.000542
-32.178448 48.267666 -52.105488
-32.178448 47.030037 -52.105488
-32.178341 45.792248 -52.105995
-32.178341 44.554623 -52.105988
-32.178341 43.316994 -52.105991
-32.178341 42.079365 -52.105991
-32.17823 40.841602 -52.106499
-32.17823 39.60397 -52.106495
-32.17823 38.366348 -52.106495
-32.193134 37.145924 -52.037308
-32.052162 35.750484 -52.691803
-32.185951 34.661793 -52.070641
-32.335571 33.579247 -51.376003
-32.335571 32.335571 -51.376003
-32.335571 31.09189 -51.376003
-32.335571 29.848221 -51.375999
-32.335571 28.604546 -51.376003
-32.335571 27.360868 -51.376003
-32.335571 26.117189 -51.375999
-32.335571 24.873512 -51.376003
-32.335571 23.629843 -51.376003
-32.335571 22.386166 -51.376003
-32.335571 21.142487 -51.375999
-32.335571 19.898809 -51.375999
-32.053238 18.492252 -52.686798
-32.12645 17.298853 -52.346909
-32.051403 16.025705 -52.695309
-32.079586 14.80596 -52.564472
-32.335571 13.680432 -51.376003
-32.335571 12.436755 -51.376003
-32.335571 11.193079 -51.376007
-32.335571 9.9494057 -51.375999
-32.335571 8.7057304 -51.376003
-32.335571 7.4620533 -51.376003
-32.335571 6.2183776 -51.376007
-32.335571 4.9746981 -51.375999
-32.335571 3.7310288 -51.375999
-32.335571 2.4873514 -51.376003
-32.335571 1.2436759 -51.376007
-32.335571 -5.4761013e-06 -51.375999
-32.054104 -1.2328539 -52.682785
-32.05011 -2.4653914 -52.701317
-32.050541 -3.6981397 -52.699314
-32.054642 -4.9314847 -52.680283
-32.335571 -6.2183828 -51.376003
-32.335571 -7.4620585 -51.376003
-32.335571 -8.7057352 -51.375996
-32.335571 -9.9494047 -51.376003
-32.335571 -11.193085 -51.375996
-32.335571 -12.436766 -51.375996
-32.335571 -13.680438 -51.376003
-32.335571 -14.924119 -51.375999
-32.335571 -16.167788 -51.376007
-32.335571 -17.411463 -51.375999
-32.335571 -18.655146 -51.375996
-32.335571 -19.898815 -51.376003
-32.054859 -20.958954 -52.679272
-32.050758 -22.188986 -52.698311
-32.331291 -23.626719 -51.395878
-31.265116 -24.050095 -56.345829
-31.265116 -25.252592 -56.345833
-31.081238 48.486729 -51.427471
-31.081238 47.243484 -51.427475
-31.081238 46.000233 -51.427475
-31.081238 44.756977 -51.427471
-31.081238 43.513733 -51.427475
-31.081131 42.270332 -51.427979
-31.081131 41.027088 -51.427979
-31.081131 39.783844 -51.427979
-31.081131 38.540604 -51.427982
-31.030888 37.237064 -51.670578
-30.959019 35.912457 -52.01759
-30.99486 34.714245 -51.844543
-31.233482 33.732159 -50.69236
-31.233482 32.482822 -50.69236
-31.233482 31.233482 -50.692368
-31.233482 29.98414 -50.692364
-31.233482 28.734804 -50.692364
-31.233482 27.485464 -50.692356
-31.233482 26.236122 -50.692364
-31.233482 24.986786 -50.692364
-31.233482 23.737446 -50.69236
-31.233482 22.488102 -50.692364
-31.233482 21.238766 -50.692364
-31.233482 19.989428 -50.692364
-30.961111 18.576664 -52.007488
-30.982275 17.350071 -51.905304
-30.958599 16.098465 -52.019615
-30.973785 14.867415 -51.946297
-31.233482 13.742731 -50.69236
-31.233482 12.493387 -50.692364
-31.233482 11.24405 -50.692364
-31.233482 9.9947109 -50.69236
-31.233482 8.7453766 -50.692364
-31.233482 7.4960327 -50.692368
-31.233482 6.2466917 -50.69236
-31.233482 4.997355 -50.692364
-31.233482 3.7480199 -50.692368
-31.233482 2.4986742 -50.692364
-31.233482 1.2493373 -50.692364
-31.233482 -3.5896578e-06 -50.69236
-30.961636 -1.2384651 -52.004959
-30.957867 -2.4766271 -52.023155
-30.958076 -3.714968 -52.022141
-30.962053 -4.9539332 -52.002937
-31.233482 -6.246695 -50.692364
-31.233482 -7.4960423 -50.692364
-31.233482 -8.7453775 -50.692364
-31.233482 -9.9947128 -50.692364
-31.233482 -11.244051 -50.692368
-31.233482 -12.493401 -50.692356
-31.233482 -13.742738 -50.692364
-31.233482 -14.992073 -50.69236
-31.233482 -16.241415 -50.692364
-31.233482 -17.490749 -50.692364
-31.233482 -18.740095 -50.692356
-31.233482 -19.989433 -50.69236
-30.962158 -21.05427 -52.002426
-30.958179 -22.289896 -52.021633
-31.088835 -23.62752 -51.390778
-30.199339 -24.159473 -55.685646
-30.223961 -25.388132 -55.566753
-29.974123 48.707947 -50.742764
-29.974123 47.459023 -50.74276
-29.974123 46.210102 -50.74276
-29.974022 44.961033 -50.743279
-29.974022 43.712112 -50.743271
-29.974022 42.463196 -50.743275
-29.974022 41.214283 -50.743275
-29.974022 39.965359 -50.743271
-29.974022 38.716446 -50.743275
-29.863329 37.329155 -51.300007
-29.855927 36.075905 -51.33725
-29.869011 34.847183 -51.271431
-30.121309 33.886475 -50.002468
-30.121309 32.631416 -50.002472
-30.121309 31.376362 -50.002472
-30.121309 30.121309 -50.002468
-30.121309 28.866249 -50.002468
-30.121309 27.611197 -50.002468
-30.121309 26.356146 -50.002468
-30.121309 25.101093 -50.002468
-30.121309 23.846031 -50.002468
-30.121309 22.590979 -50.002468
-30.121309 21.335928 -50.002464
-30.121309 20.08087 -50.002468
-29.85907 18.661921 -51.321438
-29.855316 17.415598 -51.340309
-29.855824 16.171906 -51.337761
-29.859678 14.929837 -51.318375
-30.121309 13.805601 -50.002472
-30.121309 12.550542 -50.002472
-30.121309 11.29549 -50.002472
-30.121309 10.040438 -50.002472
-30.121309 8.7853823 -50.002468
-30.121309 7.5303249 -50.002472
-30.121309 6.2752719 -50.002472
-30.121309 5.0202208 -50.002468
-30.121309 3.7651591 -50.002472
-30.121309 2.5101078 -50.002468
-30.121309 1.2550547 -50.002468
-30.121309 -4.6926989e-06 -50.002472
-29.859272 -1.2441335 -51.320415
-29.855621 -2.4879658 -51.338779
-29.855621 -3.7319567 -51.338779
-29.859476 -4.9765801 -51.319401
-30.121309 -6.2752709 -50.002472
-30.121309 -7.5303264 -50.002464
-30.121309 -8.7853823 -50.002476
-30.121309 -10.040439 -50.002468
-30.121309 -11.29549 -50.002472
-30.121309 -12.550553 -50.002468
-30.121309 -13.805599 -50.002472
-30.121309 -15.060657 -50.002464
-30.121309 -16.31571 -50.002472
-30.121309 -17.57077 -50.002464
-30.121309 -18.825817 -50.002468
-30.121309 -20.080877 -50.002464
-29.859476 -21.150461 -51.319401
-29.855621 -22.391718 -51.338783
-29.846296 -23.628325 -51.385681
-29.123825 -24.269857 -55.019424
-29.175444 -25.528521 -54.7598
-28.856861 47.676556 -50.051769
-28.856762 46.421749 -50.052288
-28.856762 45.167103 -50.052288
-28.856762 43.91246 -50.052292
-28.856762 42.657822 -50.052288
-28.856663 41.403034 -50.052807
-28.856663 40.148399 -50.052807
-28.856663 38.893764 -50.052811
-36.975227 48.228558 -7.4442444
-28.742746 36.240852 -50.650684
-28.746668 34.995945 -50.630096
-28.998814 34.042088 -49.306759
-28.998814 32.781265 -49.306763
-28.998814 31.520451 -49.306759
-28.998814 30.259628 -49.306759
-28.998814 28.998817 -49.306763
-28.998814 27.737995 -49.306759
-28.998814 26.47718 -49.306755
-28.998814 25.216358 -49.306755
-28.998814 23.955538 -49.306755
-28.998814 22.694725 -49.306759
-28.998814 21.433905 -49.306759
-28.998814 20.173088 -49.306755
-28.746767 18.747892 -50.629578
-28.743137 17.495823 -50.648628
-28.742941 16.246012 -50.649654
-28.746668 14.99826 -50.630093
-28.998814 13.868998 -49.306755
-28.998814 12.608176 -49.306755
-28.998814 11.347365 -49.306759
-28.998814 10.086543 -49.306759
-28.998814 8.8257217 -49.306759
-28.998814 7.5649056 -49.306755
-28.998814 6.3040838 -49.306755
-28.998814 5.0432744 -49.306759
-28.998814 3.782454 -49.306759
-28.998814 2.521632 -49.306759
-28.998814 1.2608163 -49.306755
-28.998814 -5.6143786e-06 -49.306755
-28.746767 -1.2498624 -50.629581
-28.743137 -2.4994023 -50.648628
-28.74304 -3.7490952 -50.649143
-28.746767 -4.9994359 -50.629578
-28.998814 -6.3040948 -49.306763
-28.998814 -7.5649104 -49.306751
-28.998814 -8.8257303 -49.306759
-28.998814 -10.08654 -49.306763
-28.998814 -11.347367 -49.306755
-28.998814 -12.608177 -49.306759
-28.998814 -13.869002 -49.306751
-28.998814 -15.129822 -49.306759
-28.998814 -16.390631 -49.306759
-28.998814 -17.651459 -49.306755
-28.998814 -18.912271 -49.306759
-28.998814 -20.173096 -49.306751
-28.746668 -21.24754 -50.630089
-28.742941 -22.494476 -50.649658
-28.60367 -23.629118 -51.380596
-28.03853 -24.381334 -54.346603
-27.729216 47.895916 -49.354942
-27.729216 46.63549 -49.354942
-27.729216 45.375076 -49.354946
-27.729118 44.114502 -49.355461
-27.729118 42.854092 -49.355473
-27.729118 41.593674 -49.355469
-27.729118 40.333267 -49.355465
-27.729118 39.072849 -49.355465
-35.364655 48.224533 -7.460433
-27.620098 36.408306 -49.953659
-27.623127 35.156708 -49.937031
-27.86606 34.199257 -48.604103
-27.86606 32.932613 -48.604095
-27.86606 31.665977 -48.604099
-27.86606 30.39933 -48.604099
-27.86606 29.132694 -48.604099
-27.86606 27.866058 -48.604107
-27.86606 26.599417 -48.604099
-27.86606 25.332781 -48.604103
-27.86606 24.066139 -48.604099
-27.86606 22.799501 -48.604099
-27.86606 21.532864 -48.604099
-27.86606 20.266226 -48.604099
-27.624168 18.834658 -49.931313
-27.62076 17.576843 -49.950012
-27.620001 16.320911 -49.954178
-27.623411 15.067316 -49.935467
-27.86606 13.933024 -48.604099
-27.86606 12.666388 -48.604099
-27.86606 11.399751 -48.604103
-27.86606 10.133108 -48.604099
-27.86606 8.8664732 -48.604103
-27.86606 7.599834 -48.604099
-27.86606 6.3331966 -48.604099
-27.86606 5.0665555 -48.604095
-27.86606 3.7999203 -48.604099
-27.86606 2.5332727 -48.604099
-27.86606 1.2666355 -48.604103
-27.86606 -5.6161889e-06 -48.604095
-27.62398 -1.255639 -49.93235
-27.620474 -2.5109572 -49.951576
-27.620098 -3.7663796 -49.953651
-27.623789 -5.0225124 -49.933395
-27.86606 -6.3331976 -48.604095
-27.86606 -7.5998344 -48.604099
-27.86606 -8.8664684 -48.604103
-27.86606 -10.133115 -48.604092
-27.86606 -11.399751 -48.604095
-27.86606 -12.666395 -48.604103
-27.86606 -13.933029 -48.604107
-27.86606 -15.199676 -48.604095
-27.86606 -16.466312 -48.604095
-27.86606 -17.73295 -48.604099
-27.86606 -18.999584 -48.604103
-27.86606 -20.266224 -48.604107
-27.6236 -21.345512 -49.934425
-27.727114 -22.685825 -49.366459
-27.360962 -23.629923 -51.3755
-26.94313 -24.493755 -53.668064
-26.591236 48.11747 -48.651142
-26.591236 46.851223 -48.651146
-26.591143 45.584816 -48.651672
-26.591143 44.318573 -48.651672
-26.591143 43.052326 -48.651676
-26.591143 41.786083 -48.651672
-26.591143 40.519836 -48.651676
-26.591143 39.253593 -48.651676
-33.754509 48.220722 -7.475749
-26.487024 36.577316 -49.250153
-26.489216 35.318954 -49.237572
-26.722702 34.357758 -47.895454
-26.722702 33.085251 -47.895458
-26.722702 31.812737 -47.895454
-26.722702 30.540228 -47.895458
-26.722702 29.267719 -47.895458
-26.722702 27.995209 -47.895454
-26.722702 26.722702 -47.895462
-26.722702 25.45019 -47.895458
-26.722702 24.177681 -47.895458
-26.722702 22.905169 -47.895454
-26.722702 21.63266 -47.895458
-26.722702 20.360147 -47.895454
-26.490767 18.921976 -49.228653
-26.487848 17.658564 -49.245434
-26.486935 16.396673 -49.250683
-26.489855 15.137056 -49.233902
-26.722702 13.997607 -47.895454
-26.722702 12.7251 -47.895458
-26.722702 11.452586 -47.895454
-26.722702 10.180079 -47.895454
-26.722702 8.9075651 -47.895451
-26.722702 7.6350598 -47.895458
-26.722702 6.3625469 -47.895454
-26.722702 5.0900383 -47.895458
-26.722702 3.8175268 -47.895451
-26.722702 2.545018 -47.895454
-26.722702 1.2725106 -47.895458
-26.722702 -2.2343456e-06 -47.895454
-26.490675 -1.2614576 -49.229179
-26.487391 -2.5226119 -49.248062
-26.486845 -3.7838395 -49.251202
-26.491131 -5.045929 -49.226562
-26.722702 -6.3625493 -47.895458
-26.722702 -7.6350622 -47.895454
-26.722702 -8.9075756 -47.895451
-26.722702 -10.18008 -47.895458
-26.722702 -11.45259 -47.895454
-26.722702 -12.725101 -47.895454
-26.722702 -13.997605 -47.895462
-26.722702 -15.270119 -47.895458
-26.722702 -16.542631 -47.895458
-26.722702 -17.815138 -47.895451
-26.722702 -19.087643 -47.895458
-26.612949 -20.276529 -48.526333
-26.490128 -21.444389 -49.232323
-26.637465 -22.832111 -48.38541
-26.11817 -23.630724 -51.370399
-25.837582 -24.607225 -52.983234
-25.442589 48.340923 -47.941338
-25.442589 47.06879 -47.941338
-25.442589 45.796658 -47.941334
-25.442589 44.524532 -47.941341
-25.442589 43.252399 -47.941341
-25.442501 41.980125 -47.941872
-25.442501 40.708 -47.941868
-25.442501 39.435883 -47.941872
-25.442501 38.16375 -47.941872
-25.343473 36.748039 -48.539562
-25.34479 35.482697 -48.531624
-25.568787 34.51786 -47.17968
-25.568787 33.239422 -47.179676
-25.568787 31.960987 -47.179676
-25.568787 30.682539 -47.179672
-25.568787 29.404102 -47.179676
-25.568787 28.125668 -47.179676
-25.568787 26.847227 -47.179672
-25.568787 25.568785 -47.17968
-25.568787 24.290342 -47.179672
-25.568787 23.011908 -47.179672
-25.568787 21.733471 -47.179676
-25.568787 20.455025 -47.179676
-25.34663 19.009972 -48.520504
-25.344437 17.741102 -48.533741
-25.343386 16.4732 -48.540092
-25.345667 15.207398 -48.526329
-25.568787 14.06283 -47.179676
-25.568787 12.784394 -47.179676
-25.568787 11.505955 -47.179672
-25.568787 10.22751 -47.179676
-25.568787 8.9490709 -47.179672
-25.568787 7.6706352 -47.179672
-25.568787 6.3921995 -47.179676
-25.568787 5.1137519 -47.179676
-25.568787 3.8353164 -47.17968
-25.568787 2.5568748 -47.179672
-25.568787 1.278439 -47.179672
-25.568787 -3.0449587e-06 -47.17968
-25.346806 -1.267342 -48.519447
-25.343649 -2.5343628 -48.538506
-25.34321 -3.801481 -48.541149
-25.352947 -5.0705867 -48.482391
-25.568787 -6.3922019 -47.179672
-25.568787 -7.6706371 -47.179672
-25.568787 -8.9490747 -47.179676
-25.568787 -10.227515 -47.17968
-25.568787 -11.505962 -47.179668
-25.568787 -12.784396 -47.179668
-25.568787 -14.062834 -47.179672
-25.568787 -15.341274 -47.179676
-25.568787 -16.619713 -47.17968
-25.568787 -17.898155 -47.179668
-25.568787 -19.176596 -47.179672
-25.3771 -20.301678 -48.336605
-25.346104 -21.544191 -48.523682
-25.487295 -22.938568 -47.671524
-24.875292 -23.631527 -51.365299
-24.721743 -24.721746 -52.292038
-24.283312 48.566624 -47.224369
-24.283312 47.288559 -47.224373
-24.283312 46.010479 -47.224369
-24.283228 44.732258 -47.224911
-24.283228 43.454197 -47.224907
-24.283228 42.176132 -47.224911
-24.283228 40.898064 -47.224915
-24.283228 39.620003 -47.224907
-24.283228 38.341938 -47.224911
-24.193571 36.927025 -47.794525
-24.189701 35.64798 -47.819103
-24.403383 34.67849 -46.461536
-24.403982 33.394924 -46.457733
-24.403982 32.1105 -46.457729
-24.403982 30.826084 -46.457733
-24.403982 29.541666 -46.457737
-24.293486 28.129301 -47.159744
-24.272133 26.827091 -47.295399
-24.272133 25.549614 -47.295395
-24.403982 24.40398 -46.457737
-24.403982 23.119558 -46.457737
-24.403982 21.835138 -46.457733
-24.403982 20.550718 -46.457733
-24.191887 19.098856 -47.805214
-24.190205 17.824364 -47.815899
-24.18903 16.550388 -47.823376
-24.190794 15.278395 -47.812153
-24.403982 14.128622 -46.457737
-24.403982 12.844201 -46.457733
-24.403982 11.559782 -46.457733
-24.403982 10.27536 -46.457729
-24.403982 8.9909391 -46.457729
-24.272133 7.6648836 -47.295403
-24.272133 6.3874002 -47.295403
-24.403982 5.1376743 -46.457733
-24.403982 3.8532553 -46.457733
-24.403982 2.5688384 -46.457737
-24.403982 1.2844174 -46.457737
-24.403982 2.4377755e-06 -46.457741
-24.192139 -1.2732736 -47.803608
-24.18928 -2.5462425 -47.821777
-24.18886 -3.8192966 -47.824436
-24.203583 -5.0954952 -47.7309
-24.403982 -6.4220982 -46.457737
-24.403982 -7.7065229 -46.457729
-24.403982 -8.9909401 -46.457737
-24.403982 -10.275363 -46.457726
-24.403982 -11.559782 -46.457733
-24.272133 -12.774807 -47.295406
-24.272133 -14.052285 -47.295406
-24.403982 -15.413047 -46.457737
-24.403982 -16.69747 -46.457729
-24.403982 -17.981888 -46.457733
-24.403982 -19.266302 -46.457737
-24.206108 -20.384094 -47.714859
-24.191299 -21.644852 -47.808941
-24.326435 -23.046103 -46.950397
-23.647425 -23.647427 -51.264282
-23.595549 -24.83742 -51.593872
-23.113077 47.510216 -46.501221
-23.113077 46.226158 -46.501217
-23.113077 44.942097 -46.501217
-23.113077 43.658031 -46.501225
-23.113077 42.37397 -46.501221
-23.113077 41.089909 -46.501221
-23.113077 39.805855 -46.501225
-23.113077 38.521793 -46.501225
-23.101576 37.219204 -46.578346
-23.023802 35.8148 -47.099911
-23.123211 34.684818 -46.433266
-23.22831 33.552006 -45.728462
-23.22831 32.261536 -45.728458
-23.22831 30.971079 -45.728458
-23.22831 29.680614 -45.728462
-23.22831 28.390156 -45.728462
-23.124672 26.978785 -46.42347
-23.057945 25.619934 -46.870941
-23.22831 24.518766 -45.728462
-23.22831 23.228308 -45.728458
-23.22831 21.937851 -45.728462
-23.22831 20.647383 -45.728458
-23.026215 19.188511 -47.083733
-23.025087 17.908403 -47.091282
-23.023882 16.628359 -47.099377
-23.025087 15.350057 -47.091286
-23.22831 14.195075 -45.728455
-23.22831 12.904612 -45.728462
-23.22831 11.614153 -45.728458
-23.22831 10.323696 -45.728458
-23.22831 9.033226 -45.728455
-23.057945 7.6859827 -46.870941
-23.124672 6.423521 -46.423473
-23.22831 5.1618466 -45.728458
-23.22831 3.8713832 -45.728462
-23.22831 2.5809202 -45.728455
-23.22831 1.2904569 -45.728458
-23.22831 1.9511219e-06 -45.728466
-23.026537 -1.2792547 -47.081577
-23.024044 -2.5582287 -47.098289
-23.023642 -3.8372755 -47.10099
-23.042793 -5.1206217 -46.972546
-23.22831 -6.4523115 -45.728451
-23.22831 -7.7427711 -45.728462
-23.22831 -9.0332336 -45.728455
-23.22831 -10.323695 -45.728466
-23.22831 -11.614158 -45.728458
-23.124672 -12.847042 -46.42347
-23.063189 -14.094172 -46.835789
-23.22831 -15.485548 -45.728458
-23.22831 -16.776001 -45.728466
-23.22831 -18.066463 -45.728458
-23.22831 -19.356932 -45.728455
-23.02887 -20.470112 -47.065926
-23.025732 -21.746529 -47.086967
-23.15456 -23.154566 -46.22303
-22.492403 -23.741987 -50.663544
-22.458689 -24.9541 -50.889641
-21.931896 47.734131 -45.770706
-21.931896 46.444016 -45.770706
-21.931896 45.153912 -45.77071
-21.93182 43.86364 -45.771255
-21.93182 42.573524 -45.771255
-21.93182 41.283421 -45.771259
-21.93182 39.993317 -45.771263
-21.93182 38.703209 -45.771259
-21.873419 37.313477 -46.18594
-21.847401 35.983955 -46.370689
-21.871422 34.736965 -46.20013
-22.041447 33.710449 -44.992851
-22.041447 32.413887 -44.992844
-22.041447 31.117334 -44.992844
-22.041447 29.820776 -44.992844
-22.041447 28.524225 -44.992844
-21.942564 27.105516 -45.694973
-21.879492 25.740572 -46.14283
-22.041447 24.634554 -44.992844
-22.041447 23.338001 -44.99284
-22.041447 22.041445 -44.992847
-22.041447 20.744892 -44.992844
-21.849625 19.279079 -46.354904
-21.84901 17.993299 -46.359261
-21.84763 16.70701 -46.369053
-21.848396 15.422397 -46.363613
-22.041447 14.262111 -44.992844
-22.041447 12.965552 -44.992847
-22.041447 11.669002 -44.992847
-22.041447 10.372442 -44.992847
-22.041447 9.0758877 -44.992844
-21.879492 7.7221727 -46.142826
-21.942564 6.4536934 -45.694973
-22.041447 5.1862202 -44.992847
-22.041447 3.8896682 -44.992844
-22.041447 2.5931063 -44.992844
-22.041447 1.2965585 -44.992844
-22.041447 -3.4614438e-06 -44.992844
-21.84993 -1.2852956 -46.352726
-21.847782 -2.5703347 -46.367962
-21.847401 -3.8554223 -46.370689
-21.870192 -5.1459332 -46.208855
-22.041447 -6.4827852 -44.992844
-22.041447 -7.7793326 -44.992847
-22.041447 -9.0758944 -44.992844
-22.041447 -10.372442 -44.992851
-22.041447 -11.669003 -44.992844
-21.942564 -12.907392 -45.694973
-21.879568 -14.15737 -46.142284
-22.041447 -15.55867 -44.99284
-22.041447 -16.855225 -44.992851
-22.041447 -18.151777 -44.99284
-22.041447 -19.448341 -44.99284
-21.849548 -20.56428 -46.35545
-21.849163 -21.849169 -46.358162
-21.971678 -23.264132 -45.488243
-21.328108 -23.837296 -50.057999
-21.311098 -25.071886 -50.178768
-20.739531 47.960159 -45.033279
-20.739531 46.663944 -45.033283
-20.739458 45.367558 -45.033836
-20.739458 44.07135 -45.033836
-20.739458 42.775127 -45.033833
-20.739458 41.478912 -45.033836
-20.739458 40.182693 -45.033833
-20.739458 38.886482 -45.033833
-25.95579 47.044861 -5.679646
-20.660051 36.155087 -45.6329
-20.666754 34.875149 -45.582329
-20.843393 33.870518 -44.249691
-20.843393 32.567799 -44.249691
-20.843393 31.265089 -44.249691
-20.843393 29.962381 -44.249691
-20.843393 28.659666 -44.249695
-20.749371 27.233549 -44.959045
-20.694782 25.868479 -45.370892
-20.843393 24.75153 -44.249695
-20.843393 23.448816 -44.249687
-20.843393 22.146103 -44.249695
-20.843393 20.843393 -44.249691
-20.661798 19.370434 -45.619713
-20.661654 18.078947 -45.620811
-20.660196 16.786409 -45.631802
-20.660563 15.495419 -45.629055
-20.843393 14.32983 -44.249691
-20.843393 13.027123 -44.249691
-20.843393 11.724407 -44.249695
-20.843393 10.421694 -44.249687
-20.843393 9.1189871 -44.249691
-20.689884 7.7587032 -45.407822
-20.749371 6.4841733 -44.959038
-20.746874 5.1867142 -44.977886
-20.843393 3.908134 -44.249691
-20.843393 2.6054265 -44.249695
-20.843393 1.3027065 -44.249691
-20.843393 -5.3533336e-06 -44.249683
-20.662165 -1.2913855 -45.61697
-20.660269 -2.5825329 -45.631252
-20.659979 -3.8737497 -45.633446
-20.68594 -5.1714911 -45.43758
-20.843393 -6.5135655 -44.249687
-20.843393 -7.8162694 -44.249695
-20.843393 -9.118989 -44.249691
-20.843393 -10.4217 -44.249687
-20.843393 -11.724404 -44.249695
-20.749371 -12.968359 -44.959045
-20.689812 -14.224244 -45.408382
-20.843393 -15.632548 -44.249695
-20.843393 -16.935261 -44.249691
-20.843393 -18.237972 -44.249683
-20.843393 -19.540684 -44.249695
-20.661873 -20.661873 -45.619167
-20.661436 -21.952778 -45.622463
-20.777473 -23.374664 -44.747013
-20.153109 -23.93182 -49.457493
-20.152693 -25.190865 -49.460636
-19.535749 48.188179 -44.289398
-19.535749 46.885792 -44.289391
-19.535749 45.583416 -44.289391
-19.535749 44.281033 -44.289394
-19.535749 42.978645 -44.289391
-19.535749 41.676258 -44.289391
-19.535749 40.373882 -44.289391
-19.535749 39.071499 -44.289394
-23.920145 46.245613 -9.0064926
-19.461355 36.327862 -44.888062
-19.46246 35.032425 -44.879181
-19.633841 34.03199 -43.500008
-19.633841 32.723068 -43.500008
-19.633841 31.414146 -43.500008
-19.633841 30.105217 -43.500015
-19.633841 28.796295 -43.500015
-19.633841 27.487373 -43.500015
-19.633841 26.178452 -43.500015
-19.633841 24.86953 -43.500015
-19.633841 23.560608 -43.500015
-19.633841 22.251686 -43.500015
-19.633841 20.94276 -43.500008
-19.463631 19.463629 -44.869755
-19.462942 18.165409 -44.875298
-19.461493 16.866625 -44.886951
-19.461424 15.569139 -44.887512
-19.633841 14.39815 -43.500008
-19.633841 13.089222 -43.500011
-19.633841 11.7803 -43.500011
-19.633841 10.471378 -43.500011
-19.633841 9.1624556 -43.500011
-19.633841 7.8535347 -43.500011
-19.633841 6.5446124 -43.500011
-19.633841 5.2356906 -43.500011
-19.633841 3.9267683 -43.500011
-19.633841 2.6178422 -43.500008
-19.633841 1.3089241 -43.500011
-19.633841 -4.0109617e-06 -43.500004
-19.463079 -1.2975377 -44.874195
-19.468458 -2.5957983 -44.830891
-19.461218 -3.892246 -44.889164
-19.633841 -5.2356973 -43.500008
-19.633841 -6.5446153 -43.500015
-19.633841 -7.8535414 -43.500008
-19.633841 -9.1624594 -43.500015
-19.633841 -10.471385 -43.500008
-19.633841 -11.780301 -43.500015
-19.633841 -13.08923 -43.500008
-19.633841 -14.398146 -43.500015
-19.633841 -15.707074 -43.500008
-19.633841 -17.015991 -43.500015
-19.633841 -18.324919 -43.500008
-19.633841 -19.63385 -43.500004
-19.462873 -20.760401 -44.875858
-19.462391 -22.057371 -44.879745
-19.661314 -23.593576 -43.278927
-18.983173 -24.045351 -48.736179
-18.994789 -25.326385 -48.642693
-18.320532 48.418545 -43.537834
-18.320532 47.109936 -43.537834
-18.320532 45.801331 -43.53783
-18.320467 44.492558 -43.538403
-18.320467 43.183956 -43.538399
-18.320467 41.875347 -43.538399
-18.320467 40.566746 -43.538395
-18.320467 39.258137 -43.538395
-21.952608 45.473251 -12.221368
-18.251148 36.502289 -44.136066
-18.251602 35.19952 -44.132145
-18.412764 34.195133 -42.742573
-18.412764 32.879936 -42.742577
-18.412764 31.564737 -42.742577
-18.412764 30.249538 -42.742577
-18.412764 28.934347 -42.742577
-18.412764 27.619146 -42.74258
-18.412764 26.303947 -42.74258
-18.412764 24.98875 -42.742584
-18.412764 23.673557 -42.74258
-18.412764 22.358355 -42.742573
-18.412764 21.043154 -42.742577
-18.262589 19.567055 -44.037422
-18.252707 18.252707 -44.122623
-18.251213 16.947548 -44.135509
-18.250887 15.643616 -44.138309
-18.412764 14.467175 -42.742577
-18.412764 13.151976 -42.742577
-18.412764 11.836778 -42.74258
-18.412764 10.521579 -42.742584
-18.412764 9.2063808 -42.742573
-18.412764 7.8911824 -42.742573
-18.412764 6.5759854 -42.742577
-18.412764 5.2607894 -42.742584
-18.412764 3.9455922 -42.742577
-18.412764 2.6303902 -42.742573
-18.412764 1.315196 -42.74258
-18.412764 -7.7978129e-06 -42.742573
-18.252512 -1.3037552 -44.124298
-18.267794 -2.6096845 -43.992542
-18.250954 -3.910919 -44.137753
-18.412764 -5.260797 -42.742577
-18.412764 -6.5759845 -42.742584
-18.412764 -7.8911867 -42.742577
-18.412764 -9.2063894 -42.742573
-18.412764 -10.521579 -42.742577
-18.412764 -11.836782 -42.742573
-18.412764 -13.151975 -42.74258
-18.412764 -14.46718 -42.742577
-18.412764 -15.782367 -42.74258
-18.412764 -17.097569 -42.742573
-18.412764 -18.412766 -42.742584
-18.412764 -19.727966 -42.742577
-18.252382 -20.859865 -44.125427
-18.251863 -22.162973 -44.129913
-18.351217 -23.594419 -43.273258
-17.802454 -24.160473 -48.004787
-17.831181 -25.473118 -47.757107
-17.093639 48.651127 -42.779053
-17.093578 47.336056 -42.779625
-17.093578 46.021172 -42.779625
-17.093578 44.706276 -42.779625
-17.093578 43.391392 -42.779625
-17.093578 42.076496 -42.779625
-17.093578 40.761608 -42.779625
-17.093578 39.446716 -42.779625
-17.093578 38.131828 -42.779625
-17.029263 36.67841 -43.376816
-17.02914 35.368214 -43.377953
-17.179863 34.359726 -41.978428
-17.179863 33.0382 -41.978424
-17.179863 31.716667 -41.978424
-17.179863 30.395144 -41.978424
-17.179863 29.07361 -41.978424
-17.179863 27.752085 -41.978424
-17.179863 26.430559 -41.97842
-17.179863 25.109026 -41.97842
-17.179863 23.787506 -41.978428
-17.179863 22.465973 -41.978428
-17.179863 21.144447 -41.978428
-17.050056 19.673141 -43.183739
-17.030418 18.340454 -43.366074
-17.037489 17.037489 -43.300434
-17.028957 15.719035 -43.379646
-17.179863 14.536806 -41.97842
-17.179863 13.215273 -41.97842
-17.179863 11.893753 -41.978428
-17.179863 10.572227 -41.978424
-17.179863 9.2506933 -41.978424
-17.179863 7.9291687 -41.978424
-17.179863 6.6076398 -41.978428
-17.179863 5.2861118 -41.978424
-17.179863 3.9645817 -41.978428
-17.179863 2.6430516 -41.97842
-17.179863 1.3215317 -41.978424
-17.179863 -4.8768543e-06 -41.978416
-17.030296 -1.3100278 -43.367195
-17.053659 -2.6236374 -43.150284
-17.029018 -3.9297774 -43.379082
-17.179863 -5.2861133 -41.978432
-17.179863 -6.6076431 -41.97842
-17.179863 -7.9291635 -41.978428
-17.179863 -9.2507 -41.97842
-17.179863 -10.572223 -41.978424
-17.179863 -11.893758 -41.97842
-17.179863 -13.215281 -41.978424
-17.179863 -14.536816 -41.978416
-17.179863 -15.858338 -41.97842
-17.179863 -17.179857 -41.978424
-17.179863 -18.501394 -41.97842
-17.179863 -19.822918 -41.978424
-17.030176 -20.960217 -43.368343
-17.029688 -22.269594 -43.372864
-17.041025 -23.595264 -43.267597
-16.610435 -24.276796 -47.265808
-15.854845 47.564541 -42.013531
-15.854845 46.243301 -42.013523
-15.854845 44.922066 -42.013527
-15.854845 43.600826 -42.013531
-15.854845 42.279587 -42.013527
-15.854845 40.958351 -42.013527
-15.854845 39.637112 -42.013527
-15.854845 38.315876 -42.013527
-15.795472 36.856098 -42.610783
-15.795189 35.539169 -42.613632
-15.935094 34.526039 -41.206295
-15.935094 33.198109 -41.206299
-15.935094 31.870186 -41.206295
-15.935094 30.542263 -41.206295
-15.935094 29.214334 -41.206299
-15.935094 27.886412 -41.206299
-15.935094 26.558489 -41.206299
-15.935094 25.230566 -41.206295
-15.935094 23.902636 -41.206295
-15.935094 22.574711 -41.206295
-15.935094 21.246788 -41.206291
-15.935094 19.918869 -41.206295
-15.79638 18.429111 -42.601643
