# .PCD v0.7 - Point Cloud Data file format
VERSION 0.7
FIELDS x y z
SIZE 4 4 4
TYPE F F F
COUNT 1 1 1
WIDTH 1231
HEIGHT 1
VIEWPOINT 0 0 0 1 0 0 0
POINTS 1231
DATA ascii
-818.72443 66.834633 170.89011
-818.77356 50.129009 171.01103
-818.82678 33.421497 171.14207
-818.87585 16.711803 171.26302
-828.276 -3.4344198e-06 194.42024
-828.31793 -16.904423 194.52333
-828.36401 -33.810757 194.63687
-828.41003 -50.718941 194.75029
-828.4519 -67.628647 194.85347
-828.49805 -84.540588 194.96709
-828.54407 -101.45438 195.08057
-828.586 -118.36937 195.1837
-828.63202 -135.28683 195.29727
-828.67401 -152.20538 195.40056
-828.72009 -169.12653 195.51407
-828.76617 -186.04953 195.62773
-828.80811 -202.9734 195.73093
-828.85419 -219.9001 195.84454
-828.90039 -236.82866 195.95818
-828.94226 -253.75783 196.06148
-828.9884 -270.69012 196.17516
-772.44794 64.370674 96.532761
-772.49261 48.2808 96.644966
-772.54095 32.189259 96.766426
-772.58557 16.095585 96.878639
-809.62085 -4.9375371e-06 190.01537
-809.66583 -16.867968 190.12834
-809.71069 -33.737858 190.2413
-809.75159 -50.609482 190.3441
-809.79651 -67.482979 190.45703
-809.84149 -84.358475 190.57007
-809.88226 -101.23524 190.67287
-809.92725 -118.11436 190.78587
-809.97223 -134.99533 190.8989
-810.01306 -151.87746 191.00179
-810.05804 -168.76202 191.11478
-810.099 -185.64771 191.21767
-810.14392 -202.53595 191.33072
-810.1889 -219.42615 191.4438
-810.2298 -236.31702 191.54666
-810.27478 -253.21082 191.65985
-810.31976 -270.10657 191.77303
-729.46228 62.081917 27.463232
-729.50299 46.564068 27.567514
-729.54364 31.044413 27.671864
-729.58765 15.523129 27.784981
-791.05005 6.7478097e-05 185.63969
-791.08984 -16.831715 185.742
-791.13367 -33.665237 185.85449
-791.17749 -50.500648 185.96704
-791.22131 -67.33799 186.07956
-791.26117 -84.176651 186.18181
-791.30499 -101.01766 186.29442
-791.34882 -117.86047 186.40692
-791.38867 -134.70442 186.50928
-791.4325 -151.5509 186.62187
-791.47626 -168.39919 186.73438
-791.51617 -185.24843 186.83684
-791.56006 -202.10037 186.94942
-791.60382 -218.95422 187.06203
-791.64374 -235.80873 187.16444
-791.68762 -252.66624 187.27713
-791.72748 -269.52423 187.37958
-689.42853 59.950317 -36.863377
-689.46558 44.96513 -36.766056
-689.50269 29.978468 -36.668804
-689.50885 14.989317 -36.652496
-772.55499 7.9455589e-05 181.27258
-772.59778 -16.795551 181.3846
-772.64044 -33.592983 181.49664
-772.6792 -50.392136 181.59853
-772.72186 -67.193176 181.71057
-772.76459 -83.99614 181.82257
-772.80737 -100.80092 181.93465
-772.84613 -117.60696 182.0365
-772.88885 -134.41542 182.14867
-772.93152 -151.22566 182.26073
-772.9704 -168.037 182.36267
-773.01312 -184.85092 182.47482
-773.05585 -201.66678 182.58696
-773.09473 -218.48326 182.68892
-773.13745 -235.30267 182.80109
-773.18024 -252.12393 182.91324
-773.21906 -268.94568 183.01514
-652.05255 57.96032 -96.919289
-652.08649 43.472454 -96.828354
-652.12042 28.983156 -96.737289
-652.08936 14.490854 -96.820717
-754.13934 5.522267e-05 176.92435
-754.18091 -16.759533 177.03586
-754.22253 -33.520981 177.1474
-754.2641 -50.284245 177.25899
-754.30566 -67.049362 177.37047
-754.34351 -83.815903 177.47195
-754.38507 -100.58463 177.58354
-754.42664 -117.35524 177.69514
-754.46826 -134.12764 177.80666
-754.5061 -150.9012 177.90819
-754.54767 -167.67728 178.01979
-754.58936 -184.45515 178.13145
-754.6272 -201.23393 178.23296
-754.66882 -218.01541 178.34459
-754.71045 -234.79878 178.45625
-754.74829 -251.5827 178.55777
-754.78992 -268.36975 178.66953
-617.07837 56.09803 -153.11603
-617.10944 42.075676 -153.03088
-617.14044 28.051842 -152.94568
-617.08093 14.024599 -153.10904
-735.80609 2.2965298e-05 172.60477
-735.84662 -16.723778 172.71581
-735.88342 -33.449245 172.81671
-735.92395 -50.176586 172.92773
-735.96442 -66.9058 173.0388
-736.00488 -83.636887 173.14989
-736.04541 -100.36977 173.26103
-736.08228 -117.104 173.36209
-736.12268 -133.8405 173.47321
-736.16321 -150.57881 173.58438
-736.2038 -167.31903 173.69554
-736.2406 -184.0601 173.79659
-736.28107 -200.80392 173.90771
-736.32166 -217.54951 174.01894
-736.35852 -234.29587 174.1201
-736.39905 -251.04512 174.23125
-736.43958 -267.79617 174.34245
-584.28149 54.351776 -205.81415
-584.31 40.765858 -205.73427
-584.3385 27.178564 -205.65421
-584.25305 13.587357 -205.89418
-717.54755 1.9320712e-05 168.29346
-717.58691 -16.688059 168.40398
-717.62628 -33.377945 168.51456
-717.66571 -50.069641 168.6252
-717.70148 -66.762939 168.72575
-717.74091 -83.458244 168.83636
-717.78027 -100.15536 168.94704
-717.8197 -116.85432 169.05759
-717.85919 -133.55516 169.1683
-717.89502 -150.2571 169.26892
-717.93439 -166.96149 169.37964
-717.97382 -183.66768 169.49026
-718.01324 -200.37573 169.60092
-718.04913 -217.08463 169.70161
-718.08856 -233.7963 169.81239
-718.12805 -250.50977 169.92308
-718.16388 -267.22372 170.0238
-553.4649 52.710987 -255.33055
-553.49109 39.535107 -255.25536
-553.50635 26.357468 -255.21143
-553.41034 13.176467 -255.48718
-699.37018 3.6760979e-05 164.01048
-699.40851 -16.652594 164.12065
-699.44336 -33.306828 164.22073
-699.48163 -49.963001 164.33092
-699.5199 -66.620911 164.44104
-699.55829 -83.280685 164.55118
-699.59314 -99.941879 164.65134
-699.63141 -116.6052 164.76149
-699.6698 -133.27039 164.87166
-699.70813 -149.93744 164.98186
-699.74652 -166.60631 165.0921
-699.78137 -183.276 165.19226
-699.8197 -199.94841 165.30252
-699.85809 -216.6227 165.4128
-699.89642 -233.29877 165.52299
-699.93127 -249.9754 165.6232
-699.96967 -266.65512 165.73352
-524.45441 51.166286 -301.9447
-524.47845 38.376446 -301.87384
-524.46643 25.583715 -301.90927
-524.38019 12.789822 -302.1633
-682.89874 3.4789617e-05 164.54118
-682.94977 -16.657234 164.69133
-683.00073 -33.31702 164.84158
-683.05518 -49.979645 165.00189
-683.10626 -66.644524 165.15221
-683.15729 -83.311859 165.30254
-683.21179 -99.982147 165.46283
-683.26282 -116.65456 165.6132
-683.31732 -133.33014 165.77359
-683.36847 -150.00766 165.92403
-683.41949 -166.68761 166.07446
-683.474 -183.37105 166.23489
-683.52515 -200.05611 166.38539
-683.57629 -216.74368 166.53601
-683.63074 -233.43491 166.69652
-683.68195 -250.12749 166.84706
-683.73309 -266.8226 166.99757
-497.09576 49.709591 -345.90482
-497.11792 37.283878 -345.83786
-497.08282 24.854185 -345.94382
-497.00342 12.425077 -346.18341
-496.92401 2.5037773e-05 -346.42303
-669.12213 -16.728029 173.23073
-669.1723 -33.458576 173.38228
-669.22589 -50.191898 173.54391
-669.27618 -66.927597 173.69547
-669.32635 -83.665741 173.84703
-669.38 -100.407 174.00882
-669.43018 -117.15024 174.16045
-669.48383 -133.89671 174.3222
-669.53406 -150.64517 174.47397
-669.58435 -167.39601 174.62561
-669.63458 -184.14951 174.77731
-669.68823 -200.9064 174.93919
-669.73859 -217.66505 175.09106
-669.78882 -234.42609 175.24281
-669.83917 -251.1897 175.39467
-669.89288 -267.95712 175.55666
-471.2518 48.333557 -387.43103
-471.27222 36.251736 -387.36768
-471.21945 24.165165 -387.53116
-471.14456 12.080647 -387.76297
-471.07138 9.0852962e-05 -387.98947
-655.17664 -16.799345 181.843
-655.22595 -33.601284 181.99577
-655.27863 -50.406017 182.15878
-655.32806 -67.213127 182.31172
-655.37738 -84.022736 182.46463
-655.42676 -100.83486 182.61752
-655.47949 -117.6501 182.78061
-655.52899 -134.46745 182.93364
-655.57837 -151.28732 183.08664
-655.62775 -168.1097 183.23958
-655.68054 -184.9355 183.40289
-655.73004 -201.76303 183.55585
-655.77942 -218.59314 183.70894
-655.82892 -235.42577 183.86211
-655.88165 -252.26221 184.02542
-655.93115 -269.09991 184.17851
-446.78128 58.787052 -426.77994
-446.80014 47.031605 -426.72012
-446.81741 35.275101 -426.66516
-446.74988 23.51317 -426.87979
-446.68231 11.754843 -427.09427
-446.61481 3.3009594e-05 -427.30869
-423.61377 57.245125 -464.00491
-423.63116 45.798008 -463.94809
-423.62973 34.348385 -463.95282
-423.56592 22.895443 -464.16098
-423.50357 11.446059 -464.36441
-423.44125 6.346903e-05 -464.56772
-401.63049 55.782028 -499.327
-401.64658 44.627419 -499.27304
-401.62784 33.468987 -499.33594
-401.57022 22.309492 -499.52914
-401.5126 11.153154 -499.72226
-401.4537 4.9494931e-05 -499.91977
-380.74295 54.391884 -532.88849
-380.75781 43.515205 -532.83728
-380.72437 32.633537 -532.95258
-380.67111 21.752615 -533.13617
-380.61792 10.874846 -533.31982
-380.56467 -2.967734e-06 -533.50336
-360.87003 53.069153 -564.82196
-360.88489 42.457081 -564.76917
-360.84027 31.838879 -564.92773
-360.78986 21.222971 -565.10657
-360.74063 10.61004 -565.28131
-360.69144 7.2254352e-06 -565.45605
-341.9418 51.809387 -595.23535
-341.94601 41.448055 -595.21979
-341.90045 31.081854 -595.38641
-341.85492 20.718533 -595.55304
-341.80939 10.357865 -595.7196
-341.76282 1.5225087e-05 -595.88995
-323.89136 50.608021 -624.23816
-323.88348 40.485451 -624.26788
-323.84036 30.360069 -624.43048
-323.79825 20.237366 -624.58942
-323.7561 10.11738 -624.74835
-323.71399 1.5285512e-05 -624.90717
-306.659 49.461132 -651.92664
-306.63995 39.566448 -652.00073
-306.60095 29.671051 -652.15265
-306.56198 19.778231 -652.3045
-306.52209 9.8878498 -652.45972
-306.48312 3.0303057e-05 -652.61145
-290.19043 48.365055 -678.38782
-290.1619 38.688259 -678.50269
-290.12582 29.012571 -678.64777
-290.08975 19.339329 -678.79297
-290.05368 9.6684942 -678.93805
-290.01764 4.0810646e-05 -679.08313
-274.43359 47.316124 -703.71136
-274.40018 37.848335 -703.85034
-274.36603 28.382677 -703.99255
-274.33267 18.919516 -704.13147
-274.29932 9.4586315 -704.27039
-274.26593 1.7686065e-05 -704.40924
-259.3385 46.310459 -727.99084
-259.30762 37.043911 -728.12396
-259.27676 27.779667 -728.25708
-259.24588 18.517557 -728.39014
-259.21429 9.2576962 -728.52631
-259.18344 1.8609238e-05 -728.6593
-244.87242 45.34676 -751.25671
-244.8432 36.273117 -751.38727
-244.81467 27.201647 -751.51489
-244.78612 18.132313 -751.64252
-244.75758 9.065115 -751.77008
-244.72906 -7.1798586e-06 -751.89758
-231.01332 53.310791 -773.49414
-230.99551 44.422234 -773.57678
-230.96913 35.533764 -773.69934
-230.94276 26.647261 -773.82178
-230.91576 17.76276 -773.94702
-230.88939 8.8803387 -774.06946
-230.86304 2.6510441e-05 -774.19189
-217.69696 52.247265 -794.89001
-217.67316 43.534637 -795.00494
-217.64879 34.823811 -795.12256
-217.62444 26.114935 -795.24023
-217.60007 17.408005 -795.35785
-217.57573 8.7030668 -795.47546
-217.55081 4.4568686e-05 -795.5957
-204.89575 51.223961 -815.47784
-204.87326 42.681938 -815.591
-204.85027 34.141712 -815.70673
-204.82777 25.603464 -815.81976
-204.8053 17.067108 -815.9328
-204.78282 8.532609 -816.04578
-204.76036 4.3938071e-06 -816.15881
-194.91289 50.846867 -823.06451
-194.93265 42.376667 -822.96082
-194.95242 33.904762 -822.85706
-194.97218 25.431192 -822.75336
-194.99194 16.95586 -822.6496
-195.01172 8.478796 -822.54578
-195.03151 3.6235637e-05 -822.44196
-195.04832 -8.480341 -822.3537
-195.06366 -16.96204 -822.27325
-195.07899 -25.445057 -822.19275
-195.09435 -33.929447 -822.11224
-195.10966 -42.415096 -822.03174
-195.12502 -50.902176 -821.95117
-195.14037 -59.390545 -821.87061
-195.15572 -67.880226 -821.79004
-195.17107 -76.371277 -821.70947
-195.18643 -84.863655 -821.62891
-195.20178 -93.357399 -821.54828
-195.21713 -101.85246 -821.46771
-195.23199 -110.34848 -821.38971
-195.24736 -118.84623 -821.30908
-195.26273 -127.34527 -821.22845
-195.27811 -135.84563 -821.14777
-195.29347 -144.34735 -821.06708
-195.30885 -152.85039 -820.98645
-195.32423 -161.3548 -820.9057
-195.33958 -169.86053 -820.82501
-195.35497 -178.36757 -820.74432
-195.37038 -186.87602 -820.66351
-195.38576 -195.38573 -820.58282
-195.40114 -203.8968 -820.50208
-195.41653 -212.40926 -820.42133
-195.43192 -220.92305 -820.34045
-195.44731 -229.43814 -820.25964
-195.4622 -237.95403 -820.18146
-195.4776 -246.47177 -820.10059
-195.49303 -254.99086 -820.01978
-195.50842 -263.51135 -819.9389
-195.52383 -272.03317 -819.85809
-195.53873 -280.55557 -819.77985
-195.55415 -289.08005 -819.69891
-187.29799 51.081295 -818.34814
-187.31706 42.57206 -818.24341
-187.33617 34.061157 -818.13879
-187.35524 25.548466 -818.03406
-187.37433 17.03405 -817.92938
-187.39342 8.5178995 -817.82458
-187.41251 5.3520122e-05 -817.71979
-187.42589 -8.5193472 -817.64642
-187.44067 -17.04003 -817.56525
-187.45502 -25.562017 -817.48663
-187.46982 -34.085388 -817.4054
-187.48462 -42.610134 -817.3241
-187.49944 -51.136196 -817.2428
-187.51425 -59.663631 -817.1615
-187.52907 -68.192352 -817.08026
-187.54388 -76.722466 -816.99896
-187.55872 -85.253967 -816.9176
-187.57353 -93.786743 -816.83624
-187.58836 -102.3209 -816.75494
-187.6032 -110.85642 -816.67352
-187.61801 -119.39326 -816.59222
-187.63286 -127.93145 -816.5108
-187.64767 -136.47108 -816.42938
-187.66252 -145.0119 -816.34796
-187.67688 -153.5538 -816.26917
-187.69173 -162.0974 -816.18774
-187.70659 -170.64233 -816.10632
-187.72144 -179.18861 -816.02478
-187.73627 -187.73622 -815.94336
-187.75113 -196.28531 -815.86182
-187.76598 -204.83562 -815.78033
-187.78084 -213.38734 -815.69879
-187.79521 -221.93983 -815.61993
-187.81007 -230.49417 -815.53839
-187.82446 -239.04932 -815.45947
-187.83932 -247.60635 -815.37787
-187.85373 -256.16415 -815.29895
-187.86859 -264.72394 -815.21735
-187.88298 -273.2843 -815.13837
-187.89786 -281.84677 -815.05676
-187.91226 -290.40985 -814.97778
-179.61256 51.31789 -813.58801
-179.63094 42.769238 -813.48236
-179.64932 34.218918 -813.37671
-179.66769 25.66684 -813.27106
-179.6861 17.112982 -813.16534
-179.70448 8.5573902 -813.05963
-179.72287 4.4808574e-05 -812.95392
-179.73254 -8.5586653 -812.89838
-179.74681 -17.11875 -812.81635
-179.76106 -25.680149 -812.73438
-179.77533 -34.242912 -812.6524
-179.7896 -42.807026 -812.57037
-179.80386 -51.372513 -812.48834
-179.81813 -59.9394 -812.40631
-179.83195 -68.507416 -812.3269
-179.84622 -77.076958 -812.24481
-179.86052 -85.64782 -812.16278
-179.8748 -94.220131 -812.08069
-179.88908 -102.79377 -811.99854
-179.90335 -111.36877 -811.91644
-179.91765 -119.94509 -811.83429
-179.93195 -128.52281 -811.7522
-179.94623 -137.10184 -811.67004
-179.96053 -145.68233 -811.58789
-179.97482 -154.26411 -811.50568
-179.98914 -162.84729 -811.42346
-180.00298 -171.43138 -811.34393
-180.01727 -180.01727 -811.26172
-180.03111 -188.60403 -811.18207
-180.04543 -197.19258 -811.09985
-180.05928 -205.78204 -811.0202
-180.07312 -214.37274 -810.94067
-180.08743 -222.96539 -810.85834
-180.1013 -231.55881 -810.77869
-180.11562 -240.15416 -810.69641
-180.12947 -248.75023 -810.61676
-180.1438 -257.3483 -810.53436
-180.15765 -265.94702 -810.45471
-180.172 -274.54782 -810.37231
-180.18585 -283.14923 -810.2926
-180.2002 -291.75269 -810.21021
-171.85559 51.556713 -808.78363
-171.87326 42.968349 -808.67706
-171.89095 34.378201 -808.57043
-171.9086 25.786291 -808.46375
-171.92627 17.192623 -808.35699
-171.94397 8.597208 -808.25031
-171.96164 6.8661193e-06 -808.14355
-171.96783 -8.5983639 -808.10626
-171.98154 -17.198118 -808.0235
-171.99525 -25.799269 -807.94073
-172.00897 -34.401768 -807.85797
-172.02269 -43.005688 -807.77521
-172.03639 -51.610901 -807.69238
-172.05013 -60.217564 -807.60962
-172.06384 -68.825485 -807.52679
-172.07758 -77.434868 -807.44397
-172.09129 -86.045647 -807.36115
-172.10501 -94.657768 -807.27826
-172.11874 -103.27124 -807.19537
-172.13203 -111.88581 -807.11517
-172.14577 -120.502 -807.03223
-172.15907 -129.11928 -806.95209
-172.17279 -137.73825 -806.86914
-172.1861 -146.35818 -806.78888
-172.19984 -154.97981 -806.70593
-172.21315 -163.60243 -806.62561
-172.2269 -172.22687 -806.54272
-172.2402 -180.85222 -806.46234
-172.25395 -189.47934 -806.37939
-172.26727 -198.10736 -806.29901
-172.28102 -206.73723 -806.216
-172.29434 -215.3679 -806.13562
-172.30809 -224.0005 -806.05261
-172.32141 -232.63388 -805.97217
-172.33473 -241.26862 -805.89172
-172.3485 -249.90533 -805.80865
-172.36183 -258.54276 -805.72833
-172.3756 -267.18216 -805.64514
-172.38893 -275.8223 -805.5647
-172.40269 -284.46445 -805.48157
-172.41603 -293.10724 -805.40112
-164.02609 51.797733 -803.93433
-164.04305 43.169239 -803.82672
-164.06 34.538956 -803.71906
-164.07693 25.906919 -803.61139
-164.09387 17.273014 -803.50372
-164.11084 8.6374388 -803.396
-164.12779 5.2553652e-05 -803.28827
-164.13118 -8.6384716 -803.26672
-164.14433 -17.278309 -803.18323
-164.15749 -25.919626 -803.09967
-164.17021 -34.562157 -803.0188
-164.18335 -43.206135 -802.93524
-164.1965 -51.851532 -802.85175
-164.20967 -60.498253 -802.76819
-164.2224 -69.146271 -802.68726
-164.23555 -77.795761 -802.60364
-164.24829 -86.446434 -802.52277
-164.26146 -95.098724 -802.43909
-164.2742 -103.75211 -802.35815
-164.28735 -112.40715 -802.27448
-164.30009 -121.06322 -802.19354
-164.31328 -129.72096 -802.10986
-164.32602 -138.37979 -802.02887
-164.3392 -147.04031 -801.94513
-164.35196 -155.70181 -801.86414
-164.36514 -164.36513 -801.7804
-164.3779 -173.02936 -801.6994
-164.39108 -181.69536 -801.6156
-164.40384 -190.3623 -801.53448
-164.41704 -199.0311 -801.45068
-164.42979 -207.70076 -801.36963
-164.44299 -216.3723 -801.28583
-164.45575 -225.04471 -801.20465
-164.46895 -233.71899 -801.12085
-164.48174 -242.39413 -801.03967
-164.49492 -251.07121 -800.95587
-164.50771 -259.74899 -800.87463
-164.52049 -268.42807 -800.79346
-164.53368 -277.10931 -800.70959
-164.54648 -285.79123 -800.62836
-164.55968 -294.47519 -800.54443
-156.12305 52.041035 -799.03949
-156.13927 43.372017 -798.93079
-156.15547 34.701252 -798.8222
-156.17168 26.028585 -798.71344
-156.18788 17.354221 -798.6048
-156.2041 8.6780481 -798.49609
-156.22031 3.6580739e-05 -798.38733
-156.38995 -8.6883307 -797.24951
-156.41272 -17.379171 -797.09698
-156.43507 -26.072491 -796.94708
-156.45744 -34.768314 -796.79706
-156.4798 -43.466599 -796.64703
-156.5022 -52.167416 -796.49695
-156.52457 -60.870647 -796.34686
-156.54695 -69.576401 -796.19672
-156.56937 -78.284676 -796.04657
-156.59216 -86.995651 -795.89355
-156.61458 -95.70887 -795.74335
-156.63698 -104.42464 -795.59296
-156.65941 -113.14286 -795.44263
-156.68184 -121.8636 -795.29224
-156.70427 -130.5869 -795.14172
-156.72672 -139.31264 -794.99127
-156.74957 -148.04123 -794.83801
-156.77202 -156.77199 -794.68744
-156.79448 -165.50526 -794.5368
-156.81694 -174.24103 -794.38617
-156.83942 -182.97931 -794.23547
-156.86191 -191.72009 -794.08466
-156.88438 -200.46336 -793.9339
-156.90729 -209.20969 -793.78027
-156.92979 -217.95808 -793.62939
-156.95229 -226.70886 -793.47858
-156.97481 -235.4622 -793.32758
-156.99731 -244.21805 -793.17651
-157.01985 -252.97643 -793.02551
-157.04239 -261.7373 -792.87433
-157.06491 -270.50067 -792.72321
-157.08788 -279.2673 -792.56927
-157.11041 -288.03577 -792.41803
-148.14542 52.286667 -794.09845
-148.16086 43.576752 -793.98877
-148.17632 34.865051 -793.87903
-148.19177 26.151543 -793.76935
-148.20721 17.436161 -793.65955
-148.22267 8.7190065 -793.54987
-148.23813 7.6321103e-06 -793.44006
-150.99141 -8.8818359 -773.89014
-151.01347 -17.766296 -773.7334
-151.03554 -26.653301 -773.57678
-151.0576 -35.542942 -773.42004
-151.0797 -44.435169 -773.26324
-151.10178 -53.329998 -773.10645
-151.12427 -62.227669 -772.94672
-151.14636 -71.127655 -772.78986
-151.16846 -80.030342 -772.63287
-151.19058 -88.935631 -772.47583
-151.21271 -97.843475 -772.31879
-151.23482 -106.75397 -772.16174
-151.25696 -115.66706 -772.00458
-151.2795 -124.5831 -771.84448
-151.30164 -133.50145 -771.68719
-151.32379 -142.42239 -771.52997
-151.34595 -151.34596 -771.37256
-151.3681 -160.27211 -771.21521
-151.39027 -169.20087 -771.05786
-151.41246 -178.13226 -770.90039
-151.43465 -187.06635 -770.74286
-151.45723 -196.00343 -770.58246
-151.47943 -204.94278 -770.42474
-151.50163 -213.88464 -770.26715
-151.52385 -222.82919 -770.10944
-151.54607 -231.77629 -769.95178
-151.56828 -240.72607 -769.79388
-151.59132 -249.67981 -769.63031
-151.61397 -258.63553 -769.4696
-151.63702 -267.59473 -769.30591
-151.65965 -276.55585 -769.14502
-151.68272 -285.52042 -768.98126
-151.70538 -294.48694 -768.82037
-140.09212 52.534565 -789.11047
-140.1068 43.78339 -788.99976
-140.12148 35.030376 -788.88904
-140.13615 26.275528 -788.77832
-140.15085 17.518867 -788.66754
-140.16553 8.7603683 -788.55676
-140.18022 2.6649055e-05 -788.44586
-145.3465 -9.0841694 -749.4693
-145.36821 -18.171015 -749.30548
-145.38994 -27.260603 -749.1416
-145.41206 -36.352989 -748.97461
-145.43379 -45.448071 -748.81061
-145.45555 -54.545784 -748.64655
-145.47729 -63.646301 -748.48248
-145.49905 -72.749504 -748.3183
-145.52083 -81.855461 -748.15405
-145.54259 -90.964127 -747.98987
-145.56477 -100.07575 -747.82257
-145.58655 -109.18991 -747.6582
-145.60834 -118.30676 -747.49384
-145.63014 -127.42638 -747.32935
-145.65195 -136.54869 -747.16486
-145.67375 -145.67374 -747.00031
-145.69557 -154.80154 -746.83575
-145.71739 -163.93204 -746.67114
-145.73962 -173.0658 -746.50342
-145.76146 -182.20178 -746.33868
-145.78329 -191.34056 -746.17383
-145.80554 -200.48264 -746.00604
-145.8282 -209.62802 -745.83514
-145.85046 -218.7757 -745.66718
-145.87312 -227.92674 -745.49622
-145.8954 -237.08 -745.32819
-145.91808 -246.23672 -745.15704
-145.94037 -255.3956 -744.98883
-145.96306 -264.55801 -744.81769
-145.98576 -273.7233 -744.64648
-146.00807 -282.89066 -744.47815
-146.03079 -292.06155 -744.30676
-131.9621 52.784836 -784.07501
-131.97598 43.991985 -783.9632
-131.98987 35.197365 -783.8515
-132.00377 26.400761 -783.73969
-132.01765 17.6024 -783.62781
-132.03156 8.8020926 -783.51599
-132.04547 2.6074122e-07 -783.40405
-139.43881 -9.2958927 -723.90704
-139.46013 -18.594656 -723.73547
-139.48146 -27.896248 -723.56384
-139.50281 -37.200722 -723.39209
-139.52414 -46.508026 -723.22034
-139.54549 -55.818188 -723.04846
-139.56685 -65.131165 -722.87671
-139.58821 -74.447029 -722.70477
-139.60997 -83.765953 -722.52972
-139.63135 -93.087532 -722.35773
-139.65271 -102.41199 -722.18561
-139.6741 -111.73924 -722.01355
-139.6955 -121.06941 -721.84137
-139.7169 -130.40244 -721.66919
-139.73831 -139.73827 -721.49689
-139.76012 -149.07744 -721.32141
-139.7823 -158.41992 -721.14276
-139.80412 -167.76495 -720.96722
-139.82634 -177.11331 -720.78845
-139.84856 -186.46475 -720.60962
-139.87039 -195.81854 -720.4339
-139.89264 -205.17587 -720.25494
-139.91449 -214.53551 -720.07904
-139.93674 -223.89874 -719.90002
-139.95859 -233.26431 -719.72412
-139.98085 -242.6335 -719.54498
-140.00313 -252.00562 -719.36578
-140.02502 -261.38007 -719.18964
-140.0473 -270.75812 -719.01031
-140.0692 -280.13837 -718.83405
-140.09149 -289.52243 -718.65466
-123.75423 53.037556 -778.99133
-123.76731 44.202625 -778.87848
-123.7804 35.365833 -778.76562
-123.7935 26.527205 -778.65277
-123.80659 17.686649 -778.53986
-123.81969 8.844286 -778.42694
-123.83278 3.1117088e-06 -778.31396
-133.24875 -9.5177603 -697.12775
-133.26961 -19.038525 -696.94781
-133.29048 -28.562195 -696.76794
-133.31136 -38.088943 -696.58795
-133.33223 -47.618664 -696.40784
-133.3535 -57.15147 -696.22449
-133.3744 -66.687164 -696.04437
-133.39529 -76.225891 -695.86407
-133.41621 -85.767548 -695.68384
-133.4375 -95.312485 -695.50024
-133.4588 -104.86048 -695.31659
-133.4805 -114.41183 -695.12964
-133.50182 -123.96595 -694.9458
-133.52351 -133.5235 -694.75867
-133.54521 -143.08417 -694.57147
-133.56656 -152.64746 -694.38757
-133.58827 -162.21429 -694.20026
-133.60962 -171.78378 -694.01617
-133.63136 -181.35681 -693.82874
-133.65273 -190.9324 -693.64453
-133.67448 -200.5117 -693.45697
-133.69586 -210.09349 -693.27264
-133.71762 -219.67897 -693.08496
-133.7394 -229.2675 -692.89722
-133.7608 -238.85857 -692.71277
-133.78259 -248.45335 -692.5249
-133.80399 -258.05057 -692.34027
-133.82581 -267.65155 -692.15228
-133.84721 -277.25494 -691.96759
-133.86903 -286.86221 -691.77948
-115.4677 53.292793 -773.8559
-115.47966 44.415276 -773.74493
-115.49193 35.536011 -773.63092
-115.5042 26.654821 -773.51691
-115.51648 17.771776 -773.40295
-115.52876 8.8868361 -773.28894
-115.54104 2.5838812e-05 -773.17487
-126.75601 -9.7504826 -669.039
-126.77634 -19.503986 -668.85028
-126.79705 -29.260824 -668.65796
-126.81739 -39.020733 -668.46906
-126.83848 -48.784004 -668.27319
-126.85921 -58.550396 -668.08075
-126.88031 -68.320137 -667.88483
-126.90106 -78.092964 -667.6922
-126.92217 -87.869194 -667.49609
-126.94292 -97.648376 -667.30341
-126.96406 -107.43111 -667.10712
-126.9852 -117.21712 -666.91089
-127.00597 -127.00598 -666.71796
-127.02712 -136.7984 -666.52161
-127.04792 -146.5937 -666.32855
-127.06908 -156.39275 -666.13196
-127.08988 -166.19444 -665.93884
-127.11106 -175.99994 -665.74213
-127.13226 -185.80865 -665.54541
-127.15308 -195.62007 -665.35205
-127.17428 -205.43533 -665.15521
-127.19512 -215.25328 -664.96173
-127.21634 -225.07501 -664.76471
-127.23718 -234.89938 -664.57104
-127.25842 -244.72768 -664.37396
-127.27966 -254.55931 -664.17676
-127.30053 -264.39337 -663.98297
-127.32178 -274.23151 -663.78564
-127.34266 -284.07205 -663.59167
-127.36392 -293.91675 -663.39423
-107.10074 53.550362 -768.67371
-107.11189 44.629982 -768.56152
-107.12332 35.707787 -768.44647
-107.13476 26.78373 -768.33148
-107.14621 17.857712 -768.21631
-107.15765 8.9298363 -768.10126
-107.1691 7.1592967e-06 -767.98602
-98.662819 44.846798 -763.32794
-98.673401 35.881306 -763.21179
-98.683998 26.913809 -763.09558
-98.694588 17.944475 -762.97931
-98.705177 8.9731932 -762.8631
-98.715775 2.1717704e-05 -762.74683
-90.131271 45.065681 -758.04315
-90.140999 36.056435 -757.9259
-90.150711 27.045233 -757.80859
-90.160439 18.032078 -757.69116
-90.170166 9.0170393 -757.57379
-90.179886 4.7894337e-05 -757.45642
-81.516037 45.286663 -752.70654
-81.524864 36.233295 -752.5882
-81.533699 27.177919 -752.46967
-81.542542 18.120569 -752.35114
-81.551376 9.0612698 -752.2326
-81.560219 2.4406441e-05 -752.11407
-72.815865 45.509922 -747.31738
-72.823792 36.41188 -747.19775
-72.831718 27.311951 -747.07819
-72.839653 18.2099 -746.95844
-72.847588 9.1059599 -746.83868
-72.855324 -1.4528268e-05 -746.72198
-64.029495 45.735374 -741.87482
-64.036499 36.592285 -741.75403
-64.043503 27.447268 -741.63312
-64.050514 18.30014 -741.51227
-64.057526 9.1510916 -741.39136
-64.064186 1.4073496e-05 -741.27655
-55.155643 45.96299 -736.37805
-55.161709 36.774456 -736.25598
-55.167774 27.583897 -736.13403
-55.173843 18.3913 -736.0119
-55.179913 9.1966524 -735.88983
-55.18568 -5.4617285e-06 -735.77374
-46.192997 46.192993 -730.82629
-46.198101 36.958496 -730.703
-46.203213 27.72197 -730.57971
-46.208317 18.483332 -730.45642
-46.213425 9.2426968 -730.33319
-46.218155 3.2179305e-06 -730.21899
-37.140221 46.425274 -725.21869
-37.144344 37.144356 -725.09424
-37.148468 27.86137 -724.96967
-37.152596 18.576324 -724.84509
-37.156723 9.2892361 -724.72058
-37.160545 1.065717e-05 -724.60522
-27.995937 46.659904 -719.55444
-27.999063 37.332165 -719.42865
-28.00219 28.002207 -719.30292
-28.005316 18.67021 -719.17706
-28.008444 9.3361311 -719.05115
-28.011257 9.2001737e-06 -718.93793
-18.75876 46.896931 -713.83258
-18.760866 37.521725 -713.70557
-18.762972 28.144419 -713.57843
-18.765076 18.765091 -713.45135
-18.767183 9.3835945 -713.32422
-18.769079 9.0546964e-06 -713.20978
-9.4272661 47.136311 -708.05231
-9.4283295 37.713318 -707.92395
-9.4293919 28.288219 -707.79565
-9.4304552 18.860924 -707.66724
-9.4315195 9.4315386 -707.53882
-9.4324512 8.6931977e-06 -707.42639
-1.0648012e-22 47.378265 -702.21277
3.4817135e-22 37.906891 -702.08307
8.0977468e-23 28.433353 -701.95343
4.0473558e-22 18.957756 -701.82367
4.8896249e-23 9.4799623 -701.69397
2.6977104e-22 -2.3550097e-05 -701.58362
9.524518 47.62262 -696.31293
9.5256033 38.102428 -696.18195
9.5266876 28.580067 -696.0509
9.5277748 19.055588 -695.9198
9.5288601 9.5288706 -695.78882
9.5297832 1.8033032e-05 -695.67725
19.1478 47.869518 -690.35193
19.149994 38.300011 -690.2196
19.152187 28.728296 -690.0871
19.154381 19.154402 -689.95477
19.156574 9.5782757 -689.82233
19.158386 2.0500853e-05 -689.71301
28.871391 48.118988 -684.32886
28.874718 38.499603 -684.19507
28.87804 28.878059 -684.06134
28.881365 19.254232 -683.92749
28.884693 9.6282701 -683.79364
28.887438 2.9042603e-05 -683.68323
38.696869 48.371143 -678.24255
38.701347 38.701347 -678.10742
38.70583 29.029409 -677.97223
38.710308 19.355196 -677.83704
38.71479 9.6787052 -677.70178
38.718376 -1.1235566e-05 -677.59357
48.625843 48.625908 -672.09222
48.631504 38.905224 -671.95563
48.637157 29.182293 -671.81903
48.642818 19.457109 -671.68237
48.648479 9.7297354 -671.54572
48.653011 -3.2248117e-06 -671.4364
58.659958 48.88335 -665.87677
58.666817 39.111206 -665.73871
58.673679 29.336836 -665.60065
58.680546 19.560192 -665.46259
58.687412 9.7812414 -665.32446
58.69273 -7.9472575e-06 -665.21735
124.82603 -20.804214 665.28186
124.8369 -41.612267 665.50073
124.847 -62.42342 665.7038
124.85788 -83.23851 665.92261
124.86798 -104.05666 666.12585
124.87885 -124.87885 666.34467
124.88897 -145.70375 666.5481
124.89985 -166.53313 666.76703
124.90996 -187.3649 666.97034
124.92085 -208.20142 667.18939
124.93174 -229.04143 667.40839
124.94185 -249.88365 667.61188
124.95274 -270.73087 667.83105
68.800888 49.143539 -659.59509
68.808975 39.319412 -659.45563
68.81707 29.493055 -659.31604
68.825165 19.664345 -659.17651
68.83326 9.8333263 -659.03693
68.839531 7.529783e-06 -658.92865
146.3954 -20.913511 678.47449
146.40822 -41.830841 678.69556
146.42012 -62.751408 678.90088
146.43295 -83.676033 679.12201
146.44487 -104.60338 679.32739
146.45769 -125.53509 679.54852
146.4696 -146.46956 679.75397
146.48152 -167.40739 679.95935
146.49435 -188.34988 680.18079
146.50627 -209.2946 680.38629
146.5191 -230.24423 680.6076
146.53104 -251.19604 680.81335
146.54387 -272.15286 681.03473
79.050354 49.406494 -653.24622
79.059692 39.529858 -653.10522
79.069046 29.650942 -652.96423
79.078392 19.769608 -652.82312
79.087738 9.8860273 -652.68207
79.094757 2.6528814e-05 -652.57617
174.40637 -21.800789 785.565
174.45642 -43.61409 786.32007
174.50761 -65.440353 787.09283
174.56 -87.27993 787.88306
174.61241 -109.13271 788.67389
174.666 -130.99942 789.48236
174.71846 -152.87866 790.27423
174.77097 -174.7709 791.06647
174.82465 -196.67778 791.87634
174.87721 -218.59645 792.66949
174.92981 -240.52843 793.46313
174.9836 -262.47534 794.2746
89.410103 49.672279 -646.82904
89.420731 39.742527 -646.68652
89.431358 29.810495 -646.54395
89.441994 19.87602 -646.40137
89.452354 9.939126 -646.26233
89.460327 -3.1642139e-05 -646.15533
99.881927 49.94101 -640.34241
99.89386 39.957539 -640.19836
99.9058 29.971766 -640.05426
99.917732 19.983599 -639.91016
99.92939 9.9929543 -639.76953
99.938339 5.7947e-06 -639.66138
110.46766 50.212559 -633.78522
110.48093 40.174881 -633.63965
110.4942 30.134832 -633.49396
110.50748 20.092262 -633.34827
110.5201 10.047326 -633.20978
110.53006 4.6193745e-06 -633.10046
121.16952 50.487297 -627.15271
121.18379 40.394627 -627.00916
121.19843 30.299677 -626.86188
121.21307 20.202257 -626.71454
121.22699 10.102264 -626.57458
121.23798 2.6617778e-05 -626.46411
131.98874 50.764877 -620.45087
132.00436 40.616737 -620.30579
132.0204 30.466272 -620.1568
132.03644 20.313292 -620.00787
132.05128 10.157784 -619.87012
132.06331 3.5280886e-05 -619.7583
142.92802 51.045769 -613.67114
142.94461 40.841335 -613.5282
142.96207 30.634768 -613.37769
142.97952 20.425644 -613.22705
142.99525 10.213992 -613.09161
143.00879 2.0643458e-05 -612.97473
153.98854 51.329529 -606.81989
154.0065 41.068409 -606.67529
154.02542 30.805065 -606.52307
154.04434 20.53928 -606.37085
154.06137 10.270806 -606.2337
154.07558 3.6332433e-05 -606.11951
165.17323 51.616665 -599.88812
165.19211 41.29805 -599.74573
165.21251 30.977358 -599.59186
165.23291 20.654112 -599.43787
165.25078 10.328186 -599.3031
165.2661 3.2849828e-05 -599.18762
176.48322 51.906872 -592.88226
176.50348 41.530235 -592.73828
176.52541 31.151558 -592.58264
176.54733 20.770273 -592.42694
176.56653 10.386312 -592.29065
176.58299 2.0192241e-05 -592.17383
187.92166 52.200489 -585.79321
187.94278 41.765083 -585.65161
187.96626 31.327791 -585.4942
187.98975 20.887802 -585.33667
188.00972 10.445041 -585.20282
188.02733 6.2796462e-05 -585.08466
199.48965 52.49728 -578.62756
199.51221 42.00259 -578.48431
199.53726 31.505875 -578.32507
199.56233 21.006559 -578.16583
199.58365 10.504442 -578.0304
199.60245 3.8941595e-05 -577.91089
211.1906 52.797665 -571.37585
211.21394 42.242809 -571.23499
211.24063 31.686092 -571.07397
211.2673 21.12678 -570.91284
211.28934 10.564513 -570.77991
211.30937 9.2769315e-06 -570.65912
223.02551 53.101326 -564.04486
223.05031 42.485802 -563.90228
223.07864 31.868416 -563.73938
223.10699 21.248289 -563.57648
223.13039 10.625286 -563.44196
223.15166 -2.6588468e-05 -563.3197
234.99734 53.408535 -556.62897
235.02362 42.73159 -556.4848
235.05365 32.052807 -556.32001
235.08369 21.371267 -556.15515
235.10774 10.686707 -556.02325
235.13029 4.6375499e-07 -555.89954
247.10928 53.719433 -549.12262
247.13629 42.98024 -548.98096
247.16805 32.23933 -548.81421
247.19983 21.495623 -548.64746
247.22447 10.748925 -548.51819
247.2491 2.9653989e-05 -548.38885
259.36224 54.033844 -541.53259
259.39075 43.231789 -541.38922
259.42429 32.428066 -541.22052
259.45782 21.621511 -541.05188
259.48383 10.811858 -540.92102
259.509 2.0133104e-05 -540.79443
271.76035 54.352074 -533.84888
271.78949 43.486317 -533.70819
271.82483 32.61898 -533.53748
271.8602 21.748833 -533.36676
271.88672 10.87549 -533.23871
271.91324 3.2923224e-05 -533.1106
284.33511 43.743862 -525.9361
284.37231 32.81221 -525.76337
284.40952 21.87768 -525.59064
284.43744 10.939948 -525.46106
284.46536 4.2698004e-05 -525.33142
297.03021 44.004494 -518.07141
297.06931 33.007721 -517.89667
297.10742 22.008005 -517.7262
297.13675 11.005086 -517.59509
297.16611 -5.0949457e-06 -517.46393
309.87747 44.268261 -510.11246
309.91849 33.205593 -509.93561
309.95749 22.139837 -509.76752
309.98932 11.071065 -509.6304
310.02011 -2.6672406e-06 -509.49762
322.8797 44.535179 -502.05756
322.92267 33.405838 -501.87851
322.96356 22.27339 -501.70847
322.99582 11.137806 -501.57416
323.02808 -6.0179682e-06 -501.43976
336.03961 44.805325 -493.90491
336.08466 33.608494 -493.72372
336.12631 22.408472 -493.55606
336.16013 11.205359 -493.42007
336.19504 4.2168347e-05 -493.27957
349.3602 45.078758 -485.65268
349.40732 33.813637 -485.4693
349.45087 22.545273 -485.29962
349.48624 11.273796 -485.16199
349.52158 -1.1792099e-06 -485.02432
362.84439 45.355583 -477.29916
362.89362 34.021286 -477.11349
362.93793 22.683609 -476.94641
362.97485 11.342969 -476.80707
363.013 3.1945681e-05 -476.66309
376.49518 45.635815 -468.84247
376.54657 34.231483 -468.65451
376.59283 22.823812 -468.48529
376.63138 11.413092 -468.34427
376.66995 2.0644424e-05 -468.20316
390.3157 45.919537 -460.28061
390.36932 34.444378 -460.0903
390.41623 22.965643 -459.92371
390.45642 11.484027 -459.78091
390.4967 7.3835836e-06 -459.63806
404.30917 46.206753 -451.61154
404.36502 34.65992 -451.41885
404.41394 23.109358 -451.25018
404.45584 11.555898 -451.10559
404.4978 -2.8632767e-06 -450.96097
418.48026 46.497826 -442.82852
418.53699 34.878132 -442.63828
418.58649 23.254797 -442.47238
418.63016 11.628657 -442.32599
418.67383 2.9445644e-05 -442.1795
432.82947 46.792431 -433.93912
432.88852 35.099083 -433.74643
432.93851 23.402115 -433.58337
432.98547 11.702321 -433.43015
433.03091 1.850543e-05 -433.28177
447.36322 47.090931 -424.93134
447.4231 35.322937 -424.74118
447.4751 23.551344 -424.57602
447.52234 11.776916 -424.42578
447.56964 1.5391086e-05 -424.2756
462.082 47.393051 -415.81296
462.1442 35.549599 -415.6203
462.19659 23.702356 -415.45807
462.24576 11.852451 -415.306
462.29657 2.3539573e-05 -415.14874
476.99084 47.699089 -406.57678
477.05548 35.779171 -406.38165
477.10992 23.85552 -406.21735
477.16098 11.929088 -406.06335
477.21204 -2.2793225e-05 -405.90915
492.09525 48.009319 -397.21536
492.16061 36.011772 -397.02283
492.21539 24.010571 -396.86163
492.26843 12.006522 -396.70554
492.32144 3.6230991e-05 -396.54941
507.3956 48.323383 -387.7366
507.46344 36.247387 -387.54166
507.52026 24.167603 -387.37823
507.57532 12.085148 -387.22018
507.63034 3.1994758e-05 -387.06195
522.89935 48.641811 -378.12766
522.96783 36.486095 -377.93549
523.0249 24.326807 -377.77533
523.08197 12.164692 -377.61511
523.13904 -8.045944e-06 -377.45477
538.60681 48.96426 -368.39673
538.67584 36.727886 -368.20734
538.73505 24.488005 -368.04514
538.79614 12.245424 -367.87729
538.85541 3.0065958e-05 -367.7149
554.526 49.291225 -358.53052
554.59546 36.97303 -358.34399
554.6568 24.651407 -358.1795
554.71814 12.327083 -358.01498
554.77948 6.0031467e-05 -357.85046
570.65704 49.622383 -348.53708
570.72693 37.221352 -348.35373
570.79047 24.816957 -348.18692
570.854 12.409866 -348.02014
570.91968 -2.4298055e-05 -347.84784
632.43079 -13.748439 -186.43375
632.46198 -27.498363 -186.35185
632.49579 -41.249733 -186.26312
632.52698 -55.002365 -186.18124
632.55823 -68.75634 -186.09933
632.59198 -82.511978 -186.01053
632.62329 -96.268723 -185.92867
632.65448 -110.02682 -185.84679
632.68829 -123.78683 -185.75798
632.71948 -137.54773 -185.67596
632.75073 -151.30995 -185.5941
632.78461 -165.0742 -185.50525
632.81586 -178.83926 -185.42328
632.84973 -192.60637 -185.33449
632.88092 -206.37421 -185.25255
632.91217 -220.14333 -185.17056
632.94598 -233.91483 -185.08162
632.97729 -247.68675 -184.99969
633.00854 -261.46005 -184.9176
633.04236 -275.23581 -184.82875
633.07367 -289.0119 -184.74669
587.00848 49.958157 -338.40277
587.07867 37.473106 -338.2226
587.14441 24.984945 -338.05362
587.21027 12.493871 -337.88461
587.27606 -1.9705545e-05 -337.71548
645.03101 -13.72399 -189.38292
645.06274 -27.44948 -189.30128
645.09454 -41.176189 -189.21973
645.12366 -54.904163 -189.14485
645.1554 -68.63353 -189.06325
645.18463 -82.364014 -188.9884
645.21637 -96.096069 -188.90678
645.24811 -109.82949 -188.82516
645.28253 -123.56473 -188.73674
645.31439 -137.30086 -188.65509
645.34613 -151.03847 -188.57336
645.38062 -164.77803 -188.48491
645.41241 -178.51826 -188.40329
645.44427 -192.25993 -188.32153
645.47864 -206.00383 -188.23306
645.5105 -219.74826 -188.15134
645.54498 -233.4949 -188.06288
645.57678 -247.24213 -187.98119
645.60858 -260.99066 -187.89946
645.64307 -274.7417 -187.81087
645.67493 -288.49298 -187.72914
603.58051 50.29842 -328.13614
603.65088 37.72821 -327.95923
603.71893 25.15497 -327.7879
603.78717 12.57895 -327.61661
603.85754 2.102667e-05 -327.43948
657.58655 -13.699657 -192.32155
657.6189 -27.400784 -192.2402
657.65112 -41.103195 -192.15897
657.68347 -54.806957 -192.07756
657.7132 -68.511787 -192.00304
657.74548 -82.218193 -191.92174
657.77515 -95.925537 -191.84711
657.80743 -109.63451 -191.76588
657.83984 -123.34492 -191.68454
657.86951 -137.05612 -191.60991
657.90179 -150.76917 -191.5285
657.93152 -164.48289 -191.45393
657.96393 -178.1985 -191.37259
657.99628 -191.91554 -191.29112
658.03131 -205.6348 -191.20294
658.06366 -219.35455 -191.12148
658.09607 -233.07564 -191.04015
658.13116 -246.79916 -190.9519
658.16357 -260.52301 -190.87044
658.19861 -274.24936 -190.78224
658.23102 -287.97601 -190.70081
620.38208 50.64344 -317.72299
620.4502 37.986794 -317.55518
620.52307 25.327499 -317.37579
620.59357 12.665159 -317.20203
620.66412 3.3012611e-06 -317.02835
670.09753 -13.675426 -195.24979
670.13043 -27.352247 -195.16875
670.16333 -41.030422 -195.08771
670.19348 -54.709595 -195.01353
670.22638 -68.390419 -194.93243
670.25928 -82.07251 -194.85146
670.29224 -95.756035 -194.77036
670.32233 -109.44036 -194.69598
670.35522 -123.12646 -194.61496
670.38818 -136.8139 -194.53392
670.41833 -150.50204 -194.45953
670.45123 -164.19214 -194.37845
670.48145 -177.88284 -194.30414
670.51434 -191.57544 -194.22308
670.54456 -205.26872 -194.14868
670.57745 -218.96404 -194.06761
670.61035 -232.66078 -193.98642
670.64062 -246.35773 -193.91209
670.67352 -260.05704 -193.83096
670.70648 -273.75769 -193.74983
670.74219 -287.46091 -193.66183
