# .PCD v0.7 - Point Cloud Data file format
VERSION 0.7
FIELDS x y z
SIZE 4 4 4
TYPE F F F
COUNT 1 1 1
WIDTH 1531
HEIGHT 1
VIEWPOINT 0 0 0 1 0 0 0
POINTS 1531
DATA ascii
1.5842195 -41.189709 -10.268741
1.6019791 -43.253433 -8.1249695
1.6201485 -45.364166 -5.9317207
1.6387275 -47.523102 -3.6890347
1.6577451 -49.732357 -1.3934128
1.6772016 -51.993252 0.95519376
1.6971203 -54.307842 3.3595731
1.7175257 -56.678349 5.8227353
1.7384195 -59.106262 8.3448429
1.7598364 -61.594276 10.930095
1.7817791 -64.144051 13.578797
1.8042845 -66.75853 16.295458
2.8091426 63.205711 -31.954197
2.8089488 61.796879 -31.965897
2.8090241 60.394028 -31.961346
2.813988 59.093746 -31.661755
2.8090241 57.585003 -31.961346
2.8089705 56.179405 -31.964596
2.8097029 54.789211 -31.920378
2.8239031 53.65416 -31.063313
2.8351936 52.451088 -30.381874
2.8352048 51.033691 -30.381207
2.8352158 49.61628 -30.380547
2.8352158 48.198666 -30.380548
2.8352268 46.781242 -30.379885
2.8352377 45.363804 -30.379225
2.8352487 43.946354 -30.378561
2.8352487 42.528728 -30.378561
2.81321 40.791546 -31.708717
2.8221624 39.510277 -31.168379
2.8352816 38.276302 -30.376574
2.8352816 36.858662 -30.37657
2.8352926 35.441158 -30.375914
2.8353038 34.02364 -30.375246
2.8353145 32.606117 -30.374584
2.8353145 31.188457 -30.374584
2.8353255 29.770916 -30.373922
2.8353364 28.353363 -30.37326
2.8353474 26.935802 -30.372599
2.8089273 25.280346 -31.967194
2.8089273 23.875879 -31.967196
2.8089273 22.471416 -31.967201
2.8142583 21.106939 -31.645439
2.8087549 19.661285 -31.977598
2.8258314 4.2387471 -30.946939
2.8087766 2.8087757 -31.976301
2.8086689 1.4043339 -31.982794
2.8085396 -4.066671e-06 -31.990591
2.8247199 -1.4123625 -31.014015
2.8355448 -2.8355508 -30.36067
2.8354793 -4.2532172 -30.364645
2.8354135 -5.6708274 -30.368624
2.8353474 -7.0883684 -30.372595
2.8352816 -8.505847 -30.376566
2.8352268 -9.9232893 -30.379887
2.8351607 -11.340647 -30.383858
2.8086367 -12.638863 -31.984753
2.8087656 -14.043833 -31.976948
2.7357554 -15.046661 -36.383507
2.7355919 -16.413551 -36.393383
2.7399817 -17.809879 -36.128437
2.760988 -19.326921 -34.8606
2.7879202 -20.909407 -33.235077
2.8153939 -22.523151 -31.576895
2.8434038 -24.168938 -29.886354
2.8719878 -25.847893 -28.161161
2.9011407 -27.560835 -26.401634
2.9308915 -29.30891 -24.606007
2.9612708 -31.093344 -22.772453
2.9922743 -32.91502 -20.901226
3.0239463 -34.775387 -18.989653
3.0562832 -36.675404 -17.037937
3.0893321 -38.616653 -15.043262
3.1230905 -40.600182 -13.005766
3.1575947 -42.627533 -10.923252
3.1928837 -44.700378 -8.7933722
3.2289562 -46.819866 -6.6162086
3.2658677 -48.988014 -4.3884091
3.303618 -51.206081 -2.1099777
3.3422663 -53.476261 0.22265948
3.381814 -55.799934 2.6095738
3.4223089 -58.179253 5.0536628
3.4638016 -60.616528 7.5579643
3.5062959 -63.113331 10.122733
3.5498633 -65.672478 12.752257
4.259963 65.319443 -30.093279
4.2395649 63.593472 -30.914038
4.2392383 62.175484 -30.927204
4.2787747 61.329105 -29.336357
4.2392383 59.349339 -30.927198
4.2393522 57.937817 -30.922592
4.2409067 56.545425 -30.860041
4.2394829 55.113274 -30.91733
4.2394013 53.699078 -30.92062
4.2393031 52.28474 -30.924572
4.2544374 51.053253 -30.315613
4.2789416 49.920982 -29.329651
4.2789583 48.494862 -29.328974
4.278975 47.068722 -29.328308
4.278975 45.642399 -29.328306
4.2789917 44.216244 -29.327633
4.2790084 42.790077 -29.326965
4.2790251 41.363903 -29.32629
4.2790251 39.937561 -29.326298
4.2790418 38.511372 -29.325624
4.279058 37.085171 -29.324951
4.2790747 35.658958 -29.324286
4.2790747 34.232597 -29.324282
4.2790914 32.806366 -29.323616
4.279108 31.380127 -29.322939
4.2791247 29.953873 -29.322268
4.2791247 28.527502 -29.322275
4.2791414 27.101227 -29.3216
4.2791581 25.674946 -29.320927
4.2791748 24.248657 -29.320261
4.2393031 22.609617 -30.92457
4.2392054 21.196026 -30.928522
4.264874 1.4216237 -29.895683
4.2390909 -5.5598468e-07 -30.933126
4.2389927 -1.4130028 -30.937063
4.2387962 -2.8258674 -30.944958
4.2626238 -4.2626271 -29.986214
4.2794085 -5.7058825 -29.310871
4.2793083 -7.1321778 -29.314899
4.2792082 -8.5584173 -29.318913
4.279108 -9.9845924 -29.322939
4.2790084 -11.410691 -29.326958
4.2789249 -12.836779 -29.33032
4.2788248 -14.262756 -29.334337
4.2388945 -15.542615 -30.941023
4.2390909 -16.95636 -30.933121
4.1288447 -17.891668 -35.369057
4.1285968 -19.266787 -35.379051
4.1359477 -20.679735 -35.083275
4.1692967 -22.23625 -33.741402
4.2102427 -23.858049 -32.093864
4.252017 -25.512104 -30.412994
4.2946119 -27.199217 -28.6991
4.3380861 -28.920578 -26.949837
4.382432 -30.677031 -25.165499
4.4276943 -32.469757 -23.344309
4.4739189 -34.300045 -21.484365
4.5211005 -36.168808 -19.585922
4.5693069 -38.077557 -17.646254
4.6185327 -40.027287 -15.66555
4.6688504 -42.019661 -13.640909
4.7202568 -44.055729 -11.572497
4.7728071 -46.137138 -9.4580107
4.8265624 -48.265629 -7.2950692
4.8815207 -50.442379 -5.083724
4.9377675 -52.669521 -2.8205388
4.9953022 -54.948322 -0.50550973
5.0542173 -57.281132 1.86505
5.1145144 -59.669338 4.2912207
5.1762681 -62.115219 6.7759862
5.2395558 -64.621193 9.3224926
5.3043847 -67.188881 11.93101
5.6874924 65.406158 -29.8657
5.6875587 63.985027 -29.863703
5.7402844 63.143131 -28.272549
5.7403069 61.708298 -28.271875
5.7403069 60.27322 -28.271877
5.7403069 58.83815 -28.271866
5.687161 56.871613 -29.875692
5.6873155 55.451321 -29.871031
5.68747 54.030956 -29.866373
5.6876245 52.610531 -29.861702
5.6875587 51.188026 -29.863705
5.6874261 49.764977 -29.867699
5.6980658 48.433559 -29.54661
5.7364187 47.325455 -28.389215
5.7405767 45.924614 -28.263727
5.7405996 44.489647 -28.263048
5.7405996 43.054493 -28.263048
5.7406216 41.619507 -28.262367
5.7406445 40.184509 -28.261692
5.7406669 38.7495 -28.261005
5.7406669 37.314331 -28.261009
5.7406893 35.879311 -28.26033
5.7407122 34.444275 -28.259653
5.7407346 33.009224 -28.25897
5.7407346 31.574041 -28.258974
5.7407565 30.138977 -28.258295
5.7407794 28.703896 -28.257622
5.7408018 27.268803 -28.256933
5.7408018 25.833607 -28.256939
5.6874261 24.171564 -29.867706
5.6872935 22.749172 -29.871702
5.7143569 21.428839 -29.054989
5.7217441 -1.4304324 -28.83206
5.6871166 -2.8435588 -29.877029
5.6870947 -4.2653255 -29.877686
5.6868296 -5.6868262 -29.885695
5.7179923 -7.1474938 -28.945271
5.7410941 -8.6116467 -28.248112
5.7409592 -10.046682 -28.252188
5.7408242 -11.481647 -28.256256
5.7406893 -12.916557 -28.260328
5.7405543 -14.351389 -28.264406
5.7404418 -15.786221 -28.267799
5.7403069 -17.220924 -28.271873
5.6868739 -18.482346 -29.884354
5.687139 -19.904993 -29.87636
5.5391583 -20.771841 -34.342072
5.5388021 -22.155214 -34.352806
5.5496917 -23.586191 -34.024193
5.5966511 -25.184938 -32.607067
5.6519899 -26.846956 -30.937061
5.7084565 -28.542282 -29.233046
5.7660398 -30.271715 -27.495306
5.8247967 -32.036385 -25.722158
5.8847871 -33.837532 -23.911785
5.946002 -35.67601 -22.064476
6.0085287 -37.553307 -20.177565
6.0723586 -39.470333 -18.251322
6.1375856 -41.428699 -16.282936
6.2042022 -43.429417 -14.272591
6.2722812 -45.474041 -12.218128
6.3418984 -47.564236 -10.117249
6.4130497 -49.701134 -7.9700675
6.4858446 -51.886765 -5.7732725
6.5602822 -54.122326 -3.5269442
6.6364775 -56.410057 -1.2275317
6.7144332 -58.751289 1.124987
6.7942734 -61.148464 3.5343897
6.8760033 -63.603035 6.0008025
6.959723 -66.117378 8.5272741
7.1881418 67.568527 -27.963852
7.1538005 65.814964 -28.792934
7.1534934 64.381447 -28.800356
7.219996 63.535965 -27.194826
7.219996 62.091969 -27.19483
7.219996 60.647968 -27.194834
7.2200246 59.204193 -27.194145
7.2200246 57.760193 -27.194141
7.2200246 56.316193 -27.194145
7.1532693 54.364841 -28.805756
7.1532412 52.933983 -28.806429
7.1534371 51.504753 -28.801701
7.1538286 50.076797 -28.792261
7.1537447 48.645458 -28.794283
7.153605 47.213795 -28.797657
7.159646 45.821732 -28.651814
7.2024469 44.655174 -27.618498
7.2203946 43.322369 -27.185209
7.2204232 41.878456 -27.184525
7.2204232 40.434372 -27.184526
7.2204514 38.990437 -27.183832
7.22048 37.546494 -27.183147
7.2205086 36.102539 -27.182461
7.2205086 34.65844 -27.182461
7.2205367 33.21447 -27.181774
7.2205653 31.770487 -27.181086
7.2205939 30.326494 -27.180391
7.2205939 28.882381 -27.180403
7.2206225 27.438358 -27.179708
7.1583586 25.770092 -28.68289
7.1534371 24.321684 -28.801699
7.1878319 23.001066 -27.97135
7.1968145 -4.3180957 -27.754477
7.1531858 -5.7225556 -28.80777
7.1532693 -7.1532679 -28.805758
7.1529341 -8.5835266 -28.813843
7.1905699 -10.066801 -27.905247
7.2209353 -11.553497 -27.172146
7.2207646 -12.997375 -27.176275
7.2205939 -14.441186 -27.180401
7.2204232 -15.884929 -27.184523
7.220252 -17.328608 -27.188639
7.2201099 -18.772291 -27.192078
7.2199392 -20.215836 -27.196203
7.1529059 -21.458727 -28.814514
7.1532412 -22.890373 -28.806431
6.9670167 -23.68786 -33.302303
6.9665661 -25.079641 -33.313179
6.9815183 -26.52977 -32.952194
7.0434394 -28.173761 -31.457283
7.1135626 -29.876968 -29.76436
7.1851244 -31.614553 -28.036699
7.258112 -33.387321 -26.274632
7.3325977 -35.196472 -24.476387
7.408658 -37.043293 -22.640125
7.4862823 -38.928673 -20.766111
7.5655813 -40.854145 -18.851662
7.6465468 -42.820667 -16.896994
7.7292957 -44.829922 -14.899238
7.8138227 -46.882938 -12.858584
7.900219 -48.981361 -10.772798
7.9885817 -51.126923 -8.6395369
8.078907 -53.320789 -6.4588771
8.1713362 -55.565083 -4.2274537
8.2658672 -57.861073 -1.9452763
8.362648 -60.211067 0.39122796
8.4616833 -62.616463 2.7821627
8.5630932 -65.079514 5.2304091
8.6670036 -67.602631 7.7390285
8.6376028 67.661224 -27.725798
8.6383848 66.227608 -27.710096
8.7181997 65.386497 -26.104313
8.7181997 63.933468 -26.104313
8.7181997 62.480442 -26.104311
8.7182341 61.027649 -26.103619
8.7182341 59.574604 -26.103619
8.7182341 58.121567 -26.103615
8.7182693 56.668743 -26.102926
8.7182693 55.21571 -26.102917
8.7182693 53.762665 -26.102917
8.7182693 52.309616 -26.102921
8.6374674 50.38522 -27.728533
8.6377048 48.946995 -27.723747
8.6480389 47.564213 -27.51585
8.6382828 46.070839 -27.712137
8.6381807 44.6306 -27.714182
8.6388254 43.194126 -27.701206
8.6819649 41.962833 -26.833294
8.7187538 40.687511 -26.093178
8.7187881 39.234547 -26.092485
8.7187881 37.781418 -26.092484
8.7188225 36.32843 -26.091791
8.7188578 34.875431 -26.091089
8.7188921 33.422417 -26.090395
8.7188921 31.969267 -26.090395
8.7189264 30.516247 -26.089706
8.7189608 29.063206 -26.089012
8.7154694 27.598978 -26.159264
8.6379766 25.913925 -27.718283
8.6377382 24.473593 -27.723066
12.165985 -6.0829935 43.259754
11.929872 -7.9532428 38.509518
11.702748 -9.7522898 33.940163
8.6376705 -8.6376791 -27.724428
8.6378078 -10.077449 -27.721697
8.6375008 -11.51667 -27.727844
8.6809711 -13.02146 -26.853298
8.7192717 -14.532122 -26.082737
8.7190647 -15.984951 -26.086916
8.7188578 -17.437716 -26.091089
8.6639271 -18.771851 -27.196199
8.6509666 -20.185589 -27.456953
8.6990805 -21.747709 -26.488956
8.7180614 -23.248169 -26.107103
8.637331 -24.472439 -27.731262
8.6377382 -25.913223 -27.723066
8.4127483 -26.640379 -32.249512
8.4122019 -28.04067 -32.260532
8.4317932 -29.511276 -31.866375
8.5100603 -31.203564 -30.291744
8.5953722 -32.948933 -28.575413
8.6824465 -34.729782 -26.823639
8.7712669 -36.546944 -25.036699
8.8619232 -38.401669 -23.212833
8.9545097 -40.2953 -21.350124
9.049015 -42.228741 -19.448835
9.1455727 -44.203606 -17.506229
9.2441759 -46.220882 -15.522497
9.3449678 -48.282337 -13.494722
9.4479408 -50.389019 -11.423054
9.5532093 -52.542652 -9.3052311
9.6608915 -54.74506 -7.1388211
9.7709856 -56.997417 -4.923903
9.8836622 -59.301979 -2.6570151
9.9989233 -61.660027 -0.3381536
10.116951 -64.07402 2.0363705
10.23775 -66.54538 4.4666724
10.18987 69.873398 -25.78294
10.14102 68.089714 -26.625336
10.14134 66.643089 -26.619808
10.235269 65.798149 -25.000067
10.23531 64.336235 -24.999367
10.23531 62.874046 -24.999367
10.23531 61.411854 -24.999361
10.23531 59.949669 -24.999357
10.235351 58.487717 -24.998659
10.235351 57.025524 -24.998655
10.235351 55.563335 -24.998653
10.235391 54.101349 -24.997961
10.235391 52.639156 -24.997952
10.235391 51.176952 -24.997955
10.235391 49.714764 -24.997948
10.14086 47.806911 -26.628105
10.140618 46.357113 -26.632257
10.140899 44.909695 -26.627411
10.141581 43.463921 -26.615652
10.14146 42.014626 -26.617733
10.14126 40.565041 -26.621187
10.17535 39.247784 -26.033312
10.236005 38.019447 -24.987387
10.236045 36.557304 -24.986677
10.236086 35.09515 -24.985971
10.236086 33.632851 -24.985968
10.236126 32.170681 -24.985264
10.236168 30.708506 -24.984566
10.236209 29.246309 -24.98386
10.14122 27.526169 -26.621878
10.140979 26.076807 -26.626034
10.188858 24.74437 -25.800402
14.336352 -4.0960989 45.720596
14.055375 -6.0237298 40.875313
13.7852 -7.8772569 36.216301
13.525215 -9.6608629 31.733028
13.274924 -11.378505 27.416912
13.033729 -13.033731 23.257654
10.14086 -11.589555 -26.628107
10.14102 -13.038454 -26.625332
10.14086 -14.486944 -26.628101
10.189546 -16.012144 -25.788532
10.236454 -17.548212 -24.979628
10.157532 -18.863995 -26.340576
10.187845 -20.375689 -25.817856
10.186954 -21.829187 -25.833212
10.15729 -23.216661 -26.344749
10.235269 -24.857088 -25.000059
10.235023 -26.318636 -25.00429
10.140498 -27.524212 -26.634325
10.140979 -28.974236 -26.626024
9.8766937 -29.630083 -31.183475
9.8760471 -31.039005 -31.194622
9.9008751 -32.531448 -30.766472
9.9969263 -34.275181 -29.110117
10.097842 -36.063725 -27.369894
10.200856 -37.888893 -25.593477
10.305953 -39.751537 -23.781155
10.413238 -41.65295 -21.931103
10.522822 -43.594555 -20.041376
10.634694 -45.577263 -18.112223
10.749015 -47.602783 -16.140821
10.865775 -49.672112 -14.127385
10.985146 -51.787121 -12.068892
11.107121 -53.948868 -9.9655218
11.231834 -56.159172 -7.8149071
11.35943 -58.419933 -5.6145816
11.489908 -60.732384 -3.3645678
11.623471 -63.098843 -1.0613775
11.760121 -65.520676 1.295079
11.900079 -68.00045 3.7085481
11.662252 69.973511 -25.531168
11.663598 68.523636 -25.510855
11.771607 67.686737 -23.881113
11.771607 66.215302 -23.881107
11.771607 64.743843 -23.881113
11.771607 63.272388 -23.881115
11.771655 61.801193 -23.8804
11.771655 60.329739 -23.880402
11.771655 58.85828 -23.8804
11.771655 57.386822 -23.880396
11.771703 55.915581 -23.879694
11.771703 54.444122 -23.879692
11.771703 52.972664 -23.879688
11.771749 51.501396 -23.878975
11.771749 50.029938 -23.878973
11.771749 48.558468 -23.878977
11.771749 47.086994 -23.878975
11.663366 45.195541 -25.514353
11.662716 43.735188 -25.524158
11.662856 42.277847 -25.522058
11.663923 40.823727 -25.505945
11.663783 39.365269 -25.508047
11.663692 37.906994 -25.509451
11.682526 36.507896 -25.22526
11.76159 35.284775 -24.032269
11.772553 33.846092 -23.866842
11.7726 32.374649 -23.866127
11.7726 30.903076 -23.866121
11.666571 29.166424 -25.466005
11.663321 27.700382 -25.515055
11.718642 26.366945 -24.680292
16.223288 -4.0558228 43.289558
15.908395 -5.9656487 38.538185
15.605493 -7.8027482 33.967751
15.31391 -9.5711985 29.568106
15.033023 -11.274765 25.329855
14.76233 -12.917039 21.245407
14.501715 -14.50172 17.313026
14.250142 -16.031406 13.517076
11.663134 -14.578918 -25.517859
11.663321 -16.037064 -25.515057
11.663321 -17.494982 -25.515049
11.716628 -19.039516 -24.710695
11.772837 -20.602468 -23.862549
11.679824 -21.899679 -25.266008
11.77227 -23.544538 -23.871122
11.771986 -25.015471 -23.87541
11.771749 -26.486444 -23.878965
11.689143 -27.761717 -25.125399
11.662902 -29.157248 -25.52136
11.663737 -30.617319 -25.508743
11.735116 -32.27158 -24.431715
11.359197 -32.657696 -30.103903
11.358448 -34.075348 -30.1152
11.389797 -35.593117 -29.642195
11.50446 -37.389492 -27.912073
11.621408 -39.222256 -26.147442
11.740806 -41.092823 -24.345869
11.862636 -43.002056 -22.507612
11.987019 -44.951321 -20.630816
12.114088 -46.942093 -18.71348
12.24383 -48.975327 -16.755819
12.376433 -51.052788 -14.754998
12.511886 -53.175514 -12.711174
12.650392 -55.345463 -10.621291
12.791943 -57.563747 -8.4854479
12.936696 -59.832222 -6.3012815
13.084822 -62.152905 -4.0662379
13.23632 -64.527054 -1.7803172
13.391428 -66.957146 0.56008881
13.268005 72.236908 -23.546532
13.204122 70.421982 -24.403347
13.205603 68.962585 -24.38349
13.327497 68.118317 -22.748604
13.327497 66.637482 -22.748606
13.327551 65.156914 -22.747879
13.327551 63.676079 -22.747881
13.327551 62.195229 -22.747889
13.327551 60.714394 -22.74789
13.327604 59.233791 -22.747166
13.327604 57.752956 -22.747162
13.327604 56.272102 -22.747166
13.327658 54.791481 -22.746439
13.327658 53.310631 -22.746443
13.32588 51.822868 -22.770279
13.327658 50.348938 -22.746435
13.327712 48.868282 -22.745708
13.327712 47.387417 -22.745722
13.327712 45.906559 -22.74572
13.327766 44.425888 -22.744995
13.205444 42.550877 -24.385611
13.204703 41.081295 -24.39555
13.204175 39.612522 -24.402641
13.23062 38.221794 -24.047932
13.20555 36.682087 -24.384193
13.205444 35.21452 -24.385616
13.21402 33.769161 -24.270588
13.293314 32.49477 -23.207079
13.305602 31.046398 -23.042269
13.205127 29.344723 -24.389874
13.204756 27.876703 -24.394835
18.434721 -2.0482991 45.751003
18.073376 -4.016305 40.904549
17.725924 -5.9086447 36.244431
17.391581 -7.7295914 31.760105
17.069704 -9.4831686 27.442997
16.759439 -11.172963 23.281649
16.460255 -12.802417 19.268866
16.172197 -14.375289 15.405361
15.894049 -15.894046 11.674754
15.625306 -17.361458 8.0703068
15.365788 -18.780405 4.5895567
13.204862 -17.60648 -24.393421
13.205073 -19.073997 -24.390577
13.205338 -20.541641 -24.387033
13.26256 -22.104273 -23.619547
13.32879 -23.695627 -22.731255
13.328466 -25.175995 -22.735596
13.254028 -26.508059 -23.733992
13.204068 -27.875265 -24.404057
13.205021 -29.344496 -24.391285
13.285813 -31.000235 -23.307674
13.202112 -32.271832 -24.430304
13.203804 -33.743053 -24.407608
13.205232 -35.213959 -24.388447
12.860614 -35.723934 -29.010571
12.85976 -37.150425 -29.022013
12.902294 -38.706882 -28.45155
13.033092 -40.547398 -26.697248
13.166517 -42.425449 -24.907705
13.302702 -44.342342 -23.081161
13.441788 -46.2995 -21.215689
13.583758 -48.297806 -19.311556
13.728816 -50.338993 -17.365995
13.876946 -52.424026 -15.379215
14.028368 -54.554768 -13.348303
14.18307 -56.732277 -11.273397
14.341223 -58.958359 -9.1522141
14.503005 -61.234917 -6.9823313
14.668414 -63.563133 -4.7638149
14.837707 -65.945366 -2.4932113
14.764216 72.34465 -23.281109
14.765644 70.875092 -23.263859
14.766775 69.403839 -23.250214
14.797142 68.066856 -22.883648
14.888632 66.998848 -21.779264
14.903657 65.576088 -21.597902
14.903657 64.085724 -21.597904
14.903597 62.595112 -21.598633
14.903597 61.104752 -21.598635
14.903597 59.614388 -21.598635
14.903536 58.123791 -21.599365
14.903536 56.63343 -21.599371
14.903536 55.143082 -21.599365
14.903536 53.652725 -21.599375
14.835562 51.924461 -22.419891
14.788717 50.281647 -22.985344
14.870377 49.072239 -21.999638
14.903597 47.691513 -21.598629
14.903657 46.20134 -21.597895
14.903657 44.710964 -21.597906
14.903657 43.220608 -21.5979
14.903717 41.730408 -21.597166
14.903717 40.24004 -21.597174
14.766597 38.393154 -23.252359
14.765763 36.91441 -23.262423
14.774042 35.457695 -23.162481
14.767193 33.964546 -23.245182
14.767014 32.487427 -23.247328
14.766775 31.010227 -23.250208
14.766359 29.532721 -23.255236
14.835502 28.187447 -22.420607
20.689911 2.7150122e-08 48.248356
20.281582 -2.0281529 43.319378
19.887869 -3.9775686 38.566856
19.509151 -5.8527465 33.995338
19.144588 -7.6578369 29.594675
18.7934 -9.3967009 25.355457
18.454865 -11.072919 21.268972
18.128311 -12.689816 17.327097
17.813805 -14.25104 13.530673
17.510023 -15.759021 9.8637276
17.216431 -17.216431 6.319746
16.932522 -18.625774 2.8926625
16.658506 -19.990204 -0.4150053
16.393511 -21.311563 -3.6137753
14.766418 -20.672987 -23.254519
14.766657 -22.149986 -23.251644
14.766953 -23.627129 -23.248045
14.827693 -25.207079 -22.51486
14.76612 -26.579016 -23.258106
14.766002 -28.05541 -23.259546
14.856323 -29.712648 -22.169275
14.763026 -31.002356 -23.295469
14.764931 -32.482849 -23.272486
14.907175 -34.286503 -21.555433
14.907175 -35.777229 -21.555426
14.766002 -36.915005 -23.259552
14.766597 -38.39315 -23.252365
14.381309 -38.82954 -27.9032
14.380348 -40.264977 -27.914799
14.435895 -41.864098 -27.244293
14.583271 -43.749817 -25.465305
14.733629 -45.674248 -23.650328
14.887119 -47.638779 -21.797535
15.043903 -49.644882 -19.904982
15.203961 -51.693466 -17.972912
15.367526 -53.786346 -15.998495
15.534583 -55.9245 -13.981948
15.705379 -58.109909 -11.92025
15.879905 -60.343639 -9.8135471
16.058352 -62.627571 -7.659502
16.240927 -64.963715 -5.4556136
16.427628 -67.353279 -3.2019472
16.346197 74.300896 -22.122715
16.415598 73.124031 -21.361132
16.415398 71.630821 -21.363342
16.374434 69.963486 -21.81287
16.346861 68.359612 -22.115438
16.348055 66.87841 -22.102333
16.35841 65.433647 -21.988701
16.439444 64.26329 -21.099459
16.500309 63.001183 -20.431541
16.500309 61.501148 -20.431549
16.500309 60.001122 -20.431545
16.500309 58.501099 -20.431545
16.500242 57.000839 -20.432285
16.500242 55.50082 -20.432287
16.500242 54.000797 -20.432285
16.37257 52.094543 -21.833311
16.419144 50.750076 -21.322233
16.373302 49.1199 -21.825287
16.500107 48.000305 -20.433773
16.500107 46.500301 -20.433769
16.500107 45.000298 -20.433767
16.50004 43.500107 -20.434507
16.50004 42.000095 -20.434505
16.50004 40.500095 -20.434509
16.50004 39.000095 -20.434513
16.50004 37.500095 -20.434517
16.348719 35.66993 -22.095051
16.34779 34.181736 -22.105242
16.346928 32.693851 -22.114708
16.348984 31.211699 -22.09214
16.429054 29.871004 -21.213488
22.989285 2.0899379 50.776505
22.53145 -3.4019147e-06 45.752396
22.091864 -2.0083525 40.928478
21.667582 -3.9395576 36.272556
21.258844 -5.7978678 31.787184
20.865349 -7.5874033 27.469086
20.486052 -9.3118401 23.306789
20.1203 -10.974709 19.293127
19.767376 -12.579244 15.420267
19.427277 -14.128929 11.688122
19.098774 -15.626267 8.0832195
18.781195 -17.073811 4.5982018
18.474005 -18.474007 1.2271985
18.176867 -19.829311 -2.0335066
17.889929 -21.142639 -5.1822786
17.615376 -22.419571 -8.1951475
17.34479 -23.651987 -11.164478
16.348188 -23.779184 -22.100872
16.34852 -25.265892 -22.09724
16.347061 -26.749737 -22.113255
16.447027 -28.408506 -21.01623
16.344076 -29.716509 -22.145996
16.346264 -31.206509 -22.121983
16.503689 -33.007385 -20.394459
16.503756 -34.507858 -20.393719
16.503822 -36.008347 -20.392973
16.503891 -37.508846 -20.392231
16.503958 -39.009354 -20.391495
16.347591 -40.125904 -22.10743
16.348188 -41.613567 -22.10088
15.921592 -41.975109 -26.782215
15.920586 -43.419781 -26.793261
15.991043 -45.065666 -26.020079
16.155455 -46.997688 -24.215866
16.323217 -48.96965 -22.374907
16.494499 -50.983002 -20.495304
16.669483 -53.039268 -18.575075
16.84815 -55.1394 -16.614445
17.03076 -57.285282 -14.610542
17.217297 -59.47794 -12.563536
17.408043 -61.719421 -10.470354
17.602983 -64.010857 -8.3311205
17.80234 -66.354187 -6.1434374
17.948294 74.784554 -20.955069
18.024624 73.600548 -20.187237
18.024403 72.09761 -20.189472
18.024254 70.594994 -20.19096
18.024033 69.092125 -20.193192
19.321444 72.455406 -7.1422486
17.948587 65.811485 -20.952114
17.949905 64.320496 -20.938848
17.951225 62.829288 -20.925568
18.003286 61.511223 -20.40188
18.114813 60.382702 -19.280014
18.117874 58.883095 -19.249218
18.117874 57.373268 -19.24922
18.117798 55.86322 -19.249968
18.117798 54.353397 -19.249966
18.117798 52.843575 -19.249971
18.117723 51.333549 -19.250723
18.117723 49.823746 -19.250723
18.117723 48.313934 -19.250723
18.117649 46.803928 -19.251472
18.117649 45.294121 -19.251471
18.117649 43.784317 -19.251474
18.117575 42.274342 -19.252218
18.117575 40.764542 -19.252218
18.117575 39.254745 -19.252218
18.1175 37.744801 -19.252979
18.1175 36.235001 -19.252979
18.063591 34.621883 -19.795269
17.950199 32.908695 -20.935896
17.948 31.408998 -20.958017
25.335684 4.2226157 53.356365
24.82621 2.0688491 48.231415
24.336279 -3.5767637e-06 43.303112
23.86648 -1.9888757 38.577297
23.413727 -3.9022887 34.022938
22.976151 -5.7440391 29.621256
22.554626 -7.5182142 25.381079
22.148294 -9.2284575 21.293674
21.756342 -10.878171 17.350941
21.378124 -12.470575 13.546363
21.013334 -14.008884 9.8768654
20.66098 -15.495737 6.3324518
20.320248 -16.933542 2.9049489
19.99057 -18.324694 -0.41134793
19.671421 -19.671423 -3.6217549
19.362898 -20.976469 -6.7252483
19.067541 -22.24547 -9.6962872
18.777771 -23.472221 -12.611154
18.495821 -24.661095 -15.447365
18.222212 -25.814802 -18.199654
18.05847 -27.087708 -19.846781
17.94602 -28.414536 -20.977913
17.948074 -29.913456 -20.957272
18.121012 -31.711769 -19.217655
18.121086 -33.221992 -19.216906
18.121161 -34.732231 -19.216146
18.121161 -36.242329 -19.216148
18.121237 -37.752579 -19.215397
18.121311 -39.26284 -19.214651
18.121386 -40.773121 -19.213898
18.12146 -42.283405 -19.213148
17.949833 -43.378761 -20.939583
17.950274 -44.875683 -20.935154
17.481966 -45.161751 -25.645952
17.480854 -46.615612 -25.657141
17.568197 -48.312542 -24.778538
17.750116 -50.291996 -22.948576
17.935768 -52.312664 -21.081051
18.125345 -54.376038 -19.174055
18.31905 -56.483738 -17.225546
18.516861 -58.636723 -15.235725
18.719069 -60.836983 -13.201653
18.925663 -63.085541 -11.123498
19.13695 -65.384583 -8.998105
19.352921 -67.735237 -6.8255858
19.655001 75.596153 -18.99568
19.654758 74.083328 -18.997932
19.654596 72.570816 -18.999445
19.654354 71.058044 -19.001707
19.65419 69.545593 -19.003216
19.653948 68.032898 -19.005468
19.653704 66.520226 -19.007736
19.65346 65.007599 -19.009993
19.571465 63.230881 -19.771374
19.57259 61.728935 -19.760908
19.57412 60.228062 -19.746706
19.593691 58.781082 -19.56496
19.699646 57.58358 -18.581127
19.75662 56.230385 -18.052109
19.75662 54.710648 -18.052107
19.75662 53.190903 -18.052105
19.75662 51.671162 -18.052103
19.756538 50.151211 -18.052868
19.756538 48.631474 -18.052872
19.756538 47.111744 -18.052862
19.756456 45.59182 -18.053635
19.756456 44.07209 -18.053625
19.756456 42.552368 -18.053627
19.756376 41.032471 -18.054386
19.756376 39.512753 -18.054394
19.756376 37.993031 -18.054396
19.756292 36.473152 -18.055143
19.57436 34.631561 -19.744473
19.571945 33.121754 -19.76688
27.167294 4.1795874 50.759235
26.62644 2.0481882 45.737183
26.105558 5.3989459e-07 40.900551
25.607004 -1.9697666 36.271275
25.126076 -3.8655505 31.805639
24.66186 -5.6911998 27.495169
24.213497 -7.4503093 23.33194
23.781147 -9.1465969 19.317381
23.363966 -10.783374 15.443686
22.961168 -12.363707 11.70353
22.57267 -13.890872 8.0961294
22.197304 -15.367366 4.6107049
21.834215 -16.795551 1.2392793
21.482817 -18.177769 -2.0236192
21.14255 -19.516201 -5.1831431
20.812893 -20.812891 -8.2441549
20.494417 -22.070915 -11.201337
20.189051 -23.295063 -14.036803
19.888163 -24.477737 -16.830685
19.691011 -25.749786 -18.66132
19.56905 -27.095612 -19.793779
19.57082 -28.603512 -19.777336
19.759489 -30.399221 -18.025461
19.759571 -31.919312 -18.024696
19.759571 -33.43927 -18.0247
19.619043 -34.710617 -19.329565
19.724375 -36.414234 -18.351526
19.759817 -37.999649 -18.022419
19.759899 -39.519798 -18.021652
19.759899 -41.039799 -18.021646
19.759981 -42.559963 -18.020891
19.760065 -44.080143 -18.020126
19.760147 -45.600338 -18.019371
19.573072 -46.674252 -19.756428
19.573395 -48.180664 -19.753433
19.062771 -48.390106 -24.494814
19.064142 -49.860069 -24.482052
19.167828 -51.60569 -23.5193
19.367741 -53.633747 -21.663025
19.571785 -55.704315 -19.768379
19.780176 -57.818974 -17.833385
19.993137 -59.979408 -15.85596
20.210646 -62.186607 -13.836276
20.433027 -64.442635 -11.77136
20.660267 -66.748558 -9.6613388
21.306684 76.095299 -17.790646
21.306507 74.572777 -17.792171
21.306242 73.04998 -17.794456
21.305977 71.527206 -17.796753
21.305799 70.004768 -17.798279
21.305532 68.482071 -17.800568
21.305357 66.959686 -17.802094
21.305092 65.437065 -17.804384
21.304827 63.914471 -17.806677
21.304562 62.391933 -17.80896
21.218166 60.623322 -18.553881
21.216936 59.104313 -18.56448
21.218252 57.5924 -18.553122
21.219921 56.081215 -18.53874
21.300137 54.771778 -17.847118
21.417126 53.542812 -16.838398
21.417126 52.01302 -16.838392
21.417126 50.483223 -16.838396
21.417038 48.953224 -16.839163
21.417038 47.423443 -16.839165
21.417038 45.893658 -16.839167
21.416948 44.363682 -16.839933
21.416948 42.833897 -16.839933
21.416948 41.304111 -16.839937
21.416857 39.774162 -16.840704
21.416857 38.244385 -16.840698
21.220009 36.377155 -18.537973
21.217375 34.857113 -18.560688
21.323343 33.508106 -17.647011
28.961946 4.1374135 48.214497
28.391069 2.0279341 43.292274
27.840599 -1.9157085e-06 38.546009
27.314413 -1.9510245 34.00914
26.806208 -3.8294537 29.627291
26.316704 -5.6392975 25.406689
25.842541 -7.3835864 21.318371
25.38516 -9.0661297 17.374771
24.943815 -10.690206 13.56938
24.517431 -12.258711 9.8930368
24.105835 -13.774765 6.3441839
23.708269 -15.241029 2.9162841
23.323711 -16.659798 -0.39944959
22.951324 -18.033188 -3.6102321
22.590645 -19.363417 -6.7200937
22.241123 -20.652473 -9.733736
21.902721 -21.902723 -12.651492
21.579275 -23.120655 -15.440315
21.344912 -24.39419 -17.461037
21.213425 -25.759161 -18.594749
21.215004 -27.276434 -18.581129
21.419453 -29.069265 -16.818333
21.41954 -30.59935 -16.81756
21.419632 -32.129448 -16.816795
21.268505 -33.42194 -18.119829
21.314478 -35.016647 -17.723434
21.314301 -36.538807 -17.724964
21.251759 -37.94957 -18.264225
21.419989 -39.779987 -16.813702
21.420078 -41.31015 -16.812943
21.420168 -42.84034 -16.81216
21.420168 -44.370346 -16.81217
21.420258 -45.900551 -16.811396
21.420347 -47.430771 -16.810616
21.420437 -48.960999 -16.809855
21.217726 -50.01321 -18.557671
21.217901 -51.52919 -18.556156
20.664404 -51.661015 -23.328503
20.669735 -53.150753 -23.282537
20.790419 -54.94611 -22.241991
21.008739 -57.023724 -20.359583
21.231783 -59.145679 -18.436466
21.459522 -61.312927 -16.472837
21.692293 -63.527435 -14.465852
21.930075 -65.790222 -12.415659
22.173223 -68.10347 -10.31919
22.981575 76.605247 -16.55953
22.980612 75.070007 -16.567272
22.979843 73.535492 -16.573462
22.97965 72.002907 -16.575003
22.979364 70.470039 -16.577332
22.979172 68.937515 -16.578873
22.978882 67.404716 -16.581196
22.978594 65.871964 -16.583511
22.978401 64.339523 -16.585064
22.978113 62.806847 -16.587378
22.977825 61.274197 -16.589705
22.977442 59.741341 -16.5928
22.977154 58.20879 -16.595108
22.883074 56.44492 -17.352188
22.884409 54.922588 -17.341452
22.885935 53.400505 -17.329178
22.917152 51.945545 -17.077961
23.05216 50.714748 -15.991501
23.099655 49.279266 -15.609299
23.099655 47.739288 -15.6093
23.099655 46.199306 -15.609292
23.099655 44.659328 -15.609293
23.099556 43.119171 -15.610075
23.099556 41.579197 -15.610081
23.099556 40.039234 -15.610077
23.006498 38.34417 -16.358946
22.884888 36.615814 -17.337612
22.881739 35.085335 -17.362932
30.720585 4.0960722 45.719208
30.120974 2.0080643 40.893917
29.542255 -4.834375e-06 36.236763
28.989639 -1.9326367 31.789637
28.4554 -3.7940514 27.490431
27.940355 -5.5880733 23.345673
27.442801 -7.3180776 19.341646
26.961332 -8.9871149 15.467106
26.496469 -10.598595 11.726167
26.047363 -12.155437 8.1120367
25.613707 -13.660649 4.622231
25.194714 -15.11683 1.2504357
24.789207 -16.526142 -2.0128114
24.396549 -17.890808 -5.1726871
24.016136 -19.212906 -8.2340221
23.647507 -20.494513 -11.200517
23.289923 -21.737263 -14.078131
23.020767 -23.020769 -16.244125
22.879644 -24.404957 -17.379801
22.880884 -25.931669 -17.369833
23.1015 -27.721806 -15.594441
23.101597 -29.262028 -15.593656
23.101694 -30.802263 -15.592878
23.101791 -32.342506 -15.592106
23.101791 -33.882622 -15.592105
23.101889 -35.422897 -15.591313
22.920977 -36.673565 -17.04718
23.102083 -38.503475 -15.58975
23.102179 -40.043777 -15.588977
23.102179 -41.583923 -15.588977
23.102276 -43.124256 -15.588184
23.102373 -44.664589 -15.587412
23.10247 -46.204941 -15.586632
23.102568 -47.745308 -15.585844
23.102568 -49.285484 -15.585842
23.102665 -50.825867 -15.585063
23.102762 -52.366264 -15.584276
22.88422 -53.396511 -17.342983
22.884409 -54.922585 -17.341448
22.287287 -54.975311 -22.146723
22.297056 -56.485874 -22.068113
22.436466 -58.334808 -20.94622
22.673794 -60.463451 -19.036356
22.916292 -62.637871 -17.084877
23.163935 -64.859016 -15.092002
23.417088 -67.12899 -13.054777
24.677294 74.031891 -15.32514
24.676359 72.486801 -15.332196
24.675322 70.941551 -15.340034
24.675114 69.398758 -15.341604
24.674801 67.855705 -15.34395
24.674593 66.312973 -15.345522
24.674282 64.769989 -15.347869
24.674074 63.227314 -15.349441
24.673763 61.684406 -15.35179
24.67345 60.141533 -15.354153
24.673037 58.598465 -15.357277
24.672724 57.055676 -15.359626
24.672411 55.512924 -15.361982
24.583813 53.777096 -16.030403
24.572887 52.217384 -16.112843
24.574327 50.684551 -16.101963
24.579069 49.158134 -16.066191
24.691229 47.839249 -15.220035
24.804834 46.50906 -14.362936
24.804834 44.958759 -14.362932
24.804728 43.408268 -14.363729
24.804728 41.857979 -14.363717
24.804728 40.30769 -14.363729
24.574741 38.398033 -16.098854
24.571444 36.857166 -16.12373
32.444599 4.0555696 43.274658
31.81748 1.9885926 38.543407
31.211485 -3.3688511e-06 33.971516
30.633743 -1.9146036 29.612793
30.074226 -3.7592795 25.391546
29.534777 -5.537766 21.321737
29.014343 -7.2535863 17.395367
28.510128 -8.9094105 13.591348
28.022871 -10.508578 9.9152765
27.551859 -12.05394 6.3617711
27.096794 -13.548402 2.9285753
26.657124 -14.994637 -0.38847533
26.231495 -16.394691 -3.5995998
25.819244 -17.750732 -6.7097936
25.41975 -19.064819 -9.7237444
25.032431 -20.338848 -12.645858
24.691853 -21.605375 -15.215315
24.571444 -23.035728 -16.123732
24.568972 -24.568974 -16.14238
24.805988 -26.356358 -14.354226
24.806095 -27.906858 -14.353423
24.806198 -29.457365 -14.352641
24.806198 -31.00775 -14.352634
24.806305 -32.558277 -14.351847
24.806408 -34.108814 -14.351048
24.806515 -35.65937 -14.350259
24.80662 -37.209927 -14.349472
24.80662 -38.760345 -14.349467
24.806723 -40.310928 -14.348677
24.806829 -41.861526 -14.347879
24.806932 -43.412136 -14.347088
24.807039 -44.962757 -14.346302
24.807039 -46.513203 -14.346296
24.807142 -48.063843 -14.345506
24.807249 -49.614502 -14.344707
24.807354 -51.165173 -14.343917
24.807459 -52.715851 -14.343131
24.807459 -54.266315 -14.343136
24.807564 -55.817024 -14.342332
24.572989 -56.825043 -16.112061
24.573195 -58.361343 -16.110512
23.931839 -58.333866 -20.949163
23.946703 -59.866764 -20.837015
24.106485 -61.772865 -19.631577
24.363354 -63.953812 -17.69364
24.62586 -66.182007 -15.713187
26.394798 69.868591 -14.08131
26.393791 68.313347 -14.088459
26.393343 66.759644 -14.09164
26.393007 65.206253 -14.094024
26.392784 63.653187 -14.09561
26.392448 62.099876 -14.097999
26.392223 60.546864 -14.099589
26.391777 58.993378 -14.102761
26.391441 57.440189 -14.105143
26.391108 55.887043 -14.107527
26.390772 54.333935 -14.109913
26.390436 52.780872 -14.112288
26.3901 51.227844 -14.114676
26.284042 49.475849 -14.867726
26.285599 47.932564 -14.856703
26.287039 46.388897 -14.846454
26.344875 44.941265 -14.435787
26.502541 43.651241 -13.316262
26.532921 42.14053 -13.100556
26.287596 40.204559 -14.842513
26.284042 38.653004 -14.867729
26.415066 37.291855 -13.937387
34.134857 4.0158668 40.877968
33.481403 1.9694942 36.238033
32.849201 5.8864671e-06 31.749022
32.247284 -1.8968989 27.475019
31.663643 -3.7251327 23.330793
31.100754 -5.4883676 19.333929
30.557528 -7.1900039 15.476687
30.032518 -8.8330917 11.748784
29.523424 -10.420039 8.1339035
29.031301 -11.954066 4.6395288
28.55571 -13.437981 1.2625209
28.096085 -14.874397 -2.0011177
27.651018 -16.265308 -5.1613536
27.219833 -17.612839 -8.2230253
26.801889 -18.918982 -11.190688
26.411928 -20.197361 -13.959667
26.298809 -21.65785 -14.762887
26.279827 -23.188086 -14.897662
26.533373 -24.972591 -13.097334
26.533373 -26.533371 -13.097344
26.533485 -28.094282 -13.09653
26.5336 -29.655201 -13.095739
26.533712 -31.216131 -13.094938
26.533825 -32.777077 -13.094127
26.533825 -34.337894 -13.094123
26.533939 -35.898861 -13.093327
26.534052 -37.459843 -13.09252
26.534164 -39.020832 -13.091717
26.534277 -40.581833 -13.090922
26.534277 -42.142677 -13.090916
26.534391 -43.703701 -13.090118
26.534504 -45.264744 -13.089311
26.534616 -46.825794 -13.08851
26.534731 -48.386868 -13.087704
26.534731 -49.947727 -13.087708
26.534842 -51.50882 -13.086895
26.534956 -53.069912 -13.086102
26.535069 -54.631023 -13.0853
26.535183 -56.192154 -13.084494
26.535183 -57.75304 -13.084498
26.535295 -59.314194 -13.083685
26.284487 -60.299709 -14.86458
26.284708 -61.846375 -14.863012
25.598503 -61.737564 -19.735504
25.619146 -63.294365 -19.588921
25.801001 -65.26136 -18.297644
26.077963 -67.495911 -16.331036
28.136604 67.215225 -12.812691
28.135405 65.649284 -12.820749
28.134804 64.084831 -12.824773
28.134563 62.521259 -12.826382
28.134203 60.957443 -12.828803
28.133844 59.393677 -12.831211
28.133482 57.829933 -12.833634
28.133123 56.266251 -12.836051
28.132763 54.702591 -12.838463
28.132402 53.138973 -12.840873
28.132044 51.575413 -12.843288
28.131681 50.011875 -12.845704
28.131323 48.448387 -12.848123
28.043489 46.739155 -13.437138
28.020008 45.143345 -13.5946
28.021677 43.589279 -13.583425
28.037048 42.055565 -13.480331
28.01989 40.473171 -13.595406
28.157034 39.107002 -12.675697
35.792336 3.9769306 38.52776
35.11367 1.9507556 33.976532
34.456299 -1.7327829e-07 29.5681
33.831245 -1.8795176 25.376413
33.224449 -3.6916094 21.307142
32.639034 -5.4398403 17.381275
32.073895 -7.1275306 13.591351
31.527992 -8.7577801 9.9304504
30.999046 -10.333023 6.3832741
30.486572 -11.855892 2.9465353
29.991039 -13.329354 -0.37657669
29.51215 -14.756077 -3.5880816
29.048315 -16.137955 -6.6986403
28.598831 -17.477062 -9.7129335
28.163048 -18.775364 -12.635368
28.051842 -20.25967 -13.381129
28.013699 -21.788437 -13.636919
28.283995 -23.569996 -11.824282
28.284117 -25.141438 -11.823458
28.284237 -26.712893 -11.822643
28.284359 -28.284363 -11.821837
28.284481 -29.855846 -11.821022
28.284481 -31.427206 -11.821015
28.284601 -32.998703 -11.820209
28.284723 -34.570217 -11.819393
28.284843 -36.141739 -11.818583
28.284966 -37.713287 -11.81777
28.284966 -39.284679 -11.817763
28.285088 -40.856236 -11.816956
28.285208 -42.427811 -11.816141
28.28533 -43.999405 -11.815319
28.285452 -45.571011 -11.814505
28.285452 -47.142418 -11.814511
28.285572 -48.714046 -11.813691
28.285694 -50.285683 -11.812879
28.285816 -51.857327 -11.812069
28.285936 -53.428993 -11.811257
28.285936 -55.000431 -11.81126
28.286058 -56.572117 -11.810441
28.286179 -58.143818 -11.809628
28.286423 -59.715778 -11.808001
28.121603 -60.930145 -12.9133
28.018223 -62.262718 -13.606586
28.016674 -63.815765 -13.61696
27.287725 -65.187347 -18.505419
27.314972 -66.769943 -18.322687
29.900869 62.949192 -11.534953
29.899967 61.373623 -11.540669
29.899712 59.799416 -11.542299
29.899326 58.225006 -11.544744
29.898941 56.650627 -11.547194
29.898556 55.076283 -11.549643
29.898169 53.501984 -11.552097
29.897785 51.927734 -11.554545
29.8974 50.353519 -11.556984
29.897015 48.779346 -11.559439
29.896627 47.205208 -11.561888
29.896116 45.630909 -11.565155
29.895729 44.056866 -11.567601
29.778038 42.316151 -12.315328
29.77549 40.745411 -12.33152
37.41798 3.9387329 36.222694
36.714787 1.9323527 31.75518
36.033615 2.3087803e-06 27.427584
35.386436 -1.8624411 23.315931
34.757408 -3.6586742 19.319592
34.150352 -5.3921633 15.462845
33.564137 -7.0661392 11.738506
32.997707 -8.6836081 8.139864
32.450077 -10.247392 4.6606674
31.917986 -11.759261 1.2801942
31.403347 -13.222469 -1.9894046
30.905865 -14.639619 -5.150013
30.423897 -16.012585 -8.2120428
29.95673 -17.343378 -11.180038
29.831011 -18.840635 -11.978765
29.771286 -20.369833 -12.358219
30.058565 -22.148415 -10.533071
30.058695 -23.730549 -10.532245
30.058825 -25.3127 -10.531411
30.058956 -26.894854 -10.530599
30.058956 -28.476906 -10.530591
30.059086 -30.059092 -10.529759
30.059216 -31.641273 -10.528945
30.059345 -33.223488 -10.528113
30.059475 -34.805714 -10.52729
30.059475 -36.387787 -10.527295
30.059605 -37.970028 -10.526463
30.059734 -39.552292 -10.525641
30.059864 -41.134552 -10.524821
30.059996 -42.716831 -10.523994
30.059996 -44.298946 -10.523987
30.060125 -45.881241 -10.523169
30.060255 -47.463562 -10.522346
30.060385 -49.045891 -10.521515
30.060513 -50.628239 -10.520693
30.060513 -52.210369 -10.520694
30.060642 -53.792736 -10.519867
30.060904 -55.375355 -10.518212
30.061163 -56.957993 -10.516572
30.061293 -58.540417 -10.515741
29.845596 -59.691193 -11.886106
29.776381 -61.119938 -12.325845
29.774342 -62.682831 -12.338791
31.690422 60.211803 -10.232344
31.689323 58.625248 -10.238958
31.689051 57.040295 -10.240611
31.688639 55.455116 -10.24309
31.688229 53.869984 -10.245579
31.687817 52.284893 -10.248056
31.687407 50.699848 -10.250544
31.686995 49.114838 -10.253028
31.686583 47.529877 -10.255503
31.686172 45.944946 -10.257995
31.685623 44.359867 -10.261295
31.552282 42.595581 -11.066093
31.589155 41.065899 -10.843535
39.012691 3.9012713 33.961479
38.285774 1.9142879 29.574139
37.581982 2.4761907e-06 25.326359
36.913635 -1.8456839 21.292549
36.26326 -3.626327 17.367184
35.635406 -5.3453121 13.577749
35.028923 -7.0057878 9.9172974
34.442898 -8.6107216 6.3803372
33.876007 -10.162808 2.9588325
33.326408 -11.664247 -0.35828677
32.793186 -13.11727 -3.5765746
32.277752 -14.524993 -6.6874857
31.778273 -15.889143 -9.7021151
31.636908 -17.400299 -10.555333
31.552961 -18.931778 -11.061996
31.857462 -20.707352 -9.2241488
31.857601 -22.30032 -9.2233171
31.857601 -23.893206 -9.22332
31.85774 -25.486195 -9.2224827
31.857878 -27.079193 -9.2216501
31.858019 -28.672218 -9.2208166
31.858156 -30.265249 -9.2199678
31.858156 -31.858164 -9.2199697
31.858295 -33.45121 -9.2191315
31.858433 -35.044277 -9.2183046
31.858572 -36.63736 -9.2174692
31.858711 -38.230457 -9.2166233
31.858711 -39.823391 -9.2166214
31.858849 -41.416508 -9.2157879
31.858988 -43.009632 -9.2149611
31.859125 -44.602776 -9.2141247
31.859264 -46.195938 -9.2132826
31.859264 -47.788902 -9.2132816
31.859402 -49.382076 -9.2124472
31.85968 -50.975487 -9.2107811
31.859959 -52.568932 -9.2090979
31.860096 -54.162167 -9.2082644
31.860374 -55.755653 -9.2065897
31.860651 -57.349178 -9.2049189
31.596924 -58.454311 -10.796659
31.558533 -59.961212 -11.028356
33.503372 55.838947 -8.9192886
33.503082 54.243084 -8.920969
33.502644 52.647018 -8.9234905
33.502209 51.05098 -8.9259968
33.501766 49.454994 -8.9285231
33.501331 47.859043 -8.9310312
33.500893 46.263138 -8.9335451
33.500458 44.667282 -8.9360685
33.358356 42.88932 -9.7528629
40.577358 3.8645124 31.742865
39.827663 1.8965558 27.433517
39.10218 4.0642199e-06 23.263357
38.413589 -1.8292199 19.30525
37.742718 -3.5945404 15.448997
37.094875 -5.2992673 11.725134
36.469074 -6.9464884 8.1279345
35.863869 -8.5390205 4.6491389
35.278423 -10.079545 1.2839153
34.711781 -11.570595 -1.9731998
34.161087 -13.013754 -5.1386757
33.628323 -14.412142 -8.2010536
33.475086 -15.94052 -9.0818853
33.359806 -17.474182 -9.7445383
33.68119 -19.246399 -7.8971739
33.68119 -20.850258 -7.8971825
33.681335 -22.454222 -7.8963337
33.681484 -24.058208 -7.8954792
33.681633 -25.662203 -7.89463
33.681782 -27.266203 -7.8937836
33.681782 -28.870106 -7.8937821
33.681931 -30.474127 -7.8929305
33.682076 -32.078167 -7.8920918
33.682224 -33.682224 -7.8912435
33.682369 -35.286297 -7.8903875
33.682369 -36.890213 -7.8903947
33.682518 -38.494305 -7.8895497
33.682663 -40.098408 -7.8886948
33.682812 -41.70253 -7.8878489
33.682957 -43.306671 -7.8869982
33.682957 -44.910614 -7.8870034
33.683258 -46.514973 -7.8853073
33.683552 -48.119358 -7.8836102
33.683697 -49.723557 -7.8827596
33.68399 -51.327988 -7.8810716
33.684288 -52.932453 -7.8793683
33.684586 -54.536945 -7.8776789
33.684879 -56.141468 -7.8759756
33.380798 -57.224228 -9.6238728
33.365303 -58.786491 -9.7129316
35.342941 53.014412 -7.5795822
35.342319 51.407017 -7.5829768
35.341854 49.799892 -7.5855379
35.341389 48.192799 -7.5880814
35.340923 46.58577 -7.5906396
35.194279 44.792725 -8.3952456
42.112812 3.8284376 29.565689
41.341236 1.8791444 25.332188
40.594772 -1.1069492e-06 21.236429
39.88702 -1.8130466 17.353096
39.196468 -3.5633123 13.564142
38.529602 -5.2540441 9.9051733
37.884876 -6.8881583 6.3676267
37.261364 -8.4684944 2.9465373
36.658051 -9.9976492 -0.36378151
36.073959 -11.478076 -3.5685942
35.516014 -12.914916 -6.6299577
35.342319 -14.458224 -7.5829806
35.191975 -15.996358 -8.4078932
35.530109 -17.76506 -6.5526152
35.530266 -19.380148 -6.551753
35.530422 -20.995251 -6.5509
35.530579 -22.610367 -6.5500374
35.530735 -24.225498 -6.5491834
35.530735 -25.840536 -6.5491776
35.530891 -27.455688 -6.5483174
35.531048 -29.070862 -6.5474539
35.531204 -30.686041 -6.5465918
35.531361 -32.301235 -6.5457401
35.531361 -33.916302 -6.5457325
35.531517 -35.531517 -6.5448766
35.531673 -37.146755 -6.5440149
35.531834 -38.761997 -6.5431547
35.53199 -40.377254 -6.542305
35.532146 -41.992542 -6.5414376
35.532455 -43.608017 -6.5397248
35.532612 -45.223331 -6.5388556
35.532928 -46.838863 -6.5371408
35.533241 -48.454422 -6.5354233
35.533558 -50.070011 -6.533709
35.533871 -51.685631 -6.5319748
35.53418 -53.301277 -6.5302587
35.522587 -54.898548 -6.5938687
35.1992 -55.998734 -8.3682499
35.197201 -57.595421 -8.3792257
37.207294 48.531246 -6.2262793
37.051987 46.71772 -7.0413671
37.052635 45.107559 -7.0379586
43.619865 3.7930353 27.428772
42.827286 1.8620539 23.269072
42.060894 -1.3112149e-06 19.246822
41.334625 -1.7971588 15.435164
40.625374 -3.5326433 11.71279
39.939861 -5.2095466 8.1150084
39.277092 -6.830802 4.6366487
38.635971 -8.3991222 1.271824
38.015434 -9.9170713 -1.9849097
37.414524 -11.387028 -5.1386781
37.234924 -12.95128 -6.0812688
37.049706 -14.497716 -7.0533419
37.086407 -16.124523 -6.8607306
37.40522 -17.88945 -5.1875062
37.405384 -19.515852 -5.1866379
37.405384 -21.142176 -5.1866269
37.405552 -22.768599 -5.1857533
37.405716 -24.395035 -5.1848893
37.405884 -26.021488 -5.1840158
37.406048 -27.647953 -5.1831498
37.406048 -29.274296 -5.1831508
37.406216 -30.900784 -5.182281
37.406384 -32.52729 -5.1814046
37.406548 -34.153809 -5.1805339
37.406712 -35.780334 -5.1796513
37.406883 -37.406887 -5.1787839
37.407211 -39.033615 -5.1770458
37.407375 -40.660194 -5.1761765
37.407711 -42.286987 -5.1744242
37.408043 -43.913792 -5.1726809
37.408375 -45.54063 -5.1709394
37.408707 -47.1675 -5.1691957
37.409042 -48.794403 -5.1674562
37.409206 -50.421101 -5.1665874
37.409534 -52.048054 -5.1648402
37.345188 -53.58223 -5.5025592
37.056877 -54.779732 -7.0157099
37.054756 -56.387676 -7.0268292
45.099304 3.7582693 25.331022
44.286545 1.8452774 21.243153
43.501057 3.2722833e-06 17.292448
42.75729 -1.7815485 13.55159
42.029686 -3.5024767 9.8920345
41.326431 -5.1658087 6.3549323
40.64632 -6.7743855 2.9342451
39.988232 -8.3308849 -0.37567258
39.35112 -9.8377781 -3.5801141
39.12883 -11.412575 -4.6981354
38.933681 -12.977895 -5.6796446
38.935925 -14.600975 -5.6683779
39.306599 -16.377754 -3.8040216
39.306599 -18.015524 -3.8040314
39.306774 -19.653387 -3.8031383
39.306953 -21.291267 -3.8022554
39.307129 -22.929157 -3.8013797
39.307301 -24.567064 -3.8004937
39.307301 -26.20487 -3.8004887
39.307476 -27.842798 -3.7995987
39.307655 -29.480745 -3.7987218
39.307831 -31.118702 -3.7978311
39.308002 -32.756672 -3.7969484
39.308357 -34.394814 -3.795192
39.308533 -36.032825 -3.7942994
39.308884 -37.671013 -3.7925379
39.309238 -39.309242 -3.7907612
39.309586 -40.947491 -3.7889981
39.30994 -42.585762 -3.7872307
39.310116 -44.223881 -3.7863486
39.310467 -45.862209 -3.784579
39.310818 -47.500572 -3.7828128
39.311169 -49.138969 -3.7810326
39.311523 -50.77739 -3.7792628
39.189014 -52.252022 -4.3954258
38.940754 -53.543537 -5.6440868
38.937649 -55.161671 -5.6596966
46.551868 3.7241518 23.271362
45.71973 1.8287908 19.253437
44.915936 2.9280009e-06 15.372378
44.155247 -1.7662092 11.699423
43.410213 -3.4728177 8.1020975
42.689907 -5.122786 4.6241431
41.993114 -6.7188973 1.2597393
41.318703 -8.2637377 -1.996608
41.049736 -9.8519449 -3.2952836
40.844467 -11.436448 -4.2864146
40.845745 -13.070633 -4.2802567
41.234783 -14.844523 -2.4017997
41.23497 -16.49399 -2.4009132
41.235157 -18.143471 -2.4000182
41.23534 -19.792965 -2.3991122
41.235527 -21.442474 -2.3982158
41.235527 -23.091896 -2.3982251
41.23571 -24.741428 -2.3973238
41.235901 -26.390972 -2.3964303
41.236084 -28.040539 -2.3955321
41.236458 -29.690254 -2.3937302
