# .PCD v0.7 - Point Cloud Data file format
VERSION 0.7
FIELDS x y z
SIZE 4 4 4
TYPE F F F
COUNT 1 1 1
WIDTH 1274
HEIGHT 1
VIEWPOINT 0 0 0 1 0 0 0
POINTS 1274
DATA ascii
-633.61877 63.361889 -316.33301
-633.54669 50.683777 -316.50699
-633.47467 38.00848 -316.68079
-633.40271 25.336136 -316.85458
-633.33069 12.66664 -317.02835
-683.71429 -2.0146765e-05 -195.39154
-683.68353 -13.673656 -195.46584
-683.65002 -27.345982 -195.54674
-683.61652 -41.016945 -195.62779
-683.58295 -54.686573 -195.70872
-683.54938 -68.354904 -195.78967
-683.51587 -82.021881 -195.87065
-683.4823 -95.687515 -195.95163
-683.44604 -109.35138 -196.03926
-683.41248 -123.01424 -196.12022
-683.38177 -136.67636 -196.19431
-683.34827 -150.33658 -196.27531
-683.31476 -163.99551 -196.3562
-683.28125 -177.65309 -196.43709
-683.25049 -191.31012 -196.51123
-683.21704 -204.96507 -196.59218
-683.18353 -218.61867 -196.67296
-683.15002 -232.27098 -196.7538
-683.11938 -245.92291 -196.828
-683.08588 -259.57254 -196.90886
-683.05237 -273.22092 -196.98962
-616.71393 62.930031 -326.75937
-616.64667 50.338497 -326.9252
-616.57709 37.749603 -327.09668
-616.50745 25.163605 -327.26819
-616.43787 12.580373 -327.43954
-671.24774 5.1014224e-05 -192.41643
-671.21478 -13.698207 -192.49767
-671.18451 -27.395269 -192.5721
-671.15155 -41.090862 -192.6534
-671.11853 -54.785122 -192.7347
-671.08276 -68.477798 -192.82278
-671.04987 -82.169365 -192.90395
-671.01685 -95.859489 -192.98523
-670.98108 -109.54793 -193.07321
-670.94818 -123.23537 -193.15436
-670.91248 -136.92091 -193.2424
-670.87946 -150.60564 -193.32355
-670.8465 -164.28888 -193.4048
-670.81079 -177.97017 -193.49275
-670.78058 -191.6516 -193.56714
-670.74768 -205.3309 -193.64832
-670.71472 -219.00888 -193.72949
-670.68176 -232.68546 -193.81065
-670.65161 -246.36179 -193.8851
-670.61859 -260.03577 -193.96617
-670.58569 -273.70847 -194.0473
-600.04041 62.504257 -337.039
-599.97308 49.997772 -337.2081
-599.90582 37.494125 -337.37729
-599.83856 24.993311 -337.54642
-599.7713 12.495245 -337.71552
-658.73608 -2.2144835e-05 -189.43044
-658.70367 -13.722969 -189.5121
-658.67126 -27.444567 -189.59361
-658.63879 -41.164871 -189.67517
-658.60638 -54.883839 -189.75674
-658.57129 -68.601158 -189.84505
-658.53888 -82.317352 -189.92659
-658.50372 -96.031761 -190.01495
-658.47131 -109.74519 -190.09647
-658.4389 -123.45725 -190.17799
-658.40381 -137.16743 -190.26627
-658.3714 -150.87672 -190.34776
-658.3363 -164.58408 -190.43597
-658.30389 -178.29062 -190.51746
-658.2688 -191.99506 -190.60573
-658.23639 -205.69888 -190.68723
-658.20398 -219.40129 -190.76868
-658.17163 -233.10237 -190.85014
-658.13922 -246.80222 -190.93153
-658.10681 -260.50058 -191.01302
-658.07446 -274.19763 -191.09436
-583.58868 62.083916 -347.18582
-583.52588 49.661793 -347.34726
-583.46088 37.242168 -347.51413
-583.39594 24.825373 -347.68106
-583.33093 12.411265 -347.84784
-646.17932 2.8081482e-05 -186.43375
-646.1474 -13.74781 -186.51562
-646.11292 -27.494146 -186.60432
-646.08099 -41.239147 -186.68614
-646.04651 -54.982643 -186.7748
-646.01459 -68.724968 -186.85663
-645.98273 -82.465851 -186.93843
-645.94824 -96.205032 -187.0271
-645.91632 -109.94322 -187.10892
-645.88184 -123.67944 -187.1976
-645.85004 -137.41486 -187.2794
-645.81555 -151.14833 -187.3679
-645.78369 -164.88091 -187.4498
-645.75183 -178.61215 -187.53154
-645.71735 -192.34129 -187.62009
-645.68555 -206.06982 -187.70183
-645.65106 -219.79607 -187.79042
-645.6192 -233.52184 -187.87216
-645.58734 -247.2462 -187.95386
-645.55298 -260.9682 -188.04236
-645.52112 -274.68985 -188.12407
-567.35889 61.66946 -357.19177
-567.29822 49.330276 -357.35104
-567.23547 36.993641 -357.51562
-567.17273 24.659721 -357.68039
-567.10999 12.328568 -357.84497
-551.34235 61.260269 -367.07037
-551.28375 49.003075 -367.22754
-551.22321 36.748203 -367.38995
-551.16266 24.496126 -367.55252
-551.10205 12.246751 -367.71497
-535.53693 60.856461 -376.81873
-535.48236 48.680256 -376.96848
-535.42389 36.50621 -377.12885
-535.36548 24.334831 -377.28925
-535.30701 12.166122 -377.44952
-519.94037 60.458179 -386.43417
-519.88776 48.361717 -386.582
-519.83142 36.267262 -386.7402
-519.77502 24.175613 -386.89856
-519.71863 12.086491 -387.05667
-504.54486 60.064857 -395.92981
-504.49411 48.04705 -396.07562
-504.43976 36.031437 -396.23184
-504.38541 24.01841 -396.38812
-504.33109 12.007871 -396.54419
-489.34836 59.676647 -405.30264
-489.30121 47.736713 -405.4415
-489.24881 35.798706 -405.59576
-489.19644 23.863281 -405.74994
-489.1441 11.930361 -405.90405
-474.34872 59.293579 -414.55005
-474.30328 47.430347 -414.68707
-474.25287 35.568993 -414.83932
-474.20242 23.710138 -414.99152
-474.15201 11.853791 -415.14368
-459.53879 58.915237 -423.68451
-459.49506 47.127728 -423.81982
-459.4465 35.342056 -423.97012
-459.39798 23.558893 -424.12039
-459.34943 11.7782 -424.27057
-444.91666 58.541676 -432.70312
-444.87616 46.829094 -432.83176
-444.82944 35.118111 -432.98013
-444.78275 23.409637 -433.12851
-444.73602 11.703602 -433.27689
-430.47882 58.172802 -441.60806
-430.43988 46.534069 -441.73508
-430.39645 34.897053 -441.87671
-430.35153 23.2623 -442.02325
-430.30664 11.629956 -442.16974
-416.22314 57.808796 -450.39664
-416.18576 46.242897 -450.52216
-416.14261 34.678547 -450.66681
-416.09946 23.116667 -450.81149
-416.0563 11.557146 -450.95621
-402.14346 57.449085 -459.08075
-402.10895 45.955345 -459.19983
-402.0675 34.462933 -459.34277
-402.02606 22.972931 -459.48569
-401.98465 11.485294 -459.62854
-388.23792 57.093803 -467.65744
-388.20474 45.671165 -467.77512
-388.16632 34.250015 -467.91156
-388.12659 22.83098 -468.05264
-388.08682 11.414324 -468.19379
-374.50452 56.743134 -476.12402
-374.47278 45.390663 -476.24026
-374.43466 34.039543 -476.37967
-374.39655 22.690712 -476.5191
-374.35843 11.344192 -476.65845
-360.93765 56.396496 -484.49185
-360.90842 45.113544 -484.60202
-360.87189 33.831791 -484.73981
-360.83539 22.55225 -484.87747
-360.79889 11.275 -485.01517
-347.53546 56.054161 -492.75806
-347.50751 44.839676 -492.86691
-347.47372 33.626495 -492.99847
-347.43881 22.415422 -493.13452
-347.40384 11.206592 -493.27054
-334.29614 55.716026 -500.92004
-334.26834 44.56913 -501.03201
-334.23602 33.423618 -501.16205
-334.20261 22.280209 -501.29642
-334.16925 11.138979 -501.43079
-321.21457 55.381821 -508.98856
-321.189 44.301971 -509.09485
-321.15817 33.223305 -509.22324
-321.12625 22.146696 -509.35605
-321.09439 11.072217 -509.48877
-308.28894 55.051617 -516.96082
-308.26459 44.037823 -517.06586
-308.23615 33.025307 -517.18835
-308.20572 22.014755 -517.31958
-308.17529 11.006286 -517.45081
-295.51654 54.725319 -524.83862
-295.49335 43.776783 -524.94244
-295.46628 32.829624 -525.06348
-295.43726 21.884239 -525.19312
-295.40826 10.94106 -525.32281
-282.8956 54.403 -532.61938
-282.87259 43.518867 -532.7262
-282.84775 32.636311 -532.84155
-282.82013 21.755402 -532.96967
-282.79254 10.876652 -533.09778
-270.42157 54.084366 -540.31317
-270.40057 43.26413 -540.41449
-270.37695 32.445286 -540.5285
-270.35074 21.628094 -540.65515
-270.32449 10.812963 -540.7818
-258.11356 64.528381 -547.81299
-258.0928 53.769341 -547.9173
-258.07291 43.012203 -548.01752
-258.05048 32.256336 -548.13019
-258.0256 21.50219 -548.25537
-258.00073 10.750051 -548.38049
-245.9265 64.154778 -555.33026
-245.90762 53.458229 -555.42938
-245.88795 42.763153 -555.53247
-245.86752 32.069714 -555.63971
-245.84395 21.377771 -555.76349
-245.82037 10.687886 -555.88721
-233.87976 63.785381 -562.76111
-233.86191 53.150486 -562.85901
-233.84407 42.517151 -562.95685
-233.82401 31.885071 -563.06696
-233.80244 21.254805 -563.18518
-233.78015 10.626402 -563.30756
-221.97162 63.420517 -570.10278
-221.95409 52.846249 -570.20361
-221.93726 42.273762 -570.30035
-221.91902 31.702732 -570.40521
-221.89798 21.133123 -570.52606
-221.87695 10.565628 -570.64697
-210.19832 63.059513 -577.36481
-210.18245 52.545639 -577.46057
-210.16594 42.033249 -577.56024
-210.14943 31.522467 -577.65985
-210.12962 21.012949 -577.77942
-210.10983 10.505487 -577.89899
-198.55826 62.70266 -584.5448
-198.54338 52.24831 -584.6394
-198.52849 41.795483 -584.73407
-198.51236 31.344069 -584.83643
-198.49437 20.894125 -584.95074
-198.47577 10.446079 -585.06891
-187.0498 62.349922 -591.64001
-187.03529 51.954269 -591.73743
-187.02135 41.560299 -591.83099
-187.00682 31.16785 -591.92841
-186.98938 20.776667 -592.04529
-186.97195 10.387384 -592.16211
-175.66956 62.000999 -598.65973
-175.65599 51.663513 -598.7561
-175.64296 41.327824 -598.84857
-175.62994 30.993528 -598.9411
-175.61366 20.660465 -599.05664
-175.59738 10.32929 -599.17224
-164.41595 61.655994 -605.60138
-164.40382 51.376198 -605.69281
-164.3912 41.097816 -605.78809
-164.37909 30.821115 -605.87952
-164.36444 20.545588 -605.98999
-164.34929 10.271877 -606.10425
-153.28691 61.31477 -612.46606
-153.27567 51.091949 -612.55658
-153.26443 40.870518 -612.64697
-153.25273 30.650608 -612.74121
-153.23915 20.431864 -612.85046
-153.2251 10.215017 -612.96344
-142.28081 60.977524 -619.25153
-142.27 50.810749 -619.34473
-142.25963 40.645638 -619.4342
-142.24925 30.482 -619.52362
-142.23672 20.319523 -619.63171
-142.22375 10.158834 -619.74347
-131.39473 60.643707 -625.96643
-131.38521 50.532803 -626.05499
-131.37527 40.42318 -626.14709
-131.36575 30.315201 -626.2356
-131.35423 20.208391 -626.34247
-131.34273 10.103333 -626.44934
-120.62717 60.313599 -632.60828
-120.61848 50.257721 -632.6958
-120.60977 40.203262 -632.78333
-120.60071 30.150206 -632.87451
-120.59056 20.098452 -632.9765
-120.57969 10.048291 -633.08582
-109.97655 59.987206 -639.1745
-109.96833 49.985634 -639.26465
-109.96043 39.985664 -639.35132
-109.95255 29.987085 -639.43787
-109.94335 19.989721 -639.53882
-109.93349 9.9939651 -639.64697
-99.440269 59.664158 -645.67365
-99.433182 49.71661 -645.75928
-99.425789 39.77034 -645.84851
-99.418686 29.82564 -645.93414
-99.410416 19.882092 -646.03406
-99.401848 9.9402323 -646.13751
-89.016869 59.344597 -652.10321
-89.010551 49.450352 -652.18793
-89.003975 39.557331 -652.27625
-88.99765 29.665936 -652.3609
-88.990547 19.775688 -652.45624
-88.982658 9.8869667 -652.56207
-198.33282 4.8212878e-06 814.07489
-196.05763 -21.784128 783.55933
-196.00017 -43.55555 782.78857
-195.94275 -65.31424 782.01855
-195.88536 -87.06012 781.24872
-195.82674 -108.79259 780.46246
-195.76814 -130.51204 779.67664
-195.70956 -152.21852 778.89117
-195.65106 -173.91203 778.1062
-195.59256 -195.59258 777.32184
-195.5341 -217.26007 776.53772
-195.47569 -238.91469 775.75427
-195.4173 -260.55637 774.97119
-195.35895 -282.18518 774.18866
-78.704765 59.028618 -658.46069
-78.698975 49.186844 -658.54803
-78.693428 39.346756 -658.63184
-78.687637 29.507862 -658.71918
-78.681625 19.670458 -658.81
-78.674675 9.834341 -658.91473
-173.69977 2.7884556e-05 774.90308
-167.26823 -20.908484 677.85889
-167.25465 -41.81358 677.65369
-167.24001 -62.714909 677.43292
-167.22537 -83.612701 677.2121
-167.21179 -104.50726 677.00702
-167.19716 -125.39782 676.78632
-167.18253 -146.28467 676.56561
-167.16895 -167.16895 676.36072
-167.15431 -188.04855 676.13995
-167.13971 -208.92461 675.91943
-167.12613 -229.79837 675.7146
-167.11151 -250.66722 675.49414
-167.09689 -271.53235 675.27356
-68.501701 58.71579 -664.75433
-68.496696 48.92625 -664.8407
-68.491882 39.138218 -664.92371
-68.487076 29.351654 -665.00665
-68.481667 19.566221 -665.09998
-68.475853 9.7823057 -665.20007
-149.78262 6.3951593e-05 736.88495
-145.59505 -20.79924 664.67261
-145.58327 -41.595165 664.46973
-145.57059 -62.387287 664.25116
-145.55792 -83.175919 664.03271
-145.54616 -103.96152 663.82977
-145.53349 -124.74287 663.61127
-145.52083 -145.5208 663.39288
-145.50816 -166.29501 663.1745
-145.4964 -187.06673 662.97174
-145.48373 -207.83389 662.75348
-145.47108 -228.59738 662.53522
-145.45844 -249.35725 662.31696
-145.44669 -270.1152 662.11432
-58.406216 58.406246 -670.98163
-58.402138 48.668442 -671.06366
-58.397884 38.931965 -671.14917
-58.393806 29.196905 -671.23126
-58.389389 19.463169 -671.32013
-58.384293 9.7307539 -671.42267
-126.54862 5.3681117e-05 699.93774
-48.416611 58.099957 -677.14355
-48.413246 48.41325 -677.22479
-48.409882 38.727913 -677.30603
-48.406376 29.043861 -677.39062
-48.402878 19.361181 -677.47516
-48.398674 9.6797543 -677.57666
-103.9706 2.6789054e-05 664.04816
-38.531338 57.797009 -683.23792
-38.528564 48.160702 -683.32159
-38.525902 38.525936 -683.40204
-38.523239 28.892511 -683.48242
-38.520355 19.260204 -683.5694
-38.517025 9.6292419 -683.6698
-82.01976 8.7864137e-06 629.14148
-28.748533 57.497066 -689.2724
-28.746555 47.91095 -689.35187
-28.744497 38.326008 -689.43469
-28.742519 28.742529 -689.51428
-28.740461 19.160326 -689.59711
-28.737991 9.5793476 -689.69647
-60.671455 5.2325213e-05 595.20685
-19.06674 57.200249 -695.24451
-19.065435 47.663635 -695.32318
-19.064129 38.128258 -695.40186
-19.062771 28.594187 -695.48383
-19.061468 19.06144 -695.56256
-19.059839 9.5299215 -695.66095
-39.90036 4.0600262e-05 562.17596
-9.4844303 56.906616 -701.15192
-9.483758 47.418816 -701.23309
-9.4831123 37.932457 -701.31104
-9.4824677 28.447462 -701.38892
-9.4817953 18.963608 -701.47009
-9.4809885 9.4809675 -701.56738
-19.683964 6.9031186e-05 530.04083
2.4981016e-22 56.615761 -707.00232
3.9700812e-22 47.176601 -707.07947
3.381536e-22 37.738636 -707.15979
4.0293056e-22 28.302078 -707.23688
2.6165504e-22 18.866688 -707.3172
3.5184852e-22 9.4325914 -707.41034
-3.9551593e-23 4.0725172e-05 498.7384
9.387991 56.32798 -712.79321
9.3873577 46.936825 -712.86957
9.3866997 37.546799 -712.94904
9.3860664 28.15819 -713.02545
9.3854351 18.770924 -713.10175
9.3846712 9.3846436 -713.19391
19.172184 0.00011063684 468.2634
18.681005 56.04306 -718.52557
18.679752 46.699383 -718.60114
18.678501 37.357048 -718.6767
18.677197 28.015846 -718.75543
18.675945 18.675941 -718.83087
18.674433 9.337245 -718.92218
37.85218 5.3049287e-05 438.55743
27.880556 55.76112 -724.19702
27.878618 46.464359 -724.27496
27.87676 37.169006 -724.34973
27.874901 27.874868 -724.42456
27.872965 18.581966 -724.5025
27.870794 9.2902555 -724.58966
56.059025 2.5734043e-06 409.617
36.987915 55.48188 -729.81488
36.985462 46.231884 -729.88892
36.982906 36.982895 -729.96606
36.980453 27.735336 -730.04016
36.977997 18.488998 -730.11414
36.975136 9.2438097 -730.2005
73.809944 3.4622375e-05 381.38828
46.004517 55.205429 -735.37665
46.00148 46.001484 -735.44995
45.99844 36.798752 -735.52332
45.995277 27.597193 -735.59973
45.992241 18.396885 -735.67291
45.988701 9.197772 -735.75848
91.122566 2.369687e-05 353.86942
54.931858 54.9319 -740.88031
54.928097 45.773434 -740.95587
54.924492 36.616348 -741.0285
54.920883 27.460409 -741.10107
54.917122 18.305759 -741.17676
54.913067 9.1522007 -741.25836
108.01203 6.4740547e-05 327.01044
63.775154 63.775188 -746.2608
63.770985 54.660896 -746.33264
63.766815 45.547787 -746.4046
63.762474 36.435741 -746.47943
63.758305 27.324989 -746.55133
63.754135 18.215492 -746.62317
63.749451 9.1070766 -746.70398
124.49474 3.6120273e-06 300.81094
72.528236 63.462181 -751.65735
72.523323 54.392521 -751.73145
72.5186 45.324188 -751.80267
72.513885 36.257 -751.8739
72.508972 27.190905 -751.94806
72.504257 18.126099 -752.01917
72.498955 9.0623999 -752.09924
140.58397 5.3390468e-05 275.22449
81.195625 63.152145 -757.00415
81.190361 54.126968 -757.07465
81.184883 45.102741 -757.14813
81.179634 36.07983 -757.21857
81.174377 27.05813 -757.289
81.168907 18.03754 -757.36237
81.163216 9.018158 -757.43884
156.29504 3.1016123e-05 250.25165
89.778717 62.845116 -762.29889
89.772934 53.863789 -762.36884
89.767143 44.883545 -762.43854
89.761124 35.904476 -762.51129
89.755341 26.926617 -762.58105
89.749321 17.949902 -762.65381
89.743301 8.9743576 -762.72644
171.6396 8.1474187e-05 225.8492
98.279022 62.541222 -767.53967
98.272461 53.603199 -767.61169
98.266159 44.666473 -767.68085
98.259598 35.730774 -767.75281
98.253296 26.79635 -767.8219
98.246994 17.863136 -767.89111
98.240173 8.9309235 -767.96588
186.63196 5.8409416e-05 202.01889
106.69723 62.240047 -772.73279
106.69013 53.345066 -772.80408
106.68333 44.45142 -772.87256
106.67652 35.558842 -772.94098
106.66943 26.667372 -773.01233
106.66263 17.777122 -773.08075
106.65554 8.8880091 -773.1521
116.98167 1.8991732e-05 -669.27924
116.96292 -9.7468729 -669.46777
116.94417 -19.490686 -669.65643
116.92543 -29.231329 -669.84497
116.90601 -38.968647 -670.04028
116.88695 -48.702888 -670.23206
116.86755 -58.433746 -670.42725
116.84849 -68.161583 -670.6189
116.82944 -77.886276 -670.81055
116.81006 -87.607498 -671.00555
116.79102 -97.325844 -671.19708
116.77164 -107.04067 -671.39191
116.75262 -116.75259 -671.58331
116.73326 -126.46099 -671.77802
116.71425 -136.16661 -671.9693
116.6949 -145.86859 -672.16394
116.6759 -155.56789 -672.35498
116.65691 -165.26392 -672.54614
116.63758 -174.95636 -672.74048
116.61859 -184.64607 -672.93146
116.59928 -194.33212 -673.12573
116.58031 -204.01555 -673.31653
116.561 -213.69516 -673.51074
116.54205 -223.37225 -673.70142
116.52276 -233.04555 -673.89545
116.50382 -242.71628 -674.086
116.48489 -252.38391 -674.27655
116.46561 -262.04764 -674.47034
116.44669 -271.70892 -674.66071
116.42743 -281.36627 -674.85449
115.03475 61.941807 -777.87604
115.02744 53.089626 -777.94391
115.01984 44.238438 -778.01453
115.01253 35.38847 -778.08234
115.00523 26.539656 -778.15015
114.99763 17.692003 -778.22083
114.99032 8.8454027 -778.28857
123.70634 4.8361959e-05 -697.35657
123.68697 -9.5143528 -697.53632
123.66763 -19.02577 -697.716
123.64828 -28.534206 -697.89563
123.62894 -38.039692 -698.0752
123.6096 -47.542133 -698.2547
123.59029 -57.041649 -698.4342
123.57096 -66.538185 -698.61359
123.55164 -76.031761 -698.79297
123.53233 -85.522362 -698.97229
123.51233 -95.009476 -699.15796
123.49268 -104.49378 -699.34045
123.47269 -113.97476 -699.52612
123.45305 -123.45306 -699.70844
123.43342 -132.92828 -699.89069
123.41345 -142.40013 -700.07617
123.39383 -151.86931 -700.2583
123.37387 -161.33507 -700.4436
123.35426 -170.79822 -700.62567
123.33432 -180.25783 -700.81091
123.31473 -189.71495 -700.9928
123.29479 -199.16849 -701.17786
123.27521 -208.61954 -701.35968
123.25565 -218.06767 -701.5415
123.23573 -227.51208 -701.72638
123.21617 -236.95415 -701.90802
123.19627 -246.39253 -702.09277
123.17671 -255.82854 -702.27435
123.15683 -265.26086 -702.45905
123.13728 -274.69083 -702.64038
123.11742 -284.11716 -702.82495
123.29274 61.646412 -782.97034
123.28494 52.836456 -783.03754
123.27715 44.027603 -783.10474
123.26904 35.219761 -783.17468
123.26125 26.413122 -783.24182
123.25346 17.607691 -783.30902
123.24535 8.8032732 -783.37891
130.11757 9.1533966e-06 -724.12531
130.09769 -9.292676 -724.29681
130.0778 -18.58252 -724.4682
130.05792 -27.869543 -724.63959
130.03807 -37.153694 -724.81091
130.0182 -46.435055 -724.98218
129.99834 -55.713543 -725.15338
129.97813 -64.989037 -725.32764
129.95828 -74.261902 -725.49866
129.93845 -83.531822 -725.66974
129.91861 -92.799011 -725.8407
129.89879 -102.06332 -726.01166
129.87897 -111.32484 -726.18256
129.85916 -120.5835 -726.35339
129.83936 -129.83936 -726.52417
129.81955 -139.09235 -726.69489
129.79939 -148.34216 -726.86871
129.77925 -157.58904 -727.04248
129.75874 -166.83267 -727.21924
129.73862 -176.07379 -727.39282
129.71812 -185.31152 -727.56952
129.69798 -194.54703 -727.74298
129.67787 -203.77951 -727.91644
129.65741 -213.00859 -728.09302
129.6373 -222.23535 -728.26636
129.61684 -231.45865 -728.44275
129.59676 -240.67969 -728.61597
129.57631 -249.89716 -728.79224
129.55621 -259.1124 -728.96539
129.5358 -268.32413 -729.14154
129.51573 -277.53372 -729.31458
131.47269 61.353935 -788.01343
131.46407 52.585644 -788.08276
131.4558 43.818577 -788.14929
131.44754 35.052689 -788.21588
131.43892 26.287794 -788.28516
131.43066 17.524096 -788.35168
131.42239 8.7615242 -788.41821
136.2368 4.7070418e-05 -749.67487
136.21646 -9.0810757 -749.83856
136.19611 -18.15946 -750.00226
136.17578 -27.235136 -750.16595
136.15544 -36.308105 -750.32953
136.13475 -45.378262 -750.49603
136.11444 -54.445759 -750.65948
136.09413 -63.510593 -750.823
136.07382 -72.572701 -750.98639
136.05351 -81.632095 -751.14978
136.03322 -90.688782 -751.31311
136.01294 -99.742783 -751.47638
135.99266 -108.79411 -751.63953
135.97238 -117.84273 -751.80267
135.95212 -126.88863 -751.96582
135.93185 -135.93182 -752.12885
135.91159 -144.97237 -752.29193
135.89134 -154.01018 -752.45483
135.87109 -163.04527 -752.6178
135.85086 -172.07779 -752.78058
135.83063 -181.10745 -752.94342
135.81039 -190.13454 -753.1062
135.78981 -199.15837 -753.27191
135.76924 -208.17947 -753.4375
135.74829 -217.19727 -753.60602
135.72772 -226.21286 -753.77161
135.70679 -235.22507 -753.94006
135.68623 -244.23518 -754.10541
135.66568 -253.24261 -754.27087
135.64478 -262.24655 -754.43915
135.62422 -271.2485 -754.60437
135.60333 -280.24686 -754.77252
139.57501 61.064133 -793.01172
139.56628 52.337414 -793.0777
139.55717 43.611618 -793.1463
139.54845 34.887142 -793.21222
139.5397 26.163704 -793.27814
139.53061 17.441338 -793.34674
139.52188 8.7201481 -793.41266
142.08353 1.2294307e-05 -774.08655
142.06277 -8.8789253 -774.24304
142.04204 -17.755262 -774.39954
142.02092 -26.628901 -774.5589
142.00018 -35.500015 -774.71527
141.97946 -44.368549 -774.87164
141.95874 -53.23452 -775.02789
141.93803 -62.097885 -775.1842
141.91733 -70.958649 -775.34039
141.89662 -79.816818 -775.49658
141.87593 -88.67244 -775.65271
141.85524 -97.525497 -775.80878
141.83456 -106.37589 -775.96478
141.81389 -115.22376 -776.12085
141.79321 -124.06905 -776.27673
141.77255 -132.9118 -776.43262
141.75189 -141.75186 -776.5885
141.73125 -150.58945 -776.74426
141.71059 -159.42442 -776.90002
141.68996 -168.25681 -777.05579
141.66931 -177.08665 -777.21143
141.6487 -185.91393 -777.36707
141.62807 -194.7386 -777.52264
141.60745 -203.56073 -777.67816
141.58685 -212.38026 -777.83368
141.56624 -221.19724 -777.98907
141.54564 -230.01164 -778.14453
141.52505 -238.82353 -778.29987
141.50409 -247.63214 -778.45795
141.48314 -256.43817 -778.61609
141.46181 -265.24091 -778.77692
141.44087 -274.04169 -778.93494
141.41957 -282.83911 -779.0957
147.60117 60.776917 -797.96295
147.59196 52.091301 -798.02832
147.58276 43.406673 -798.09357
147.57318 34.723141 -798.16162
147.564 26.040728 -798.22687
147.55481 17.359385 -798.29211
147.54523 8.6791649 -798.36011
147.67516 -1.7061388e-05 -797.43756
147.65407 -8.6855192 -797.5874
147.63297 -17.368595 -797.73706
147.61189 -26.049114 -797.88684
147.59082 -34.727264 -798.03644
147.56975 -43.402836 -798.1861
147.54868 -52.075974 -798.33569
147.52762 -60.746647 -798.48523
147.50656 -69.414864 -798.63464
147.48552 -78.080559 -798.78406
147.46448 -86.74379 -798.93353
147.44344 -95.404556 -799.08289
147.42241 -104.06289 -799.23224
147.4014 -112.71868 -799.38147
147.38037 -121.37203 -799.53076
147.35936 -130.02295 -799.67987
147.33835 -138.67137 -799.8291
147.32384 -147.32382 -799.93213
147.31239 -155.97786 -800.01343
147.30055 -164.63005 -800.09747
147.28911 -173.28131 -800.17871
147.27728 -181.93079 -800.2627
147.26584 -190.5793 -800.34399
147.25401 -199.22598 -800.42798
147.24257 -207.87183 -800.50922
147.23074 -216.51579 -800.5932
147.2193 -225.15892 -800.67438
147.20749 -233.80014 -800.7583
147.19606 -242.44052 -800.83948
147.18423 -251.07903 -800.9234
147.17281 -259.71674 -801.00452
147.161 -268.35236 -801.08844
147.14957 -276.98743 -801.16949
147.13777 -285.62036 -801.25336
155.55257 60.492676 -802.86517
155.54253 51.847507 -802.93256
155.53288 43.20364 -802.99731
155.52324 34.560749 -803.06195
155.51318 25.918898 -803.12939
155.50354 17.278193 -803.19397
155.49391 8.6385365 -803.25867
155.47142 1.3160965e-05 -803.40942
155.45898 -8.6365738 -803.49292
155.44652 -17.271795 -803.57642
155.43449 -25.905729 -803.6571
155.42204 -34.538208 -803.7406
155.40961 -43.169353 -803.82397
155.39717 -51.799011 -803.90747
155.38513 -60.427525 -803.98816
155.3727 -69.054535 -804.07147
155.36067 -77.680328 -804.15216
155.34824 -86.304573 -804.23553
155.33621 -94.927689 -804.31616
155.32378 -103.54916 -804.39954
155.31177 -112.16959 -804.48016
155.29935 -120.78838 -804.56342
155.28732 -129.40607 -804.6441
155.27492 -138.02216 -804.72736
155.26288 -146.63719 -804.80786
155.25047 -155.25049 -804.89111
155.23846 -163.86278 -804.97168
155.22604 -172.4734 -805.05493
155.21405 -181.08299 -805.13544
155.20204 -189.69135 -805.216
155.18964 -198.29788 -805.29919
155.17763 -206.9035 -805.37964
155.16524 -215.50723 -805.46277
155.15323 -224.11021 -805.54327
155.14084 -232.71126 -805.6264
155.12885 -241.31148 -805.70685
155.11644 -249.90979 -805.78998
155.10445 -258.50742 -805.87036
155.09206 -267.10303 -805.95343
155.08009 -275.69791 -806.03381
155.0677 -284.29074 -806.11694
163.42953 60.210865 -807.72443
163.41943 51.606186 -807.78857
163.40894 43.002369 -807.85529
163.39886 34.399769 -807.91937
163.38876 25.798267 -807.98346
163.37827 17.197737 -808.05017
163.36819 8.5983696 -808.11426
163.34761 -4.4552471e-06 -808.245
163.33459 -8.5965462 -808.32764
163.32158 -17.191767 -808.41034
163.30856 -25.785566 -808.49298
163.29555 -34.378025 -808.57568
163.28253 -42.969082 -808.65839
163.26955 -51.558769 -808.74103
163.25694 -60.147251 -808.82098
163.24394 -68.734261 -808.90356
163.23094 -77.319923 -808.98615
163.21796 -85.904144 -809.06873
163.20496 -94.487068 -809.15131
163.19196 -103.06857 -809.23389
163.17937 -111.64901 -809.31372
163.1664 -120.22785 -809.3963
163.15382 -128.80565 -809.47614
163.14082 -137.38179 -809.55865
163.12827 -145.95688 -809.63843
163.11528 -154.53023 -809.72095
163.10272 -163.10274 -809.80078
163.08974 -171.6734 -809.88318
163.07719 -180.24321 -809.96295
163.06421 -188.81117 -810.04547
163.05167 -197.37831 -810.12518
163.03868 -205.9436 -810.20758
163.02614 -214.50807 -810.28729
163.01318 -223.07065 -810.36969
163.00063 -231.63246 -810.4494
162.98808 -240.19298 -810.52911
162.97511 -248.75151 -810.61145
162.96259 -257.30933 -810.6911
162.94963 -265.86514 -810.77344
162.9371 -274.42035 -810.85297
162.92413 -282.97348 -810.93536
171.23344 59.931705 -812.53857
171.22292 51.366871 -812.60211
171.21242 42.803135 -812.66559
171.20145 34.240295 -812.73175
171.19095 25.678638 -812.79523
171.17999 17.118017 -812.86133
171.16946 8.5584688 -812.9248
171.15062 -4.8280999e-06 -813.03845
171.13705 -8.5568123 -813.12042
171.12349 -17.112337 -813.20233
171.10991 -25.666466 -813.2843
171.09677 -34.219326 -813.36353
171.08321 -42.770775 -813.44537
171.06966 -51.320847 -813.52728
171.05608 -59.869637 -813.60913
171.04253 -68.417 -813.69104
171.02896 -76.962997 -813.77283
171.01541 -85.507706 -813.85461
171.00186 -94.051018 -813.93646
170.98874 -102.59322 -814.01562
170.97519 -111.13388 -814.09735
170.96162 -119.67313 -814.1792
170.94809 -128.21103 -814.26093
170.93454 -136.74763 -814.34265
170.92101 -145.28284 -814.42438
170.90746 -153.81671 -814.5061
170.89436 -162.34962 -814.58521
170.88083 -170.88081 -814.66687
170.86774 -179.41109 -814.74591
170.8542 -187.93961 -814.82758
170.84111 -196.46725 -814.90662
170.82758 -204.99312 -814.98828
170.8145 -213.51808 -815.06726
170.80098 -222.04123 -815.14886
170.78789 -230.56363 -815.22791
170.77437 -239.08411 -815.30951
170.76129 -247.60387 -815.38837
170.74777 -256.12164 -815.47003
170.7347 -264.63876 -815.54889
170.72119 -273.1539 -815.63043
170.70811 -281.66833 -815.70929
178.96579 59.655293 -817.30573
178.95439 51.12986 -817.37128
178.94344 42.605564 -817.4342
178.93204 34.082329 -817.49976
178.92111 25.560165 -817.56262
178.91017 17.03907 -817.62549
178.89877 8.5190105 -817.69098
178.88237 9.2298396e-06 -817.78528
178.86824 -8.5175095 -817.86652
178.85411 -17.033695 -817.94769
178.84 -25.548534 -818.02881
178.82588 -34.062035 -818.10999
178.81177 -42.574223 -818.19104
178.79765 -51.085007 -818.27222
178.78354 -59.594505 -818.35333
178.76988 -68.102791 -818.43182
178.75577 -76.609634 -818.51294
178.74168 -85.115051 -818.59399
178.72757 -93.619217 -818.67505
178.71347 -102.12201 -818.75604
178.69937 -110.62343 -818.8371
178.68529 -119.12351 -818.91815
178.6712 -127.62225 -818.99915
178.6571 -136.11967 -819.08014
178.64346 -144.61613 -819.15857
178.62938 -153.11087 -819.2395
178.61528 -161.60429 -819.3205
178.60121 -170.09642 -819.40137
178.58713 -178.58716 -819.4823
178.57304 -187.07654 -819.56323
178.55898 -195.56453 -819.64417
178.54491 -204.05128 -819.72504
178.53128 -212.53728 -819.80328
178.51721 -221.02129 -819.88422
178.5036 -229.50465 -819.96246
178.48953 -237.98602 -820.04327
178.47592 -246.46677 -820.12146
178.46187 -254.94548 -820.20233
178.44827 -263.42365 -820.28052
178.43422 -271.89975 -820.36133
178.42061 -280.37524 -820.43951
186.62663 59.381195 -822.03168
186.61481 50.895012 -822.09668
186.60344 42.409912 -822.159
186.5921 33.925846 -822.22131
186.58026 25.442785 -822.28619
186.56889 16.960835 -822.34857
186.55756 8.4798946 -822.41083
186.54289 1.4912801e-05 -822.49127
186.52823 -8.4785194 -822.57178
186.51357 -16.955746 -822.65216
186.49892 -25.431654 -822.73254
186.48474 -33.906288 -822.81042
186.47008 -42.379539 -822.89075
186.45543 -50.851448 -822.97119
186.44078 -59.322044 -823.05151
186.42613 -67.791267 -823.1319
186.41148 -76.259209 -823.21222
186.39685 -84.725807 -823.29254
186.38222 -93.191086 -823.37292
186.36757 -101.65503 -823.45325
186.35341 -110.11792 -823.53094
186.33878 -118.5792 -823.61121
186.32416 -127.0392 -823.69147
186.30952 -135.49783 -823.77179
186.29489 -143.95509 -823.85193
186.28027 -152.41109 -823.93219
186.26566 -160.8658 -824.01245
186.25104 -169.31912 -824.09259
186.23689 -177.77155 -824.17029
186.22227 -186.22229 -824.25043
186.20767 -194.67166 -824.33063
186.19305 -203.11966 -824.41077
186.17845 -211.56641 -824.49091
186.16383 -220.01183 -824.57098
186.14925 -228.45587 -824.65118
186.13464 -236.89862 -824.73126
186.12004 -245.34003 -824.81134
186.10593 -253.78076 -824.88892
186.09132 -262.21964 -824.96887
186.07674 -270.65704 -825.04901
186.06262 -279.0939 -825.1264
196.27425 59.735668 -815.91968
196.26224 51.198833 -815.98273
196.25021 42.663128 -816.0459
196.2377 34.128334 -816.11157
196.22568 25.594681 -816.17462
196.21365 17.062063 -816.23767
196.20114 8.530448 -816.30328
341.57291 2.988453e-05 -53.350121
208.89987 60.929184 -795.33875
208.88684 52.22176 -795.40436
208.87323 43.515259 -795.47272
208.8602 34.810051 -795.53833
208.84715 26.105906 -795.60388
208.83356 17.402834 -795.67224
208.82053 8.700882 -795.73785
353.58176 -5.9038239e-06 -67.644913
222.04028 62.171268 -773.91858
222.02556 53.28614 -773.98975
222.0114 44.402321 -774.05811
221.99725 35.519596 -774.1264
221.98251 26.637924 -774.19757
221.96837 17.757528 -774.26587
221.95363 8.878211 -774.33704
365.40063 6.18962e-05 -81.713737
235.71165 54.39502 -751.68109
235.69568 45.32613 -751.75525
235.68036 36.258533 -751.82642
235.66502 27.192167 -751.89758
235.64905 18.126894 -751.97174
235.63373 9.0628834 -752.04291
377.03232 1.3828188e-05 -95.569191
249.97879 55.550888 -728.42731
249.96219 46.289333 -728.50153
249.94557 37.028992 -728.57581
249.92828 27.769855 -728.65308
249.91168 18.512001 -728.72729
249.89508 9.2553492 -728.80151
388.48438 4.19971e-05 -109.20123
264.86618 56.757076 -704.16052
264.84818 47.2943 -704.23804
264.82947 37.832802 -704.31879
264.81149 28.37266 -704.3963
264.79352 18.913849 -704.47375
264.77554 9.4563074 -704.55127
399.75946 3.1557174e-06 -122.62257
280.4144 58.016788 -678.81653
280.39413 48.343819 -678.90094
280.37469 38.672379 -678.98187
280.35522 29.002262 -679.06293
280.33496 19.333479 -679.14722
280.31714 9.666152 -679.2215
410.85989 3.6465153e-05 -135.84544
296.66763 59.333515 -652.32562
296.64658 49.441074 -652.41028
296.62463 39.549946 -652.49854
296.60361 29.660387 -652.58325
296.58255 19.772249 -652.66797
296.56415 9.8854551 -652.74194
421.79306 6.6367626e-05 -148.85977
313.6767 60.711678 -624.60052
313.65295 50.589218 -624.69287
313.63019 40.468384 -624.78162
313.60742 30.349131 -624.8703
313.58368 20.23122 -624.96259
313.5657 10.115046 -625.03278
432.5611 4.1627177e-06 -161.67741
331.46896 51.79208 -595.65375
331.44434 41.430576 -595.74664
331.41867 31.070505 -595.84351
331.39404 20.712103 -595.93646
331.37558 10.355468 -596.0061
443.16583 -7.5525313e-06 -174.30991
350.15283 53.053474 -565.20001
350.12509 42.43943 -565.3017
350.09842 31.827139 -565.39917
350.07178 21.216473 -565.49664
350.05289 10.607673 -565.56573
453.61456 -1.0449557e-05 -186.74751
369.76834 54.37775 -533.23016
369.7395 43.498741 -533.33264
369.70944 32.621464 -533.43933
369.68057 21.745922 -533.54175
369.66254 10.872411 -533.60571
463.90897 3.603784e-05 -199.00148
390.38947 55.769943 -499.61896
390.3569 44.612244 -499.73117
390.32565 33.456532 -499.83896
390.2944 22.302553 -499.94672
390.27621 11.15075 -500.00955
474.05051 -1.9052959e-05 -211.08221
412.09277 57.235138 -464.24609
412.05893 45.784321 -464.35965
412.02509 34.335476 -464.47311
411.98984 22.888315 -464.59134
411.97293 11.443699 -464.6481
484.0463 4.7780311e-05 -222.98065
434.96881 58.779587 -426.95959
434.9321 47.019741 -427.07928
434.89389 35.261681 -427.20401
434.85876 23.505877 -427.31863
434.84039 11.752493 -427.37854
493.89767 5.348695e-05 -234.70712
459.11368 60.409725 -387.60495
459.0722 48.323383 -387.7366
459.03241 36.23941 -387.86304
458.99594 24.157759 -387.97894
458.97604 12.078314 -388.04208
503.60568 1.4225633e-05 -246.27164
638.24573 -16.795883 181.42535
638.20404 -33.58963 181.29305
638.16553 -50.381458 181.17085
638.12714 -67.171295 181.04872
638.08545 -83.958603 180.91635
638.047 -100.74426 180.79427
638.00861 -117.52785 180.67212
637.96692 -134.30879 180.53979
637.92847 -151.08833 180.41779
637.89008 -167.86581 180.2957
637.84845 -184.64032 180.16348
637.81006 -201.41368 180.04141
637.77161 -218.18498 179.91945
637.73004 -234.95311 179.78728
637.69165 -251.72038 179.6653
637.6532 -268.48547 179.54323
637.61163 -285.24725 179.41116
484.59094 49.701622 -346.14438
484.5459 37.272762 -346.28372
484.50992 24.84672 -346.39517
484.48834 12.422762 -346.46201
513.17737 9.1876318e-06 -257.66519
652.25708 -16.724493 172.80656
652.2179 -33.446999 172.68541
652.17877 -50.167568 172.56427
652.13641 -66.885765 172.43314
652.09723 -83.602226 172.31203
652.05811 -100.31655 172.19086
652.01569 -117.02843 172.05975
651.97662 -133.73877 171.93869
651.93427 -150.44633 171.80756
651.8952 -167.15257 171.68652
651.85602 -183.8568 171.56554
651.81372 -200.55806 171.43442
651.77466 -217.25816 171.31345
651.73553 -233.95636 171.1925
651.69318 -250.65125 171.06143
651.65411 -267.34531 170.94049
651.61505 -284.03729 170.8195
511.60608 51.160667 -302.11606
511.55911 38.366955 -302.25769
511.52194 25.576105 -302.36984
511.4985 12.787474 -302.44073
522.61371 2.9656841e-05 -268.89755
666.15308 -16.653774 164.27081
666.11328 -33.305653 164.15065
666.07013 -49.955238 164.02061
666.03033 -66.603012 163.90048
665.99054 -83.248787 163.78038
665.94745 -99.89212 163.65033
665.90765 -116.53384 163.53021
665.86456 -133.17285 163.40013
665.82477 -149.81053 163.28015
665.78503 -166.4462 163.1601
665.74194 -183.07898 163.03015
665.70215 -199.71062 162.91022
665.66241 -216.34023 162.79015
665.61932 -232.96671 162.66025
665.57965 -249.59233 162.54027
665.53662 -266.21463 162.41043
665.49689 -282.83615 162.2905
540.25739 52.708084 -255.41835
540.20624 39.527294 -255.5687
540.16797 26.349697 -255.68153
540.1424 13.174232 -255.75662
540.11688 -1.1970112e-05 -255.8318
682.63348 -16.649597 163.76038
682.59277 -33.297188 163.64035
682.54858 -49.94257 163.51021
682.50781 -66.586105 163.39015
682.46362 -83.227242 163.2601
682.42291 -99.86673 163.1402
682.38208 -116.5042 163.02017
682.33801 -133.13904 162.89015
682.29718 -149.77254 162.77023
682.25647 -166.40396 162.65025
682.21234 -183.03256 162.52036
682.17163 -199.65993 162.40034
682.12744 -216.2843 162.27057
682.08673 -232.90768 162.15067
682.04608 -249.52899 162.03067
682.00189 -266.14706 161.90091
681.96124 -282.76437 161.78104
570.69592 54.352024 -205.80759
570.63794 40.759865 -205.97415
570.60083 27.171501 -206.08072
570.573 13.585125 -206.16077
570.54523 1.9028237e-05 -206.24068
700.77643 -16.685127 168.05226
700.73096 -33.368141 167.92162
700.68903 -50.04916 167.80098
700.64703 -66.728264 167.68053
700.60168 -83.404968 167.54993
700.55969 -100.07993 167.42932
700.51776 -116.75298 167.3089
700.47235 -133.42332 167.17834
700.43042 -150.09218 167.0578
700.38501 -166.75833 166.92731
700.34314 -183.4232 166.80688
700.30121 -200.08609 166.68649
700.2558 -216.7458 166.55594
700.21393 -233.40462 166.43555
700.17206 -250.06139 166.31523
700.12671 -266.71487 166.18481
700.08484 -283.36765 166.06445
603.09174 56.101631 -153.0096
603.03107 42.071991 -153.18001
602.99316 28.046251 -153.28647
602.96283 14.022456 -153.37166
602.9325 6.636414e-05 -153.45682
718.99695 -16.720825 172.3624
718.9502 -33.439537 172.23129
718.9071 -50.15625 172.11018
718.86395 -66.871033 171.98909
718.81726 -83.583374 171.85803
718.77417 -100.29404 171.73694
718.72742 -117.00212 171.60582
718.68433 -133.70866 171.48476
718.64124 -150.41328 171.36386
718.59454 -167.11501 171.2328
718.55145 -183.81543 171.1118
718.50482 -200.51297 170.9808
718.46167 -217.20927 170.85982
718.4187 -233.90375 170.73898
718.37561 -250.59613 170.61806
718.33246 -267.28644 170.49707
718.28589 -283.97345 170.36618
637.64539 57.967758 -96.691826
637.57635 43.471184 -96.881401
637.54041 28.979141 -96.979843
637.50732 14.488805 -97.070816
637.47412 8.9650148e-06 -97.16169
737.29199 -16.756649 176.68108
737.24768 -33.511242 176.55948
737.20337 -50.263836 176.43777
737.15533 -67.014046 176.30608
737.11102 -83.762596 176.18451
737.06671 -100.50909 176.06302
737.01874 -117.25299 175.93135
736.97443 -133.99529 175.80975
736.92645 -150.73495 175.67818
736.88214 -167.47313 175.55659
736.83789 -184.20946 175.43517
736.79358 -200.94365 175.31371
736.74567 -217.67482 175.18214
736.70135 -234.40497 175.06067
736.6571 -251.13304 174.93927
736.61285 -267.85919 174.81789
736.5686 -284.58328 174.69643
674.50146 44.966747 -36.701164
674.46515 29.976252 -36.79847
674.42889 14.987304 -36.895836
674.39258 2.9289828e-05 -36.993176
755.66931 -16.792595 181.02832
755.62378 -33.583275 180.90619
755.57825 -50.371815 180.784
755.52893 -67.158112 180.65176
755.4834 -83.942612 180.52972
755.43408 -100.72452 180.39748
755.38855 -117.50482 180.27533
755.34302 -134.28322 180.15335
755.29376 -151.05869 180.02106
755.24829 -167.83295 179.89909
755.20276 -184.60509 179.77711
755.15735 -201.37531 179.65512
755.11188 -218.14339 179.53313
755.06262 -234.90829 179.40094
755.01715 -251.67235 179.27907
754.97168 -268.43433 179.15712
754.92621 -285.19437 179.03519
714.06116 46.569267 27.776237
714.02136 31.044413 27.671864
713.98163 15.521352 27.567585
713.94183 3.8774648e-05 27.463205
774.12573 -16.828758 185.39433
774.07898 -33.655571 185.27159
774.02832 -50.480057 185.13884
773.98157 -67.302689 185.01616
773.93488 -84.123337 184.89354
773.88428 -100.94138 184.76071
773.83752 -117.75784 184.63814
773.79083 -134.57231 184.51561
773.74408 -151.3847 184.39302
773.69354 -168.19418 184.26025
773.64685 -185.00247 184.13768
773.6001 -201.80869 184.01518
773.55341 -218.61285 183.89262
773.50677 -235.4151 183.77026
773.45618 -252.21396 183.63747
773.40961 -269.01196 183.51503
773.36292 -285.80801 183.39258
756.54468 48.290161 97.018944
756.50092 32.191547 96.906754
756.45728 16.094858 96.794571
756.41357 4.2574728e-05 96.682365
792.66187 -16.86515 189.77925
792.61389 -33.72823 189.65601
792.56189 -50.589043 189.52255
792.51392 -67.447952 189.39938
792.46594 -84.304863 189.27625
792.41803 -101.1597 189.15305
792.36615 -118.01189 189.01968
792.31818 -134.86264 188.89667
792.27026 -151.7113 188.77356
792.22229 -168.55792 188.65041
792.17438 -185.40247 188.52731
792.1225 -202.24405 188.39412
792.07458 -219.08441 188.27107
792.02667 -235.92285 188.14807
791.97882 -252.75917 188.02504
791.92694 -269.59213 187.89177
791.87903 -286.42435 187.76891
802.28839 50.143082 171.57556
802.2403 33.426743 171.45451
802.19214 16.7124 171.33353
802.14404 4.8502938e-05 171.21257
811.27814 -16.901554 194.18303
811.22888 -33.80117 194.05931
811.17566 -50.698437 193.92523
811.12646 -67.593819 193.80161
811.07727 -84.487183 193.67784
811.02808 -101.3785 193.55418
810.97894 -118.26769 193.4305
810.92566 -135.15422 193.29665
810.87646 -152.03929 193.17297
810.82733 -168.9223 193.04939
810.7782 -185.80325 192.92574
810.72906 -202.6823 192.80226
810.67584 -219.55801 192.66835
810.62671 -236.43279 192.54482
810.57764 -253.30544 192.42123
810.5285 -270.17615 192.29781
810.47528 -287.0433 192.16399
