# .PCD v0.7 - Point Cloud Data file format
VERSION 0.7
FIELDS x y z
SIZE 4 4 4
TYPE F F F
COUNT 1 1 1
WIDTH 1515
HEIGHT 1
VIEWPOINT 0 0 0 1 0 0 0
POINTS 1515
DATA ascii
-88.378281 -137.47729 -660.66815
-86.8153 -144.69217 -681.63129
-85.306404 -151.65582 -701.86914
-84.712128 -160.01176 -709.83966
-85.028763 -170.05748 -705.5929
-85.347763 -180.17863 -701.31427
-85.669174 -190.37593 -697.00348
-85.993011 -200.65038 -692.66003
-86.320793 -211.00639 -688.26379
-154.03894 250.31332 478.24417
-148.78653 223.17982 398.99136
-143.87973 197.83467 324.95367
-139.28697 174.10869 255.65408
-134.97766 151.84993 190.63174
-130.92764 130.92769 129.52158
-127.11298 111.22387 71.96283
-123.48751 92.615707 17.258736
-120.06635 75.041565 -34.362621
-116.84597 58.423035 -82.954407
-113.79819 42.674362 -128.94186
-110.90582 27.726475 -172.58432
-108.15639 13.51962 -214.06992
-105.54041 3.9543567e-05 -253.54201
-103.04759 -12.880933 -291.15588
-100.67019 -25.167542 -327.02808
-98.399643 -36.899826 -361.28787
-96.229614 -48.114769 -394.03119
-94.152893 -58.845543 -425.36639
-92.164238 -69.123161 -455.37292
-90.257545 -78.975334 -484.14276
-88.428436 -88.428406 -511.74185
-86.671707 -97.505638 -538.24884
-84.983696 -106.2296 -563.71906
-83.359909 -114.61985 -588.22003
-81.797264 -122.6959 -611.79852
-80.291893 -130.47427 -634.51288
-78.841148 -137.97203 -656.40283
-77.441681 -145.20317 -677.5191
-76.091248 -152.1825 -697.89557
-75.670265 -160.79932 -704.24768
-75.954498 -170.89758 -699.95905
-76.240662 -181.07156 -695.64124
-76.52919 -191.32297 -691.28754
-76.819931 -201.65227 -686.9007
-135.73993 252.08844 494.72748
-131.07906 224.70694 414.35352
-126.72831 199.14456 339.32767
-122.65711 175.22447 269.12231
-118.83875 152.79276 203.27693
-115.2515 131.71608 141.41719
-111.87395 111.87396 83.173317
-108.67157 93.147102 27.950277
-105.64265 75.459099 -24.281601
-102.78793 58.736034 -73.509506
-100.09328 42.897099 -119.97708
-97.535896 27.867464 -164.07771
-95.106316 13.586651 -205.9742
-92.794479 2.5210113e-05 -245.84039
-90.592712 -12.941819 -283.8085
-88.492668 -25.283573 -320.02246
-86.488106 -37.066261 -354.58994
-84.572044 -48.326874 -387.63129
-82.739334 -59.099445 -419.23529
-80.984085 -69.414902 -449.50348
-79.302032 -79.301987 -478.50949
-77.688171 -88.786484 -506.33945
-76.13868 -97.892609 -533.05933
-74.65004 -106.64291 -558.73016
-73.218254 -115.05723 -583.42029
-71.840584 -123.15528 -607.17731
-70.513596 -130.9538 -630.06055
-69.234932 -138.46988 -652.11023
-68.001625 -145.71779 -673.37787
-66.811676 -152.71236 -693.89783
-66.538773 -161.59413 -698.60382
-66.789948 -171.74557 -694.27258
-67.043022 -181.97388 -689.90839
-67.298019 -192.28006 -685.51105
-67.55497 -202.66489 -681.08014
-117.17953 253.88902 511.44617
-113.12821 226.25641 429.94006
-109.34827 200.47188 353.89334
-105.81219 176.35378 282.75305
-102.49818 153.7473 216.08025
-99.384949 132.51331 153.44691
-96.455734 112.53174 94.515663
-93.684616 93.684631 38.765141
-91.057129 75.880989 -14.096063
-88.578468 59.052361 -63.962914
-86.244141 43.122086 -110.92578
-84.029343 28.009827 -155.48412
-81.925781 13.654339 -197.80438
-79.924652 1.6645012e-05 -238.06392
-78.019257 -13.003124 -276.39764
-76.202309 -25.400816 -312.95184
-74.468338 -37.234161 -347.8367
-72.811256 -48.540836 -381.17462
-71.22657 -59.355438 -413.05612
-69.709145 -69.709175 -443.58414
-68.255272 -79.631081 -472.83401
-66.860573 -89.147392 -500.89316
-65.521942 -98.282906 -527.82422
-64.235657 -107.05945 -553.70221
-62.999107 -115.49836 -578.57977
-61.809071 -123.61814 -602.52148
-60.663342 -131.43719 -625.57178
-59.559139 -138.97131 -647.78656
-58.494587 -146.23647 -669.20374
-57.467258 -153.24603 -689.87195
-57.316555 -162.3969 -692.90387
-57.533997 -172.60193 -688.52936
-57.75309 -182.88478 -684.12146
-57.973858 -193.24615 -679.67993
-58.196663 -203.68828 -675.19757
-98.351509 255.71396 528.39166
-94.928093 227.82748 445.7431
-91.734985 201.817 368.65445
-88.749229 177.49844 296.57193
-85.952148 154.71385 229.0444
-83.325569 133.32094 165.63329
-80.855148 113.19726 105.9921
-78.523315 94.228058 49.696609
-76.30793 76.307945 -3.7875268
-74.217407 59.373909 -54.257153
-72.248993 43.349403 -101.77897
-70.384361 28.153816 -146.79509
-68.613281 13.722706 -189.55287
-66.929413 5.6058732e-05 -230.20515
-65.325951 -13.065225 -268.91599
-63.797764 -25.519112 -305.80954
-62.339214 -37.403481 -341.02213
-60.946087 -48.756809 -374.65527
-59.613651 -59.613583 -406.82315
-58.338432 -70.006111 -437.60962
-57.116432 -79.962997 -467.11127
-55.944767 -89.511642 -495.39783
-54.820019 -98.676056 -522.55151
-53.739788 -107.47953 -548.6308
-52.701134 -115.94247 -573.70612
-51.702023 -124.08486 -597.8266
-50.739941 -131.92381 -621.05341
-49.81316 -139.47682 -643.42792
-48.919483 -146.75844 -665.00317
-48.057304 -153.78334 -685.81799
-48.002396 -163.20811 -687.14355
-48.185413 -173.46748 -682.72516
-48.369827 -183.80534 -678.27301
-48.555664 -194.22267 -673.7865
-48.743214 -204.72147 -669.25861
-79.251328 257.56693 545.59662
-76.473457 229.42039 461.767
-73.883331 203.17924 383.60281
-71.46328 178.65829 310.57147
-69.196388 155.69189 242.16183
-67.069229 134.13847 177.96906
-65.068947 113.87067 117.60526
-63.184223 94.776398 60.728718
-61.3918 76.739792 6.6374903
-59.700397 59.70042 -44.405029
-58.105755 43.579346 -92.527695
-56.598156 28.299118 -138.0235
-55.167038 13.791787 -181.21143
-53.80629 3.0599433e-05 -222.27562
-52.511257 -13.127768 -261.35654
-51.276905 -25.638451 -298.60635
-50.099251 -37.574409 -334.14532
-48.974655 -48.974663 -368.08295
-47.899265 -59.874081 -400.53561
-46.870255 -70.305374 -431.58884
-45.884365 -80.2976 -461.34061
-44.939255 -89.878448 -489.862
-44.032143 -99.072334 -517.23645
-43.161068 -107.90265 -543.5235
-42.323654 -116.39001 -568.79474
-41.518242 -124.55471 -593.1001
-40.742794 -132.41408 -616.5014
-39.995899 -139.98563 -639.04102
-39.275776 -147.28415 -660.77252
-38.581242 -154.32495 -681.73206
-38.594597 -164.02704 -681.32892
-38.742489 -174.34119 -676.86597
-38.891514 -184.7347 -672.36871
-39.041691 -195.2085 -667.83667
-39.193493 -205.76581 -663.25562
-59.87233 259.44684 563.05267
-57.758949 231.03581 478.01657
-55.789364 204.561 398.76675
-53.949966 179.83331 324.7551
-52.227718 156.68318 255.45721
-50.612282 134.96611 190.45708
-49.09354 114.55162 129.34766
-47.663517 95.327049 71.807945
-46.306534 77.177597 17.207129
-45.02306 60.030788 -34.435707
-43.811501 43.811569 -83.185318
-42.668877 28.445944 -129.16093
-41.584511 13.861535 -172.79234
-40.55373 3.5929261e-05 -214.26784
-39.572975 -13.190957 -253.73055
-38.638382 -25.758879 -291.33554
-37.747059 -37.747044 -327.19946
-36.895798 -49.194347 -361.45175
-36.082211 -60.136978 -394.1879
-35.303608 -70.607216 -425.51636
-34.558018 -80.635284 -455.51669
-33.843155 -90.248383 -484.28055
-33.157375 -99.472099 -511.87418
-32.498734 -108.32906 -538.37592
-31.865847 -116.84141 -563.84125
-31.257046 -125.02817 -588.33759
-30.67116 -132.90833 -611.91174
-30.106747 -140.49814 -634.62195
-29.562819 -147.81407 -656.508
-29.038111 -154.86987 -677.62067
-29.092001 -164.85466 -675.45215
-29.204042 -175.22424 -670.94397
-29.31695 -185.67401 -666.40094
-29.430735 -196.20485 -661.82263
-29.545841 -206.82092 -657.1911
-40.208359 261.35431 580.76532
-38.778793 232.67276 494.48309
-37.447594 205.96179 414.13831
-36.204563 181.0228 339.11472
-35.041584 157.68715 268.92279
-33.950996 135.80405 203.10016
-32.926083 115.2413 141.2411
-31.96139 95.884186 83.016617
-31.048155 77.620438 27.898058
-30.182253 60.364529 -24.363823
-29.36437 44.046638 -73.727386
-28.594412 28.59446 -120.19853
-27.863916 13.932008 -164.28784
-27.169922 6.9105328e-05 -206.17406
-26.509556 -13.25476 -246.03076
-25.880629 -25.880636 -283.98987
-25.280754 -37.92112 -320.19553
-24.708149 -49.416306 -354.75522
-24.160822 -60.402073 -387.78928
-23.637302 -70.911896 -419.38647
-23.135908 -80.975624 -449.64841
-22.65542 -90.621651 -478.64841
-22.194408 -99.874794 -506.47284
-21.751785 -108.75893 -533.18744
-21.326542 -117.29597 -558.85327
-20.91754 -125.50521 -583.53876
-20.523993 -133.40591 -607.29144
-20.14492 -141.0144 -630.17047
-19.779655 -148.3474 -652.21613
-19.427343 -155.41873 -673.48004
-19.492968 -165.69022 -669.51923
-19.568422 -176.11578 -664.96515
-19.644464 -186.62238 -660.37567
-19.721098 -197.21094 -655.75037
-19.798683 -207.88617 -651.06763
-20.25309 263.29022 598.74054
-19.52787 234.3345 511.19843
-18.852896 207.38188 429.72192
-18.222923 182.22932 353.67752
-17.633785 158.70415 282.56229
-17.081459 136.65173 215.89055
-16.562765 115.93935 153.27866
-16.074566 96.447418 94.347733
-15.613667 78.068321 38.712311
-15.175568 60.702297 -14.170935
-14.762035 44.28614 -64.088684
-14.372171 28.744366 -111.14946
-14.003132 14.003156 -155.69646
-13.652626 6.3237872e-05 -198.0063
-13.319184 -13.319111 -238.25613
-13.001694 -26.003363 -276.58075
-12.698938 -38.096752 -313.12659
-12.410007 -49.639957 -348.00357
-12.133888 -60.669445 -381.33405
-11.86983 -71.218941 -413.20868
-11.616981 -81.318832 -443.73035
-11.374717 -90.997673 -472.97415
-11.142315 -100.28081 -501.02759
-10.919254 -109.19253 -527.95337
-10.704915 -117.75405 -553.82635
-10.498862 -125.98629 -578.69922
-10.30056 -133.90726 -602.63641
-10.10964 -141.53493 -625.68243
-9.9256392 -148.8846 -647.89325
-9.7582302 -156.13165 -668.10138
-9.7961626 -166.53474 -663.5224
-9.8342772 -177.01697 -658.92169
-9.8726883 -187.58107 -654.28497
-9.9113712 -198.22743 -649.61554
-9.9506254 -208.96315 -644.87714
3.5531522e-22 265.25333 616.96893
-9.9864388e-23 236.02008 528.15417
3.2551784e-22 208.82047 445.50885
3.6535652e-22 183.45187 368.43588
-7.7530588e-23 159.73422 296.37866
2.0334786e-22 137.51071 228.85245
2.3844862e-22 116.64595 165.46292
3.6801414e-22 97.017731 105.82232
1.1686184e-22 78.520424 49.625435
4.2664748e-22 61.044155 -3.8548057
3.7640492e-23 44.528511 -54.336777
1.6518928e-22 28.895847 -102.00501
-6.4145196e-23 14.075101 -147.00966
-1.8595302e-22 3.7917998e-05 -189.75677
8.6832507e-24 -13.384212 -230.39917
-8.1501398e-23 -26.127308 -269.10086
4.6590756e-22 -38.274288 -305.98581
6.047903e-22 -49.865799 -341.1904
-1.7410324e-23 -60.939369 -374.81616
1.1033804e-22 -71.528694 -406.97705
-2.5277845e-22 -81.665245 -437.75705
5.7467737e-22 -91.376945 -467.2525
2.1364878e-22 -100.69044 -495.53339
2.4395987e-22 -109.62927 -522.6817
1.3690319e-22 -118.21612 -548.75586
1.0377128e-22 -126.47072 -573.82635
3.4637709e-22 -134.41278 -597.94244
2.7193765e-23 -142.0589 -621.16486
2.0789188e-22 -149.4261 -643.53534
2.9330707e-22 -156.92894 -662.08655
5.7487361e-22 -167.38748 -657.46765
-1.4721503e-22 -177.9269 -652.81964
-2.2090882e-23 -188.54909 -648.13501
-2.5086736e-23 -199.255 -643.41357
7.5754881e-24 -210.05066 -638.62579
20.557505 267.24765 635.48651
19.810837 237.73009 545.35577
19.116398 210.28047 461.52951
18.469099 184.69107 383.39352
17.864103 160.77696 310.36417
17.297577 138.38071 241.9783
16.765793 117.3606 177.78638
16.265812 97.594872 117.4333
15.794787 78.974014 60.575558
15.347597 61.390434 6.5950465
14.924433 44.773308 -44.485416
14.524547 29.049114 -92.756104
14.147742 14.147772 -138.24028
13.790052 8.0976766e-05 -181.41737
13.449948 -13.449943 -222.47147
13.126268 -26.252544 -261.54309
12.817752 -38.453182 -298.78436
12.523406 -50.093575 -334.31519
12.242319 -61.211567 -368.24524
11.97353 -71.841148 -400.69098
11.716332 -82.014297 -431.73755
11.469912 -91.759323 -461.48303
11.233682 -101.10307 -489.99866
11.006948 -110.06945 -517.36768
10.789222 -118.68143 -543.6496
10.579908 -126.95892 -568.91589
10.378594 -134.92172 -593.21674
10.184768 -142.58673 -616.61371
9.9980774 -149.97115 -639.14923
9.8583984 -157.73433 -656.01007
9.897028 -168.24947 -651.34698
9.9359026 -178.84622 -646.65448
9.9751139 -189.52711 -641.92126
10.014694 -200.29387 -637.14331
10.054773 -211.15025 -632.30542
41.426464 269.272 654.28448
39.910599 239.46368 562.79388
38.501976 211.76086 477.77585
37.189392 185.94701 398.55453
35.963161 161.83434 324.54501
34.815399 139.2616 255.27119
33.738457 118.08465 190.27208
32.726307 98.17894 129.18324
31.772961 79.432404 71.643951
30.870312 61.74065 17.16416
30.01403 45.02108 -34.517075
29.204988 29.204998 -83.346954
28.442287 14.221194 -129.37993
27.719561 2.1770566e-05 -173.00046
27.032543 -13.516215 -214.46571
26.37886 -26.378878 -253.91887
25.755947 -38.633926 -291.51511
25.161867 -50.323704 -327.37097
24.594484 -61.486168 -361.61545
24.052214 -72.156609 -394.34454
23.533257 -82.366402 -425.66629
23.036299 -92.145111 -455.6604
22.55982 -101.51918 -484.4183
22.102726 -110.51358 -512.00641
21.663717 -119.15043 -538.50293
21.241875 -127.45124 -563.96338
20.836082 -135.43451 -588.45514
20.445564 -143.11893 -612.0249
20.069359 -150.52014 -634.73102
19.818457 -158.54762 -649.87433
19.896456 -169.11987 -645.16656
19.975073 -179.77565 -640.42163
20.054314 -190.51598 -635.63898
20.134308 -201.34305 -630.81104
62.614017 271.32751 673.36957
60.306015 241.22411 580.50287
58.162457 213.26244 494.25247
56.16573 187.21916 413.91049
54.301846 162.90561 338.91367
52.557423 140.15311 268.72339
50.921848 118.81769 202.91287
49.384995 98.770004 141.07477
47.937958 79.896667 82.850685
46.571152 62.094936 27.854479
45.271339 45.271374 -24.446016
44.044621 29.363157 -73.805222
42.886116 14.295409 -120.41979
41.790649 4.1330553e-05 -164.49803
40.74992 -13.583311 -206.37379
39.759605 -26.506323 -246.22099
38.816433 -38.81638 -284.17123
37.916832 -50.555805 -320.36847
37.058117 -61.763515 -354.92044
36.237309 -72.47464 -387.94727
35.452194 -82.721825 -419.53778
34.70026 -92.534019 -449.7933
33.979675 -101.93904 -478.78729
33.2883 -110.96104 -506.60617
32.624496 -119.62315 -533.31555
31.986752 -127.94698 -558.97644
31.373365 -135.95123 -583.65717
30.783154 -143.65469 -607.40546
30.214649 -151.07324 -630.28033
29.881752 -159.36934 -643.67511
29.999882 -169.99931 -638.92188
30.11904 -180.71425 -634.12732
30.239147 -191.51459 -629.29456
30.360586 -202.40392 -624.40833
81.003532 243.0106 598.47406
78.103729 214.78523 510.96454
75.403931 188.50986 429.49103
72.884941 163.99118 353.47391
70.528442 141.05695 282.36023
68.319908 119.55987 215.71156
66.245155 99.367783 153.1004
64.293007 80.36631 94.189209
62.452621 62.45261 38.650742
60.700069 45.525036 -14.237333
59.045532 29.522758 -64.167351
57.48127 14.370317 -111.37307
56.005489 3.1241521e-05 -155.9088
54.603813 -13.65094 -198.20804
53.270374 -26.635107 -238.44826
52.00071 -39.000504 -276.76376
50.789963 -50.789951 -313.30115
49.634502 -62.043106 -348.17032
48.53027 -72.795387 -381.49353
47.474266 -83.079971 -413.36118
46.463078 -92.92614 -443.8764
45.494225 -102.36198 -473.11423
44.564804 -111.41194 -501.16205
43.672737 -120.10003 -528.08246
42.815548 -128.44662 -553.95038
41.991493 -136.47231 -578.81854
41.198429 -144.19447 -602.75128
40.434895 -151.63083 -625.79309
40.049786 -160.19908 -637.41479
40.209061 -170.88847 -632.60828
40.369606 -181.66322 -627.76324
40.531441 -192.52431 -622.87958
40.695068 -203.47533 -617.94153
102.00993 244.82385 616.7135
98.331268 216.32886 527.90289
94.909241 189.81851 445.28766
91.716873 165.09036 368.21722
88.732742 141.97246 296.17407
85.936676 120.31137 228.67111
83.311035 99.973289 165.28239
80.841469 80.841499 105.66182
78.513733 62.811031 49.465168
76.303055 45.781876 -3.9053075
74.210823 29.684385 -54.416283
72.23214 14.446458 -102.18583
70.366592 4.5405497e-05 -147.22414
68.59639 -13.719234 -189.96059
66.913338 -26.765326 -230.59311
65.310638 -39.186378 -269.28561
63.783165 -51.026512 -306.16214
62.325275 -62.325237 -341.3587
60.932758 -73.119293 -374.97699
59.600899 -83.441238 -407.13092
58.326221 -93.321953 -437.90433
57.104733 -102.78852 -467.3938
55.933537 -111.86703 -495.66895
54.809238 -120.5803 -522.81183
53.729424 -128.95061 -548.88092
52.691166 -136.99702 -573.94659
51.692432 -144.7388 -598.05817
50.730705 -152.19208 -621.27637
50.324253 -161.03761 -631.08899
50.52544 -171.78647 -626.23193
50.728245 -182.62167 -621.33582
50.932678 -193.54416 -616.40027
51.139709 -204.55879 -611.40216
123.33214 246.66438 635.22711
118.85235 217.896 545.10077
114.68725 191.14551 461.30536
110.80358 166.20547 383.17181
107.17489 142.8999 310.16824
103.7758 121.07179 241.78386
100.58619 100.58624 177.61397
97.586334 81.321976 117.26144
94.760666 63.173859 60.413479
92.083054 46.041595 6.5439868
89.543007 29.847723 -44.557777
87.142349 14.523764 -92.855072
84.875687 2.7328097e-05 -138.45705
82.73008 -13.788293 -181.62326
80.689957 -26.896639 -222.66733
78.748344 -39.374168 -261.72971
76.897675 -51.265144 -298.96222
75.131989 -62.609921 -334.48499
73.445847 -73.445824 -368.40759
71.833466 -83.805733 -400.84613
70.290611 -93.72081 -431.88611
68.812386 -103.21857 -461.62546
67.395294 -112.32543 -490.13528
66.035172 -121.06445 -517.4989
64.729065 -129.45815 -543.77563
63.473431 -137.52574 -569.03711
62.265774 -145.28676 -593.33337
61.103024 -152.75751 -616.72607
60.707024 -161.88538 -624.69287
60.951004 -172.69452 -619.78448
61.196953 -183.59085 -614.83636
61.444889 -194.57552 -609.84821
61.696175 -205.65388 -604.79272
144.97647 248.53114 654.00568
139.67293 219.48611 562.54956
134.74295 192.49002 477.535
130.14984 167.3356 398.32993
125.85957 143.83958 324.34665
121.84248 121.84245 255.07439
118.07447 101.20673 190.09753
114.53198 81.808609 129.00934
111.19638 63.540802 71.48909
108.04309 46.304211 17.112574
105.04439 30.012709 -34.598282
102.21344 14.601947 -83.416214
99.535316 -1.699725e-05 -129.59894
97.006401 -13.858029 -173.20844
94.602432 -27.029264 -214.66347
92.315086 -39.56358 -254.10722
90.135391 -51.505951 -291.69464
88.056587 -62.89753 -327.54239
86.071198 -73.775307 -361.77917
84.17366 -84.173599 -394.50107
82.357697 -94.123108 -425.81625
80.618713 -103.65263 -455.80399
78.951378 -112.78768 -484.55615
77.351875 -121.55292 -512.13867
75.815643 -129.96967 -538.63
74.339478 -138.05899 -564.08557
72.919472 -145.83893 -588.57263
71.552917 -153.32767 -612.13806
71.199478 -162.74165 -618.23285
71.487144 -173.61162 -613.27228
71.777145 -184.56978 -608.27136
72.069504 -195.61722 -603.22974
72.366051 -206.76013 -598.11603
166.95195 250.42807 673.08655
160.79961 221.09959 580.25482
155.08369 193.85461 494.00821
149.76103 168.48125 413.69556
144.79082 144.79085 338.70081
140.14064 122.62315 268.53513
135.77919 101.83448 202.72569
131.68166 82.301018 140.89871
127.82418 63.912109 82.694008
124.1857 46.56963 27.793657
120.72029 30.180149 -24.495319
117.44717 14.680894 -73.88298
114.3488 1.1020894e-05 -120.63373
111.4278 -13.928455 -164.7081
108.65321 -27.163258 -206.57362
106.01301 -39.754803 -246.41118
103.49848 -51.749229 -284.35245
101.10009 -63.187511 -320.54144
98.810692 -74.108002 -355.08569
96.622345 -84.544487 -388.10529
94.529167 -94.529182 -419.689
92.524429 -104.08993 -449.93814
90.603264 -113.25404 -478.92624
88.759964 -122.04498 -506.73944
86.990173 -130.48523 -533.44354
85.289848 -138.59599 -559.09949
83.654457 -146.39528 -583.77563
82.080856 -153.90157 -607.51947
81.803772 -163.60753 -611.70032
82.13604 -174.53908 -606.68671
82.471031 -185.55981 -601.63214
82.809021 -196.67142 -596.53235
83.151596 -207.87897 -591.36322
189.26547 252.35405 692.46075
182.23808 222.73544 598.20758
175.7149 195.23886 510.71674
169.64258 169.64272 429.27292
163.97505 145.75568 353.25809
158.67477 123.41374 282.16943
153.70564 102.47049 215.52197
149.03905 82.7995 152.93211
144.64674 64.287521 94.021332
140.50659 46.835587 38.492271
136.57205 30.349407 -14.278956
132.84717 14.760857 -64.23819
129.32341 1.680159e-05 -111.49978
125.99653 -13.999565 -156.12099
122.84354 -27.298515 -198.40987
119.84402 -39.947941 -238.64027
116.98795 -51.994564 -276.94678
114.2644 -63.480175 -313.47574
111.6652 -74.443436 -348.33701
109.18122 -84.918694 -381.65289
106.80573 -94.938416 -413.51379
104.53104 -104.53099 -444.02252
102.35156 -113.72388 -473.25433
100.26079 -122.54096 -501.29645
98.254036 -131.00534 -528.21155
96.325729 -139.13716 -554.07446
94.471962 -146.95634 -578.93793
92.687912 -154.47983 -602.86615
92.521225 -164.48215 -605.10181
92.899048 -175.47592 -600.0343
93.279968 -186.55992 -594.92523
93.664619 -197.7364 -589.76624
94.054214 -209.00935 -584.54089
211.92487 254.30988 712.13538
203.99744 224.39725 616.44299
196.64288 196.64291 527.66565
189.79907 170.81924 445.05365
183.41663 146.73329 368.01071
177.44853 124.2141 295.96939
171.85747 103.11454 228.47917
166.60796 83.304039 165.11205
161.66887 64.667587 105.49197
157.01492 47.104488 49.313919
152.60263 30.520563 -3.9472806
148.41505 14.841477 -54.495712
144.45802 -1.5124812e-05 -102.26116
140.71542 -14.07147 -147.43861
137.1759 -27.43515 -190.16437
133.81061 -40.143162 -230.78702
130.60597 -52.242355 -269.47043
127.55173 -63.775833 -306.33835
124.63661 -74.781876 -341.52701
121.8522 -85.296486 -375.13779
119.18906 -95.35125 -407.28473
116.64024 -104.9762 -438.05167
114.19775 -114.19773 -467.535
111.85585 -123.04138 -495.80444
109.6077 -131.52922 -522.94196
107.44849 -139.68301 -549.00598
105.37238 -147.5213 -574.06689
103.37528 -155.06288 -598.17389
103.35419 -165.36671 -598.42841
103.77854 -176.42354 -593.30615
104.20605 -187.57091 -588.14557
104.63875 -198.81363 -582.92249
105.07637 -210.15274 -577.63995
234.93674 256.29465 732.10083
226.08391 226.08391 634.9527
217.87404 198.06731 544.85986
210.23833 172.0132 461.06784
203.1208 147.72427 382.96265
196.4684 125.02539 309.96106
190.23891 103.76667 241.60036
184.39137 83.814278 177.4314
178.89348 65.052216 117.09911
173.71394 47.376564 60.260426
168.81505 30.693726 6.501451
164.15558 14.923296 -44.6301
159.75404 2.8199267e-05 -92.931282
155.58568 -14.144186 -138.67365
151.65306 -27.573256 -181.82907
147.91374 -40.340107 -222.86322
144.35495 -52.492645 -261.91626
140.96286 -64.074005 -299.14014
137.72652 -75.123497 -334.65472
134.63594 -85.677406 -368.56979
131.68054 -95.767647 -401.00134
128.85257 -105.42487 -432.0347
126.14307 -114.6755 -461.76797
123.54559 -123.54559 -490.27191
121.05253 -132.05727 -517.63007
118.65847 -140.23273 -543.90167
116.35691 -148.09058 -569.15833
114.14329 -155.64993 -593.45001
114.30396 -166.2603 -591.68677
114.7758 -177.38075 -586.50891
115.25156 -188.59341 -581.28809
115.73274 -199.90199 -576.00781
116.21942 -211.30803 -570.66711
248.50491 227.79619 653.74255
239.4136 199.51129 562.29083
230.96532 173.22397 477.30771
223.09171 148.72791 398.10529
215.73837 125.8475 324.13663
208.85434 104.42724 254.88841
202.39502 84.331299 189.91272
196.3242 65.441391 128.84511
190.60606 47.651566 71.325066
185.21246 30.868809 17.069553
180.07204 15.006033 -34.639
175.21539 4.4282362e-05 -83.493202
170.61745 -14.218085 -129.74486
166.27602 -27.712667 -173.41637
162.15593 -40.539021 -214.86119
158.23572 -52.745262 -254.29558
154.49998 -64.375 -291.87421
150.93712 -75.468475 -327.71375
147.53435 -86.061714 -361.94293
144.28215 -96.188103 -394.65759
141.16972 -105.87727 -425.96613
138.18922 -115.15769 -455.9476
135.33153 -124.05384 -484.69388
132.59006 -132.59003 -512.27094
129.95705 -140.7868 -538.75702
127.42696 -148.66475 -564.20764
124.99313 -156.24136 -588.69019
125.3727 -167.16359 -584.87195
125.89307 -178.3485 -579.63745
126.41777 -189.62666 -574.35938
126.94927 -201.00299 -569.01294
127.48606 -212.47675 -563.61316
271.26813 229.53464 672.81927
261.27109 200.97778 579.99231
251.98618 174.45193 493.77774
243.33714 149.74602 413.46777
235.26343 126.68035 338.49988
227.70708 105.0956 268.33572
220.62213 84.854759 202.54892
213.96478 65.835335 140.73247
207.69643 47.929924 82.528175
201.78584 31.043991 27.645807
196.16606 15.089725 -24.536377
190.84326 -1.6554783e-05 -73.960747
185.80887 -14.292966 -120.70742
181.04756 -27.853479 -164.9182
176.53995 -40.740009 -206.7733
172.25067 -53.000195 -246.6013
168.16551 -64.678978 -284.53378
164.26901 -75.816467 -320.71439
160.54959 -86.44973 -355.25089
156.99431 -96.611855 -388.26328
153.59361 -106.33401 -419.84021
150.33659 -115.64356 -450.08295
147.21535 -124.5668 -479.06512
144.22058 -133.12669 -506.87277
141.34525 -141.3452 -533.57159
138.58275 -149.24295 -559.2226
135.99463 -156.91682 -583.25446
136.56281 -168.07729 -577.97864
137.13274 -179.32741 -572.68665
137.70741 -190.67178 -567.3504
138.29004 -202.1162 -561.94055
283.4523 202.46597 597.95599
273.30557 175.69655 510.46909
263.86169 150.77821 429.04211
255.04866 127.52431 353.05441
246.804 105.77324 281.96747
239.07692 85.384666 215.34302
231.81784 66.233727 152.75391
224.98769 48.211685 93.862862
218.54745 31.221064 38.333992
212.4406 15.174413 -14.320521
206.64203 4.2207543e-05 -64.31678
201.16197 -14.368631 -111.56696
195.96999 -27.995682 -156.33322
191.06656 -40.942833 -198.61154
186.40178 -53.257641 -238.8322
181.96004 -64.985741 -277.12964
177.72438 -76.167587 -313.65024
173.6821 -86.840988 -348.50369
169.81897 -97.039383 -381.81232
166.12456 -106.79433 -413.66623
162.5869 -116.13344 -444.16867
159.19731 -125.08362 -473.39426
155.94563 -133.66768 -501.43079
152.82465 -141.90857 -528.34058
149.82564 -149.82565 -554.19849
147.25775 -157.77617 -576.33929
147.87544 -169.00049 -571.01355
148.49599 -180.3165 -565.66321
149.12175 -191.72797 -560.26776
149.75664 -203.24117 -554.79352
305.96445 203.97636 616.18762
294.93311 176.95993 527.41431
284.67114 151.82465 444.83264
275.09778 128.379 367.79211
266.1488 106.45958 295.77621
257.76236 85.920853 228.28734
249.88954 66.637283 164.93178
242.48337 48.49675 105.33159
235.50249 31.400373 49.153713
228.8987 15.259969 -3.9893205
222.61469 4.8211594e-05 -54.559391
216.6777 -14.445142 -102.3365
211.05092 -28.140097 -147.61726
205.73853 -41.147732 -190.3681
200.69182 -53.51778 -230.98082
195.886 -65.295311 -269.65509
191.30571 -76.52227 -306.51447
186.93401 -87.235847 -341.69519
182.75832 -97.471085 -375.29849
178.76447 -107.25865 -407.4386
174.94206 -116.62802 -438.19897
171.27908 -125.60461 -467.67624
167.76694 -134.21355 -495.93988
164.39539 -142.47597 -523.07208
161.15721 -150.41336 -549.13092
158.64442 -158.64439 -569.35217
159.31355 -169.93446 -563.96747
159.98579 -181.31723 -558.55774
160.66425 -192.79709 -553.0979
161.35211 -204.37936 -547.56238
316.8739 178.24167 544.60504
305.77148 152.88574 460.84378
295.4191 129.24591 382.74103
285.74628 107.15482 309.76529
276.68536 86.464195 241.40599
268.1828 67.045784 177.25888
260.18591 48.784851 116.92729
252.65335 31.58168 60.098412
245.54242 15.34642 6.4504991
238.76537 -2.1750055e-05 -44.678307
232.36044 -14.522464 -92.999825
226.29401 -28.286783 -138.76752
220.55899 -41.354733 -182.03493
215.12131 -53.780308 -223.05893
209.94614 -65.608162 -262.10266
205.01332 -76.879929 -299.31793
200.30699 -87.6343 -334.82449
195.81259 -97.906242 -368.73203
191.51479 -107.72707 -401.15656
187.40222 -117.12633 -432.18335
183.46196 -126.13006 -461.91037
179.68457 -134.76343 -490.40848
176.05902 -143.04794 -517.76111
172.57744 -151.00525 -544.02765
170.15765 -159.52278 -562.28357
170.87823 -170.87822 -556.84717
171.6033 -182.32846 -551.37708
172.33563 -193.87759 -545.85187
173.07764 -205.52965 -540.25403
339.13486 179.5421 562.04657
327.16696 153.96097 477.06699
316.01672 130.12459 397.89325
305.59979 107.85876 323.92664
295.84927 87.014481 254.69167
286.70169 67.459259 189.73808
278.10147 49.076782 128.67119
270.00345 31.765175 71.170219
262.36252 15.433116 16.914745
255.09521 1.528191e-05 -34.687737
248.21097 -14.600645 -83.570107
241.69777 -28.435005 -129.81792
235.52841 -41.563831 -173.62431
229.69305 -54.045429 -215.05888
224.14075 -65.923729 -254.48378
218.84969 -77.241028 -292.05377
213.80348 -88.036652 -327.88504
208.98396 -98.345383 -362.10666
204.37766 -108.19993 -394.81415
199.96935 -117.629 -426.116
195.74786 -126.66037 -456.09125
191.70026 -135.31781 -484.8316
187.81731 -143.62494 -512.40314
184.08792 -151.60176 -538.88403
181.79907 -160.41095 -555.13629
182.57268 -171.8331 -549.64325
183.3517 -183.35168 -544.11163
184.13919 -194.97087 -538.51996
184.93651 -206.69371 -532.85864
348.86752 155.05229 493.53363
336.8963 131.0153 413.2529
325.71762 108.57262 338.28714
315.25864 87.571899 268.14746
305.44891 67.877533 202.36188
296.23267 49.372135 140.55646
287.5563 31.950788 82.371475
279.37244 15.520685 27.489285
271.60718 4.9798542e-05 -24.585735
264.2341 -14.679626 -74.030792
257.26282 -28.584705 -120.7812
250.65097 -41.775158 -165.12117
244.41016 -54.313328 -206.97308
238.47258 -66.24231 -246.79141
232.81754 -77.60585 -284.71487
227.42363 -88.442513 -320.88727
222.2748 -98.78878 -355.41595
217.35318 -108.67657 -388.42114
212.64554 -118.13636 -419.99133
208.13676 -127.1947 -450.22772
203.81593 -135.87729 -479.20398
199.67017 -144.20618 -507.00607
195.68971 -152.20311 -533.69965
193.57085 -161.30907 -547.90894
194.39793 -172.79814 -542.36255
195.23209 -184.38585 -536.76849
196.076 -196.07599 -531.10907
196.92981 -207.87033 -525.3833
370.8779 156.15918 510.23532
358.06171 131.91756 428.81134
346.10355 109.29595 352.83881
334.9183 88.136414 281.77689
324.4317 68.301384 215.15366
314.58347 49.671108 152.58574
305.314 32.138298 93.695114
296.57657 15.609284 38.184494
288.30438 3.1985124e-05 -14.370305
280.43408 -14.759604 -64.371895
272.9938 -28.736176 -111.6414
265.94034 -41.990559 -156.45348
259.27286 -54.583714 -198.81328
252.94362 -66.564102 -239.02417
246.91698 -77.973747 -277.31259
241.16992 -88.852028 -313.8248
235.68518 -99.235855 -348.67041
230.44353 -109.15742 -381.97162
225.43076 -118.64775 -413.8186
220.63066 -127.73349 -444.31467
216.03143 -136.44087 -473.53436
211.61937 -144.79222 -501.56512
207.38457 -152.80968 -528.4696
205.47452 -162.21671 -540.60449
206.35741 -173.77466 -534.9953
207.24792 -185.43236 -529.33771
208.14957 -197.19427 -523.6095
209.06114 -209.06113 -517.81799
379.52277 132.83296 444.5986
366.76288 110.02891 367.58572
354.83118 88.707893 295.57162
343.65311 68.730728 228.10611
333.15784 49.973751 164.76144
323.28302 32.328297 105.1619
313.97824 15.69899 49.002445
305.18991 -4.6548797e-07 -4.0397391
296.81299 -14.840577 -54.59914
288.89111 -28.889105 -102.4118
281.3894 -42.208408 -147.68867
274.28427 -54.856834 -190.57187
267.55698 -66.889252 -231.1747
261.15076 -78.345184 -269.83969
255.04509 -89.265747 -306.69058
249.21748 -99.686981 -341.86325
243.65112 -109.64301 -375.45926
238.32715 -119.16358 -407.59232
233.23167 -128.27737 -438.34628
228.34872 -137.00919 -467.81741
223.66681 -145.38336 -496.07538
219.17229 -153.42061 -523.20209
217.51222 -163.13416 -533.22156
218.45215 -174.7617 -527.54865
219.40022 -186.49013 -521.82654
220.36165 -198.32542 -516.0238
221.33228 -210.26562 -510.1655
401.28381 133.76134 460.6066
387.70117 110.77182 382.53183
375.00592 89.287163 309.55798
363.11761 69.165306 241.22247
351.95813 50.279739 177.07643
341.46579 32.520618 116.76501
331.57932 15.789568 59.936417
322.25073 2.5316327e-05 6.314466
313.37256 -14.92245 -44.71854
304.95984 -29.043764 -93.075882
296.99832 -42.428295 -138.83983
289.44788 -55.132946 -182.2406
282.31265 -67.217285 -223.25467
275.52188 -78.720528 -262.28912
269.04904 -89.682999 -299.4957
262.87338 -100.14223 -334.99411
256.9758 -110.13248 -368.89413
251.33615 -119.68387 -401.31161
245.93958 -128.82541 -432.33191
240.76906 -137.58232 -462.05273
235.81226 -145.97897 -490.5451
231.05466 -154.03638 -517.89233
229.68758 -164.06255 -525.75043
230.68503 -175.76001 -520.01691
231.69196 -187.56015 -514.22906
232.71387 -199.46901 -508.35495
233.74483 -211.48335 -502.42886
408.92188 111.52425 397.66873
395.44595 89.874107 323.72827
382.82986 69.605499 254.50583
370.99203 50.589882 189.55331
359.86609 32.715103 128.507
349.38638 15.881204 71.006424
339.50131 5.1349856e-05 16.768644
330.11578 -15.005248 -34.728424
321.2016 -29.200155 -83.639374
312.77206 -42.650715 -129.89088
304.77496 -55.413624 -173.7697
297.21381 -67.548569 -215.25659
290.03018 -79.099091 -254.6721
283.18454 -90.104111 -292.23318
276.65564 -100.60198 -328.05627
270.41998 -110.62635 -362.2702
264.46021 -120.2092 -394.97064
258.75656 -129.37825 -426.26587
253.29459 -138.16069 -456.23477
248.0576 -146.57948 -484.96927
243.0336 -154.65776 -512.53522
242.00154 -165.00105 -518.19806
243.0593 -176.77043 -512.39423
244.12715 -188.64369 -506.53503
245.21017 -200.62653 -500.59268
246.30283 -212.71609 -494.59744
430.43524 112.28742 413.02524
416.15646 90.468864 338.08615
402.79251 70.050926 267.94821
390.26215 50.903812 202.1851
378.48599 32.911823 140.38054
367.40149 15.973998 82.205772
356.94772 4.8483794e-06 27.341463
347.04578 -15.088961 -24.62676
337.62354 -29.358511 -74.077469
328.71207 -42.87545 -120.84761
320.26291 -55.697861 -165.19125
312.26382 -67.883385 -207.17267
304.67874 -79.481415 -246.98137
297.45456 -90.529633 -284.89606
290.5639 -101.06567 -321.06015
283.98636 -111.12503 -355.58115
277.69897 -120.73866 -388.5791
271.68494 -129.93626 -420.14252
265.92496 -138.74342 -450.37253
260.405 -147.18539 -479.34283
255.10872 -155.28355 -507.13925
254.45715 -165.9503 -510.55881
255.57581 -177.79181 -504.68793
256.70602 -189.73924 -498.75607
257.8515 -201.79683 -492.74442
437.14291 91.071449 352.63516
423.01456 70.502464 281.57492
409.77292 51.221603 214.97473
397.33319 33.111122 152.40756
385.6283 16.067875 93.536621
374.59158 4.9912967e-05 38.026112
364.16568 -15.173548 -14.411839
354.2247 -29.518686 -64.411148
344.81946 -43.102352 -111.716
335.91199 -55.98526 -156.51715
327.46246 -68.221344 -199.01485
319.46954 -79.867424 -239.21603
311.85876 -90.958809 -277.49542
304.60101 -101.53365 -313.99911
297.67447 -111.62795 -348.83688
291.0549 -121.27283 -382.1308
284.72433 -130.49866 -413.97113
278.66232 -139.3311 -444.46069
272.854 -147.79591 -473.67426
267.28195 -155.91441 -501.69952
267.05783 -166.91112 -502.82675
268.23871 -178.82578 -496.88742
269.43277 -190.84824 -490.88174
270.64206 -202.98157 -484.79941
458.40833 91.68174 367.36731
443.49899 70.959877 295.37857
429.52667 51.543217 227.91438
416.40994 33.31279 164.58121
404.07062 16.162865 105.0015
392.43964 1.173335e-05 48.842377
381.4613 -15.25842 -4.1659074
371.00635 -29.680418 -54.646835
361.09982 -43.331936 -102.47965
351.72195 -56.27549 -147.76015
342.82022 -68.563965 -190.74155
334.40607 -80.257446 -231.36855
326.40018 -91.392036 -270.02429
318.7699 -102.00639 -306.86667
311.48703 -112.13528 -342.03146
304.53064 -121.81219 -375.61996
297.87711 -131.06589 -407.74606
291.50909 -139.9243 -438.49359
285.40668 -148.41148 -467.95856
279.55548 -156.55103 -496.21075
279.80435 -167.8826 -495.009
281.0488 -179.87122 -489.00027
282.3082 -191.96957 -482.91943
283.58276 -204.17957 -476.76532
464.25092 71.423256 309.36243
449.53238 51.869118 241.02831
435.72058 33.516968 176.9041
422.73016 16.258848 116.59328
410.49387 5.0771312e-05 59.783447
398.94418 -15.344007 6.1615171
387.9747 -29.844158 -44.766762
377.55457 -43.564007 -93.144371
367.69818 -56.568939 -138.90468
358.34335 -68.912155 -182.33665
349.48785 -80.650993 -223.45042
341.08215 -91.829735 -262.47549
333.07007 -102.48307 -299.6734
325.42575 -112.6473 -335.16385
318.12558 -122.35592 -369.05637
311.14468 -131.63808 -401.4668
304.46463 -140.52214 -432.48035
298.06436 -149.03214 -462.19507
291.92862 -157.19232 -490.68155
292.70108 -168.86597 -487.09531
294.01053 -180.92957 -481.01575
295.33679 -193.10484 -474.85834
296.6781 -205.39252 -468.63101
485.27307 71.89238 323.5184
469.79266 52.199238 254.30907
455.26938 33.723679 189.37891
441.61493 16.356089 128.33318
428.75775 3.2464814e-05 70.851593
416.6261 -15.430563 16.613941
405.1312 -30.009655 -34.777176
394.19162 -43.79903 -83.685654
383.8403 -56.865196 -129.96378
374.02652 -69.264137 -173.839
364.7182 -81.048409 -215.45425
355.90405 -92.271393 -254.86021
347.50452 -102.96431 -292.41251
339.49362 -113.16453 -328.22748
331.84247 -122.90459 -362.43378
324.52982 -132.21584 -395.12717
317.53134 -141.12502 -426.41559
310.82944 -149.6586 -456.37836
304.40356 -157.8389 -485.10687
305.74875 -169.86041 -479.09286
307.12466 -181.9998 -472.94144
308.52042 -194.2536 -466.70126
309.92892 -206.61926 -460.40427
490.31247 52.533524 267.75995
475.05835 33.932747 201.99817
460.72702 16.454571 140.21428
447.23291 -1.0235951e-05 82.03994
434.50876 -15.518148 27.184919
422.4791 -30.177023 -24.676134
411.00919 -44.036617 -74.124168
400.15408 -57.164879 -120.92131
389.86902 -69.619492 -165.26118
380.10098 -81.450165 -207.37227
370.86917 -92.717216 -247.17146
362.07657 -103.45045 -285.07709
353.68988 -113.68607 -321.23291
345.6842 -123.4586 -355.74622
338.03174 -132.79808 -388.73694
330.71185 -141.73366 -420.29349
323.70114 -150.28978 -450.51736
317.51035 -158.75517 -477.20636
318.95206 -170.86719 -470.99097
320.39597 -183.08344 -464.76617
321.86078 -195.41544 -458.45145
323.34012 -207.86148 -452.07379
511.09677 52.872143 281.38431
495.0968 34.144581 214.78535
480.07053 16.554234 152.23941
465.92725 1.9751384e-05 93.368919
452.59558 -15.60671 37.876682
440.00363 -30.345036 -14.536544
428.01019 -44.276924 -64.458313
416.63895 -57.467449 -111.79043
405.87668 -69.978691 -156.58778
395.65475 -81.859535 -199.13583
385.97964 -93.167473 -239.4079
376.78543 -103.94077 -277.67834
368.01764 -114.2123 -314.17361
359.64996 -124.01721 -349.00351
351.65308 -133.38567 -382.2901
344.00528 -142.34698 -414.12357
336.68192 -150.92638 -444.6066
330.80298 -159.69794 -469.07736
332.31171 -171.88535 -462.7973
333.82626 -184.17995 -456.49319
335.36276 -196.592 -450.09741
336.91348 -209.1187 -443.64267
515.38696 34.359188 227.73323
499.64716 16.654987 164.40092
484.84256 8.4418301e-05 104.83179
470.89001 -15.696294 48.691212
457.71594 -30.51432 -4.3171563
445.19775 -44.519695 -54.686592
433.30484 -57.773918 -102.5399
422.04858 -70.341415 -147.8316
411.36737 -82.273491 -190.80936
401.23917 -93.622414 -231.56229
391.63437 -104.43585 -270.20886
382.48013 -114.74402 -307.04272
373.74268 -124.58087 -342.19949
365.39682 -133.97879 -375.78064
357.41431 -142.9657 -407.89981
349.77429 -151.56883 -438.64081
344.25439 -160.65205 -460.85123
345.83273 -172.91634 -454.50052
347.4184 -185.28976 -448.12033
349.02713 -197.78201 -441.64716
350.65088 -210.39053 -435.11371
535.93378 34.576401 240.84489
519.46613 16.757048 176.72156
503.98279 2.6152657e-05 116.43097
489.39337 -15.786849 59.621475
475.62711 -30.685581 6.0169997
462.57486 -44.765232 -44.806999
450.15143 -58.084038 -93.182388
438.39084 -70.708214 -138.97694
427.23969 -82.691513 -182.39839
416.64679 -94.081467 -223.64603
406.62543 -104.93556 -262.66806
397.07639 -115.28024 -299.85104
387.96405 -125.1497 -335.33347
379.26196 -134.57683 -369.21838
370.94037 -143.58978 -401.62192
362.97739 -152.21626 -432.62885
357.86752 -161.6176 -452.52609
359.51566 -173.9592 -446.10837
361.17657 -186.41371 -439.64105
362.85922 -198.98727 -433.08902
364.55768 -211.67857 -426.47556
539.52954 16.860342 189.19415
523.35199 7.2590192e-05 128.16895
508.11392 -15.878527 70.687767
493.74039 -30.858732 16.467831
480.14474 -45.013504 -34.817829
467.17984 -58.397457 -83.724075
454.9025 -71.078453 -130.03676
443.27228 -83.11351 -173.90828
432.22195 -94.548523 -215.59259
421.76233 -105.44054 -255.04839
411.80969 -115.8214 -292.59192
402.31741 -125.72413 -328.39871
393.25146 -135.18015 -362.59738
384.58646 -144.21983 -395.28363
376.29376 -152.86925 -426.5654
371.64526 -162.59482 -444.10046
373.36469 -175.01469 -437.61444
375.10138 -187.55066 -431.06329
376.85962 -200.20665 -424.43085
378.6344 -212.98186 -417.73587
559.84192 16.964943 201.82152
542.95166 4.9380636e-05 140.03841
527.05316 -15.971246 81.8834
512.05688 -31.033672 27.028484
497.89261 -45.262871 -24.782976
484.39304 -58.714279 -74.163002
471.59006 -71.453018 -120.99505
459.47128 -83.540199 -165.32413
447.95798 -95.021355 -207.43871
437.04388 -105.95 -247.36139
426.68362 -116.36818 -285.25824
416.80157 -126.3035 -321.40564
407.36844 -135.78941 -355.91125
398.35135 -144.85503 -388.89471
389.72623 -153.52853 -420.44458
385.59061 -163.58391 -435.57224
387.38409 -176.08368 -429.01187
389.19846 -188.70227 -422.37518
391.03403 -201.44176 -415.66086
392.88696 -214.30199 -408.8829
562.79114 2.8799526e-05 152.06143
546.2149 -16.065128 93.210487
530.58472 -31.210806 37.718441
515.82648 -45.514069 -14.677771
501.79398 -59.034576 -64.497696
488.45856 -71.8321 -111.84267
475.83548 -83.97094 -156.65854
463.85406 -95.499313 -199.19629
452.47382 -106.46442 -239.59972
441.69693 -116.91973 -277.86108
431.41986 -126.88818 -314.34793
421.61166 -136.4037 -349.17007
412.2381 -145.4958 -382.44925
403.27365 -154.19289 -414.27585
399.7067 -164.5851 -426.93958
401.57443 -177.16519 -420.30862
403.46826 -189.8674 -413.5849
405.38297 -202.69148 -406.78711
582.87231 5.2353093e-06 164.2308
565.6004 -16.159933 104.66209
549.32526 -31.389984 48.531044
533.96057 -45.768017 -4.4599638
519.38586 -59.358326 -54.726288
505.50925 -72.215569 -102.58511
492.37137 -84.406448 -147.89592
479.90894 -95.981766 -190.87723
468.06369 -106.986 -231.73003
456.85327 -117.47652 -270.39349
446.17581 -127.47881 -307.21872
435.98438 -137.02364 -342.36765
426.24973 -146.14268 -375.94131
416.93878 -154.86298 -408.0535
413.99515 -165.59802 -418.20572
415.94162 -178.26073 -411.49268
417.9169 -191.04768 -404.68021
419.91251 -203.95746 -397.79749
585.21912 -16.256088 116.25936
568.28223 -31.571224 59.468647
552.29553 -46.024593 5.8641181
537.16937 -59.685463 -44.855152
522.74292 -72.60318 -93.228119
509.07751 -84.846252 -139.04912
496.12888 -96.469467 -182.46686
483.82065 -107.51571 -223.73723
472.15463 -118.03861 -262.85434
461.06796 -128.07445 -300.02869
450.48831 -137.64919 -335.50311
440.38492 -146.79495 -369.38055
430.72324 -155.53897 -401.77682
428.45905 -166.623 -409.36877
430.48758 -179.36981 -402.56705
432.54626 -192.24277 -395.66409
434.62476 -205.23943 -388.69482
605.07245 -16.353283 127.99525
587.45929 -31.754501 70.533119
570.8399 -46.284328 16.313194
555.13745 -60.01487 -34.915283
540.16254 -72.994926 -83.770164
525.96088 -85.290947 -130.10236
512.51239 -96.961784 -173.97755
499.73645 -108.05105 -215.6584
487.60501 -118.60657 -255.23651
476.09998 -128.6756 -292.77127
465.12704 -138.28101 -328.56979
454.64688 -147.45299 -362.76099
444.63013 -156.22134 -395.44003
443.10471 -167.66127 -400.4166
445.2157 -180.49278 -393.52966
447.35822 -193.45218 -386.5397
449.52148 -206.53688 -379.48221
606.85748 -31.939852 81.71769
589.59473 -46.54689 26.880726
573.2843 -60.345726 -24.93079
557.77118 -73.390915 -74.209633
543.02911 -85.741379 -121.03925
529.0661 -97.459496 -165.39415
515.80945 -108.59142 -207.50529
503.20288 -119.17957 -247.55135
491.27567 -129.28311 -285.43921
479.89896 -138.91803 -321.57846
469.03897 -148.11758 -356.07617
458.65796 -156.90927 -389.05252
457.9324 -168.71188 -391.35739
460.13107 -181.63066 -384.37302
462.35941 -194.6776 -377.29456
464.60941 -207.85153 -370.14719
574.62457 -423.40753 -20.673458
626.48645 -32.127449 93.042831
608.5636 -46.812611 37.569035
591.63501 -60.680485 -14.827327
575.57196 -73.791206 -64.544876
560.27863 -86.196678 -111.87987
545.78845 -97.96199 -156.72922
532.0462 -109.13767 -199.26344
518.979 -119.76436 -239.70842
506.59335 -129.89565 -278.04382
494.80759 -139.56113 -314.52231
483.5596 -148.78755 -349.33655
472.80991 -157.60329 -382.60843
472.94876 -169.77652 -382.17859
475.23395 -182.78226 -375.10565
477.55011 -195.91794 -367.93689
479.88889 -209.18231 -360.69791
584.54431 -374.70789 -36.774185
584.49188 -389.66122 -36.936375
584.43689 -404.61014 -37.106606
584.38452 -419.55814 -37.268669
584.32953 -434.50146 -37.438835
627.74725 -47.080986 48.371025
610.19055 -61.018963 -4.6111846
593.56799 -74.195984 -54.773983
577.71234 -86.656822 -102.62266
562.68646 -98.470123 -147.96732
548.44714 -109.68943 -190.93834
534.90851 -120.35437 -231.79469
522.05688 -130.51416 -270.57797
509.85687 -140.21065 -307.39474
498.21219 -149.46365 -342.53561
487.08932 -158.30402 -376.1019
488.15411 -170.85394 -372.88864
490.5314 -183.94928 -365.71451
492.93744 -197.17497 -358.45367
495.36716 -210.53104 -351.12131
594.29321 -326.86124 -52.585461
594.24042 -341.68823 -52.744755
594.185 -356.51099 -52.912037
594.1322 -371.33261 -53.07135
594.07678 -386.14987 -53.238617
594.02405 -400.96616 -53.397877
593.96863 -415.77802 -53.564983
593.91589 -430.58902 -53.724159
593.86053 -445.39536 -53.891251
647.15527 -47.352852 59.306732
628.95422 -61.361351 5.7197123
611.74615 -74.603165 -44.943546
595.33313 -87.121918 -93.266182
579.76312 -98.983925 -139.10692
565.01239 -110.24628 -182.53545
550.99805 -120.95081 -223.79594
537.6684 -131.13863 -263.04059
525.04486 -140.86571 -300.20636
512.99854 -150.14592 -335.67258
501.49448 -159.01042 -369.5426
503.55362 -171.94513 -363.47995
506.02353 -185.13055 -356.20822
508.52155 -198.44739 -348.85367
511.04437 -211.89639 -341.42603
603.87323 -279.84372 -68.122688
603.82007 -294.54639 -68.279312
603.76422 -309.24503 -68.443741
603.71106 -323.94247 -68.600342
603.65521 -338.63577 -68.764671
603.60205 -353.32803 -68.921089
603.54626 -368.01599 -69.08532
603.49048 -382.70129 -69.24958
603.43207 -397.38208 -69.421669
603.7536 -412.31952 -68.475014
605.0351 -427.95163 -64.702057
606.3194 -443.64828 -60.920948
647.92963 -61.707542 16.16711
630.1051 -75.012482 -35.061497
613.1441 -87.591927 -83.808716
597.02399 -99.504021 -130.13881
581.74908 -110.80927 -174.03993
567.24548 -121.55255 -215.72426
553.44965 -131.77367 -255.37437
540.37543 -141.52693 -292.9505
527.92249 -150.83501 -328.74091
516.60193 -159.90062 -361.27695
519.15308 -173.05098 -353.94492
521.7179 -186.32782 -346.57339
524.31012 -199.73717 -339.12314
526.92828 -213.28046 -331.59848
613.17889 -262.79092 -83.708618
613.12537 -277.36618 -83.862534
613.06647 -291.9364 -84.0317
613.00763 -306.50378 -84.200974
612.94873 -321.06839 -84.370064
612.89258 -335.63165 -84.531555
612.8338 -350.19073 -84.700592
613.11469 -364.94919 -83.893318
614.40472 -380.34579 -80.185547
615.69751 -395.80551 -76.469917
616.99585 -411.33047 -72.73864
618.30231 -426.92297 -68.983696
619.61157 -442.57968 -65.220718
667.11725 -62.057396 26.724358
648.66675 -75.426353 -25.070484
631.14832 -88.067146 -74.248596
614.46722 -100.02956 -121.0761
598.65521 -111.37765 -165.46411
583.65778 -122.16089 -207.56511
569.39124 -132.41658 -247.61456
555.85272 -142.19482 -285.62018
542.98206 -151.52988 -321.75113
532.31073 -160.93115 -351.70782
534.95447 -174.17122 -344.28629
537.61652 -187.5406 -336.81332
540.30524 -201.04378 -329.26541
543.021 -214.68272 -321.64175
622.25012 -260.47678 -99.227745
622.19092 -274.92154 -99.394081
622.13434 -289.36481 -99.552742
622.07513 -303.80414 -99.71891
622.31476 -318.39352 -99.046356
623.61292 -333.56039 -95.40213
624.91376 -348.78903 -91.750359
626.22284 -364.08298 -88.075592
627.53461 -379.43951 -84.393112
628.85187 -394.86047 -80.695175
630.17749 -410.34805 -76.973999
631.50586 -425.89929 -73.244804
632.84271 -441.51816 -69.491989
634.18243 -457.20126 -65.731171
667.4342 -75.844742 -14.968637
649.34894 -88.547585 -64.584145
632.09564 -100.56062 -111.91718
615.7381 -111.95238 -156.79277
600.23279 -122.77484 -199.3307
585.49146 -133.06621 -239.77226
571.47461 -142.86868 -278.22647
558.18097 -152.23117 -314.69653
548.22333 -161.97505 -342.01468
550.96173 -175.30595 -334.50192
553.72144 -188.76869 -326.93088
556.50897 -202.36685 -319.28369
631.21985 -243.88031 -114.32001
631.16028 -258.2019 -114.48338
631.35797 -272.63181 -113.94106
632.6637 -287.57437 -110.3588
633.97217 -302.57758 -106.76919
635.28876 -317.64432 -103.15714
636.60809 -332.77243 -99.537651
637.93292 -347.96341 -95.903076
639.26605 -363.21933 -92.245758
640.60199 -378.53754 -88.58075
641.94629 -393.92157 -84.892693
643.29346 -409.36859 -81.196846
644.64911 -424.88239 -77.47773
646.00763 -440.45975 -73.750679
647.37195 -456.10297 -70.007858
686.41113 -76.267899 -4.7539153
667.73438 -89.031227 -54.853394
649.90955 -101.09706 -102.66784
633.00092 -112.53346 -148.02452
616.97766 -123.39552 -191.00621
601.74799 -133.72171 -231.85924
587.25439 -143.5511 -270.7377
573.52344 -152.93951 -307.57062
564.34369 -163.03258 -332.19485
567.18115 -176.45634 -324.5834
570.04083 -190.0136 -316.91245
572.9295 -203.70824 -309.16373
641.56122 -242.36751 -125.062
642.87677 -257.1507 -121.53297
644.2005 -271.99576 -117.98216
645.52698 -286.90082 -114.42395
646.86163 -301.86877 -110.84372
648.1991 -316.89731 -107.2561
649.54205 -331.98813 -103.6537
650.89343 -347.14316 -100.02862
652.24762 -362.35974 -96.396202
