# .PCD v0.7 - Point Cloud Data file format
VERSION 0.7
FIELDS x y z
SIZE 4 4 4
TYPE F F F
COUNT 1 1 1
WIDTH 1507
HEIGHT 1
VIEWPOINT 0 0 0 1 0 0 0
POINTS 1507
DATA ascii
-88.805061 -62.813339 9.6785221
-88.813477 -64.985474 9.7032967
-88.821899 -67.15802 9.7280703
-88.830734 -69.331306 9.7540932
-88.839149 -71.504684 9.7788801
-88.847572 -73.678474 9.8036671
-88.855995 -75.852676 9.8284588
-88.864418 -78.02729 9.8532476
-88.87326 -80.202698 9.8792973
-88.881683 -82.378143 9.9040976
-88.890114 -84.554016 9.928916
-88.898544 -86.730286 9.9537392
-85.230606 14.915357 5.4280529
-84.871536 12.730731 4.3444552
-84.871536 10.608948 4.3444424
-85.804329 8.5804338 7.1593981
-85.812378 6.4359336 7.1836843
-85.820427 4.2910256 7.2079954
-85.828484 2.1457148 7.2322879
-85.836945 1.4689479e-07 7.2578297
-85.844994 -2.1461215 7.2821283
-85.85305 -4.2926507 7.3064518
-85.861115 -6.4395852 7.3307786
-85.869576 -8.5869541 7.3563118
-85.877647 -10.734699 7.3806443
-85.885704 -12.88285 7.4049802
-85.893776 -15.031405 7.4293199
-85.901848 -17.180359 7.4536662
-85.910316 -19.329819 7.4792442
-85.918388 -21.479589 7.503592
-85.92646 -23.629778 7.5279608
-85.934929 -25.780479 7.5535326
-85.943413 -27.931604 7.5791202
-85.951492 -30.083017 7.6034918
-85.959969 -32.234982 7.6290903
-85.968048 -34.387222 7.6534796
-85.976532 -36.540028 7.6790857
-85.985023 -38.693264 7.7047067
-85.993103 -40.846729 7.7291007
-86.001595 -43.000797 7.7547121
-86.009689 -45.155083 7.7791281
-86.018181 -47.30999 7.8047543
-86.026268 -49.465103 7.8291678
-86.034767 -51.620857 7.8548183
-86.043266 -53.777042 7.8804626
-86.051361 -55.933384 7.9048991
-86.05986 -58.090405 7.930552
-86.067963 -60.247574 7.954987
-86.076469 -62.405434 7.9806533
-86.084976 -64.563728 8.0063286
-86.093079 -66.72213 8.0307789
-86.101585 -68.881264 8.0564661
-86.109695 -71.040497 8.0809212
-86.118202 -73.20047 8.1066141
-86.126312 -75.360527 8.1310854
-86.134834 -77.521347 8.1567879
-86.143356 -79.682602 8.1825008
-86.151466 -81.843895 8.2069902
-86.159988 -84.005989 8.2327156
-86.168106 -86.168106 8.2572012
-82.495209 14.806831 3.5566225
-82.222511 12.649617 2.7126007
-82.222511 10.54135 2.7125959
-83.213837 8.5347538 5.7808833
-83.213837 6.4010639 5.7808895
-83.213837 4.2673841 5.7808781
-83.213837 2.1336942 5.7808843
-83.213837 -4.3983259e-06 5.7808843
-83.213837 -2.1336839 5.7808733
-83.213837 -4.267374 5.780879
-83.213837 -6.4010644 5.7808852
-83.214226 -8.5347919 5.7820892
-83.745247 -10.736567 7.4256678
-83.752327 -12.884974 7.4475856
-83.759796 -15.033809 7.4707146
-83.766876 -17.182949 7.4926414
-83.774361 -19.33255 7.5157795
-83.781441 -21.48242 7.5376945
-83.788918 -23.632771 7.5608544
-83.796013 -25.78339 7.5827875
-83.80349 -27.934498 7.6059403
-83.810585 -30.08585 7.6278825
-83.818062 -32.237705 7.6510344
-83.82515 -34.389809 7.6729975
-83.832634 -36.542431 7.6961589
-83.839737 -38.695255 7.7181144
-83.847221 -40.848637 7.7412915
-83.854317 -43.002209 7.7632675
-83.861809 -45.156361 7.7864542
-83.868904 -47.310665 7.8084173
-83.876007 -49.46534 7.8304038
-83.883507 -51.620617 7.8535862
-83.890602 -53.776028 7.8755779
-83.898102 -55.932076 7.8987923
-83.905205 -58.088223 7.9207659
-83.912704 -60.245022 7.9439974
-83.919815 -62.40192 7.9659963
-83.927315 -64.559479 7.9892159
-83.934425 -66.71711 8.0112219
-83.941933 -68.875435 8.0344601
-83.949043 -71.033806 8.0564661
-83.956161 -73.192551 8.078476
-83.962883 -75.351303 8.0992756
-83.969208 -77.510033 8.1188517
-83.975929 -79.669472 8.1396685
-83.982651 -81.829239 8.1604643
-83.989372 -83.989372 8.1812687
-83.996101 -86.149841 8.2020931
-79.798958 14.699814 1.7110465
-79.607033 12.569538 1.1013964
-79.607033 10.474612 1.1014063
-80.556198 8.4796 4.116498
-80.556198 6.3597016 4.116497
-80.556198 4.2398019 4.1164956
-80.556198 2.1199026 4.1164947
-80.556198 3.3284159e-06 4.1164932
-80.556198 -2.1198959 4.1164918
-80.556198 -4.2397952 4.1164908
-80.556198 -6.3596945 4.1164894
-80.585335 -8.4826651 4.2090435
-82.32235 -10.831884 9.7268362
-82.329361 -12.999373 9.7491341
-82.336769 -15.167302 9.7726822
-82.343803 -17.335531 9.794982
-82.351219 -19.504234 9.8185349
-82.358238 -21.673222 9.8408499
-82.365265 -23.842573 9.8631744
-82.372681 -26.012421 9.8867331
-82.379707 -28.182529 9.909071
-82.387131 -30.353153 9.9326344
-82.393768 -32.523853 9.9537315
-82.400421 -34.694908 9.9748392
-82.407059 -36.866314 9.9959383
-82.413704 -39.038063 10.017033
-82.420341 -41.210175 10.038155
-82.426598 -43.38242 10.058019
-82.43325 -45.555218 10.079133
-82.439896 -47.728352 10.10025
-82.446548 -49.901855 10.121388
-82.453194 -52.075703 10.142499
-82.459457 -54.249638 10.162378
-82.46611 -56.424175 10.183524
-82.472763 -58.599075 10.204657
-82.479424 -60.7743 10.225789
-82.486069 -62.949894 10.246927
-82.49234 -65.125534 10.26684
-82.498993 -67.301811 10.287992
-82.505653 -69.478439 10.309137
-82.512321 -71.655426 10.33029
-82.518982 -73.832771 10.351456
-82.525635 -76.010452 10.372614
-82.531914 -78.188126 10.392537
-82.538567 -80.366501 10.413709
-82.545235 -82.545242 10.434886
-82.551903 -84.724319 10.456057
-82.558571 -86.903763 10.477237
-77.141762 14.59439 -0.10687197
-77.024117 12.490402 -0.49066612
-77.024117 10.408668 -0.49066457
-77.943092 8.4262848 2.5074255
-77.943092 6.3197165 2.5074334
-77.943092 4.2131405 2.507436
-77.943092 2.1065724 2.5074437
-77.943092 6.2253448e-06 2.5074294
-77.943092 -2.10657 2.5074317
-77.943092 -4.2131381 2.5074394
-77.943092 -6.3197145 2.507442
-77.990158 -8.431365 2.660985
-74.523415 14.490666 -1.8955201
-74.473854 12.412309 -2.0616815
-74.482956 10.344854 -2.0311832
-75.362648 8.3736267 0.9184944
-75.362648 6.2802157 0.91849518
-75.362648 4.1868229 0.91848451
-75.362648 2.0934114 0.91848534
-75.362648 8.5002566e-06 0.91849124
-75.362648 -2.0934029 0.91849202
-75.362648 -4.1868143 0.91849291
-75.362648 -6.2802172 0.91849875
-75.39267 -8.376956 1.0191728
-71.955284 14.391057 -3.613179
-71.955284 12.335195 -3.6131868
-71.98732 10.283906 -3.5026822
-72.814247 8.3216295 -0.65070909
-72.814247 6.2412252 -0.65071565
-72.814247 4.160821 -0.65072197
-72.814247 2.0804062 -0.65071166
-72.814247 1.8162813e-06 -0.65071809
-72.814247 -2.0804026 -0.65072435
-72.814247 -4.1608171 -0.65071404
-72.814247 -6.2412214 -0.65072036
-72.823853 -8.3227215 -0.61758327
-69.467499 14.302135 -5.1466227
-69.467499 12.25897 -5.1466222
-69.521233 10.223718 -4.9558454
-70.297302 8.2702742 -2.2005656
-70.297302 6.2027082 -2.2005682
-70.297302 4.1351323 -2.2005537
-70.297302 2.0675666 -2.200556
-70.297302 9.4468049e-07 -2.2005582
-70.297302 -2.0675647 -2.2005606
-70.297302 -4.1351309 -2.200563
-70.297302 -6.2026963 -2.2005651
-70.298256 -8.2703733 -2.1971781
-67.010574 14.214366 -6.6601272
-67.010574 12.18375 -6.66014
-67.083549 10.164181 -6.3931823
-67.811234 8.2195444 -3.7313845
-67.811234 6.1646595 -3.7313883
-67.811234 4.1097746 -3.7313921
-67.811234 2.0548892 -3.7313955
-67.811234 -6.1893252e-06 -3.7313826
-67.811234 -2.054883 -3.7313809
-67.811234 -4.1097684 -3.7313848
-67.811234 -6.1646533 -3.7313886
-67.811234 -8.2195387 -3.7313921
-64.583618 14.127671 -8.1551924
-64.583618 12.109427 -8.1551905
-64.674667 10.105421 -7.8117099
-65.355484 8.1694403 -5.2435579
-65.355484 6.1270761 -5.2435465
-65.355484 4.084722 -5.2435517
-65.355484 2.0423679 -5.243557
-65.355484 3.4574691e-06 -5.2435455
-65.355484 -2.0423591 -5.243556
-65.355484 -4.084713 -5.2435613
-65.355484 -6.1270776 -5.2435503
-65.355484 -8.1694317 -5.2435555
-62.186085 14.042027 -9.6321106
-62.186085 12.036015 -9.6321096
-62.505516 10.081538 -8.3882771
-62.929485 8.1199389 -6.7374005
-62.929485 6.0899553 -6.7373915
-62.929485 4.0599637 -6.7373867
-62.929485 2.0299907 -6.7373934
-62.929485 -7.8317834e-07 -6.7373896
-62.929485 -2.0299735 -6.7373967
-62.929485 -4.0599651 -6.7373924
-62.929485 -6.0899487 -6.7373829
-62.929485 -8.1199293 -6.7373953
-59.817188 13.957348 -11.092293
-59.817188 11.963443 -11.092281
-60.497746 10.082968 -8.3539419
-60.532711 8.0710316 -8.2132378
-60.532711 6.0532718 -8.2132359
-60.532711 4.0355115 -8.2132339
-60.532711 2.01776 -8.2132263
-60.532711 3.0284494e-07 -8.2132244
-60.532711 -2.0177493 -8.2132397
-60.532711 -4.0355091 -8.2132368
-60.532711 -6.0532689 -8.2132349
-60.532711 -8.0710297 -8.213233
-57.47694 13.873744 -12.533924
-57.47694 11.891788 -12.533924
-58.489662 10.084423 -8.3185081
-58.164639 8.022706 -9.6714029
-58.164639 6.0170283 -9.6714029
-58.164639 4.0113502 -9.6714029
-58.164639 2.0056725 -9.6714039
-58.164639 2.6369978e-06 -9.6713991
-58.164639 -2.0056753 -9.6714001
-58.164639 -4.0113535 -9.6714001
-58.164639 -6.0170317 -9.671401
-58.164639 -8.0227098 -9.671401
-55.164555 13.791136 -13.958385
-55.164555 11.820971 -13.958383
-56.480751 10.085852 -8.2841511
-55.824753 7.9749646 -11.112215
-55.824753 5.9812193 -11.112219
-55.824753 3.9874821 -11.112217
-55.824753 1.9937358 -11.11222
-55.824753 -1.4753194e-06 -11.112218
-55.824753 -1.9937384 -11.112216
-55.824753 -3.987484 -11.112219
-55.824753 -5.9812212 -11.112218
-55.824753 -7.974967 -11.112221
-52.879318 13.709459 -15.367006
-52.879318 11.750964 -15.367011
-53.531803 9.9132996 -12.449896
-53.512547 7.9277835 -12.535992
-53.512547 5.945837 -12.535988
-53.512547 3.9639006 -12.536
-53.512547 1.9819543 -12.535996
-53.512547 -4.31057e-07 -12.535997
-53.512547 -1.9819468 -12.535993
-53.512547 -3.9638934 -12.535989
-53.512547 -5.9458404 -12.535985
-53.512547 -7.9277759 -12.535997
-50.621212 13.628796 -16.758038
-50.621212 11.681816 -16.758022
-51.232399 9.8523912 -13.92047
-51.221806 7.8802776 -13.96965
-51.221806 5.9102111 -13.969658
-51.222023 3.9401567 -13.968621
-51.222023 1.9700817 -13.968635
-51.222023 -3.1364577e-06 -13.968631
-51.222023 -1.9700693 -13.968638
-51.222023 -3.9401538 -13.968635
-51.222244 -5.9102607 -13.967607
-51.222244 -7.8803449 -13.967604
-48.389523 13.549067 -18.132788
-48.389523 11.613483 -18.132786
-48.961075 9.7922134 -15.373073
-48.960655 7.8337078 -15.375113
-48.960655 5.8752809 -15.375096
-48.960655 3.9168558 -15.375102
-48.960655 1.9584308 -15.375109
-48.960655 -3.9564288e-06 -15.375098
-48.960655 -1.9584213 -15.375098
-48.9659 -3.9172616 -15.349794
-49.536633 -5.9443913 -12.59404
-49.536633 -7.9258618 -12.594041
-46.183594 13.470213 -19.492521
-46.183594 11.545893 -19.492521
-46.729065 9.7352257 -16.749033
-46.728668 7.7881198 -16.751034
-46.728668 5.8410883 -16.751028
-46.728668 3.894057 -16.751024
-46.728668 1.9470263 -16.75102
-46.728668 5.5037881e-06 -16.751034
-46.728668 -1.9470253 -16.75103
-46.733841 -3.8944826 -16.725006
-48.039333 -6.004909 -10.158881
-48.039333 -8.0065536 -10.158879
-44.00338 13.392327 -20.835564
-44.00338 11.479147 -20.835571
-44.522694 9.6788521 -18.110041
-44.522507 7.7430501 -18.111027
-44.522507 5.8072824 -18.111025
-44.522507 3.8715222 -18.111017
-44.522507 1.9357648 -18.111031
-44.522507 4.4139392e-06 -18.111023
-44.522507 -1.9357631 -18.111019
-44.527782 -3.8719761 -18.083328
-46.51123 -6.0666847 -7.6736207
-46.51123 -8.0889101 -7.6736121
-41.848228 13.315349 -22.163174
-41.848228 11.413157 -22.163168
-42.341911 9.6231623 -19.454397
-42.341728 7.6984978 -19.45537
-42.341728 5.7738705 -19.455376
-42.341728 3.849251 -19.455376
-42.341728 1.9246309 -19.455376
-42.341728 3.6250099e-06 -19.455381
-42.341728 -1.9246161 -19.455381
-42.34708 -3.8497329 -19.426041
-44.951366 -6.1297297 -5.1366963
-44.951366 -8.1729736 -5.1366982
-39.717548 13.239191 -23.47654
-39.717548 11.347865 -23.476528
-40.186077 9.5681105 -20.783373
-40.185738 7.6544261 -20.785307
-40.185738 5.7408242 -20.785322
-40.185738 3.8272204 -20.785316
-40.185738 1.9136074 -20.785313
-40.185738 3.1858679e-06 -20.785307
-40.185738 -1.9136082 -20.785305
-40.191288 -3.8277364 -20.753416
-43.358738 -6.1940989 -2.546505
-43.358738 -8.258812 -2.5464966
-37.611259 13.163943 -24.774033
-37.611259 11.283381 -24.774033
-38.054764 9.5136957 -22.097248
-38.054447 7.6108942 -22.099165
-38.054447 5.7081747 -22.099163
-38.054447 3.805455 -22.099159
-38.054447 1.902727 -22.099163
-38.054447 7.8881485e-06 -22.099161
-38.054447 -1.9027201 -22.099165
-38.05999 -3.8059902 -22.065706
-41.732307 -6.2598424 0.098674051
-41.732307 -8.3464565 0.098680377
-35.528778 13.089559 -26.056862
-35.528778 11.219624 -26.056864
-35.947563 9.4598866 -23.396248
-35.947262 7.567843 -23.398132
-35.947262 5.6758847 -23.39814
-35.947262 3.7839248 -23.398129
-35.947262 1.8919681 -23.398138
-35.947262 -3.5924359e-07 -23.39813
-35.947262 -1.8919588 -23.39814
-35.95277 -3.7844987 -23.363169
-40.07098 -6.3269973 2.8006167
-40.07098 -8.4359951 2.8006208
-50.743587 -13.353577 70.605797
-50.748035 -16.025696 70.634041
-50.752781 -18.698389 70.664162
-50.757229 -21.371452 70.692421
-50.761971 -24.045143 70.722572
-50.766422 -26.719168 70.750839
-50.770866 -29.39365 70.779099
-50.77562 -32.068806 70.809265
-50.780071 -34.744259 70.837547
-50.784817 -37.420391 70.867714
-50.789272 -40.096794 70.896011
-50.794018 -42.773911 70.926186
-50.798473 -45.451271 70.954491
-50.803226 -48.129379 70.98468
-50.807682 -50.807686 71.013
-50.812439 -53.486771 71.043182
-50.816895 -56.166042 71.07151
-50.821651 -58.846111 71.101723
-50.826111 -61.52634 71.130051
-50.830868 -64.207405 71.160278
-50.835327 -66.88858 71.188622
-50.840088 -69.570641 71.218864
-50.844551 -72.252777 71.247208
-50.849014 -74.935394 71.275581
-50.853779 -77.618919 71.305832
-50.858238 -80.30249 71.33419
-50.863007 -82.987007 71.364456
-50.86747 -85.671524 71.39283
-33.656639 14.958508 -26.071625
-33.469563 13.015945 -27.326187
-33.469563 11.156525 -27.326191
-33.864059 9.4066887 -24.680645
-33.863781 7.525279 -24.682501
-33.863781 5.6439672 -24.682503
-33.863781 3.7626474 -24.682508
-33.863781 1.8813267 -24.682514
-33.863781 -4.1981029e-06 -24.682503
-33.863781 -1.8813159 -24.682505
-33.869213 -3.7632444 -24.646069
-38.373619 -6.3955951 5.5611463
-38.373619 -8.5274706 5.5611444
-47.802906 -13.278583 68.795364
-47.807354 -15.935782 68.82515
-47.811516 -18.593363 68.853081
-47.815681 -21.251408 68.881012
-47.819851 -23.909924 68.908966
-47.824017 -26.568897 68.936905
-47.828186 -29.228334 68.964867
-47.832352 -31.888233 68.992828
-47.836525 -34.548599 69.020798
-47.840691 -37.209431 69.048752
-47.844864 -39.87072 69.076729
-47.849037 -42.532478 69.104706
-47.85321 -45.194695 69.13269
-47.85738 -47.857388 69.160675
-47.861557 -50.520527 69.188652
-47.866009 -53.184456 69.218529
-47.870186 -55.848545 69.246521
-47.874359 -58.5131 69.274529
-47.878536 -61.178127 69.302544
-47.882717 -63.843624 69.330566
-47.886894 -66.509583 69.358589
-47.891071 -69.175987 69.386604
-47.895256 -71.84288 69.414642
-47.899433 -74.510231 69.44268
-47.903614 -77.17804 69.470718
-47.907795 -79.846321 69.498756
-47.911983 -82.515076 69.526817
-47.916164 -85.184296 69.554871
-31.583689 14.862909 -27.514029
-31.433508 12.943207 -28.580402
-31.433508 11.094187 -28.580412
-31.803732 9.3540382 -25.951584
-31.803473 7.4831686 -25.95343
-31.803473 5.6123805 -25.953428
-31.803473 3.7415826 -25.953432
-31.803473 1.870793 -25.95343
-31.803602 6.3588402e-08 -25.952509
-31.803602 -1.8707967 -25.952513
-31.808418 -3.7421582 -25.918331
-36.63905 -6.4657059 8.3822041
-36.63905 -8.6209536 8.3822126
-45.321167 -13.329745 70.030678
-45.325924 -15.997381 70.064461
-45.330944 -18.665678 70.100113
-45.335705 -21.33445 70.133911
-45.340462 -24.003777 70.167702
-45.345222 -26.673658 70.2015
-45.350246 -29.344273 70.237175
-45.355011 -32.015305 70.271004
-45.359772 -34.686878 70.304825
-45.364536 -37.359035 70.338669
-45.369305 -40.031738 70.372498
-45.374332 -42.705257 70.408218
-45.379105 -45.379105 70.442078
-45.383869 -48.053509 70.475937
-45.388641 -50.728481 70.509804
-45.39341 -53.404015 70.543686
-45.397915 -56.079773 70.575668
-45.402161 -58.755737 70.605804
-45.406666 -61.432545 70.63781
-45.411179 -64.109901 70.669823
-45.415424 -66.787384 70.699959
-45.419933 -69.465775 70.731987
-45.424446 -72.144699 70.764023
-45.428692 -74.823723 70.794182
-45.433205 -77.5037 70.826225
-45.437721 -80.184204 70.858284
-45.441967 -82.864761 70.888458
-45.446484 -85.546326 70.920525
-29.536945 14.76848 -28.939018
-29.42008 12.871291 -29.820694
-29.42008 11.03253 -29.8207
-29.766459 9.302021 -27.20747
-29.766216 7.4415503 -27.209299
-29.766216 5.5811691 -27.209297
-29.766216 3.7207808 -27.209301
-29.766216 1.8603915 -27.209303
-29.766216 2.9658188e-06 -27.209307
-29.766216 -1.8603864 -27.209311
-29.770454 -3.7213104 -27.17732
-34.866028 -6.5373693 11.265793
-34.866028 -8.7164974 11.265797
-27.516159 14.675286 -30.345119
-27.428905 12.800154 -31.047266
-27.428905 10.971565 -31.047283
-27.75172 9.2505751 -28.449472
-27.751495 7.4003954 -28.451279
-27.751495 5.5503011 -28.451284
-27.751495 3.7002063 -28.451288
-27.751495 1.8501006 -28.451275
-27.751495 5.9648291e-06 -28.451279
-27.751495 -1.850096 -28.451288
-27.755089 -3.7006781 -28.422359
-33.053261 -6.6106539 14.21404
-33.053261 -8.8141994 14.214028
-25.522038 14.584021 -31.722185
-25.459517 12.729767 -32.261253
-25.459517 10.911222 -32.261238
-25.759142 9.1997013 -29.677816
-25.758936 7.3597012 -29.679605
-25.758936 5.5197754 -29.679594
-25.758936 3.6798525 -29.679605
-25.758936 1.8399261 -29.679594
-25.758936 3.3296908e-06 -29.679605
-25.758936 -1.8399215 -29.679594
-25.761942 -3.6802721 -29.653681
-31.199396 -6.6855769 17.229097
-31.199396 -8.9141064 17.229094
-23.553404 14.494408 -33.074436
-23.511763 12.660181 -33.461071
-23.511763 10.85158 -33.461067
-23.788364 9.1493769 -30.892704
-23.788176 7.3194399 -30.894476
-23.788176 5.4895797 -30.894468
-23.788176 3.6597216 -30.894484
-23.788176 1.8298613 -30.894476
-23.788176 2.8431791e-06 -30.89447
-23.788176 -1.8298656 -30.894466
-23.790649 -3.6600978 -30.871498
-29.303022 -6.7622361 20.313307
-29.303022 -9.0163107 20.313305
-21.60873 14.405822 -34.411018
-21.585188 12.591356 -34.647854
-21.585188 10.7926 -34.64785
-21.838942 9.0995703 -32.095264
-21.83877 7.2795897 -32.097012
-21.83877 5.4596882 -32.097004
-21.83877 3.6397986 -32.097012
-21.83877 1.8198982 -32.097008
-21.838856 -8.1678979e-07 -32.096123
-21.838856 -1.8199002 -32.096138
-21.840857 -3.6401336 -32.076027
-27.362661 -6.8406696 23.469061
-27.362661 -9.1208906 23.469063
-19.687761 14.318372 -35.730507
-19.679367 12.523239 -35.822651
-19.679367 10.734204 -35.822655
-19.910711 9.0503216 -33.283916
-19.910555 7.2402043 -33.28566
-19.910555 5.4301486 -33.285652
-19.910555 3.6201043 -33.285664
-19.910555 1.8100569 -33.285652
-19.910555 1.4818306e-06 -33.285648
-19.910633 -1.8100505 -33.28479
-19.912209 -3.6203978 -33.267487
-25.37689 -6.9209685 26.700274
-25.37689 -9.2279568 26.70026
-17.794127 14.235306 -36.983959
-17.794127 12.455896 -36.983967
-17.794127 10.676477 -36.983955
-18.003235 9.0016136 -34.459789
-18.003094 7.201241 -34.461502
-18.003094 5.4009352 -34.46151
-18.003094 3.6006181 -34.461502
-18.003094 1.800313 -34.461514
-18.003094 -2.9575401e-06 -34.461506
-18.003094 -1.8003008 -34.46151
-18.00437 -3.6008775 -34.446102
-23.343822 -7.0031447 30.006817
-23.343822 -9.3375196 30.006802
-15.929053 14.159163 -38.132847
-15.929053 12.389264 -38.132854
-15.929053 10.619374 -38.132854
-16.116179 8.9534321 -35.62307
-16.116053 7.162694 -35.624779
-16.116053 5.3720107 -35.624763
-16.116053 3.5813458 -35.624763
-16.116053 1.7906735 -35.624767
-16.116053 1.2955871e-06 -35.624771
-16.116053 -1.7906719 -35.624775
-16.116999 -3.5815575 -35.612068
-21.261896 -7.0872903 33.392811
-21.261896 -9.4497309 33.392811
-14.083774 14.083781 -39.270336
-14.083774 12.323304 -39.270332
-14.083774 10.562836 -39.27034
-14.249218 8.9057655 -36.773979
-14.249107 7.1245594 -36.775646
-14.249107 5.3434153 -36.775642
-14.249107 3.5622787 -36.775654
-14.249107 1.7811416 -36.775642
-14.249107 7.5226876e-06 -36.775654
-14.249107 -1.7811383 -36.77565
-14.249773 -3.5624409 -36.765594
-19.129326 -7.173491 36.861176
-12.258084 14.009247 -40.394966
-12.258084 12.258087 -40.394966
-12.258084 10.506933 -40.394958
-12.402032 8.8586006 -37.912678
-12.401889 7.0867934 -37.915157
-12.401889 5.3150978 -37.915165
-12.401889 3.5433927 -37.915161
-12.401937 1.7717092 -37.914333
-12.401937 -4.176844e-06 -37.91433
-12.401937 -1.7716994 -37.914341
-12.402369 -3.5435321 -37.906872
-16.944244 -7.2618127 40.414963
-10.451617 13.935493 -41.507748
-10.451617 12.193553 -41.507748
-10.451617 10.451621 -41.507755
-10.574269 8.8118906 -39.040195
-10.574188 7.0494556 -39.041836
-10.574188 5.2870932 -39.04184
-10.574188 3.5247312 -39.041843
-10.574188 1.762359 -39.041832
-10.574228 6.1130563e-06 -39.041027
-10.574228 -1.7623742 -39.041019
-10.574472 -3.5248191 -39.036098
-14.704684 -7.3523459 44.057335
-8.6640387 13.86246 -42.609669
-8.6640387 12.129651 -42.609669
-8.6640387 10.396843 -42.609669
-8.7657108 8.7657127 -40.15509
-8.7656431 7.0125232 -40.156715
-8.7656431 5.2593894 -40.156708
-8.7656431 3.5062556 -40.156704
-8.7656431 1.753132 -40.156719
-8.7656431 -1.8578248e-06 -40.156712
-8.7656775 -1.7531279 -40.155903
-8.7669878 -3.5067995 -40.124252
-12.408585 -7.4451542 47.791672
-6.8951225 13.79025 -43.699318
-6.8951225 12.066466 -43.699322
-6.8951225 10.342684 -43.699322
-6.9760098 8.7200108 -41.258354
-6.9759564 6.9759588 -41.259953
-6.9759564 5.231976 -41.259964
-6.9759564 3.4879842 -41.25996
-6.9759564 1.7439901 -41.259953
-6.9759564 -1.8595595e-06 -41.259949
-6.9759564 -1.7439854 -41.259964
-6.9782982 -3.4891467 -41.189281
-10.053777 -7.5403209 51.621475
-5.1445417 13.718781 -44.777676
-5.1445417 12.003937 -44.777683
-5.1445417 10.289083 -44.777679
-5.2059393 8.6765661 -42.307262
-5.204833 6.9397731 -42.351753
-5.204833 5.204834 -42.351753
-5.204833 3.4698937 -42.351757
-5.204833 1.7349453 -42.351765
-5.204833 4.9649852e-06 -42.351768
-5.204833 -1.7349458 -42.351753
-5.2075 -3.4716716 -42.244438
-3.4119995 13.647999 -45.845673
-3.4119995 11.941995 -45.84568
-3.4119995 10.236 -45.845684
-3.4539282 8.6348228 -43.315056
-3.4519727 6.9039445 -43.433071
-3.4519727 5.1779528 -43.433079
-3.4519858 3.4519947 -43.432301
-3.4519858 1.7259928 -43.432293
-3.4519858 -2.6360267e-06 -43.432297
-3.4519858 -1.7259864 -43.432297
-3.4543583 -3.4543531 -43.289082
-1.6972493 13.577992 -46.901962
-1.6972493 11.88074 -46.901955
-1.6975642 10.18539 -46.863934
-1.7184303 8.5921497 -44.345181
-1.7171268 6.8685093 -44.50251
-1.7171268 5.1513839 -44.502522
-1.7171268 3.4342568 -44.502514
-1.7171333 1.7171308 -44.50174
-1.7171333 -4.6552823e-06 -44.501736
-1.7171333 -1.717128 -44.501751
-1.7185142 -3.4370291 -44.335041
-5.189175e-23 13.508704 -47.947456
-2.8163836e-23 11.820119 -47.947468
-2.7325183e-23 10.136095 -47.855595
-2.2416126e-23 8.5454912 -45.471626
-4.2416798e-24 6.8334336 -45.561024
-9.3466859e-23 5.1250801 -45.561035
-8.0303958e-24 3.4167147 -45.561028
-6.8145301e-23 1.7083606 -45.561035
4.0562723e-24 -5.0285289e-06 -45.561028
-2.0129124e-23 -1.7083672 -45.560261
-2.3380007e-23 -3.4192922 -45.405296
1.6800148 13.440123 -48.982346
1.6800148 11.760105 -48.982342
1.6812316 10.087387 -48.835464
1.6998422 8.4992094 -46.588966
1.6996779 6.7987094 -46.608788
1.6996779 5.0990372 -46.608784
1.6996779 3.3993564 -46.60878
1.6996779 1.6996839 -46.608795
1.6996779 3.2064877e-06 -46.608791
1.6996779 -1.6996791 -46.608788
1.7008158 -3.4016373 -46.471432
3.343044 13.372179 -50.007507
3.343044 11.700658 -50.007504
3.3463833 10.039145 -49.805958
3.3821592 8.4553995 -47.646702
3.3821716 6.7643418 -47.645958
3.3821716 5.0732555 -47.645947
3.3821716 3.3821762 -47.64595
3.3821716 1.691082 -47.645947
3.3821716 2.4585022e-06 -47.64595
3.3821716 -1.6910816 -47.645962
3.3841488 -3.3841405 -47.526619
4.9893622 13.304967 -51.021633
4.9893622 11.641847 -51.021626
4.9957032 9.9914141 -50.766502
5.0477214 8.4128704 -48.67342
5.0477214 6.7302985 -48.673428
5.04774 5.0477405 -48.672684
5.04774 3.365159 -48.672676
5.04774 1.6825794 -48.672688
5.04774 7.5747671e-06 -48.672688
5.04774 -1.682582 -48.672684
5.0502672 -3.3668454 -48.571003
6.6192141 13.238433 -52.025608
6.6192141 11.583627 -52.025608
6.6299386 9.94491 -51.701984
6.6994095 8.3742685 -49.605499
6.6994095 6.6994185 -49.605503
6.6994095 5.0245523 -49.605499
6.6994095 3.3497021 -49.605499
6.6994095 1.6748539 -49.605503
6.6994095 -4.1595331e-06 -49.605492
6.6994095 -1.6748523 -49.605495
6.6994338 -3.349725 -49.604752
8.2815695 14.906823 -51.843285
8.2328157 13.172507 -53.020309
8.2328157 11.525943 -53.020309
8.2883844 9.9460669 -51.678772
8.3288403 8.3288412 -50.702065
8.3288403 6.6630712 -50.702061
8.3288403 4.9973006 -50.702057
8.3288403 3.3315301 -50.702049
8.3288403 1.6657716 -50.702065
8.3288403 1.0358158e-06 -50.702061
8.3288403 -1.6657695 -50.702057
8.3288403 -3.3315401 -50.702049
8.3288403 -4.9973006 -50.702061
8.3288403 -6.6630692 -50.702061
8.3288403 -8.3288412 -50.702057
9.8815489 14.82232 -52.976646
9.8304615 13.107279 -54.004452
9.8304615 11.468874 -54.004444
9.9472513 9.9472456 -51.654827
9.9446907 8.2872477 -51.706333
9.9446907 6.6297979 -51.706322
9.9446907 4.9723406 -51.706326
9.9446907 3.3149009 -51.706333
9.9446907 1.6574534 -51.706326
9.9446907 -5.8676178e-06 -51.706326
9.9446907 -1.6574434 -51.706337
9.9446907 -3.3148909 -51.706329
9.9446907 -4.972342 -51.706322
9.9446907 -6.6297994 -51.706326
9.9446907 -8.2872353 -51.706333
11.463615 14.738935 -54.095108
11.412364 13.042706 -54.978882
11.412364 11.412362 -54.978886
11.606515 9.9484501 -51.63089
11.545022 8.2464533 -52.691288
11.545022 6.5971599 -52.691288
11.545022 4.947875 -52.691288
11.545022 3.2985811 -52.691288
11.545022 1.6492962 -52.691288
11.545022 9.1635047e-07 -52.691288
11.545022 -1.6492846 -52.691284
11.545022 -3.2985778 -52.691288
11.545022 -4.9478631 -52.691284
11.545022 -6.5971465 -52.691284
11.545022 -8.2464437 -52.691284
13.02886 14.657468 -55.187744
12.978709 12.97871 -55.944462
12.978709 11.356368 -55.944466
13.136604 9.8524485 -53.562012
13.129674 8.2060461 -53.666584
13.129674 6.5648408 -53.666584
13.129674 4.9236312 -53.666592
13.129674 3.2824197 -53.66658
13.129674 1.6412101 -53.666588
13.129674 1.0149993e-05 -53.666592
13.129674 -1.6412115 -53.66658
13.129674 -3.282413 -53.666584
13.129674 -4.9236312 -53.666576
13.129674 -6.5648327 -53.66658
13.129674 -8.2060442 -53.666592
14.576949 14.576949 -56.267685
14.52981 12.915393 -56.899929
14.52981 11.300967 -56.899925
14.701028 9.8006878 -54.603508
14.698874 8.1660461 -54.632381
14.698874 6.5328302 -54.632381
14.698874 4.8996315 -54.632385
14.698874 3.2664251 -54.632381
14.698874 1.6332105 -54.632381
14.698874 4.1190465e-06 -54.632378
14.698874 -1.6332104 -54.632378
14.698874 -3.2664168 -54.632374
14.698874 -4.8996248 -54.63237
14.698874 -6.532836 -54.632374
14.698874 -8.1660318 -54.632385
14.709644 -9.8064251 -54.487938
16.108124 14.497313 -57.335827
16.065849 12.852677 -57.846111
16.065849 11.246094 -57.846115
16.253197 9.7519207 -55.584621
16.25285 8.1264315 -55.588806
16.25285 6.5011473 -55.588806
16.25285 4.8758616 -55.588802
16.25285 3.2505779 -55.588802
16.25285 1.6252784 -55.588799
16.25285 -1.3823648e-06 -55.588806
16.25285 -1.6252912 -55.588799
16.25285 -3.250571 -55.588806
16.25285 -4.8758626 -55.588799
16.25285 -6.5011401 -55.588806
16.25285 -8.1264296 -55.588799
16.257357 -9.7544136 -55.534409
17.622595 14.418487 -58.393028
17.586983 12.79054 -58.783825
17.586983 11.19172 -58.783825
17.792198 9.7048388 -56.531853
17.791821 8.0871964 -56.535992
17.791821 6.4697485 -56.535988
17.791821 4.8523135 -56.535992
17.791821 3.23488 -56.535992
17.791821 1.6174322 -56.535988
17.791821 -1.263256e-06 -56.535988
17.791821 -1.6174347 -56.535992
17.791821 -3.2348783 -56.535992
17.791821 -4.8523135 -56.535995
17.791821 -6.4697452 -56.535995
17.791821 -8.0871906 -56.536003
17.792198 -9.7048407 -56.531845
19.120754 14.340569 -59.438141
19.093544 12.729027 -59.711849
19.093544 11.137902 -59.711853
19.316479 9.6582375 -57.469288
19.316004 8.048337 -57.474072
19.316004 6.4386654 -57.474079
19.316004 4.8289995 -57.474079
19.316004 3.2193358 -57.474079
19.316004 1.6096666 -57.474075
19.316004 4.9020732e-06 -57.474083
19.316004 -1.6096628 -57.474075
19.316004 -3.2193322 -57.474075
19.316004 -4.8290062 -57.474072
19.316004 -6.438664 -57.474083
19.316004 -8.0483313 -57.474079
19.31641 -9.6582003 -57.469986
20.602806 14.263481 -60.472
20.585686 12.668114 -60.630993
20.585686 11.0846 -60.630985
20.826193 9.6120901 -58.397774
20.825607 8.0098553 -58.403194
20.825607 6.4078789 -58.403194
20.825607 4.805913 -58.403191
20.825607 3.2039368 -58.403194
20.825607 1.6019686 -58.403191
20.825607 2.4421556e-06 -58.403187
20.825607 -1.6019663 -58.403198
20.825607 -3.2039385 -58.403187
20.825607 -4.8059087 -58.403198
20.825607 -6.4078808 -58.403187
20.825607 -8.0098429 -58.403191
20.82612 -9.6120577 -58.398441
22.068935 14.187175 -61.495476
22.063538 12.607735 -61.542027
22.063538 11.03177 -61.542023
22.321466 9.5663452 -59.318092
22.320845 7.9717374 -59.323467
22.320845 6.3773861 -59.32346
22.320845 4.783041 -59.32346
22.320845 3.1886957 -59.32346
22.320845 1.5943503 -59.32346
22.320845 5.1456113e-06 -59.323463
22.320845 -1.5943465 -59.323467
22.320845 -3.1886919 -59.323467
22.320845 -4.7830372 -59.323471
22.320845 -6.3773823 -59.323471
22.320845 -7.9717274 -59.323471
22.321466 -9.5663481 -59.318089
23.527449 14.116472 -62.443783
23.527449 12.547979 -62.443779
23.527449 10.979474 -62.443775
23.802662 9.5210686 -60.229038
23.802 7.9339957 -60.234352
23.802 6.3472028 -60.234356
23.802 4.7604041 -60.234352
23.802 3.1736016 -60.23436
23.802 1.5868027 -60.234352
23.802 -2.6434805e-08 -60.23436
23.802 -1.5867987 -60.234356
23.802 -3.1735976 -60.234348
23.802 -4.7604041 -60.234348
23.802 -6.3471932 -60.23436
23.802 -7.934 -60.23436
23.802662 -9.5210695 -60.229031
24.977549 14.049876 -63.337021
24.977549 12.488771 -63.337017
24.977549 10.927684 -63.337021
25.269812 9.476182 -61.132053
25.269114 7.8965955 -61.137321
25.269114 6.3172812 -61.137325
25.269114 4.7379627 -61.137318
25.269114 3.1586418 -61.137325
25.269114 1.5793231 -61.137318
25.269114 3.1141076e-07 -61.137321
25.269114 -1.5793164 -61.137318
25.269114 -3.1586409 -61.137321
25.269114 -4.7379575 -61.137318
25.269114 -6.3172817 -61.137321
25.269114 -7.8965945 -61.137325
25.269899 -9.4762115 -61.131386
26.414028 13.983903 -64.221863
26.414028 12.430135 -64.22187
26.414028 10.876364 -64.22187
26.723288 9.4317484 -62.02594
26.722462 7.8595462 -62.031815
26.722462 6.287643 -62.031811
26.722462 4.7157302 -62.031815
26.722462 3.143815 -62.031811
26.722462 1.5719104 -62.031811
26.722462 -4.8019456e-07 -62.031815
26.722462 -1.5719036 -62.031811
26.722462 -3.1438165 -62.031815
26.722462 -4.7157331 -62.031811
26.722462 -6.2876363 -62.031811
26.722462 -7.8595433 -62.031822
26.723288 -9.4317532 -62.025932
27.836988 13.91849 -65.099075
27.836988 12.371997 -65.099083
27.836988 10.8255 -65.099083
28.163099 9.3877039 -62.912132
28.162231 7.8228426 -62.91795
28.162231 6.258275 -62.917953
28.162231 4.6937094 -62.917946
28.162231 3.1291418 -62.917953
28.162231 1.5645703 -62.917953
28.162231 -3.3267813e-06 -62.91795
28.162231 -1.5645628 -62.91795
28.162231 -3.1291327 -62.91795
28.162231 -4.6937022 -62.917957
28.162231 -6.2582741 -62.91795
28.162231 -7.8228335 -62.917953
28.163195 -9.3877325 -62.911491
29.246798 13.853745 -65.967499
29.246798 12.314441 -65.967499
29.246798 10.775139 -65.967499
29.589626 9.3440971 -63.789452
29.588617 7.7864757 -63.795845
29.588617 6.2291827 -63.795853
29.588617 4.6718922 -63.795845
29.588617 3.1145935 -63.795845
29.588617 1.5573004 -63.795849
29.588617 1.7191269e-08 -63.795849
29.588617 -1.5572971 -63.795845
29.588617 -3.1145916 -63.795853
29.588617 -4.6718822 -63.795849
29.588617 -6.2291794 -63.795845
29.588617 -7.7864757 -63.795853
29.589725 -9.344121 -63.788811
30.643551 13.789601 -66.827866
30.643551 12.257422 -66.827873
30.643551 10.725242 -66.827873
31.00296 9.3008881 -64.658646
31.001804 7.7504544 -64.665627
31.001804 6.2003579 -64.665627
31.001804 4.6502762 -64.665627
31.001804 3.1001837 -64.665627
31.001804 1.5500895 -64.665627
31.001804 -2.7312215e-06 -64.665627
31.001804 -1.5500833 -64.665627
31.001804 -3.1001794 -64.665619
31.001804 -4.6502695 -64.665627
31.001804 -6.2003617 -64.665627
31.001804 -7.7504463 -64.665619
31.003065 -9.3009205 -64.658012
32.027325 13.725993 -67.680939
32.027325 12.200891 -67.680931
32.027325 10.675776 -67.680931
32.403175 9.2580519 -65.520477
32.401974 7.7147584 -65.52739
32.401974 6.1718063 -65.527382
32.401974 4.6288524 -65.52739
32.401974 3.0859041 -65.52739
32.401974 1.5429556 -65.527382
32.401974 1.6314034e-06 -65.52739
32.401974 -1.5429487 -65.527382
32.401974 -3.0859008 -65.52739
32.401974 -4.6288543 -65.52739
32.401974 -6.1717987 -65.52739
32.401974 -7.7147565 -65.52739
32.403286 -9.2580786 -65.519844
33.398499 13.663026 -68.525543
33.398499 12.144911 -68.525551
33.398499 10.626795 -68.525551
33.790668 9.2156391 -66.373779
33.789307 7.6793861 -66.381256
33.789307 6.1435175 -66.381256
33.789307 4.6076331 -66.381248
33.789307 3.0717566 -66.381248
33.789307 1.5358765 -66.381256
33.789307 2.0615917e-06 -66.381248
33.789307 -1.5358748 -66.381248
33.789307 -3.071753 -66.381256
33.789307 -4.6076369 -66.381248
33.789307 -6.1435075 -66.381248
33.789307 -7.6793842 -66.381248
33.790779 -9.2156649 -66.373161
34.757149 13.600627 -69.362457
34.757149 12.089442 -69.362442
34.757149 10.578264 -69.36245
35.165386 9.1735783 -67.219917
35.163975 7.6443386 -67.227318
35.163975 6.1154795 -67.227318
35.163975 4.5866046 -67.227318
35.163975 3.0577357 -67.227325
35.163975 1.5288705 -67.227318
35.163975 1.5544038e-06 -67.227325
35.163975 -1.5288701 -67.227318
35.163975 -3.0577292 -67.227318
35.163975 -4.5866022 -67.227318
35.163975 -6.1154709 -67.227325
35.163975 -7.6443462 -67.227325
35.165619 -9.1736364 -67.218681
36.103329 13.538752 -70.192345
36.103329 12.034439 -70.192337
36.103329 10.530135 -70.192345
36.527733 9.131938 -68.057755
36.526154 7.6096144 -68.065704
36.526154 6.0876937 -68.065704
36.526154 4.565774 -68.065704
36.526154 3.0438476 -68.065697
36.526154 1.5219257 -68.065697
36.526154 -2.7307769e-06 -68.065704
36.526154 -1.5219246 -68.065704
36.526154 -3.0438466 -68.065704
36.526154 -4.5657687 -68.065704
36.526154 -6.0876851 -68.065704
36.526154 -7.6096129 -68.065697
36.527977 -9.1319923 -68.056526
37.437439 13.477477 -71.014122
37.437439 11.979982 -71.01413
37.437439 10.482485 -71.014122
37.877644 9.0906315 -68.888626
37.876011 7.5752025 -68.8965
37.876011 6.0601625 -68.8965
37.876011 4.5451236 -68.8965
37.876011 3.0300837 -68.8965
37.876011 1.5150461 -68.8965
37.876011 -1.3089391e-06 -68.896507
37.876011 -1.515041 -68.896507
37.876011 -3.0300786 -68.896507
37.876011 -4.5451221 -68.8965
37.876011 -6.0601654 -68.8965
37.876011 -7.5752029 -68.8965
37.877895 -9.0906935 -68.887405
38.759525 13.416761 -71.828506
38.759525 11.926007 -71.828506
38.759525 10.435255 -71.828506
39.215527 9.0497408 -69.711411
39.213715 7.5411067 -69.719818
39.213715 6.0328794 -69.719818
39.213715 4.5246639 -69.719818
39.213715 3.0164368 -69.719818
39.213715 1.5082198 -69.719818
39.213715 2.2132663e-06 -69.71981
39.213715 -1.5082211 -69.719818
39.213715 -3.0164361 -69.719826
39.213715 -4.5246634 -69.719818
39.213715 -6.032877 -69.719818
39.213715 -7.5410981 -69.719818
39.215786 -9.0497942 -69.710213
40.069622 13.356543 -72.636162
40.069622 11.872486 -72.636154
40.069622 10.388423 -72.636162
40.541428 9.009203 -70.526833
40.542625 7.5078926 -70.521477
40.542625 6.0063128 -70.521477
40.542625 4.5047383 -70.521477
40.542625 3.0031643 -70.521477
40.542625 1.5015745 -70.521477
40.542625 -1.565023e-06 -70.521477
40.542625 -1.5015724 -70.521477
40.542625 -3.0031524 -70.521469
40.542625 -4.5047383 -70.521477
40.542625 -6.0063181 -70.521469
40.542625 -7.507894 -70.521469
40.541695 -9.0092678 -70.525642
41.368149 13.296905 -73.43602
41.368149 11.81947 -73.436012
41.368149 10.342034 -73.436012
41.816959 8.9607801 -71.50116
41.819687 7.4678001 -71.48938
41.822556 5.9746518 -71.47702
41.825287 4.4812789 -71.46524
41.828022 2.9877152 -71.453461
41.830753 1.4939598 -71.441673
41.833488 2.1127457e-06 -71.429886
41.83622 -1.4941453 -71.418106
41.838955 -2.9884903 -71.406319
41.841694 -4.4830375 -71.394531
41.844559 -5.9777994 -71.382149
41.847298 -7.4727373 -71.370361
41.850033 -8.9678612 -71.358566
41.852493 -10.46312 -71.347954
41.855095 -11.958593 -71.336746
41.857559 -13.454215 -71.326134
41.860157 -14.950055 -71.314926
41.862759 -16.446079 -71.303711
41.865219 -17.942232 -71.293091
41.867825 -19.438629 -71.281883
41.870285 -20.935143 -71.271248
41.872887 -22.431898 -71.26004
41.875355 -23.928768 -71.249413
41.877953 -25.425901 -71.23819
41.880558 -26.923212 -71.226974
41.883022 -28.420628 -71.216339
41.885624 -29.918301 -71.205124
41.888092 -31.416067 -71.194489
41.895908 -32.918217 -71.160805
41.899197 -34.417187 -71.146622
41.902485 -35.91642 -71.132431
41.914558 -37.423706 -71.080406
41.918812 -38.924614 -71.062057
41.923206 -40.425953 -71.043121
41.924847 -41.92485 -71.036026
41.926083 -43.423439 -71.030708
41.92746 -44.922283 -71.024773
42.892838 14.79064 -73.239326
42.655128 13.237803 -74.228767
42.655128 11.766933 -74.228767
42.655128 10.296062 -74.22876
43.116524 8.9206657 -72.30825
43.119328 7.4343662 -72.296585
43.122131 5.9478817 -72.284912
43.124935 4.4611945 -72.273232
43.127739 2.9743333 -72.261559
43.130688 1.4872646 -72.24929
43.133492 2.2281299e-06 -72.237617
43.136295 -1.4874599 -72.225929
43.139107 -2.9751096 -72.214256
43.141911 -4.4629593 -72.202576
43.144718 -5.9509954 -72.190887
43.147522 -7.43923 -72.179199
43.150475 -8.9276867 -72.166939
43.153278 -10.416306 -72.155243
43.15609 -11.905126 -72.143555
43.158897 -13.394135 -72.131859
43.161705 -14.883346 -72.120163
43.164516 -16.372749 -72.108467
43.167324 -17.862339 -72.096779
43.170139 -19.352129 -72.085075
43.173092 -20.84218 -72.072792
43.1759 -22.332357 -72.061096
43.178715 -23.822739 -72.049385
43.181522 -25.313311 -72.037674
43.184338 -26.804075 -72.02597
43.187149 -28.295027 -72.014267
43.18996 -29.786175 -72.002563
43.192917 -31.277624 -71.990273
43.195732 -32.769176 -71.978546
43.198547 -34.260914 -71.966843
43.201359 -35.75285 -71.955124
43.204174 -37.24498 -71.943405
43.206989 -38.737297 -71.931694
43.209805 -40.22982 -71.919968
43.212624 -41.72253 -71.908241
43.21558 -43.215576 -71.895943
43.218391 -44.708687 -71.884209
43.22121 -46.201988 -71.872482
43.22403 -47.69548 -71.860756
43.226845 -49.189167 -71.849037
43.229664 -50.683056 -71.837303
43.232483 -52.177132 -71.825569
43.235443 -53.671589 -71.81324
43.238262 -55.166054 -71.801521
43.241081 -56.660728 -71.789787
43.2439 -58.155598 -71.77803
43.246719 -59.65065 -71.766304
43.249546 -61.145901 -71.754562
43.252365 -62.641354 -71.742821
43.255188 -64.137001 -71.731064
43.258148 -65.633049 -71.718735
43.260975 -67.129089 -71.706993
43.263794 -68.625328 -71.695236
43.266617 -70.121758 -71.683479
43.269581 -71.618614 -71.671143
43.272545 -73.115685 -71.658813
44.150421 14.716811 -74.130486
43.930576 13.179177 -75.015068
43.930576 11.714818 -75.01506
43.930576 10.250465 -75.015068
44.404503 8.8809061 -73.108139
44.407375 7.4012299 -73.096573
44.410255 5.92137 -73.085007
44.413128 4.4413118 -73.073441
44.416004 2.9610639 -73.061859
44.418877 1.480623 -73.050285
44.421757 -1.1356958e-06 -73.038719
44.424778 -1.4808253 -73.026558
44.427654 -2.9618433 -73.014992
44.430531 -4.443049 -73.003403
44.433411 -5.9244533 -72.991829
44.436287 -7.4060531 -72.98024
44.439167 -8.8878355 -72.968658
44.442047 -10.369806 -72.957069
44.445068 -11.852018 -72.944916
44.447952 -13.334383 -72.933319
44.450829 -14.816943 -72.92173
44.453712 -16.299692 -72.910141
44.456596 -17.782637 -72.898552
44.459473 -19.265766 -72.886955
44.462357 -20.749102 -72.875359
44.46524 -22.232616 -72.863762
44.468262 -23.716404 -72.851585
44.471146 -25.200317 -72.839981
44.47403 -26.68442 -72.828377
44.476917 -28.168713 -72.816772
44.479801 -29.653196 -72.805176
44.482681 -31.13788 -72.793564
44.485569 -32.622753 -72.781952
44.488594 -34.107929 -72.769768
44.491482 -35.593189 -72.758163
44.49437 -37.078644 -72.746544
44.497253 -38.564293 -72.734924
44.500141 -40.050133 -72.723312
44.503029 -41.536163 -72.7117
44.505917 -43.022381 -72.700089
44.508945 -44.508945 -72.687889
44.511982 -45.995724 -72.675674
44.51516 -47.482838 -72.662895
44.518192 -48.970009 -72.650696
44.521229 -50.457386 -72.638489
44.524261 -51.944973 -72.626266
44.527298 -53.432755 -72.614059
44.530476 -54.920918 -72.601273
44.533508 -56.409122 -72.589043
44.536549 -57.897511 -72.576843
44.539585 -59.38612 -72.564613
44.542618 -60.874912 -72.552406
44.545799 -62.36412 -72.539597
44.54884 -63.853336 -72.527374
44.55188 -65.342751 -72.51516
44.554916 -66.832375 -72.50293
44.557953 -68.322197 -72.490692
44.560993 -69.812225 -72.478462
44.564182 -71.302689 -72.465645
44.567223 -72.793129 -72.453415
45.395367 14.643667 -75.013367
45.194927 13.121109 -75.793861
45.194927 11.663204 -75.793869
45.194927 10.205304 -75.793869
45.680908 8.8414736 -73.901512
45.683998 7.3683853 -73.889473
45.686943 5.8950915 -73.878006
45.689888 4.4216056 -73.866531
45.692833 2.9479289 -73.855072
45.695778 1.474062 -73.84359
45.698723 9.8397595e-07 -73.832123
45.701672 -1.474244 -73.820656
45.704617 -2.9486878 -73.809174
45.70771 -4.423327 -73.797127
45.710663 -5.8981528 -73.785652
45.713608 -7.3731661 -73.77417
45.716557 -8.8483629 -73.762688
45.719509 -10.323751 -73.751213
45.722454 -11.799344 -73.739723
45.725407 -13.275118 -73.728249
45.728504 -14.751127 -73.716179
45.731449 -16.227287 -73.704689
45.734402 -17.703638 -73.693199
45.737648 -19.180305 -73.680565
45.740746 -20.65711 -73.668495
45.743851 -22.134115 -73.656418
45.746948 -23.611326 -73.644348
45.750046 -25.088736 -73.632278
45.753296 -26.566423 -73.619637
45.756397 -28.044243 -73.607559
45.759499 -29.522261 -73.595474
45.762604 -31.000469 -73.583405
45.765705 -32.478886 -73.571312
45.768955 -33.957611 -73.558662
45.77206 -35.436424 -73.546585
45.775162 -36.915451 -73.534485
45.778267 -38.394669 -73.5224
45.781372 -39.8741 -73.510315
45.784622 -41.353851 -73.497658
45.787727 -42.833679 -73.485558
45.790833 -44.313709 -73.473465
45.793941 -45.793945 -73.461357
45.79705 -47.274376 -73.449257
45.800304 -48.755161 -73.4366
45.80341 -50.235996 -73.4245
45.806515 -51.717041 -73.412392
45.809624 -53.198277 -73.400276
45.812733 -54.679718 -73.388184
45.815845 -56.161358 -73.376068
45.819103 -57.643383 -73.363388
45.822216 -59.125435 -73.35128
45.825325 -60.607693 -73.339157
45.828438 -62.09013 -73.327057
45.831547 -63.572792 -73.314934
45.834805 -65.055847 -73.302246
45.837917 -66.538918 -73.290115
45.841034 -68.022179 -73.277992
45.844147 -69.505638 -73.265877
45.84726 -70.989304 -73.253746
45.850517 -72.473396 -73.241058
46.628151 14.571301 -75.886955
46.448181 13.063549 -76.565842
46.448181 11.612046 -76.565842
46.448181 10.160542 -76.565834
46.946476 8.8024683 -74.686157
46.950092 7.3359475 -74.672523
46.953709 5.8692174 -74.658882
46.957321 4.4022541 -74.645241
46.960941 2.9350612 -74.631607
46.964558 1.4676411 -74.61795
46.968025 -1.0574474e-06 -74.604881
46.971642 -1.4678615 -74.591225
46.975262 -2.9359496 -74.577576
46.978878 -4.4042654 -74.563927
46.982498 -5.8728094 -74.55027
46.985367 -7.3414621 -74.539452
46.989594 -8.8105421 -74.523521
46.993813 -10.279895 -74.507584
46.998192 -11.749544 -74.491074
47.002724 -13.219515 -74.473984
47.007404 -14.689815 -74.456329
47.011932 -16.160347 -74.439247
47.016464 -17.631176 -74.422142
47.020996 -19.102278 -74.40506
47.025528 -20.573668 -74.387947
47.030064 -22.045338 -74.37085
47.03717 -23.518581 -74.344048
47.042763 -24.991467 -74.322945
47.048363 -26.464701 -74.301834
47.053955 -27.93829 -74.280708
47.059555 -29.412226 -74.259598
47.065155 -30.886515 -74.238472
47.070454 -32.360939 -74.218483
47.075451 -33.835484 -74.199638
47.080452 -35.310341 -74.180779
47.085453 -36.785507 -74.161919
47.090446 -38.260994 -74.143059
47.095448 -39.736786 -74.124199
47.105606 -41.2174 -74.085884
47.115921 -42.698803 -74.046974
47.126389 -44.180992 -74.007492
47.136868 -45.663834 -73.967972
47.14719 -47.147194 -73.929008
47.157673 -48.631348 -73.889473
47.168167 -50.116177 -73.849915
47.178505 -51.601486 -73.810905
47.189003 -53.087627 -73.771309
47.199505 -54.574432 -73.731682
47.209858 -56.061707 -73.692619
47.220371 -57.549831 -73.652977
47.230888 -59.038612 -73.613304
47.241257 -60.527855 -73.574188
47.251778 -62.017963 -73.534485
47.26231 -63.508724 -73.494766
47.272694 -64.999947 -73.455612
47.283234 -66.492043 -73.41584
47.293774 -67.98481 -73.376068
47.304173 -69.477997 -73.336861
47.314724 -70.972084 -73.29705
47.325283 -72.466835 -73.257217
48.453968 14.683022 -74.538322
47.690487 13.006503 -77.33107
47.690487 11.56133 -77.33107
47.690487 10.116164 -77.331062
49.396225 8.9811363 -71.091629
49.407223 7.4859424 -71.051414
49.418385 5.9901104 -71.010574
49.429554 4.4936032 -70.969719
49.440571 2.9963977 -70.929436
49.451748 1.4985371 -70.888542
49.462772 5.0624235e-06 -70.848228
49.473961 -1.4992032 -70.807304
49.485153 -2.9990993 -70.766357
49.496189 -4.4996552 -70.725983
49.507397 -6.000895 -70.684998
49.51844 -7.5027966 -70.644592
49.529655 -9.0053883 -70.603577
49.540871 -10.508663 -70.562531
49.551937 -12.012586 -70.522072
49.563164 -13.517228 -70.480995
49.574234 -15.022495 -70.440498
49.585476 -16.52849 -70.399384
49.596886 -18.035227 -70.357658
49.608295 -19.542664 -70.315903
49.619881 -21.050859 -70.273537
49.631302 -22.559683 -70.23175
49.642895 -24.069277 -70.189354
49.654327 -25.579498 -70.14753
49.665932 -27.090506 -70.105087
49.677376 -28.602125 -70.063232
49.688824 -30.114441 -70.021339
49.700443 -31.627554 -69.978836
49.711906 -33.14127 -69.936913
49.723534 -34.655796 -69.894386
49.735008 -36.170914 -69.852425
49.746647 -37.686848 -69.809845
49.758129 -39.203373 -69.767845
49.769775 -40.720734 -69.72522
49.781269 -42.238655 -69.683174
49.79277 -43.757278 -69.641129
49.804436 -45.276752 -69.59845
49.815945 -46.796791 -69.556351
49.827625 -48.317692 -69.513641
49.839142 -49.839142 -69.471497
49.850834 -51.361462 -69.428734
49.862362 -52.884319 -69.386559
49.874065 -54.408066 -69.343758
49.885605 -55.93235 -69.301537
50.363087 13.331409 -72.973289
50.363087 11.850135 -72.973297
50.363087 10.368871 -72.973297
52.37075 9.2419033 -65.845459
52.37075 7.701581 -65.845451
52.37093 6.1612835 -65.844833
52.37093 4.6209631 -65.844826
52.37093 3.0806465 -65.844833
52.37093 1.5403241 -65.844826
52.37093 -3.1328839e-06 -65.844826
52.37093 -1.5403211 -65.844833
52.37093 -3.080642 -65.844826
52.37093 -4.6209588 -65.844826
52.37093 -6.1612892 -65.844826
52.37093 -7.7016039 -65.844833
52.37093 -9.2419243 -65.844826
53.17281 13.67301 -68.391609
53.17281 12.153789 -68.391617
53.17281 10.634562 -68.391609
55.290699 9.4784031 -61.087269
55.290699 7.8986716 -61.087265
55.290699 6.3189363 -61.087273
55.290699 4.7392054 -61.087269
55.290699 3.1594725 -61.087265
55.290699 1.5797311 -61.087265
55.290699 5.9619892e-06 -61.087269
55.290699 -1.5797353 -61.087269
55.290699 -3.1594682 -61.087265
55.290699 -4.7392035 -61.087273
55.29089 -6.318965 -61.086609
55.29089 -7.8986907 -61.086609
55.29089 -9.4784393 -61.086605
56.130119 14.032529 -63.569607
56.130119 12.473363 -63.569599
56.130119 10.914197 -63.569599
58.363815 9.7273083 -56.079845
58.363815 8.1060829 -56.079849
58.363815 6.4848704 -56.079853
58.363815 4.8636532 -56.079853
58.364021 3.2424507 -56.079163
58.364021 1.6212207 -56.079159
58.364021 -1.1679771e-06 -56.079144
58.364021 -1.6212208 -56.079159
58.364021 -3.2424507 -56.079151
58.364021 -4.8636622 -56.079159
58.364021 -6.4848924 -56.079155
58.364021 -8.1061039 -56.079163
58.364021 -9.727334 -56.079155
59.906452 14.571836 -56.336216
59.247356 12.810244 -58.486477
59.247356 11.208961 -58.486481
61.465725 9.9674196 -51.249165
61.602901 8.3247156 -50.801628
61.602901 6.6597733 -50.801617
61.602901 4.9948339 -50.801632
61.602901 3.3298903 -50.801624
61.602901 1.6649384 -50.80162
61.602901 6.9591965e-06 -50.801628
61.602901 -1.6649448 -50.801624
61.602901 -3.3298883 -50.801617
61.602901 -4.9948301 -50.801628
61.602901 -6.6597714 -50.80162
61.602901 -8.3247232 -50.801617
62.537422 13.165771 -53.12188
62.537422 11.520054 -53.121887
63.128563 9.9676752 -51.244076
65.021317 8.5554419 -45.231552
65.021317 6.8443565 -45.231564
65.021317 5.1332626 -45.23156
