# .PCD v0.7 - Point Cloud Data file format
VERSION 0.7
FIELDS x y z
SIZE 4 4 4
TYPE F F F
COUNT 1 1 1
WIDTH 1506
HEIGHT 1
VIEWPOINT 0 0 0 1 0 0 0
POINTS 1506
DATA ascii
-74.775894 27.357031 -31.625643
-74.761581 25.528347 -31.667789
-74.747276 23.700357 -31.7099
-74.732979 21.873072 -31.752012
-74.718681 20.046478 -31.79409
-74.704689 18.220661 -31.835297
-74.690407 16.395454 -31.877344
-74.676125 14.570955 -31.919395
-74.66185 12.747149 -31.961411
-72.755196 10.647101 -37.574913
-72.755478 8.8726282 -37.574081
-72.755478 7.0980954 -37.57407
-72.755478 5.3235726 -37.574074
-72.755478 3.5490487 -37.574078
-72.755478 1.7745286 -37.574085
-72.755478 -5.2298501e-06 -37.574074
-72.755478 -1.7745183 -37.574074
-72.755478 -3.549042 -37.574078
-72.755478 -5.323565 -37.574085
-72.755478 -7.0980959 -37.574074
-72.061989 -8.7880478 -39.615822
-72.061989 -10.545654 -39.615837
-72.061989 -12.303261 -39.615833
-70.980682 10.647101 -37.574913
-70.980957 8.8726282 -37.574081
-70.980957 7.0980954 -37.57407
-70.980957 5.3235726 -37.574074
-70.980957 3.5490487 -37.574078
-70.980957 1.7745286 -37.574085
-70.980957 -5.2298501e-06 -37.574074
-70.980957 -1.7745183 -37.574074
-70.980957 -3.549042 -37.574078
-70.980957 -5.323565 -37.574085
-70.980957 -7.0980959 -37.574074
-70.304382 -8.7880478 -39.615822
-70.304382 -10.545654 -39.615837
-70.304382 -12.303261 -39.615833
-69.206161 10.647101 -37.574913
-69.206436 8.8726282 -37.574081
-69.206436 7.0980954 -37.57407
-69.206436 5.3235726 -37.574074
-69.206436 3.5490487 -37.574078
-69.206436 1.7745286 -37.574085
-69.206436 -5.2298501e-06 -37.574074
-69.206436 -1.7745183 -37.574074
-69.206436 -3.549042 -37.574078
-69.206436 -5.323565 -37.574085
-69.206436 -7.0980959 -37.574074
-68.546776 -8.7880478 -39.615822
-68.546776 -10.545654 -39.615837
-68.546776 -12.303261 -39.615833
-67.431648 10.647101 -37.574913
-67.431908 8.8726282 -37.574081
-67.431908 7.0980954 -37.57407
-67.431908 5.3235726 -37.574074
-67.431908 3.5490487 -37.574078
-67.431908 1.7745286 -37.574085
-67.431908 -5.2298501e-06 -37.574074
-67.431908 -1.7745183 -37.574074
-67.431908 -3.549042 -37.574078
-67.431908 -5.323565 -37.574085
-67.431908 -7.0980959 -37.574074
-66.789162 -8.7880478 -39.615822
-66.789162 -10.545654 -39.615837
-66.789162 -12.303261 -39.615833
-65.657127 10.647101 -37.574913
-65.657387 8.8726282 -37.574081
-65.657387 7.0980954 -37.57407
-65.657387 5.3235726 -37.574074
-65.657387 3.5490487 -37.574078
-65.657387 1.7745286 -37.574085
-65.657387 -5.2298501e-06 -37.574074
-65.657387 -1.7745183 -37.574074
-65.657387 -3.549042 -37.574078
-65.657387 -5.323565 -37.574085
-65.657387 -7.0980959 -37.574074
-65.031548 -8.7880478 -39.615822
-65.031548 -10.545654 -39.615837
-65.031548 -12.303261 -39.615833
-63.882614 10.647101 -37.574913
-63.882858 8.8726282 -37.574081
-63.882858 7.0980954 -37.57407
-63.882858 5.3235726 -37.574074
-63.882858 3.5490487 -37.574078
-63.882858 1.7745286 -37.574085
-63.882858 -5.2298501e-06 -37.574074
-63.882858 -1.7745183 -37.574074
-63.882858 -3.549042 -37.574078
-63.882858 -5.323565 -37.574085
-63.882858 -7.0980959 -37.574074
-63.273941 -8.7880478 -39.615822
-63.273941 -10.545654 -39.615837
-63.273941 -12.303261 -39.615833
-62.108097 10.647101 -37.574913
-62.108337 8.8726282 -37.574081
-62.108337 7.0980954 -37.57407
-62.108337 5.3235726 -37.574074
-62.108337 3.5490487 -37.574078
-62.108337 1.7745286 -37.574085
-62.108337 -5.2298501e-06 -37.574074
-62.108337 -1.7745183 -37.574074
-62.108337 -3.549042 -37.574078
-62.108337 -5.323565 -37.574085
-62.108337 -7.0980959 -37.574074
-61.516335 -8.7880478 -39.615822
-61.516335 -10.545654 -39.615837
-61.516335 -12.303261 -39.615833
-80.851089 73.717178 35.268688
-80.845619 71.334373 35.249279
-80.840157 68.951912 35.229893
-80.835114 66.570091 35.211967
-80.83007 64.188591 35.194077
-80.824608 61.807049 35.174686
-80.819565 59.426151 35.156773
-80.81411 57.04525 35.137386
-80.809067 54.664963 35.119507
-80.803604 52.284683 35.100113
-80.798561 49.905006 35.082218
-80.793106 47.52536 35.062847
-80.788071 45.146278 35.044952
-80.783035 42.767487 35.027073
-80.777573 40.388783 35.00771
-80.772537 38.010616 34.989826
-80.76709 35.632542 34.970455
-80.762054 33.254963 34.952591
-80.756599 30.877525 34.933224
-80.751564 28.500549 34.915363
-80.746536 26.123894 34.897491
-80.741081 23.747374 34.878136
-80.736053 21.371309 34.860287
-80.730606 18.99543 34.840939
-80.725571 16.619976 34.823071
-60.333576 10.647101 -37.574913
-60.333813 8.8726282 -37.574081
-60.333813 7.0980954 -37.57407
-60.333813 5.3235726 -37.574074
-60.333813 3.5490487 -37.574078
-60.333813 1.7745286 -37.574085
-60.333813 -5.2298501e-06 -37.574074
-60.333813 -1.7745183 -37.574074
-60.333813 -3.549042 -37.574078
-60.333813 -5.323565 -37.574085
-60.333813 -7.0980959 -37.574074
-59.758724 -8.7880478 -39.615822
-59.758724 -10.545654 -39.615837
-59.758724 -12.303261 -39.615833
-78.503319 88.018875 35.379177
-78.498421 85.634644 35.361259
-78.493111 83.250275 35.34185
-78.48822 80.866646 35.323933
-78.48291 78.482903 35.304516
-78.478012 76.099899 35.286594
-78.472702 73.716782 35.2672
-78.467804 71.334373 35.249279
-78.462509 68.951912 35.229893
-78.457611 66.570091 35.211967
-78.452713 64.188591 35.194077
-78.447418 61.807049 35.174686
-78.44252 59.426151 35.156773
-78.437218 57.04525 35.137386
-78.432327 54.664963 35.119507
-78.427032 52.284683 35.100113
-78.422134 49.905006 35.082218
-78.41684 47.52536 35.062847
-78.411949 45.146278 35.044952
-78.407059 42.767487 35.027073
-78.401764 40.388783 35.00771
-78.396881 38.010616 34.989826
-78.391586 35.632542 34.970455
-78.386703 33.254963 34.952591
-78.381401 30.877525 34.933224
-78.376518 28.500549 34.915363
-78.371635 26.123894 34.897491
-78.366341 23.747374 34.878136
-78.361458 21.371309 34.860287
-78.356178 18.99543 34.840939
-78.351295 16.619976 34.823071
-58.559063 10.647101 -37.574913
-58.559288 8.8726282 -37.574081
-58.559288 7.0980954 -37.57407
-58.559288 5.3235726 -37.574074
-58.559288 3.5490487 -37.574078
-58.559288 1.7745286 -37.574085
-58.559288 -5.2298501e-06 -37.574074
-58.559288 -1.7745183 -37.574074
-58.559288 -3.549042 -37.574078
-58.559288 -5.323565 -37.574085
-58.559288 -7.0980959 -37.574074
-58.001114 -8.7880478 -39.615822
-58.001114 -10.545654 -39.615837
-58.001114 -12.303261 -39.615833
-76.124435 88.018875 35.379177
-76.119682 85.634644 35.361259
-76.114532 83.250275 35.34185
-76.109787 80.866646 35.323933
-76.104637 78.482903 35.304516
-76.099892 76.099899 35.286594
-76.094742 73.716782 35.2672
-76.089996 71.334373 35.249279
-76.084854 68.951912 35.229893
-76.080109 66.570091 35.211967
-76.075363 64.188591 35.194077
-76.070221 61.807049 35.174686
-76.065475 59.426151 35.156773
-76.060333 57.04525 35.137386
-76.055588 54.664963 35.119507
-76.050453 52.284683 35.100113
-76.045708 49.905006 35.082218
-76.040573 47.52536 35.062847
-76.035828 45.146278 35.044952
-76.03109 42.767487 35.027073
-76.025955 40.388783 35.00771
-76.021217 38.010616 34.989826
-76.016083 35.632542 34.970455
-76.011345 33.254963 34.952591
-76.00621 30.877525 34.933224
-76.00148 28.500549 34.915363
-75.996742 26.123894 34.897491
-75.991608 23.747374 34.878136
-75.98687 21.371309 34.860287
-75.981743 18.99543 34.840939
-75.977013 16.619976 34.823071
-56.784546 10.647101 -37.574913
-56.784767 8.8726282 -37.574081
-56.784767 7.0980954 -37.57407
-56.784767 5.3235726 -37.574074
-56.784767 3.5490487 -37.574078
-56.784767 1.7745286 -37.574085
-56.784767 -5.2298501e-06 -37.574074
-56.784767 -1.7745183 -37.574074
-56.784767 -3.549042 -37.574078
-56.784767 -5.323565 -37.574085
-56.784767 -7.0980959 -37.574074
-56.243504 -8.7880478 -39.615822
-56.243504 -10.545654 -39.615837
-56.243504 -12.303261 -39.615833
-75.173286 33.94923 40.938675
-75.15097 31.514931 40.851772
-75.129066 29.082224 40.766476
-75.10717 26.65094 40.681229
-75.084892 24.220951 40.594479
-75.063026 21.792498 40.509346
-75.040779 19.365355 40.422695
-75.018936 16.939756 40.337643
-55.010025 10.647101 -37.574913
-55.010242 8.8726282 -37.574081
-55.010242 7.0980954 -37.57407
-55.010242 5.3235726 -37.574074
-55.010242 3.5490487 -37.574078
-55.010242 1.7745286 -37.574085
-55.010242 -5.2298501e-06 -37.574074
-55.010242 -1.7745183 -37.574074
-55.010242 -3.549042 -37.574078
-55.010242 -5.323565 -37.574085
-55.010242 -7.0980959 -37.574074
-54.485897 -8.7880478 -39.615822
-54.485897 -10.545654 -39.615837
-54.485897 -12.303261 -39.615833
-53.235512 10.647101 -37.574913
-53.235718 8.8726282 -37.574081
-53.235718 7.0980954 -37.57407
-53.235718 5.3235726 -37.574074
-53.235718 3.5490487 -37.574078
-53.235718 1.7745286 -37.574085
-53.235718 -5.2298501e-06 -37.574074
-53.235718 -1.7745183 -37.574074
-53.235718 -3.549042 -37.574078
-53.235718 -5.323565 -37.574085
-53.235718 -7.0980959 -37.574074
-52.728287 -8.7880478 -39.615822
-52.728287 -10.545654 -39.615837
-52.728287 -12.303261 -39.615833
-51.460995 10.647101 -37.574913
-51.461197 8.8726282 -37.574081
-51.461197 7.0980954 -37.57407
-51.461197 5.3235726 -37.574074
-51.461197 3.5490487 -37.574078
-51.461197 1.7745286 -37.574085
-51.461197 -5.2298501e-06 -37.574074
-51.461197 -1.7745183 -37.574074
-51.461197 -3.549042 -37.574078
-51.461197 -5.323565 -37.574085
-51.461197 -7.0980959 -37.574074
-50.970673 -8.7880478 -39.615822
-50.970673 -10.545654 -39.615837
-50.970673 -12.303261 -39.615833
-49.686474 10.647101 -37.574913
-49.686672 8.8726282 -37.574081
-49.686672 7.0980954 -37.57407
-49.686672 5.3235726 -37.574074
-49.686672 3.5490487 -37.574078
-49.686672 1.7745286 -37.574085
-49.686672 -5.2298501e-06 -37.574074
-49.686672 -1.7745183 -37.574074
-49.686672 -3.549042 -37.574078
-49.686672 -5.323565 -37.574085
-49.686672 -7.0980959 -37.574074
-49.21307 -8.7880478 -39.615822
-49.21307 -10.545654 -39.615837
-49.21307 -12.303261 -39.615833
-47.911961 10.647101 -37.574913
-47.912144 8.8726282 -37.574081
-47.912144 7.0980954 -37.57407
-47.912144 5.3235726 -37.574074
-47.912144 3.5490487 -37.574078
-47.912144 1.7745286 -37.574085
-47.912144 -5.2298501e-06 -37.574074
-47.912144 -1.7745183 -37.574074
-47.912144 -3.549042 -37.574078
-47.912144 -5.323565 -37.574085
-47.912144 -7.0980959 -37.574074
-47.45546 -8.7880478 -39.615822
-47.45546 -10.545654 -39.615837
-47.45546 -12.303261 -39.615833
-46.137444 10.647101 -37.574913
-46.137619 8.8726282 -37.574081
-46.137619 7.0980954 -37.57407
-46.137619 5.3235726 -37.574074
-46.137619 3.5490487 -37.574078
-46.137619 1.7745286 -37.574085
-46.137619 -5.2298501e-06 -37.574074
-46.137619 -1.7745183 -37.574074
-46.137619 -3.549042 -37.574078
-46.137619 -5.323565 -37.574085
-46.137619 -7.0980959 -37.574074
-45.697845 -8.7880478 -39.615822
-45.697845 -10.545654 -39.615837
-45.697845 -12.303261 -39.615833
-44.362926 10.647101 -37.574913
-44.363098 8.8726282 -37.574081
-44.363098 7.0980954 -37.57407
-44.363098 5.3235726 -37.574074
-44.363098 3.5490487 -37.574078
-44.363098 1.7745286 -37.574085
-44.363098 -5.2298501e-06 -37.574074
-44.363098 -1.7745183 -37.574074
-44.363098 -3.549042 -37.574078
-44.363098 -5.323565 -37.574085
-44.363098 -7.0980959 -37.574074
-43.940235 -8.7880478 -39.615822
-43.940235 -10.545654 -39.615837
-43.940235 -12.303261 -39.615833
-42.588406 10.647101 -37.574913
-42.588573 8.8726282 -37.574081
-42.588573 7.0980954 -37.57407
-42.588573 5.3235726 -37.574074
-42.588573 3.5490487 -37.574078
-42.588573 1.7745286 -37.574085
-42.588573 -5.2298501e-06 -37.574074
-42.588573 -1.7745183 -37.574074
-42.588573 -3.549042 -37.574078
-42.588573 -5.323565 -37.574085
-42.588573 -7.0980959 -37.574074
-42.182629 -8.7880478 -39.615822
-42.182629 -10.545654 -39.615837
-42.182629 -12.303261 -39.615833
-40.813892 10.647101 -37.574913
-40.814053 8.8726282 -37.574081
-40.814053 7.0980954 -37.57407
-40.814053 5.3235726 -37.574074
-40.814053 3.5490487 -37.574078
-40.814053 1.7745286 -37.574085
-40.814053 -5.2298501e-06 -37.574074
-40.814053 -1.7745183 -37.574074
-40.814053 -3.549042 -37.574078
-40.814053 -5.323565 -37.574085
-40.814053 -7.0980959 -37.574074
-40.425018 -8.7880478 -39.615822
-40.425018 -10.545654 -39.615837
-40.425018 -12.303261 -39.615833
-39.039375 10.647101 -37.574913
-39.039524 8.8726282 -37.574081
-39.039524 7.0980954 -37.57407
-39.039524 5.3235726 -37.574074
-39.039524 3.5490487 -37.574078
-39.039524 1.7745286 -37.574085
-39.039524 -5.2298501e-06 -37.574074
-39.039524 -1.7745183 -37.574074
-39.039524 -3.549042 -37.574078
-39.039524 -5.323565 -37.574085
-39.039524 -7.0980959 -37.574074
-38.667408 -8.7880478 -39.615822
-38.667408 -10.545654 -39.615837
-38.667408 -12.303261 -39.615833
-37.264858 10.647101 -37.574913
-37.265003 8.8726282 -37.574081
-37.265003 7.0980954 -37.57407
-37.265003 5.3235726 -37.574074
-37.265003 3.5490487 -37.574078
-37.265003 1.7745286 -37.574085
-37.265003 -5.2298501e-06 -37.574074
-37.265003 -1.7745183 -37.574074
-37.265003 -3.549042 -37.574078
-37.265003 -5.323565 -37.574085
-37.265003 -7.0980959 -37.574074
-36.909801 -8.7880478 -39.615822
-36.909801 -10.545654 -39.615837
-36.909801 -12.303261 -39.615833
-35.490341 10.647101 -37.574913
-35.490341 8.8725872 -37.574913
-35.490479 7.0980954 -37.57407
-35.490479 5.3235726 -37.574074
-35.490479 3.5490487 -37.574078
-35.490479 1.7745286 -37.574085
-35.490479 -5.2298501e-06 -37.574074
-35.490479 -1.7745183 -37.574074
-35.490479 -3.549042 -37.574078
-35.490479 -5.323565 -37.574085
-35.490479 -7.0980959 -37.574074
-35.152191 -8.7880478 -39.615822
-35.152191 -10.545654 -39.615837
-35.152191 -12.303261 -39.615833
-35.216007 11.12084 -28.043951
-35.216007 9.267374 -28.043964
-35.216007 7.413897 -28.043961
-33.715824 5.3235598 -37.574913
-33.715954 3.5490487 -37.574078
-33.715954 1.7745286 -37.574085
-33.715954 -5.2298501e-06 -37.574074
-33.715954 -1.7745183 -37.574074
-33.715954 -3.549042 -37.574078
-33.715954 -5.323565 -37.574085
-33.715954 -7.0980959 -37.574074
-33.394581 -8.7880478 -39.615822
-33.394581 -10.545654 -39.615837
-33.394581 -12.303261 -39.615833
-35.266171 9.7961588 -15.277864
-35.266171 7.8369231 -15.277864
-31.941307 5.3235598 -37.574913
-31.941429 3.5490487 -37.574078
-31.941429 1.7745286 -37.574085
-31.941429 -5.2298501e-06 -37.574074
-31.941429 -1.7745183 -37.574074
-31.941429 -3.549042 -37.574078
-31.941429 -5.323565 -37.574085
-31.941429 -7.0980959 -37.574074
-31.636971 -8.7880478 -39.615822
-31.636971 -10.545654 -39.615837
-31.636971 -12.303261 -39.615833
-35.322247 10.388907 -0.96792591
-35.322247 8.3111258 -0.96792495
-30.166788 5.3235598 -37.574913
-30.166906 3.5490487 -37.574078
-30.166906 1.7745286 -37.574085
-30.166906 -5.2298501e-06 -37.574074
-30.166906 -1.7745183 -37.574074
-30.166906 -3.549042 -37.574078
-30.166906 -5.323565 -37.574085
-30.166906 -7.0980959 -37.574074
-29.879362 -8.7880478 -39.615822
-29.879362 -10.545654 -39.615837
-29.879362 -12.303261 -39.615833
-35.385719 11.058041 15.186548
-35.385719 8.846427 15.186555
-28.392273 5.3235598 -37.574913
-28.392384 3.5490487 -37.574078
-28.392384 1.7745286 -37.574085
-28.392384 -5.2298501e-06 -37.574074
-28.392384 -1.7745183 -37.574074
-28.392384 -3.549042 -37.574078
-28.392384 -5.323565 -37.574085
-28.392384 -7.0980959 -37.574074
-28.121752 -8.7880478 -39.615822
-28.121752 -10.545654 -39.615837
-28.121752 -12.303261 -39.615833
-35.457924 9.4554462 33.565281
-26.617756 5.3235598 -37.574913
-26.617859 3.5490487 -37.574078
-26.617859 1.7745286 -37.574085
-26.617859 -5.2298501e-06 -37.574074
-26.617859 -1.7745183 -37.574074
-26.617859 -3.549042 -37.574078
-26.617859 -5.323565 -37.574085
-26.617859 -7.0980959 -37.574074
-26.364143 -8.7880478 -39.615822
-26.364143 -10.545654 -39.615837
-26.364143 -12.303261 -39.615833
-24.843237 5.3235598 -37.574913
-24.843336 3.5490487 -37.574078
-24.843336 1.7745286 -37.574085
-24.843336 -5.2298501e-06 -37.574074
-24.843336 -1.7745183 -37.574074
-24.843336 -3.549042 -37.574078
-24.843336 -5.323565 -37.574085
-24.843336 -7.0980959 -37.574074
-24.606535 -8.7880478 -39.615822
-24.606535 -10.545654 -39.615837
-24.606535 -12.303261 -39.615833
-23.068722 5.3235598 -37.574913
-23.06881 3.5490487 -37.574078
-23.06881 1.7745286 -37.574085
-23.06881 -5.2298501e-06 -37.574074
-23.06881 -1.7745183 -37.574074
-23.06881 -3.549042 -37.574078
-23.06881 -5.323565 -37.574085
-23.06881 -7.0980959 -37.574074
-22.848923 -8.7880478 -39.615822
-22.848923 -10.545654 -39.615837
-22.848923 -12.303261 -39.615833
-21.294203 5.3235598 -37.574913
-21.294287 3.5490487 -37.574078
-21.294287 1.7745286 -37.574085
-21.294287 -5.2298501e-06 -37.574074
-21.294287 -1.7745183 -37.574074
-21.294287 -3.549042 -37.574078
-21.294287 -5.323565 -37.574085
-21.294287 -7.0980959 -37.574074
-21.091314 -8.7880478 -39.615822
-21.091314 -10.545654 -39.615837
-21.091314 -12.303261 -39.615833
-19.519688 5.3235598 -37.574913
-19.519762 3.5490487 -37.574078
-19.519762 1.7745286 -37.574085
-19.519762 -5.2298501e-06 -37.574074
-19.519762 -1.7745183 -37.574074
-19.519762 -3.549042 -37.574078
-19.519762 -5.323565 -37.574085
-19.519762 -7.0980959 -37.574074
-19.333704 -8.7880478 -39.615822
-19.333704 -10.545654 -39.615837
-19.333704 -12.303261 -39.615833
-17.745171 5.3235598 -37.574913
-17.745239 3.5490487 -37.574078
-17.745239 1.7745286 -37.574085
-17.745239 -5.2298501e-06 -37.574074
-17.745239 -1.7745183 -37.574074
-17.745239 -3.549042 -37.574078
-17.745239 -5.323565 -37.574085
-17.745239 -7.0980959 -37.574074
-17.576096 -8.7880478 -39.615822
-17.576096 -10.545654 -39.615837
-17.576096 -12.303261 -39.615833
-15.970654 5.3235598 -37.574913
-15.970715 3.5490487 -37.574078
-15.970715 1.7745286 -37.574085
-15.970715 -5.2298501e-06 -37.574074
-15.970715 -1.7745183 -37.574074
-15.970715 -3.549042 -37.574078
-15.970715 -5.323565 -37.574085
-15.970715 -7.0980959 -37.574074
-15.818485 -8.7880478 -39.615822
-15.818485 -10.545654 -39.615837
-15.818485 -12.303261 -39.615833
-14.196136 5.3235598 -37.574913
-14.196192 3.5490487 -37.574078
-14.196192 1.7745286 -37.574085
-14.196192 -5.2298501e-06 -37.574074
-14.196192 -1.7745183 -37.574074
-14.196192 -3.549042 -37.574078
-14.196192 -5.323565 -37.574085
-14.196192 -7.0980959 -37.574074
-14.060876 -8.7880478 -39.615822
-14.060876 -10.545654 -39.615837
-14.060876 -12.303261 -39.615833
-12.421618 5.3235598 -37.574913
-12.421668 3.5490487 -37.574078
-12.421668 1.7745286 -37.574085
-12.421668 -5.2298501e-06 -37.574074
-12.421668 -1.7745183 -37.574074
-12.421668 -3.549042 -37.574078
-12.421668 -5.323565 -37.574085
-12.421668 -7.0980959 -37.574074
-12.303267 -8.7880478 -39.615822
-12.303267 -10.545654 -39.615837
-12.303267 -12.303261 -39.615833
-10.647101 5.3235598 -37.574913
-10.647143 3.5490487 -37.574078
-10.647143 1.7745286 -37.574085
-10.647143 -5.2298501e-06 -37.574074
-10.647143 -1.7745183 -37.574074
-10.647143 -3.549042 -37.574078
-10.647143 -5.323565 -37.574085
-10.647143 -7.0980959 -37.574074
-10.545657 -8.7880478 -39.615822
-10.545657 -10.545654 -39.615837
-10.545657 -12.303261 -39.615833
-8.8725853 5.3235598 -37.574913
-8.8726196 3.5490487 -37.574078
-8.8726196 1.7745286 -37.574085
-8.8726196 -5.2298501e-06 -37.574074
-8.8726196 -1.7745183 -37.574074
-8.8726196 -3.549042 -37.574078
-8.8726196 -5.323565 -37.574085
-8.8726196 -7.0980959 -37.574074
-8.7880478 -8.7880478 -39.615822
-8.7880478 -10.545654 -39.615837
-8.7880478 -12.303261 -39.615833
-7.0980682 5.3235598 -37.574913
-7.0980959 3.5490487 -37.574078
-7.0980959 1.7745286 -37.574085
-7.0980959 -5.2298501e-06 -37.574074
-7.0980959 -1.7745183 -37.574074
-7.0980959 -3.549042 -37.574078
-7.0980959 -5.323565 -37.574085
-7.0980959 -7.0980959 -37.574074
-7.0304379 -8.7880478 -39.615822
-7.0304379 -10.545654 -39.615837
-7.0304379 -12.303261 -39.615833
-5.3235507 5.3235598 -37.574913
-5.3235717 3.5490487 -37.574078
-5.3235717 1.7745286 -37.574085
-5.3235717 -5.2298501e-06 -37.574074
-5.3235717 -1.7745183 -37.574074
-5.3235717 -3.549042 -37.574078
-5.3235717 -5.323565 -37.574085
-5.3235717 -7.0980959 -37.574074
-5.2728286 -8.7880478 -39.615822
-5.2728286 -10.545654 -39.615837
-5.2728286 -12.303261 -39.615833
-3.5490341 5.3235598 -37.574913
-3.5490479 3.5490487 -37.574078
-3.5490479 1.7745286 -37.574085
-3.5490479 -5.2298501e-06 -37.574074
-3.5490479 -1.7745183 -37.574074
-3.5490479 -3.549042 -37.574078
-3.5490479 -5.323565 -37.574085
-3.5490479 -7.0980959 -37.574074
-3.515219 -8.7880478 -39.615822
-3.515219 -10.545654 -39.615837
-3.515219 -12.303261 -39.615833
-1.7745171 5.3235598 -37.574913
-1.774524 3.5490487 -37.574078
-1.774524 1.7745286 -37.574085
-1.774524 -5.2298501e-06 -37.574074
-1.774524 -1.7745183 -37.574074
-1.774524 -3.549042 -37.574078
-1.774524 -5.323565 -37.574085
-1.774524 -7.0980959 -37.574074
-1.7576095 -8.7880478 -39.615822
-1.7576095 -10.545654 -39.615837
-1.7576095 -12.303261 -39.615833
-7.8141753e-23 5.3235598 -37.574913
-6.6239571e-23 3.5490487 -37.574078
-8.2248159e-23 1.7745286 -37.574085
-3.004443e-24 -5.2298501e-06 -37.574074
-1.1075339e-23 -1.7745183 -37.574074
-1.1208543e-23 -3.549042 -37.574078
-9.8688777e-23 -5.323565 -37.574085
-2.7382754e-23 -7.0980959 -37.574074
9.0119501e-24 -8.7880478 -39.615822
-1.0568997e-22 -10.545654 -39.615837
-6.9543327e-23 -12.303261 -39.615833
1.7745171 5.3235598 -37.574913
1.774524 3.5490487 -37.574078
1.774524 1.7745286 -37.574085
1.774524 -5.2298501e-06 -37.574074
1.774524 -1.7745183 -37.574074
1.774524 -3.549042 -37.574078
1.774524 -5.323565 -37.574085
1.774524 -7.0980959 -37.574074
1.7576095 -8.7880478 -39.615822
1.7576095 -10.545654 -39.615837
1.7576095 -12.303261 -39.615833
3.5490341 5.3235598 -37.574913
3.5490479 3.5490487 -37.574078
3.5490479 1.7745286 -37.574085
3.5490479 -5.2298501e-06 -37.574074
3.5490479 -1.7745183 -37.574074
3.5490479 -3.549042 -37.574078
3.5490479 -5.323565 -37.574085
3.5490479 -7.0980959 -37.574074
3.515219 -8.7880478 -39.615822
3.515219 -10.545654 -39.615837
3.515219 -12.303261 -39.615833
5.3235507 5.3235598 -37.574913
5.3235717 3.5490487 -37.574078
5.3235717 1.7745286 -37.574085
5.3235717 -5.2298501e-06 -37.574074
5.3235717 -1.7745183 -37.574074
5.3235717 -3.549042 -37.574078
5.3235717 -5.323565 -37.574085
5.3235717 -7.0980959 -37.574074
5.2728286 -8.7880478 -39.615822
5.2728286 -10.545654 -39.615837
5.2728286 -12.303261 -39.615833
7.0980682 5.3235598 -37.574913
7.0980959 3.5490487 -37.574078
7.0980959 1.7745286 -37.574085
7.0980959 -5.2298501e-06 -37.574074
7.0980959 -1.7745183 -37.574074
7.0980959 -3.549042 -37.574078
7.0980959 -5.323565 -37.574085
7.0980959 -7.0980959 -37.574074
7.0304379 -8.7880478 -39.615822
7.0304379 -10.545654 -39.615837
7.0304379 -12.303261 -39.615833
8.8725853 5.3235598 -37.574913
8.8726196 3.5490487 -37.574078
8.8726196 1.7745286 -37.574085
8.8726196 -5.2298501e-06 -37.574074
8.8726196 -1.7745183 -37.574074
8.8726196 -3.549042 -37.574078
8.8726196 -5.323565 -37.574085
8.8726196 -7.0980959 -37.574074
8.7880478 -8.7880478 -39.615822
8.7880478 -10.545654 -39.615837
8.7880478 -12.303261 -39.615833
10.647101 5.3235598 -37.574913
10.647143 3.5490487 -37.574078
10.647143 1.7745286 -37.574085
10.647143 -5.2298501e-06 -37.574074
10.647143 -1.7745183 -37.574074
10.647143 -3.549042 -37.574078
10.647143 -5.323565 -37.574085
10.647143 -7.0980959 -37.574074
10.545657 -8.7880478 -39.615822
10.545657 -10.545654 -39.615837
10.545657 -12.303261 -39.615833
12.421618 5.3235598 -37.574913
12.421668 3.5490487 -37.574078
12.421668 1.7745286 -37.574085
12.421668 -5.2298501e-06 -37.574074
12.421668 -1.7745183 -37.574074
12.421668 -3.549042 -37.574078
12.421668 -5.323565 -37.574085
12.421668 -7.0980959 -37.574074
12.303267 -8.7880478 -39.615822
12.303267 -10.545654 -39.615837
12.303267 -12.303261 -39.615833
14.196136 5.3235598 -37.574913
14.196192 3.5490487 -37.574078
14.196192 1.7745286 -37.574085
14.196192 -5.2298501e-06 -37.574074
14.196192 -1.7745183 -37.574074
14.196192 -3.549042 -37.574078
14.196192 -5.323565 -37.574085
14.196192 -7.0980959 -37.574074
14.060876 -8.7880478 -39.615822
14.060876 -10.545654 -39.615837
14.060876 -12.303261 -39.615833
15.970654 5.3235598 -37.574913
15.970715 3.5490487 -37.574078
15.970715 1.7745286 -37.574085
15.970715 -5.2298501e-06 -37.574074
15.970715 -1.7745183 -37.574074
15.970715 -3.549042 -37.574078
15.970715 -5.323565 -37.574085
15.970715 -7.0980959 -37.574074
15.818485 -8.7880478 -39.615822
15.818485 -10.545654 -39.615837
15.818485 -12.303261 -39.615833
17.745171 5.3235598 -37.574913
17.745239 3.5490487 -37.574078
17.745239 1.7745286 -37.574085
17.745239 -5.2298501e-06 -37.574074
17.745239 -1.7745183 -37.574074
17.745239 -3.549042 -37.574078
17.745239 -5.323565 -37.574085
17.745239 -7.0980959 -37.574074
17.576096 -8.7880478 -39.615822
17.576096 -10.545654 -39.615837
17.576096 -12.303261 -39.615833
19.519688 5.3235598 -37.574913
19.519762 3.5490487 -37.574078
19.519762 1.7745286 -37.574085
19.519762 -5.2298501e-06 -37.574074
19.519762 -1.7745183 -37.574074
19.519762 -3.549042 -37.574078
19.519762 -5.323565 -37.574085
19.519762 -7.0980959 -37.574074
19.333704 -8.7880478 -39.615822
19.333704 -10.545654 -39.615837
19.333704 -12.303261 -39.615833
21.294203 5.3235598 -37.574913
21.294287 3.5490487 -37.574078
21.294287 1.7745286 -37.574085
21.294287 -5.2298501e-06 -37.574074
21.294287 -1.7745183 -37.574074
21.294287 -3.549042 -37.574078
21.294287 -5.323565 -37.574085
21.294287 -7.0980959 -37.574074
21.091314 -8.7880478 -39.615822
21.091314 -10.545654 -39.615837
21.091314 -12.303261 -39.615833
23.068722 5.3235598 -37.574913
23.06881 3.5490487 -37.574078
23.06881 1.7745286 -37.574085
23.06881 -5.2298501e-06 -37.574074
23.06881 -1.7745183 -37.574074
23.06881 -3.549042 -37.574078
23.06881 -5.323565 -37.574085
23.06881 -7.0980959 -37.574074
22.848923 -8.7880478 -39.615822
22.848923 -10.545654 -39.615837
22.848923 -12.303261 -39.615833
33.094063 11.819314 33.565289
33.094063 9.4554462 33.565281
24.843237 5.3235598 -37.574913
24.843336 3.5490487 -37.574078
24.843336 1.7745286 -37.574085
24.843336 -5.2298501e-06 -37.574074
24.843336 -1.7745183 -37.574074
24.843336 -3.549042 -37.574078
24.843336 -5.323565 -37.574085
24.843336 -7.0980959 -37.574074
24.606535 -8.7880478 -39.615822
24.606535 -10.545654 -39.615837
24.606535 -12.303261 -39.615833
33.174271 11.058092 15.187847
33.174271 8.8464689 15.187849
26.617756 5.3235598 -37.574913
26.617859 3.5490487 -37.574078
26.617859 1.7745286 -37.574085
26.617859 -5.2298501e-06 -37.574074
26.617859 -1.7745183 -37.574074
26.617859 -3.549042 -37.574078
26.617859 -5.323565 -37.574085
26.617859 -7.0980959 -37.574074
26.364143 -8.7880478 -39.615822
26.364143 -10.545654 -39.615837
26.364143 -12.303261 -39.615833
33.244617 10.388944 -0.96677363
33.244617 8.3111544 -0.96677774
28.392273 5.3235598 -37.574913
28.392384 3.5490487 -37.574078
28.392384 1.7745286 -37.574085
28.392384 -5.2298501e-06 -37.574074
28.392384 -1.7745183 -37.574074
28.392384 -3.549042 -37.574078
28.392384 -5.323565 -37.574085
28.392384 -7.0980959 -37.574074
28.121752 -8.7880478 -39.615822
28.121752 -10.545654 -39.615837
28.121752 -12.303261 -39.615833
33.307083 9.7961998 -15.276848
33.306938 7.8369231 -15.277864
30.166788 5.3235598 -37.574913
30.166906 3.5490487 -37.574078
30.166906 1.7745286 -37.574085
30.166906 -5.2298501e-06 -37.574074
30.166906 -1.7745183 -37.574074
30.166906 -3.549042 -37.574078
30.166906 -5.323565 -37.574085
30.166906 -7.0980959 -37.574074
29.879362 -8.7880478 -39.615822
29.879362 -10.545654 -39.615837
29.879362 -12.303261 -39.615833
33.362667 11.120892 -28.043045
33.362667 9.2674055 -28.043047
33.362667 7.413929 -28.043041
31.941307 5.3235598 -37.574913
31.941429 3.5490487 -37.574078
31.941429 1.7745286 -37.574085
31.941429 -5.2298501e-06 -37.574074
31.941429 -1.7745183 -37.574074
31.941429 -3.549042 -37.574078
31.941429 -5.323565 -37.574085
31.941429 -7.0980959 -37.574074
31.636971 -8.7880478 -39.615822
31.636971 -10.545654 -39.615837
31.636971 -12.303261 -39.615833
33.715824 10.647101 -37.574913
33.715824 8.8725872 -37.574913
33.715824 7.0980749 -37.574913
33.715824 5.3235598 -37.574913
33.715824 3.5490389 -37.574921
33.715824 1.7745231 -37.574917
33.715824 -8.9366347e-07 -37.574902
33.715824 -1.7745155 -37.574902
33.715824 -3.5490367 -37.574905
33.715824 -5.3235526 -37.574905
33.715824 -7.0980654 -37.574905
33.394581 -8.7880478 -39.615822
33.394581 -10.545654 -39.615837
33.394581 -12.303261 -39.615833
35.490341 10.647101 -37.574913
35.490479 8.8726282 -37.574081
35.490479 7.0980954 -37.57407
35.490479 5.3235726 -37.574074
35.490479 3.5490487 -37.574078
35.490479 1.7745286 -37.574085
35.490479 -5.2298501e-06 -37.574074
35.490479 -1.7745183 -37.574074
35.490479 -3.549042 -37.574078
35.490479 -5.323565 -37.574085
35.490479 -7.0980959 -37.574074
35.152191 -8.7880478 -39.615822
35.152191 -10.545654 -39.615837
35.152191 -12.303261 -39.615833
37.264858 10.647101 -37.574913
37.265003 8.8726282 -37.574081
37.265003 7.0980954 -37.57407
37.265003 5.3235726 -37.574074
37.265003 3.5490487 -37.574078
37.265003 1.7745286 -37.574085
37.265003 -5.2298501e-06 -37.574074
37.265003 -1.7745183 -37.574074
37.265003 -3.549042 -37.574078
37.265003 -5.323565 -37.574085
37.265003 -7.0980959 -37.574074
36.909801 -8.7880478 -39.615822
36.909801 -10.545654 -39.615837
36.909801 -12.303261 -39.615833
39.039375 10.647101 -37.574913
39.039524 8.8726282 -37.574081
39.039524 7.0980954 -37.57407
39.039524 5.3235726 -37.574074
39.039524 3.5490487 -37.574078
39.039524 1.7745286 -37.574085
39.039524 -5.2298501e-06 -37.574074
39.039524 -1.7745183 -37.574074
39.039524 -3.549042 -37.574078
39.039524 -5.323565 -37.574085
39.039524 -7.0980959 -37.574074
38.667408 -8.7880478 -39.615822
38.667408 -10.545654 -39.615837
38.667408 -12.303261 -39.615833
40.813892 10.647101 -37.574913
40.814053 8.8726282 -37.574081
40.814053 7.0980954 -37.57407
40.814053 5.3235726 -37.574074
40.814053 3.5490487 -37.574078
40.814053 1.7745286 -37.574085
40.814053 -5.2298501e-06 -37.574074
40.814053 -1.7745183 -37.574074
40.814053 -3.549042 -37.574078
40.814053 -5.323565 -37.574085
40.814053 -7.0980959 -37.574074
40.425018 -8.7880478 -39.615822
40.425018 -10.545654 -39.615837
40.425018 -12.303261 -39.615833
42.588406 10.647101 -37.574913
42.588573 8.8726282 -37.574081
42.588573 7.0980954 -37.57407
42.588573 5.3235726 -37.574074
42.588573 3.5490487 -37.574078
42.588573 1.7745286 -37.574085
42.588573 -5.2298501e-06 -37.574074
42.588573 -1.7745183 -37.574074
42.588573 -3.549042 -37.574078
42.588573 -5.323565 -37.574085
42.588573 -7.0980959 -37.574074
42.182629 -8.7880478 -39.615822
42.182629 -10.545654 -39.615837
42.182629 -12.303261 -39.615833
44.362926 10.647101 -37.574913
44.363098 8.8726282 -37.574081
44.363098 7.0980954 -37.57407
44.363098 5.3235726 -37.574074
44.363098 3.5490487 -37.574078
44.363098 1.7745286 -37.574085
44.363098 -5.2298501e-06 -37.574074
44.363098 -1.7745183 -37.574074
44.363098 -3.549042 -37.574078
44.363098 -5.323565 -37.574085
44.363098 -7.0980959 -37.574074
43.940235 -8.7880478 -39.615822
43.940235 -10.545654 -39.615837
43.940235 -12.303261 -39.615833
46.137444 10.647101 -37.574913
46.137619 8.8726282 -37.574081
46.137619 7.0980954 -37.57407
46.137619 5.3235726 -37.574074
46.137619 3.5490487 -37.574078
46.137619 1.7745286 -37.574085
46.137619 -5.2298501e-06 -37.574074
46.137619 -1.7745183 -37.574074
46.137619 -3.549042 -37.574078
46.137619 -5.323565 -37.574085
46.137619 -7.0980959 -37.574074
45.697845 -8.7880478 -39.615822
45.697845 -10.545654 -39.615837
45.697845 -12.303261 -39.615833
47.911961 10.647101 -37.574913
47.912144 8.8726282 -37.574081
47.912144 7.0980954 -37.57407
47.912144 5.3235726 -37.574074
47.912144 3.5490487 -37.574078
47.912144 1.7745286 -37.574085
47.912144 -5.2298501e-06 -37.574074
47.912144 -1.7745183 -37.574074
47.912144 -3.549042 -37.574078
47.912144 -5.323565 -37.574085
47.912144 -7.0980959 -37.574074
47.45546 -8.7880478 -39.615822
47.45546 -10.545654 -39.615837
47.45546 -12.303261 -39.615833
49.686474 10.647101 -37.574913
49.686672 8.8726282 -37.574081
49.686672 7.0980954 -37.57407
49.686672 5.3235726 -37.574074
49.686672 3.5490487 -37.574078
49.686672 1.7745286 -37.574085
49.686672 -5.2298501e-06 -37.574074
49.686672 -1.7745183 -37.574074
49.686672 -3.549042 -37.574078
49.686672 -5.323565 -37.574085
49.686672 -7.0980959 -37.574074
49.21307 -8.7880478 -39.615822
49.21307 -10.545654 -39.615837
49.21307 -12.303261 -39.615833
51.460995 10.647101 -37.574913
51.461197 8.8726282 -37.574081
51.461197 7.0980954 -37.57407
51.461197 5.3235726 -37.574074
51.461197 3.5490487 -37.574078
51.461197 1.7745286 -37.574085
51.461197 -5.2298501e-06 -37.574074
51.461197 -1.7745183 -37.574074
51.461197 -3.549042 -37.574078
51.461197 -5.323565 -37.574085
51.461197 -7.0980959 -37.574074
50.970673 -8.7880478 -39.615822
50.970673 -10.545654 -39.615837
50.970673 -12.303261 -39.615833
72.748344 33.94923 40.938675
72.724815 31.514084 40.844009
72.701309 29.080521 40.749424
72.677818 26.64854 40.654896
72.654335 24.218124 40.56041
72.631256 21.78937 40.467552
72.607811 19.362093 40.373211
72.584381 16.936354 40.278919
53.235512 10.647101 -37.574913
53.235718 8.8726282 -37.574081
53.235718 7.0980954 -37.57407
53.235718 5.3235726 -37.574074
53.235718 3.5490487 -37.574078
53.235718 1.7745286 -37.574085
53.235718 -5.2298501e-06 -37.574074
53.235718 -1.7745183 -37.574074
53.235718 -3.549042 -37.574078
53.235718 -5.323565 -37.574085
53.235718 -7.0980959 -37.574074
52.728287 -8.7880478 -39.615822
52.728287 -10.545654 -39.615837
52.728287 -12.303261 -39.615833
73.745544 88.018875 35.379177
73.740944 85.634644 35.361259
73.735954 83.250275 35.34185
73.731354 80.866646 35.323933
73.726372 78.482903 35.304516
73.721764 76.099899 35.286594
73.716782 73.716782 35.2672
73.712189 71.334373 35.249279
73.707199 68.951912 35.229893
73.702599 66.570091 35.211967
73.698006 64.188591 35.194077
73.693024 61.807049 35.174686
73.688431 59.426151 35.156773
73.683449 57.04525 35.137386
73.678848 54.664963 35.119507
73.673874 52.284683 35.100113
73.669281 49.905006 35.082218
73.664307 47.52536 35.062847
73.659714 45.146278 35.044952
73.655121 42.767487 35.027073
73.650146 40.388783 35.00771
73.645554 38.010616 34.989826
73.640579 35.632542 34.970455
73.635994 33.254963 34.952591
73.631012 30.877525 34.933224
73.626427 28.500549 34.915363
73.621841 26.123894 34.897491
73.616875 23.747374 34.878136
73.612282 21.371309 34.860287
73.607315 18.99543 34.840939
73.60273 16.619976 34.823071
55.010025 10.647101 -37.574913
55.010242 8.8726282 -37.574081
55.010242 7.0980954 -37.57407
55.010242 5.3235726 -37.574074
55.010242 3.5490487 -37.574078
55.010242 1.7745286 -37.574085
55.010242 -5.2298501e-06 -37.574074
55.010242 -1.7745183 -37.574074
55.010242 -3.549042 -37.574078
55.010242 -5.323565 -37.574085
55.010242 -7.0980959 -37.574074
54.485897 -8.7880478 -39.615822
54.485897 -10.545654 -39.615837
54.485897 -12.303261 -39.615833
76.124435 88.018875 35.379177
76.119682 85.634644 35.361259
76.114532 83.250275 35.34185
76.109787 80.866646 35.323933
76.104637 78.482903 35.304516
76.099892 76.099899 35.286594
76.094742 73.716782 35.2672
76.089996 71.334373 35.249279
76.084854 68.951912 35.229893
76.080109 66.570091 35.211967
76.075363 64.188591 35.194077
76.070221 61.807049 35.174686
76.065475 59.426151 35.156773
76.060333 57.04525 35.137386
76.055588 54.664963 35.119507
76.050453 52.284683 35.100113
76.045708 49.905006 35.082218
76.040573 47.52536 35.062847
76.035828 45.146278 35.044952
76.03109 42.767487 35.027073
76.025955 40.388783 35.00771
76.021217 38.010616 34.989826
76.016083 35.632542 34.970455
76.011345 33.254963 34.952591
76.00621 30.877525 34.933224
76.00148 28.500549 34.915363
75.996742 26.123894 34.897491
75.991608 23.747374 34.878136
75.98687 21.371309 34.860287
75.981743 18.99543 34.840939
75.977013 16.619976 34.823071
56.784546 10.647101 -37.574913
56.784767 8.8726282 -37.574081
56.784767 7.0980954 -37.57407
56.784767 5.3235726 -37.574074
56.784767 3.5490487 -37.574078
56.784767 1.7745286 -37.574085
56.784767 -5.2298501e-06 -37.574074
56.784767 -1.7745183 -37.574074
56.784767 -3.549042 -37.574078
56.784767 -5.323565 -37.574085
56.784767 -7.0980959 -37.574074
56.243504 -8.7880478 -39.615822
56.243504 -10.545654 -39.615837
56.243504 -12.303261 -39.615833
78.520477 88.038109 35.441944
78.513123 85.650673 35.415035
78.505775 83.263695 35.388138
78.498421 80.877167 35.361259
78.490662 78.490662 35.332874
78.483315 76.105049 35.306007
78.477196 73.721001 35.283615
78.467804 71.334373 35.249279
78.462509 68.951912 35.229893
78.457611 66.570091 35.211967
78.452713 64.188591 35.194077
78.447418 61.807049 35.174686
78.44252 59.426151 35.156773
78.437218 57.04525 35.137386
78.432327 54.664963 35.119507
78.427032 52.284683 35.100113
78.422134 49.905006 35.082218
78.41684 47.52536 35.062847
78.411949 45.146278 35.044952
78.407059 42.767487 35.027073
78.401764 40.388783 35.00771
78.396881 38.010616 34.989826
78.391586 35.632542 34.970455
78.386703 33.254963 34.952591
78.381401 30.877525 34.933224
78.376518 28.500549 34.915363
78.371635 26.123894 34.897491
78.366341 23.747374 34.878136
78.361458 21.371309 34.860287
78.356178 18.99543 34.840939
78.351295 16.619976 34.823071
58.559063 10.647101 -37.574913
58.559288 8.8726282 -37.574081
58.559288 7.0980954 -37.57407
58.559288 5.3235726 -37.574074
58.559288 3.5490487 -37.574078
58.559288 1.7745286 -37.574085
58.559288 -5.2298501e-06 -37.574074
58.559288 -1.7745183 -37.574074
58.559288 -3.549042 -37.574078
58.559288 -5.323565 -37.574085
58.559288 -7.0980959 -37.574074
58.001114 -8.7880478 -39.615822
58.001114 -10.545654 -39.615837
58.001114 -12.303261 -39.615833
60.333576 10.647101 -37.574913
60.333813 8.8726282 -37.574081
60.333813 7.0980954 -37.57407
60.333813 5.3235726 -37.574074
60.333813 3.5490487 -37.574078
60.333813 1.7745286 -37.574085
60.333813 -5.2298501e-06 -37.574074
60.333813 -1.7745183 -37.574074
60.333813 -3.549042 -37.574078
60.333813 -5.323565 -37.574085
60.333813 -7.0980959 -37.574074
59.758724 -8.7880478 -39.615822
59.758724 -10.545654 -39.615837
59.758724 -12.303261 -39.615833
62.108097 10.647101 -37.574913
62.108337 8.8726282 -37.574081
62.108337 7.0980954 -37.57407
62.108337 5.3235726 -37.574074
62.108337 3.5490487 -37.574078
62.108337 1.7745286 -37.574085
62.108337 -5.2298501e-06 -37.574074
62.108337 -1.7745183 -37.574074
62.108337 -3.549042 -37.574078
62.108337 -5.323565 -37.574085
62.108337 -7.0980959 -37.574074
61.516335 -8.7880478 -39.615822
61.516335 -10.545654 -39.615837
61.516335 -12.303261 -39.615833
63.882614 10.647101 -37.574913
63.882858 8.8726282 -37.574081
63.882858 7.0980954 -37.57407
63.882858 5.3235726 -37.574074
63.882858 3.5490487 -37.574078
63.882858 1.7745286 -37.574085
63.882858 -5.2298501e-06 -37.574074
63.882858 -1.7745183 -37.574074
63.882858 -3.549042 -37.574078
63.882858 -5.323565 -37.574085
63.882858 -7.0980959 -37.574074
63.273941 -8.7880478 -39.615822
63.273941 -10.545654 -39.615837
63.273941 -12.303261 -39.615833
65.657127 10.647101 -37.574913
65.657387 8.8726282 -37.574081
65.657387 7.0980954 -37.57407
65.657387 5.3235726 -37.574074
65.657387 3.5490487 -37.574078
65.657387 1.7745286 -37.574085
65.657387 -5.2298501e-06 -37.574074
65.657387 -1.7745183 -37.574074
65.657387 -3.549042 -37.574078
65.657387 -5.323565 -37.574085
65.657387 -7.0980959 -37.574074
65.031548 -8.7880478 -39.615822
65.031548 -10.545654 -39.615837
65.031548 -12.303261 -39.615833
67.431648 10.647101 -37.574913
67.431908 8.8726282 -37.574081
67.431908 7.0980954 -37.57407
67.431908 5.3235726 -37.574074
67.431908 3.5490487 -37.574078
67.431908 1.7745286 -37.574085
67.431908 -5.2298501e-06 -37.574074
67.431908 -1.7745183 -37.574074
67.431908 -3.549042 -37.574078
67.431908 -5.323565 -37.574085
67.431908 -7.0980959 -37.574074
66.789162 -8.7880478 -39.615822
66.789162 -10.545654 -39.615837
66.789162 -12.303261 -39.615833
69.206161 10.647101 -37.574913
69.206436 8.8726282 -37.574081
69.206436 7.0980954 -37.57407
69.206436 5.3235726 -37.574074
69.206436 3.5490487 -37.574078
69.206436 1.7745286 -37.574085
69.206436 -5.2298501e-06 -37.574074
69.206436 -1.7745183 -37.574074
69.206436 -3.549042 -37.574078
69.206436 -5.323565 -37.574085
69.206436 -7.0980959 -37.574074
68.546776 -8.7880478 -39.615822
68.546776 -10.545654 -39.615837
68.546776 -12.303261 -39.615833
73.022278 27.383364 -31.413847
73.01062 25.553719 -31.449026
72.99897 23.72467 -31.484205
72.98761 21.896278 -31.518469
72.97596 20.068394 -31.553623
72.964317 18.241087 -31.588764
72.952965 16.414412 -31.623005
72.94133 14.588264 -31.658121
72.929695 12.762697 -31.693224
70.980682 10.647101 -37.574913
70.980957 8.8726282 -37.574081
70.980957 7.0980954 -37.57407
70.980957 5.3235726 -37.574074
70.980957 3.5490487 -37.574078
70.980957 1.7745286 -37.574085
70.980957 -5.2298501e-06 -37.574074
70.980957 -1.7745183 -37.574074
70.980957 -3.549042 -37.574078
70.980957 -5.323565 -37.574085
70.980957 -7.0980959 -37.574074
70.304382 -8.7880478 -39.615822
70.304382 -10.545654 -39.615837
70.304382 -12.303261 -39.615833
73.516029 87.860619 -35.334915
73.504494 86.054054 -35.368858
73.493256 84.248375 -35.401943
73.481735 82.44294 -35.435852
73.470512 80.638359 -35.468922
73.458992 78.834045 -35.502823
73.447487 77.030296 -35.536705
73.436264 75.227402 -35.569736
73.424759 73.424767 -35.603603
73.413261 71.622696 -35.637474
73.402054 69.821457 -35.670467
73.387978 68.01812 -35.711918
73.372749 66.214439 -35.756729
73.357826 64.411743 -35.800678
73.342903 62.609798 -35.844608
73.327988 60.808582 -35.888523
73.31308 59.008087 -35.932426
73.298172 57.208332 -35.976303
73.283279 55.409309 -36.020164
73.268379 53.611012 -36.064007
73.253494 51.813454 -36.107838
73.238335 50.016422 -36.152485
73.223457 48.220329 -36.196274
73.208595 46.424961 -36.240047
73.193733 44.630329 -36.283798
73.178879 42.836414 -36.327534
73.164024 41.04324 -36.371254
73.149185 39.250786 -36.414948
73.134346 37.459057 -36.458637
73.119514 35.668056 -36.5023
73.104408 33.877651 -36.546787
73.089584 32.088112 -36.59042
73.074776 30.299292 -36.634029
73.059967 28.511202 -36.67762
73.045166 26.723841 -36.721199
73.030365 24.937201 -36.764751
73.015579 23.151283 -36.808296
73.000801 21.366095 -36.851826
72.986023 19.581615 -36.895332
72.97097 17.7978 -36.939648
72.9562 16.014782 -36.983128
72.941444 14.232483 -37.026581
72.926689 12.450895 -37.070004
72.755196 10.647101 -37.574913
72.755196 8.8725872 -37.574913
72.755196 7.0980749 -37.574913
72.755196 5.3235598 -37.574913
72.755196 3.5490389 -37.574921
72.755196 1.7745231 -37.574917
72.755196 -8.9366347e-07 -37.574902
72.755196 -1.7745155 -37.574902
72.755196 -3.5490367 -37.574905
72.755196 -5.3235526 -37.574905
72.755478 -7.0980959 -37.574074
72.061989 -8.7880478 -39.615822
72.061989 -10.545654 -39.615837
72.061989 -12.303261 -39.615833
74.735626 88.970978 -36.983128
74.730972 87.186142 -36.996498
74.726021 85.401169 -37.010708
74.721085 83.616447 -37.02491
74.716431 81.832283 -37.038273
74.711494 80.048027 -37.052479
74.706551 78.264015 -37.066673
74.701904 76.48053 -37.080032
74.696968 74.69696 -37.094234
74.692024 72.913643 -37.108433
74.687088 71.130562 -37.122608
74.682442 69.347977 -37.135975
74.677505 67.565361 -37.150158
74.672569 65.782982 -37.164337
74.667923 64.001076 -37.177696
74.662987 62.219158 -37.191879
74.658058 60.437477 -37.206059
74.653412 58.656258 -37.219402
74.648483 56.875038 -37.233578
74.643547 55.094055 -37.247753
74.638618 53.313301 -37.261925
74.633972 51.53299 -37.275261
74.629044 49.752701 -37.289433
74.624115 47.972649 -37.3036
74.619476 46.193012 -37.316929
74.614548 44.413429 -37.331085
74.609619 42.634079 -37.345253
74.60498 40.85511 -37.358578
74.60006 39.076225 -37.372734
74.595131 37.297573 -37.38689
74.590492 35.519283 -37.400219
74.585571 33.741104 -37.414371
74.58065 31.963137 -37.428516
74.575729 30.185415 -37.442669
74.571098 28.408043 -37.455986
74.56617 26.630781 -37.470135
74.561249 24.853754 -37.484276
74.556625 23.077047 -37.49757
74.551697 21.300491 -37.511723
74.546783 19.524151 -37.525852
74.542152 17.748133 -37.539162
74.537239 15.97227 -37.553299
74.532318 14.196636 -37.567432
74.527695 12.421277 -37.580727
74.522774 10.646118 -37.594864
74.51786 8.8711767 -37.608982
74.512947 7.0964756 -37.623116
74.508324 5.3220239 -37.636402
74.50341 3.5477884 -37.650524
74.498497 1.77378 -37.664642
74.493874 -1.4467325e-06 -37.677933
74.48896 -1.7735512 -37.692043
74.484047 -3.5468526 -37.706165
74.479431 -5.3199592 -37.719448
74.474518 -7.0928144 -37.733547
73.819603 -8.7880478 -39.615822
73.819603 -10.545654 -39.615837
73.819603 -12.303261 -39.615833
76.515038 88.970978 -36.983128
76.510277 87.186142 -36.996498
76.505219 85.401169 -37.010708
76.500153 83.616447 -37.02491
76.495392 81.832283 -37.038273
76.490334 80.048027 -37.052479
76.485275 78.264015 -37.066673
76.480522 76.48053 -37.080032
76.475464 74.69696 -37.094234
76.470406 72.913643 -37.108433
76.465355 71.130562 -37.122608
76.460594 69.347977 -37.135975
76.455544 67.565361 -37.150158
76.450485 65.782982 -37.164337
76.445732 64.001076 -37.177696
76.440681 62.219158 -37.191879
76.435623 60.437477 -37.206059
76.430878 58.656258 -37.219402
76.425827 56.875038 -37.233578
76.420776 55.094055 -37.247753
76.415726 53.313301 -37.261925
76.410973 51.53299 -37.275261
76.40593 49.752701 -37.289433
76.400879 47.972649 -37.3036
76.396133 46.193012 -37.316929
76.391083 44.413429 -37.331085
76.38604 42.634079 -37.345253
76.381294 40.85511 -37.358578
76.376251 39.076225 -37.372734
76.371208 37.297573 -37.38689
76.366463 35.519283 -37.400219
76.36142 33.741104 -37.414371
76.356384 31.963137 -37.428516
76.351341 30.185415 -37.442669
76.346596 28.408043 -37.455986
76.34156 26.630781 -37.470135
76.336525 24.853754 -37.484276
76.331779 23.077047 -37.49757
76.326744 21.300491 -37.511723
76.321709 19.524151 -37.525852
76.316963 17.748133 -37.539162
76.311928 15.97227 -37.553299
76.3069 14.196636 -37.567432
76.302155 12.421277 -37.580727
76.297127 10.646118 -37.594864
76.292091 8.8711767 -37.608982
76.287064 7.0964756 -37.623116
76.282326 5.3220239 -37.636402
76.277298 3.5477884 -37.650524
76.272263 1.77378 -37.664642
76.267532 -1.4467325e-06 -37.677933
76.262505 -1.7735512 -37.692043
76.257477 -3.5468526 -37.706165
76.252747 -5.3199592 -37.719448
76.247719 -7.0928144 -37.733547
75.577209 -8.7880478 -39.615822
75.577209 -10.545654 -39.615837
75.577209 -12.303261 -39.615833
78.294456 88.970978 -36.983128
78.289589 87.186142 -36.996498
78.284409 85.401169 -37.010708
78.279228 83.616447 -37.02491
78.274361 81.832283 -37.038273
78.26918 80.048027 -37.052479
78.264 78.264015 -37.066673
78.259132 76.48053 -37.080032
78.25396 74.69696 -37.094234
78.248787 72.913643 -37.108433
78.243614 71.130562 -37.122608
78.238747 69.347977 -37.135975
78.233574 67.565361 -37.150158
78.228401 65.782982 -37.164337
78.223541 64.001076 -37.177696
78.218369 62.219158 -37.191879
78.213203 60.437477 -37.206059
78.208336 58.656258 -37.219402
78.203171 56.875038 -37.233578
78.198006 55.094055 -37.247753
78.192833 53.313301 -37.261925
78.187973 51.53299 -37.275261
78.182808 49.752701 -37.289433
78.177643 47.972649 -37.3036
78.172791 46.193012 -37.316929
78.167625 44.413429 -37.331085
78.16246 42.634079 -37.345253
78.1576 40.85511 -37.358578
78.152443 39.076225 -37.372734
78.147285 37.297573 -37.38689
78.142426 35.519283 -37.400219
78.137268 33.741104 -37.414371
78.132111 31.963137 -37.428516
78.126953 30.185415 -37.442669
78.122101 28.408043 -37.455986
78.116943 26.630781 -37.470135
78.111786 24.853754 -37.484276
78.106941 23.077047 -37.49757
78.101784 21.300491 -37.511723
78.096626 19.524151 -37.525852
78.091782 17.748133 -37.539162
78.086624 15.97227 -37.553299
78.081482 14.196636 -37.567432
78.07663 12.421277 -37.580727
78.07148 10.646118 -37.594864
78.06633 8.8711767 -37.608982
78.06118 7.0964756 -37.623116
78.056335 5.3220239 -37.636402
78.051186 3.5477884 -37.650524
78.046043 1.77378 -37.664642
78.041199 -1.4467325e-06 -37.677933
78.036057 -1.7735512 -37.692043
78.030907 -3.5468526 -37.706165
78.02607 -5.3199592 -37.719448
78.020927 -7.0928144 -37.733547
77.334816 -8.7880478 -39.615822
77.334816 -10.545654 -39.615837
77.334816 -12.303261 -39.615833
79.09243 -8.7880478 -39.615822
79.09243 -10.545654 -39.615837
79.09243 -12.303261 -39.615833
80.850037 -8.7880478 -39.615822
80.850037 -10.545654 -39.615837
80.850037 -12.303261 -39.615833
