# .PCD v0.7 - Point Cloud Data file format
VERSION 0.7
FIELDS x y z
SIZE 4 4 4
TYPE F F F
COUNT 1 1 1
WIDTH 1387
HEIGHT 1
VIEWPOINT 0 0 0 1 0 0 0
POINTS 1387
DATA ascii
-33.374702 -6.6749372 13.475113
-31.754826 -6.5699635 11.363148
-30.226553 -6.4771142 9.495245
-28.648758 -6.3663921 7.2675757
-27.294601 -6.2987547 5.9068255
-26.037958 -6.2491107 4.9080658
-24.679796 -6.1699491 3.3154683
-26.65653 -5.7948961 19.086895
-23.465363 -6.1213994 2.3387179
-25.47864 -5.7906003 18.983122
-22.44648 -6.1217675 2.3461373
-23.93771 21.657932 16.782694
-24.002707 20.57375 17.156303
-24.002707 19.430763 17.156309
-24.002707 18.287781 17.156305
-24.002707 17.144789 17.156305
-24.002707 16.001806 17.156301
-24.002707 14.85882 17.156307
-24.002707 13.715838 17.156303
-24.002707 12.572845 17.156305
-24.002707 11.429857 17.156309
-24.002707 10.286877 17.156305
-24.002707 9.1438894 17.156311
-24.002707 8.0009012 17.156303
-24.002707 6.8579149 17.156309
-24.002707 5.7149339 17.156305
-24.002707 4.5719438 17.156307
-24.002707 3.428962 17.156305
-24.002707 2.2859719 17.156307
-24.002707 1.1429902 17.156305
-24.002707 1.0542385e-07 17.156307
-24.002707 -1.1429814 17.156305
-24.002707 -2.2859716 17.156307
-24.002707 -3.4289567 17.156301
-24.002707 -4.5719433 17.156307
-24.002707 -5.7149339 17.156309
-21.423109 -6.1208887 2.3284452
-22.839445 21.697472 17.033924
-22.889431 20.600489 17.335615
-22.889431 19.456018 17.335613
-22.889431 18.311544 17.335619
-22.889431 17.167074 17.335619
-22.889431 16.022606 17.335617
-22.889431 14.878136 17.335615
-22.889431 13.733653 17.335617
-22.889431 12.589183 17.335615
-22.889431 11.444714 17.335613
-22.889431 10.300245 17.335613
-22.889431 9.1557703 17.335619
-22.889431 8.0113001 17.335617
-22.889431 6.8668313 17.335617
-22.889431 5.7223616 17.335615
-22.889431 4.5778828 17.335619
-22.889431 3.4334137 17.335617
-22.889431 2.288944 17.335615
-22.889431 1.1444746 17.335615
-22.889431 -5.7638431e-08 17.335621
-22.889431 -1.1444731 17.335617
-22.889431 -2.2889428 17.335615
-22.889431 -3.4334121 17.335613
-22.889431 -4.5778871 17.335621
-22.889431 -5.7223558 17.335619
-20.392849 -6.1178579 2.2674212
-19.978046 -6.9923143 -0.23613398
-21.848316 20.698402 17.992262
-21.848316 19.548492 17.99226
-21.848316 18.398584 17.99226
-21.848316 17.248669 17.992256
-21.848316 16.098761 17.992256
-21.848316 14.94885 17.992254
-21.848316 13.798942 17.992254
-21.848316 12.64902 17.992258
-21.848316 11.499112 17.992258
-21.848316 10.349202 17.992258
-21.848316 9.1992941 17.992256
-21.848316 8.049386 17.992256
-21.848316 6.8994727 17.992254
-21.848316 5.7495551 17.99226
-21.848316 4.5996461 17.99226
-21.848316 3.4497335 17.992258
-21.848316 2.2998247 17.992256
-21.848316 1.1499124 17.992254
-21.848316 3.1863908e-06 17.992254
-21.848316 -1.1499143 17.99226
-21.848316 -2.299823 17.992258
-21.848316 -3.4497323 17.992258
-21.848316 -4.5996447 17.992256
-21.848316 -5.7495537 17.992256
-19.362267 -6.1144009 2.1979146
-18.534035 -6.8283286 -3.0639975
-20.797148 20.79715 18.654438
-20.797148 19.641747 18.654438
-20.797148 18.486357 18.654434
-20.797148 17.330954 18.654436
-20.797148 16.175558 18.65444
-20.797148 15.020161 18.654434
-20.797148 13.864765 18.65444
-20.797148 12.709363 18.65444
-20.797148 11.553972 18.654436
-20.797148 10.39857 18.654436
-20.797148 9.2431784 18.654434
-20.797148 8.0877848 18.65444
-20.797148 6.9323812 18.65444
-20.797148 5.7769871 18.654434
-20.797148 4.6215882 18.654438
-20.797148 3.4661889 18.65444
-20.797148 2.3107948 18.654436
-20.797148 1.155396 18.654438
-20.797148 -2.8569405e-06 18.65444
-20.797148 -1.1553973 18.654436
-20.797148 -2.3107958 18.65444
-20.797148 -3.4661896 18.654434
-20.797148 -4.6215887 18.654436
-20.784384 -5.7734375 18.568853
-18.332848 -6.1109467 2.1284838
-17.150856 -6.6697783 -5.7981157
-19.735588 20.896503 19.320751
-19.735588 19.735584 19.320751
-19.735588 18.574675 19.320755
-19.735588 17.413757 19.320755
-19.735588 16.252838 19.320753
-19.735588 15.09192 19.320751
-19.735588 13.931001 19.320751
-19.735588 12.770082 19.320749
-19.735588 11.609173 19.320755
-19.735588 10.448254 19.320753
-19.735588 9.2873363 19.320753
-19.735588 8.1264172 19.320751
-19.735588 6.965498 19.320751
-19.735588 5.8045845 19.320751
-19.735588 4.6436658 19.320751
-19.735588 3.4827518 19.320753
-19.735588 2.3218334 19.320753
-19.735588 1.1609155 19.320751
-19.735588 8.0331779e-07 19.320751
-19.735588 -1.1609176 19.320751
-19.735588 -2.3218322 19.320753
-19.735588 -3.4827499 19.320751
-19.735588 -4.6436682 19.320751
-19.615191 -5.7691741 18.465849
-17.304668 -6.1075306 2.0597067
-15.830522 -6.5184536 -8.4076643
-18.663837 20.996819 19.993465
-18.663837 19.83033 19.993462
-18.663837 18.663841 19.99346
-18.663837 17.497347 19.993464
-18.663837 16.330858 19.993462
-18.663837 15.164369 19.993458
-18.663837 13.997876 19.993464
-18.663837 12.831388 19.993462
-18.663837 11.664899 19.993458
-18.663837 10.498405 19.993464
-18.663837 9.3319159 19.99346
-18.663837 8.1654282 19.993456
-18.663837 6.9989338 19.993462
-18.663837 5.832449 19.993462
-18.663837 4.6659603 19.993458
-18.663837 3.4994669 19.993464
-18.663837 2.3329782 19.99346
-18.663837 1.1664933 19.99346
-18.663837 -2.6422907e-07 19.993465
-18.663837 -1.1664889 19.993462
-18.663837 -2.3329773 19.993458
-18.663837 -3.4994709 19.993464
-18.663837 -4.6659603 19.993462
-18.512487 -5.785152 18.851614
-16.283133 -6.1061745 2.0324426
-14.590193 -6.3832092 -10.739814
-17.581654 21.097986 20.671909
-17.581654 19.925873 20.671904
-17.581654 18.753765 20.671904
-17.581654 17.581656 20.671911
-17.581654 16.40954 20.671906
-17.581654 15.237435 20.671906
-17.581654 14.065328 20.671904
-17.581654 12.893209 20.671906
-17.581654 11.721103 20.671906
-17.581654 10.548997 20.671906
-17.581654 9.3768778 20.671907
-17.581654 8.204772 20.671907
-17.581654 7.0326662 20.671906
-17.581654 5.8605466 20.671907
-17.581654 4.6884408 20.671907
-17.581654 3.5163307 20.671904
-17.581654 2.3442245 20.671904
-17.581654 1.1721091 20.671907
-17.581654 -1.2647014e-06 20.671906
-17.581654 -1.1721066 20.671904
-17.581654 -2.3442221 20.671909
-17.581654 -3.5163279 20.671907
-17.581654 -4.6884384 20.671906
-17.439135 -5.813046 19.525003
-15.265719 -6.1062903 2.034713
-13.437089 -6.2706428 -12.680969
-16.488991 21.200134 21.356922
-16.488991 20.022348 21.356918
-16.488991 18.844564 21.356926
-16.488991 17.666777 21.356922
-16.488991 16.488993 21.356918
-16.488991 15.311208 21.356926
-16.488991 14.133422 21.356922
-16.488991 12.955634 21.356918
-16.488991 11.777852 21.356928
-16.488991 10.600064 21.356922
-16.488991 9.422287 21.356924
-16.488991 8.2444992 21.35692
-16.488991 7.066709 21.356924
-16.488991 5.8889294 21.356924
-16.488991 4.711143 21.35692
-16.488991 3.533355 21.356926
-16.488991 2.3555682 21.356922
-16.488991 1.1777865 21.35692
-16.488991 -1.3396856e-06 21.356926
-16.488991 -1.1777841 21.356926
-16.488991 -2.3555701 21.35692
-16.488991 -3.5333529 21.356918
-16.488991 -4.7111406 21.356926
-16.355383 -5.8412066 20.204918
-14.248202 -6.1063714 2.0364163
-12.362161 -6.1810794 -14.225406
-15.385696 21.303274 22.048607
-15.385696 20.119762 22.048603
-15.385696 18.936247 22.048599
-15.385696 17.752728 22.048605
-15.385696 16.569214 22.048601
-15.385696 15.385695 22.048605
-15.385696 14.20218 22.048603
-15.385696 13.018667 22.048599
-15.385696 11.835148 22.048603
-15.385696 10.651642 22.048605
-15.385696 9.4681292 22.048601
-15.385696 8.2846088 22.048607
-15.385696 7.1010947 22.048601
-15.385696 5.9175763 22.048607
-15.385696 4.7340622 22.048603
-15.385696 3.5505481 22.048601
-15.385696 2.3670282 22.048605
-15.385696 1.1835151 22.048601
-15.385696 1.0921178e-07 22.048609
-15.385696 -1.1835147 22.048605
-15.385696 -2.3670287 22.048603
-15.385696 -3.5505469 22.048605
-15.385696 -4.7340617 22.048603
-15.261077 -5.8696456 20.891455
-13.23072 -6.1064878 2.0386865
-11.479287 -6.1811523 -14.224131
-14.271692 21.407543 22.747826
-14.271692 20.218233 22.747824
-14.271692 19.028923 22.747826
-14.271692 17.839613 22.747824
-14.271692 16.650305 22.747824
-14.271692 15.461003 22.747828
-14.271692 14.271694 22.747828
-14.271692 13.082389 22.74782
-14.271692 11.89308 22.74782
-14.271692 10.70377 22.747818
-14.271692 9.5144596 22.747818
-14.271692 8.3251591 22.747824
-14.271692 7.1358485 22.747822
-14.271692 5.9465399 22.747822
-14.271692 4.7572293 22.747822
-14.271692 3.5679243 22.747824
-14.271692 2.3786144 22.747824
-14.271692 1.1893085 22.747826
-14.271692 -4.0841348e-07 22.747826
-14.271692 -1.1893103 22.747826
-14.271692 -2.3786151 22.747828
-14.271692 -3.5679252 22.747828
-14.271692 -4.7572303 22.74782
-14.42899 -6.0120797 24.33012
-12.21314 -6.1065688 2.0403898
-10.59635 -6.1812038 -14.223274
-10.437516 -6.9583468 -15.821009
-13.146658 21.512714 23.45314
-13.146658 20.317568 23.45314
-13.146658 19.122412 23.453133
-13.146658 17.927261 23.45314
-13.146658 16.732115 23.45314
-13.146658 15.536958 23.453133
-13.146658 14.341805 23.45314
-13.146658 13.146659 23.453138
-13.146658 11.951511 23.453138
-13.146658 10.756357 23.453133
-13.146658 9.561204 23.453138
-13.146658 8.3660574 23.453138
-13.146658 7.1709099 23.453136
-13.146658 5.9757504 23.453138
-13.146658 4.7806029 23.453138
-13.146658 3.5854554 23.453136
-13.146658 2.3902998 23.453142
-13.146658 1.1951516 23.453142
-13.146658 9.9462318e-07 23.453138
-13.146658 -1.1951463 23.453136
-13.146658 -2.3903019 23.45314
-13.146658 -3.5854495 23.45314
-13.146658 -4.780601 23.453136
-13.226791 -6.0121746 24.332493
-11.195534 -6.1066546 2.0420902
-9.7134371 -6.1812773 -14.221988
-9.181056 -6.6771336 -20.064178
-12.010514 21.618925 24.165413
-12.010514 20.417873 24.165413
-12.010514 19.216827 24.165419
-12.010514 18.015776 24.165421
-12.010514 16.814722 24.165421
-12.010514 15.61367 24.165421
-12.010514 14.412621 24.165413
-12.010514 13.21157 24.165415
-12.010514 12.010516 24.165415
-12.010514 10.809463 24.165415
-12.010514 9.6084108 24.165417
-12.010514 8.4073572 24.165417
-12.010514 7.2063055 24.165419
-12.010514 6.0052519 24.165419
-12.010514 4.804213 24.165417
-12.010514 3.6031592 24.165417
-12.010514 2.4021034 24.165413
-12.010514 1.2010547 24.165417
-12.010514 1.8306699e-06 24.165419
-12.010514 -1.2010518 24.165419
-12.010514 -2.4021046 24.165419
-12.010514 -3.6031575 24.165421
-12.010514 -4.8042002 24.165415
-12.024619 -6.0123048 24.335665
-10.177947 -6.1067662 2.0443633
-8.8304682 -6.1813293 -14.221132
-8.0232601 -6.4186082 -23.965
-10.863096 20.519184 24.884769
-10.863096 19.312176 24.884762
-10.863096 18.105162 24.884764
-10.863096 16.898149 24.884766
-10.863096 15.69114 24.88476
-10.863096 14.484126 24.88476
-10.863096 13.277122 24.884768
-10.863096 12.070108 24.884769
-10.863096 10.863099 24.884764
-10.863096 9.6560869 24.884764
-10.863096 8.4490728 24.884766
-10.863096 7.2420635 24.88476
-10.863096 6.035058 24.884766
-10.863096 4.8280458 24.884768
-10.863096 3.6210313 24.884769
-10.863096 2.4140234 24.884762
-10.863096 1.2070097 24.884764
-10.863096 7.8303452e-07 24.884768
-10.863096 -1.2070081 24.884762
-10.863096 -2.4140217 24.884764
-10.863096 -3.6210308 24.884768
-10.863096 -4.8280444 24.884768
-10.822333 -6.0124044 24.338045
-9.1602793 -6.1068563 2.046072
-7.9475174 -6.1814027 -14.219846
-7.0953412 -6.3069711 -25.64949
-9.7043428 20.621729 25.612902
-9.7043428 19.408686 25.612894
-9.7043428 18.195642 25.612898
-9.7043428 16.982601 25.612904
-9.7043428 15.769556 25.612896
-9.7043428 14.556514 25.6129
-9.7043428 13.343472 25.612906
-9.7043428 12.130425 25.612896
-9.7043428 10.917385 25.612902
-9.7043428 9.7043467 25.612898
-9.7043428 8.4912977 25.612898
-9.539094 7.1543231 23.119497
-9.539094 5.9619308 23.119492
-9.539094 4.7695489 23.11949
-9.539094 3.5771606 23.119495
-9.539094 2.3847737 23.119492
-9.5390425 1.1923803 23.118717
-9.5390425 8.4322119e-07 23.118717
-9.5390425 -1.1923819 23.118715
-9.5390425 -2.3847606 23.118715
-9.5390425 -3.5771399 23.118715
-9.538991 -4.769495 23.117933
-9.6200104 -6.0125046 24.340425
-8.1426201 -6.1069684 2.0483449
-7.0645161 -6.1814489 -14.218998
-6.2449789 -6.2449808 -26.584858
-8.5431738 21.968164 26.507431
-8.5339956 20.725422 26.349167
-8.5339956 19.506279 26.349165
-8.5339956 18.287136 26.349161
-8.5339956 17.067989 26.349167
-8.5339956 15.848848 26.349165
-8.5339956 14.629706 26.349161
-8.5339956 13.410564 26.349159
-8.5339956 12.191417 26.349165
-8.5339956 10.972283 26.349167
-8.5339956 9.7531404 26.349165
-8.5339956 8.5339994 26.349161
-8.2261448 7.0509806 21.040462
-8.2261448 5.8758202 21.040462
-8.2261009 4.7006292 21.039709
-8.2261009 3.5254703 21.039709
-8.2261009 2.3503115 21.039709
-8.2261009 1.175157 21.039711
-8.2261009 -9.6272686e-07 21.039711
-8.2260561 -1.1751502 21.03895
-8.2260561 -2.3503048 21.038952
-8.2260561 -3.5254502 21.038948
-8.2260561 -4.7006044 21.03895
-8.4176931 -6.0126376 24.343596
-7.1248918 -6.1070499 2.0500484
-6.1818485 -6.1818504 -14.212153
-5.4643183 -6.2449374 -26.58552
-5.4047756 -6.948997 -27.612301
-7.3388715 22.016619 26.832375
-7.359684 20.852436 27.251091
-7.359684 19.625824 27.251089
-7.359684 18.399208 27.251095
-7.359684 17.172594 27.251093
-7.359684 15.945984 27.251091
-7.359684 14.719367 27.251097
-7.359684 13.492755 27.251093
-7.359684 12.266143 27.251093
-7.359684 11.039531 27.251091
-7.359684 9.8129148 27.251097
-7.359684 8.5863018 27.251095
-6.9505477 6.9505467 19.019897
-6.9505477 5.79212 19.019905
-6.9505477 4.6336985 19.019905
-6.9505477 3.4752738 19.019901
-6.9505115 2.3168373 19.019171
-6.9505115 1.1584162 19.019171
-6.9505115 3.2951925e-06 19.019165
-6.9505115 -1.1584176 19.019163
-6.9505115 -2.3168354 19.019167
-6.9505115 -3.4752569 19.019167
-6.9504747 -4.633646 19.018431
-6.9504747 -5.7920623 19.018433
-6.1071634 -6.1071653 2.0523186
-5.2991099 -6.1822944 -14.204459
-4.6836681 -6.244894 -26.586193
-4.3364491 -6.5046754 -33.571697
-5.7107792 6.8529353 17.056093
-5.7107792 5.7107811 17.056091
-5.7107792 4.5686212 17.056097
-5.7107792 3.4264708 17.056097
-5.7107792 2.2843165 17.056093
-5.7107792 1.1421565 17.056099
-5.7107792 2.1991984e-06 17.056097
-5.7107496 -1.1421527 17.055384
-5.7107496 -2.2843032 17.055384
-5.7107496 -3.4264483 17.055374
-5.7107496 -4.5685959 17.055378
-5.7107496 -5.7107463 17.055378
-5.0893736 -6.1072469 2.0540218
-4.4162617 -6.1827688 -14.196328
-3.9031534 -6.2450447 -26.583855
-3.5539024 -6.3970256 -35.015522
-4.5053744 6.7580643 15.14738
-4.5053744 5.6317182 15.14738
-4.5053744 4.505372 15.147381
-4.5053744 3.37903 15.147384
-4.5053511 2.2526791 15.146683
-4.5053511 1.1263363 15.146685
-4.5053511 3.7398856e-06 15.146683
-4.5053511 -1.1263392 15.146686
-4.5053511 -2.2526722 15.146683
-4.5053282 -3.3789937 15.145988
-4.5053282 -4.5053272 15.145986
-4.5053282 -5.6316562 15.145986
-4.0715742 -6.1073585 2.0562947
-3.5332644 -6.1832123 -14.188634
-3.1226115 -6.2452226 -26.581181
-2.8273301 -6.3614931 -35.492081
-3.3328724 6.6657491 13.290112
-3.3328724 5.5547915 13.290112
-3.3328724 4.4438343 13.290112
-3.3328724 3.3328769 13.290112
-3.3328724 2.2219195 13.290111
-3.3328724 1.1109573 13.290119
-3.3328555 -2.2632992e-06 13.28944
-3.3328555 -1.1109505 13.289434
-3.3328555 -2.2219038 13.289436
-3.3328555 -3.3328564 13.289438
-3.3328555 -4.44381 13.289441
-3.3328555 -5.5547581 13.289435
-3.053751 -6.1075001 2.0591371
-2.6501503 -6.1836829 -14.1805
-2.342025 -6.2454047 -26.578506
-2.1149499 -6.3448491 -35.715302
-2.1492867 -7.1642904 -34.333698
-2.191972 6.5759182 11.482904
-2.191972 5.4799294 11.48291
-2.191972 4.3839459 11.482907
-2.191972 3.2879586 11.482903
-2.191972 2.1919699 11.482908
-2.191972 1.0959867 11.482905
-2.191972 2.9040027e-06 11.482903
-2.191972 -1.0959854 11.482908
-2.191972 -2.1919727 11.482904
-2.1919613 -3.2879395 11.482245
-2.1919613 -4.3839192 11.482246
-2.1919613 -5.4799023 11.482244
-2.0360694 -6.1082087 2.0733385
-1.7668946 -6.1841316 -14.172797
-1.5613943 -6.2455773 -26.57584
-1.4084783 -6.3381538 -35.80513
-1.4312464 -7.1562324 -34.430962
-1.0814182 6.4885092 9.7243967
-1.0814182 5.4070916 9.7243958
-1.0814182 4.3256698 9.7244024
-1.0814182 3.2442524 9.7244015
-1.0814182 2.1628358 9.7244005
-1.0814182 1.0814189 9.7243996
-1.0814128 4.3961059e-06 9.7237558
-1.0814128 -1.0814129 9.7237549
-1.0814128 -2.1628261 9.7237568
-1.0814128 -3.2442386 9.7237577
-1.0814128 -4.3256521 9.7237597
-1.0814075 -5.4070363 9.7231131
-1.0181524 -6.1089129 2.0875428
-0.88351107 -6.1845808 -14.165094
-0.78071934 -6.2457547 -26.573162
-0.70511204 -6.3460078 -35.699764
-0.71677876 -7.1677861 -34.291466
7.4427488e-25 6.4033637 8.0114059
1.7207773e-23 5.3361349 8.0114059
1.5762569e-24 4.2689071 8.0114069
1.5393182e-23 3.2016795 8.0114069
-2.3833381e-25 2.1344514 8.0114069
-2.4125446e-23 1.0672282 8.0113993
-4.1741385e-23 4.420488e-06 8.0114012
-2.5940037e-23 -1.0672235 8.0114021
-2.0473318e-23 -2.1344416 8.0107756
-4.6719703e-24 -3.2016656 8.0107784
1.1129377e-23 -4.2688899 8.0107813
-4.2536238e-23 -5.3361087 8.0107756
-2.8247531e-23 -6.1096182 2.1017578
-9.4512794e-25 -6.1850514 -14.15696
5.0506125e-24 -6.2459326 -26.570486
-1.1763898e-23 -6.3538642 -35.594406
1.0299444e-23 -7.1793585 -34.151794
1.053409 7.3738647 6.3433895
1.053409 6.3204527 6.3433933
1.053409 5.2670455 6.343389
1.053409 4.2136335 6.3433928
1.053409 3.1602304 6.3433914
1.053409 2.1068187 6.3433948
1.0534039 1.0534023 6.3427858
1.0534039 -9.5219667e-07 6.3427839
1.0534039 -1.0534041 6.3427825
1.0534039 -2.1068072 6.3427806
1.0534039 -3.1602151 6.3427868
1.0534039 -4.2136183 6.3427849
1.0533988 -5.2669964 6.3421769
1.0183878 -6.1103272 2.1159699
0.88364232 -6.1854959 -14.149256
0.78076082 -6.2460833 -26.56815
0.70686203 -6.3617582 -35.488518
0.7190966 -7.1909671 -34.011677
2.0798781 7.2795739 4.7174335
2.0798781 6.2396355 4.7174292
2.0798781 5.1996918 4.7174325
2.0798781 4.1597576 4.7174306
2.0798781 3.1198187 4.7174268
2.0798781 2.0798793 4.7174325
2.0798781 1.0399406 4.7174282
2.0798781 -2.9747482e-06 4.717432
2.0798781 -1.0399376 4.7174301
2.0798683 -2.0798652 4.7168331
2.0798683 -3.1198049 4.7168393
2.0798683 -4.1597395 4.7168374
2.0798683 -5.1996698 4.7168384
2.0370207 -6.1110587 2.1307566
1.7674195 -6.1859665 -14.141122
1.5615605 -6.246244 -26.565807
1.4154785 -6.3696527 -35.382637
1.4405175 -7.202589 -33.871387
3.0804279 7.187665 3.1325278
3.0804279 6.1608562 3.1325247
3.0804279 5.1340466 3.1325214
3.0804279 4.1072359 3.1325285
3.0804279 3.0804267 3.1325252
3.0804279 2.0536177 3.1325221
3.0804279 1.0268124 3.1325212
3.0804279 -1.913807e-06 3.1325259
3.0804279 -1.0268072 3.1325252
3.0804279 -2.0536165 3.1325219
3.0804279 -3.0804307 3.1325266
3.0804279 -4.1072364 3.1325259
3.0804133 -5.1340237 3.1319482
3.0558844 -6.1117687 2.144979
2.6513207 -6.1864157 -14.13341
2.3423986 -6.2463946 -26.563469
2.1258624 -6.3775878 -35.276222
4.056046 7.0980816 1.5877057
4.056046 6.0840659 1.5877072
4.056046 5.0700598 1.5877031
4.056046 4.0560446 1.5877047
4.056046 3.0420332 1.5877086
4.056046 2.0280228 1.5877019
4.056046 1.0140117 1.587706
4.056046 1.3249299e-06 1.5876994
4.056046 -1.01401 1.5877035
4.0560274 -2.028012 1.5871359
4.0560274 -3.0420191 1.5871422
4.0560274 -4.0560255 1.5871383
4.0560274 -5.0700369 1.5871422
4.0749841 -6.1124749 2.1592047
3.5353637 -6.1868863 -14.125277
3.1232758 -6.2465553 -26.561127
2.8380275 -6.3855629 -35.169262
3.8406861 21.507843 -28.091955
5.0076218 7.0106711 0.080365054
5.0076218 6.0091448 0.080371089
5.0076218 5.0076232 0.080369465
5.0076218 4.0060978 0.080365136
5.0076218 3.0045714 0.080371521
5.0076218 2.0030499 0.080369726
5.0076218 1.0015243 0.080365457
5.0076218 -2.1099352e-06 0.080371752
5.0076218 -1.0015236 0.080369994
5.0076218 -2.0030491 0.080365784
5.0076218 -3.0045705 0.080363996
5.0075994 -4.0060768 0.079816788
5.0075994 -5.0075984 0.079814963
5.0943193 -6.1131811 2.1734297
4.4195242 -6.187336 -14.117563
3.7893343 -6.0629325 -29.331692
3.551976 -6.393558 -35.062031
4.5834122 21.389259 -28.603189
4.5834122 20.625353 -28.603191
4.5834122 19.861452 -28.603189
4.5834122 19.097549 -28.603189
4.5834122 18.333649 -28.603189
4.5834122 17.569746 -28.603188
4.5834122 16.805845 -28.603188
4.5834122 16.041943 -28.603188
4.5834122 15.278043 -28.603189
4.5834122 14.514141 -28.603189
4.5834122 13.750239 -28.603188
4.5834122 12.986333 -28.603189
4.5834122 12.222431 -28.603189
4.5834122 11.458529 -28.603189
4.5834122 10.694628 -28.603188
4.5834122 9.9307251 -28.603188
4.5834122 9.1668243 -28.603188
4.5834122 8.4029217 -28.603186
4.5834122 7.6390195 -28.603186
4.5834122 6.8751206 -28.603188
4.5834122 6.1112185 -28.603188
4.5834122 5.347312 -28.603189
4.5834122 4.5834103 -28.603189
4.5834122 3.8195088 -28.603188
4.5834122 3.0556078 -28.603189
4.5834122 2.2917056 -28.603188
4.5834122 1.5278035 -28.603188
4.5834122 0.76390231 -28.603188
4.5834122 1.9642079e-07 -28.603186
4.5834122 -0.76389986 -28.603189
4.5834122 -1.5278032 -28.603184
4.5834122 -2.2917073 -28.603189
4.5834122 -3.0556107 -28.603186
4.5834122 -3.8195114 -28.603189
4.5834122 -4.5834146 -28.603184
4.5834122 -5.3473158 -28.603188
4.5054493 -6.0072646 -30.171679
4.2677145 -6.4015718 -34.954536
5.3295426 21.318169 -28.909645
5.3295426 20.556808 -28.909643
5.3295426 19.795444 -28.909645
5.3295426 19.034081 -28.909649
5.3295426 18.27272 -28.909647
5.3295426 17.511353 -28.909645
5.3295426 16.749989 -28.909645
5.3295426 15.988627 -28.909643
5.3295426 15.227262 -28.909645
5.3295426 14.465904 -28.909647
5.3295426 13.704539 -28.909647
5.3295426 12.943172 -28.909645
5.3295426 12.181812 -28.909643
5.3295426 11.420447 -28.909645
5.3295426 10.659087 -28.909645
5.3295426 9.8977232 -28.909647
5.3295426 9.1363583 -28.909647
5.3295426 8.3749962 -28.909643
5.3295426 7.6136308 -28.909643
5.3295426 6.8522668 -28.909647
5.3295426 6.0909066 -28.909645
5.3295426 5.3295422 -28.909647
5.3295426 4.568181 -28.909645
5.3295426 3.8068149 -28.909643
5.3295426 3.0454509 -28.909645
5.3295426 2.2840898 -28.909645
5.3295426 1.5227255 -28.909645
5.3295426 0.76136535 -28.909645
5.3295426 1.0459026e-06 -28.909645
5.3295426 -0.76136607 -28.909643
5.3295426 -1.5227253 -28.909643
5.3295426 -2.2840884 -28.909651
5.3295426 -3.0454576 -28.909643
5.3295426 -3.8068178 -28.909643
5.3295426 -4.568182 -28.909643
5.3295426 -5.3295431 -28.909641
5.257236 -6.0082707 -30.156528
4.9852495 -6.409605 -34.846771
6.1068087 21.373831 -28.669695
6.1068087 20.610481 -28.669689
6.1068087 19.847132 -28.669693
6.1068087 19.083776 -28.669691
6.1068087 18.320425 -28.669691
6.1068087 17.557076 -28.669695
6.1068087 16.793722 -28.669691
6.1068087 16.030375 -28.669693
6.1068087 15.267021 -28.669689
6.1068087 14.503672 -28.669693
6.1068087 13.740318 -28.669691
6.1068087 12.976968 -28.669693
6.1068087 12.213619 -28.669689
6.1068087 11.450266 -28.669687
6.1068087 10.686915 -28.669691
6.1068087 9.923563 -28.669689
6.1068087 9.1602116 -28.669691
6.1068087 8.3968592 -28.669691
6.1068087 7.6335135 -28.669691
6.1068087 6.8701601 -28.669691
6.1068087 6.1068091 -28.669693
6.1068087 5.3434567 -28.669691
6.1068087 4.5801067 -28.669695
6.1068087 3.8167536 -28.669693
6.1068087 3.0534053 -28.669689
6.1068087 2.2900541 -28.669691
6.1068087 1.5267009 -28.669689
6.1068087 0.76335073 -28.669693
6.1068087 -1.6103991e-06 -28.669691
6.1068087 -0.7633487 -28.669691
6.1068087 -1.5267019 -28.669689
6.1068087 -2.2900512 -28.669693
6.1068087 -3.0534053 -28.669693
6.1068301 -3.8167689 -28.669374
6.1068301 -4.5801229 -28.669374
6.1068301 -5.3434753 -28.669373
6.0203667 -6.0203667 -29.974003
5.7045879 -6.4176621 -34.738735
6.9079323 20.723797 -28.163078
6.9079323 19.956249 -28.163078
6.9079323 19.1887 -28.163076
6.9079323 18.421154 -28.163078
6.9079323 17.653605 -28.163074
6.9079323 16.886057 -28.163076
6.9079323 16.118509 -28.163074
6.9079323 15.350962 -28.163074
6.9079323 14.583414 -28.163074
6.9079323 13.815866 -28.163073
6.9079323 13.048315 -28.163076
6.9079323 12.280767 -28.163076
6.9079323 11.51322 -28.163074
6.9079323 10.745671 -28.163074
6.9079323 9.9781237 -28.163074
6.9079323 9.210577 -28.163074
6.9079323 8.4430285 -28.163074
6.9079323 7.6754813 -28.163073
6.9079323 6.9079332 -28.163073
6.9079323 6.1403809 -28.163074
6.9079323 5.3728333 -28.163074
6.9079323 4.6052861 -28.163074
6.9079323 3.837738 -28.163074
6.9079323 3.0701938 -28.163078
6.9079323 2.3026457 -28.163076
6.9079323 1.5350977 -28.163076
6.9079323 0.76754975 -28.163076
6.9079323 1.7312129e-06 -28.163074
6.9079323 -0.7675463 -28.163074
6.9079323 -1.5350995 -28.163073
6.9079323 -2.3026454 -28.163076
6.9079323 -3.0701957 -28.163071
6.9079323 -3.8377414 -28.163076
6.9079323 -4.6052904 -28.163071
6.9079323 -5.3728347 -28.163074
6.809854 -6.0532026 -29.478521
6.4258404 -6.4258413 -34.629028
7.7179136 20.838367 -27.650856
7.7179136 20.066574 -27.650858
7.7179136 19.294786 -27.650856
7.7179136 18.522995 -27.650858
7.7179136 17.7512 -27.650856
7.7179136 16.97941 -27.65086
7.7179136 16.207621 -27.650856
7.7179136 15.435827 -27.650854
7.7179136 14.664036 -27.650858
7.7179136 13.892242 -27.650856
7.7179136 13.120456 -27.650856
7.7179136 12.348662 -27.650856
7.7179136 11.576871 -27.650858
7.7179136 10.805078 -27.650856
7.7179136 10.03329 -27.650856
7.7179136 9.2614965 -27.650856
7.7179136 8.489706 -27.650858
7.7179136 7.7179127 -27.650858
7.7179136 6.9461212 -27.650862
7.7179136 6.1743317 -27.650856
7.7179136 5.4025407 -27.65086
7.7179136 4.6307478 -27.650858
7.7179136 3.8589535 -27.650856
7.7179136 3.0871668 -27.650856
7.7179136 2.3153734 -27.650856
7.7179136 1.5435828 -27.650858
7.7179136 0.77178842 -27.650858
7.7179136 1.0704833e-06 -27.650858
7.7179136 -0.77179152 -27.650856
7.7179136 -1.543586 -27.650854
7.7179136 -2.3153744 -27.650862
7.7179136 -3.0871639 -27.650858
7.7179136 -3.8589573 -27.650858
7.7179136 -4.6307516 -27.650856
7.7179136 -5.4025435 -27.650854
7.8093529 -6.2474833 -26.547083
7.147542 -6.4327898 -34.535851
8.536871 20.954136 -27.133276
8.536871 20.178059 -27.133274
8.536871 19.401978 -27.133276
8.536871 18.6259 -27.133276
8.536871 17.849823 -27.133274
8.536871 17.07374 -27.133274
8.536871 16.297663 -27.133272
8.536871 15.521581 -27.133274
8.536871 14.745503 -27.133274
8.536871 13.969426 -27.133274
8.536871 13.193345 -27.133274
8.536871 12.417268 -27.133274
8.536871 11.641186 -27.133276
8.536871 10.865108 -27.133276
8.536871 10.089031 -27.133274
8.536871 9.3129501 -27.133276
8.536871 8.5368729 -27.133276
8.536871 7.7607913 -27.133278
8.536871 6.984714 -27.133276
8.536871 6.2086368 -27.133276
8.536871 5.4325542 -27.133276
8.536871 4.6564746 -27.133272
8.536871 3.8803933 -27.133274
8.536871 3.104316 -27.133274
8.536871 2.3282385 -27.133272
8.536871 1.5521569 -27.133274
8.536871 0.77608234 -27.133276
8.536871 -1.140041e-06 -27.133276
8.536871 -0.77607656 -27.133278
8.536871 -1.552156 -27.133274
8.536871 -2.3282404 -27.13327
8.536871 -3.1043141 -27.133274
8.536871 -3.8803985 -27.133272
8.536871 -4.6564736 -27.133276
8.536871 -5.4325585 -27.133274
8.5905018 -6.2476373 -26.544748
7.8698335 -6.4389572 -34.453136
9.36448 21.070082 -26.614918
9.36448 20.289711 -26.61492
9.36448 19.509338 -26.61492
9.36448 18.728958 -26.614918
9.36448 17.948587 -26.61492
9.36448 17.168215 -26.61492
9.36448 16.387842 -26.614916
9.36448 15.607466 -26.61492
9.36448 14.827094 -26.614922
9.36448 14.04672 -26.614916
9.36448 13.266348 -26.614918
9.36448 12.485976 -26.614918
9.36448 11.705598 -26.614916
9.36448 10.925226 -26.614918
9.36448 10.144855 -26.614918
9.36448 9.3644829 -26.61492
9.36448 8.5841084 -26.614916
9.36448 7.8037319 -26.614918
9.36448 7.0233607 -26.61492
9.36448 6.2429872 -26.614916
9.36448 5.4626155 -26.614918
9.36448 4.68224 -26.61492
9.36448 3.9018645 -26.614916
9.36448 3.1214929 -26.614918
9.36448 2.3411212 -26.614918
9.36448 1.5607498 -26.61492
9.36448 0.78037113 -26.614918
9.36448 -2.4708104e-06 -26.614914
9.36448 -0.78037286 -26.61492
9.36448 -1.5607464 -26.614916
9.36448 -2.341125 -26.614916
9.36448 -3.1214929 -26.61492
9.36448 -3.9018691 -26.614918
9.36448 -4.6822386 -26.614922
9.36448 -5.4626122 -26.614918
9.3716888 -6.2477951 -26.542404
8.6016531 -6.4512429 -34.288364
10.2013 21.187317 -26.090792
10.2013 20.402601 -26.090796
10.2013 19.617884 -26.090794
10.2013 18.83317 -26.090794
10.2013 18.048454 -26.090794
10.2013 17.263737 -26.090794
10.2013 16.479025 -26.090794
10.2013 15.694308 -26.090796
10.2013 14.909591 -26.090796
10.2013 14.124878 -26.090792
10.2013 13.34016 -26.090794
10.2013 12.555447 -26.090792
10.2013 11.77073 -26.090792
10.2013 10.986012 -26.090792
10.2013 10.201303 -26.090794
10.2013 9.416585 -26.090794
10.2013 8.6318684 -26.090796
10.2013 7.8471546 -26.090792
10.2013 7.0624375 -26.090794
10.2013 6.2777205 -26.090794
10.2013 5.4930072 -26.090792
10.2013 4.7082896 -26.090792
10.2013 3.9235797 -26.090794
10.2013 3.1388624 -26.090794
10.2013 2.3541422 -26.09079
10.2013 1.5694319 -26.090792
10.2013 0.78471673 -26.090796
10.2013 -2.5509148e-06 -26.090794
10.2013 -0.78471375 -26.090794
10.2013 -1.569433 -26.090792
10.2013 -2.3541465 -26.090796
10.2013 -3.1388626 -26.090788
10.2013 -3.9235768 -26.090794
10.2013 -4.7082887 -26.090796
10.2013 -5.4930081 -26.090792
10.152916 -6.2479458 -26.540066
9.3399582 -6.4661283 -34.08873
11.047482 21.305862 -25.560804
11.047482 20.516756 -25.560802
11.047482 19.72765 -25.560804
11.047482 18.938541 -25.560802
11.047482 18.149435 -25.560804
11.047482 17.360332 -25.560801
11.047482 16.571224 -25.560801
11.047482 15.78212 -25.560804
11.047482 14.993013 -25.560804
11.047482 14.203905 -25.560804
11.047482 13.414803 -25.560801
11.047482 12.625695 -25.560801
11.047482 11.836589 -25.560801
11.047482 11.047483 -25.560804
11.047482 10.258377 -25.560804
11.047482 9.4692736 -25.560802
11.047482 8.6801662 -25.560801
11.047482 7.8910589 -25.560801
11.047482 7.1019526 -25.560801
11.047482 6.3128471 -25.560804
11.047482 5.5237403 -25.560804
11.047482 4.7346377 -25.560802
11.047482 3.9455304 -25.560802
11.047482 3.1564229 -25.560802
11.047482 2.3673162 -25.560802
11.047482 1.5782089 -25.560802
11.047482 0.78910637 -25.560799
11.047482 -1.2208582e-06 -25.560799
11.047482 -0.78910863 -25.560799
11.047482 -1.5782102 -25.560806
11.047482 -2.3673177 -25.560806
11.047482 -3.1564243 -25.560806
11.047482 -3.9455278 -25.560802
11.047482 -4.7346354 -25.560802
11.047482 -5.5237427 -25.560804
10.934025 -6.2480121 -26.539062
10.081643 -6.4810586 -33.888454
11.903189 21.425743 -25.024849
11.903189 20.632196 -25.024849
11.903189 19.838652 -25.024851
11.903189 19.045103 -25.024847
11.903189 18.251556 -25.024849
11.903189 17.458012 -25.024849
11.903189 16.664463 -25.024847
11.903189 15.870917 -25.024849
11.903189 15.077372 -25.024851
11.903189 14.283824 -25.024849
11.903189 13.490283 -25.024847
11.903189 12.696737 -25.024849
11.903189 11.903189 -25.024847
11.903189 11.109643 -25.024847
11.903189 10.316097 -25.024849
11.903189 9.5225496 -25.024847
11.903189 8.7290039 -25.024849
11.903189 7.9354582 -25.024849
11.903189 7.1419106 -25.024847
11.903189 6.3483691 -25.024847
11.903189 5.5548234 -25.024847
11.903189 4.7612753 -25.024845
11.903189 3.9677298 -25.024847
11.903189 3.1741843 -25.024849
11.903189 2.3806379 -25.024851
11.903189 1.5870935 -25.024853
11.903189 0.79354298 -25.024845
11.903189 -3.3242359e-06 -25.024847
11.903189 -0.79354882 -25.024849
11.903189 -1.5870903 -25.024847
11.903189 -2.3806365 -25.024849
11.903189 -3.174181 -25.024851
11.903189 -3.9677315 -25.024845
11.903189 -4.7612777 -25.024847
11.903189 -5.5548224 -25.024847
11.71511 -6.2480578 -26.538393
10.823357 -6.4940128 -33.714668
12.768579 20.748941 -24.482832
12.768579 19.950903 -24.482828
12.768579 19.152868 -24.48283
12.768579 18.35483 -24.482828
12.768579 17.556795 -24.48283
12.768579 16.75876 -24.482832
12.768579 15.960723 -24.482828
12.768579 15.162687 -24.48283
12.768579 14.364651 -24.482828
12.768579 13.566615 -24.482828
12.768579 12.76858 -24.48283
12.768579 11.970542 -24.482828
12.768579 11.172507 -24.48283
12.768579 10.37447 -24.482826
12.768579 9.5764351 -24.482828
12.768579 8.7783995 -24.48283
12.768579 7.9803624 -24.482828
12.768579 7.1823263 -24.482828
12.768579 6.3842921 -24.48283
12.768579 5.5862541 -24.482828
12.768579 4.788219 -24.48283
12.768579 3.9901834 -24.48283
12.768579 3.1921442 -24.482824
12.768579 2.3941092 -24.482826
12.768579 1.5960733 -24.482826
12.768579 0.79803836 -24.482828
12.768579 -6.343227e-07 -24.482834
12.768579 -0.79804075 -24.482824
12.768579 -1.5960757 -24.482828
12.768579 -2.3941107 -24.48283
12.768579 -3.1921465 -24.48283
12.768579 -3.9901814 -24.482832
12.768579 -4.7882166 -24.482834
12.768579 -5.5862575 -24.482826
12.496251 -6.2481246 -26.53739
11.568005 -6.5070014 -33.540466
13.643818 20.867016 -23.934643
13.643818 20.064438 -23.934639
13.643818 19.261862 -23.934637
13.643818 18.459282 -23.934641
13.643818 17.656706 -23.934641
13.643818 16.854126 -23.934641
13.643818 16.051552 -23.934643
13.643818 15.248976 -23.934641
13.643818 14.446393 -23.934641
13.643818 13.643818 -23.934639
13.643818 12.841243 -23.934641
13.643818 12.038663 -23.934641
13.643818 11.236087 -23.934641
13.643818 10.433508 -23.934645
13.643818 9.630928 -23.934639
13.643818 8.8283539 -23.934639
13.643818 8.025773 -23.934641
13.643818 7.2231975 -23.934641
13.643818 6.4206228 -23.934641
13.643818 5.6180425 -23.934643
13.643818 4.8154664 -23.934641
13.643818 4.0128875 -23.934645
13.643818 3.2103112 -23.934645
13.643818 2.4077358 -23.934643
13.643818 1.6051518 -23.934639
13.643818 0.80257565 -23.934637
13.643818 -4.3911626e-07 -23.934637
13.643818 -0.80257958 -23.934639
13.643818 -1.6051557 -23.934639
13.643818 -2.4077311 -23.934637
13.643818 -3.2103102 -23.934641
13.643818 -4.012886 -23.934641
13.643818 -4.8154655 -23.934641
13.643818 -5.6180415 -23.934643
13.277879 -6.2484145 -26.533041
12.315635 -6.5200405 -33.36557
14.529075 20.986443 -23.380175
14.529075 20.179274 -23.380178
14.529075 19.372103 -23.380177
14.529075 18.564926 -23.380177
14.529075 17.757759 -23.38018
14.529075 16.950586 -23.380178
14.529075 16.143415 -23.380177
14.529075 15.336247 -23.38018
14.529075 14.529076 -23.380178
14.529075 13.721905 -23.380177
14.529075 12.914733 -23.380175
14.529075 12.107565 -23.380178
14.529075 11.300393 -23.380177
14.529075 10.493222 -23.380175
14.529075 9.6860533 -23.380178
14.529075 8.8788776 -23.38018
14.529075 8.0717068 -23.380178
14.529075 7.2645354 -23.380177
14.529075 6.4573636 -23.380175
14.529075 5.6501975 -23.38018
14.529075 4.8430257 -23.38018
14.529075 4.0358558 -23.380178
14.529075 3.2286839 -23.380178
14.529075 2.4215128 -23.380177
14.529075 1.6143419 -23.380175
14.529075 0.80716997 -23.380173
14.529075 3.9215015e-06 -23.380178
14.529075 -0.807172 -23.38018
14.529075 -1.6143421 -23.38018
14.529075 -2.4215131 -23.380178
14.529075 -3.2286849 -23.380177
14.529075 -4.0358562 -23.380175
14.529075 -4.8430281 -23.380175
14.529075 -5.6501946 -23.38018
14.059828 -6.2488132 -26.527018
13.066269 -6.5331335 -33.189972
15.424524 21.107244 -22.81933
15.424524 20.295425 -22.819332
15.424524 19.483608 -22.81933
15.424524 18.671793 -22.819332
15.424524 17.859978 -22.819332
15.424524 17.048157 -22.81933
15.424524 16.236341 -22.819328
15.424524 15.424525 -22.81933
15.424524 14.612705 -22.81933
15.424524 13.800891 -22.81933
15.424524 12.989076 -22.819332
15.424524 12.177256 -22.819332
15.424524 11.365438 -22.819328
15.424524 10.553623 -22.819328
15.424524 9.7418032 -22.81933
15.424524 8.9299879 -22.81933
15.424524 8.1181726 -22.819332
15.424524 7.3063526 -22.819332
15.424524 6.4945345 -22.819328
15.424524 5.6827216 -22.819332
15.424524 4.8709011 -22.819332
15.424524 4.0590878 -22.819336
15.424524 3.2472701 -22.81933
15.424524 2.4354477 -22.819328
15.424524 1.6236352 -22.819332
15.424524 0.81181675 -22.819328
15.424524 1.4576977e-07 -22.819334
15.424524 -0.81181824 -22.81933
15.424524 -1.6236358 -22.819326
15.424524 -2.4354532 -22.819332
15.424524 -3.2472708 -22.819326
15.424524 -4.059083 -22.819332
15.424524 -4.8709049 -22.81933
15.424524 -5.6827173 -22.819334
14.84193 -6.2492337 -26.520662
13.819923 -6.5462809 -33.013668
16.330341 21.229445 -22.251993
16.330341 20.412928 -22.251989
16.330341 19.596411 -22.251987
16.330341 18.779892 -22.251993
16.330341 17.963375 -22.251989
16.330341 17.14686 -22.251991
16.330341 16.330343 -22.251989
16.330341 15.513822 -22.251989
16.330341 14.697308 -22.251991
16.330341 13.88079 -22.251989
16.330341 13.064276 -22.251991
16.330341 12.247754 -22.251991
16.330341 11.431239 -22.251991
16.330341 10.614722 -22.251989
16.330341 9.7982063 -22.251987
16.330341 8.9816866 -22.251991
16.330341 8.1651726 -22.251993
16.330341 7.3486524 -22.251987
16.330341 6.5321388 -22.251989
16.330341 5.71562 -22.251993
16.330341 4.8991003 -22.251987
16.330341 4.0825853 -22.251989
16.330341 3.2660708 -22.251989
16.330341 2.4495521 -22.251993
16.330341 1.6330333 -22.251989
16.330341 0.8165186 -22.251989
16.330341 -1.0310134e-07 -22.251993
16.330341 -0.8165198 -22.251987
16.330341 -1.6330345 -22.251989
16.330341 -2.449549 -22.251991
16.330341 -3.2660728 -22.251987
16.330341 -4.0825872 -22.251989
16.330341 -4.8991022 -22.251991
16.330341 -5.7156153 -22.251991
15.624082 -6.2496324 -26.514637
14.576617 -6.5594764 -32.836651
17.246708 21.353067 -21.678043
17.246708 20.531797 -21.678043
17.246708 19.710524 -21.678041
17.246708 18.889252 -21.67804
17.246708 18.067982 -21.678041
17.246708 17.24671 -21.678041
17.246708 16.425438 -21.678041
17.246708 15.604163 -21.678043
17.246708 14.782891 -21.678043
17.246708 13.96162 -21.678045
17.246708 13.140348 -21.678045
17.246708 12.319075 -21.678041
17.246708 11.497804 -21.678041
17.246708 10.676533 -21.678041
17.246708 9.8552618 -21.678043
17.246708 9.0339899 -21.678043
17.246708 8.212718 -21.678041
17.246708 7.3914475 -21.678043
17.246708 6.5701756 -21.678043
17.246708 5.7489047 -21.678043
17.246708 4.9276333 -21.678043
17.246708 4.1063623 -21.678045
17.246708 3.2850902 -21.678045
17.246708 2.4638197 -21.678045
17.246708 1.6425431 -21.678038
17.246708 0.8212685 -21.678041
17.246708 -3.1103573e-06 -21.67804
17.246708 -0.8212747 -21.67804
17.246708 -1.6425461 -21.678041
17.246708 -2.4638176 -21.678041
17.246708 -3.2850883 -21.678041
17.246708 -4.10636 -21.678041
17.246708 -4.9276309 -21.678041
17.246708 -5.7489018 -21.678041
16.406393 -6.2500529 -26.508282
15.36292 -6.5841098 -32.506298
18.173809 20.652056 -21.097372
18.173809 19.825972 -21.097372
18.173809 18.999893 -21.09737
18.173809 18.173811 -21.09737
18.173809 17.347727 -21.09737
18.173809 16.521643 -21.097368
18.173809 15.695563 -21.097374
18.173809 14.869481 -21.097372
18.173809 14.043398 -21.097372
18.173809 13.217314 -21.09737
18.173809 12.391231 -21.09737
18.173809 11.565152 -21.097368
18.173809 10.739071 -21.097372
18.173809 9.9129858 -21.097368
18.173809 9.0869036 -21.097368
18.173809 8.2608204 -21.097368
18.173809 7.4347415 -21.097374
18.173809 6.6086583 -21.097374
18.173809 5.7825756 -21.097374
18.173809 4.9564924 -21.097374
18.173809 4.1304135 -21.097372
18.173809 3.3043306 -21.097372
18.173809 2.4782481 -21.09737
18.173809 1.6521641 -21.09737
18.173809 0.82608104 -21.097368
18.173809 -2.0802522e-06 -21.097368
18.173809 -0.82608515 -21.097368
18.173809 -1.6521674 -21.097368
18.173809 -2.4782505 -21.097368
18.173809 -3.3043256 -21.097372
18.173809 -4.1304083 -21.097374
18.173809 -4.9564919 -21.097372
18.173809 -5.7825747 -21.097372
17.188747 -6.250453 -26.502258
16.158813 -6.610425 -32.153351
19.112629 20.774597 -20.505692
19.112629 19.943609 -20.505692
19.112629 19.112629 -20.505693
19.112629 18.281645 -20.505693
19.112629 17.450661 -20.505692
19.112629 16.619678 -20.505693
19.112629 15.788695 -20.505692
19.112629 14.957712 -20.505692
19.112629 14.126723 -20.505692
19.112629 13.295742 -20.505695
19.112629 12.464759 -20.505693
19.112629 11.633778 -20.505697
19.112629 10.802793 -20.505693
19.112629 9.9718094 -20.505693
19.112629 9.1408205 -20.505693
19.112629 8.3098373 -20.505693
19.112629 7.4788527 -20.50569
19.112629 6.6478696 -20.50569
19.112629 5.816885 -20.505688
19.112629 4.9859071 -20.505695
19.112629 4.1549187 -20.505695
19.112629 3.323935 -20.505693
19.112629 2.4929504 -20.505692
19.112629 1.6619674 -20.505692
19.112629 0.83098263 -20.50569
19.112629 -1.1257556e-06 -20.505688
19.112629 -0.83098006 -20.505693
19.112629 -1.6619679 -20.505695
19.112629 -2.4929519 -20.505693
19.112629 -3.3239355 -20.505693
19.112629 -4.1549191 -20.505692
19.112629 -4.9859033 -20.50569
19.112629 -5.8168874 -20.505688
17.971201 -6.2508507 -26.496235
16.94611 -6.6310868 -31.876211
20.161642 21.841782 -19.40909
20.064484 20.900507 -19.897755
20.064484 20.064486 -19.897753
20.064484 19.228466 -19.897757
20.064484 18.392443 -19.897755
20.064484 17.556425 -19.897751
20.064484 16.720406 -19.897757
20.064484 15.884382 -19.897755
20.064484 15.048364 -19.897751
20.064484 14.212344 -19.897755
20.064484 13.376322 -19.897755
20.064484 12.540304 -19.897751
20.064484 11.704284 -19.897753
20.064484 10.868264 -19.897758
20.064484 10.032239 -19.897753
20.064484 9.1962233 -19.897753
20.064484 8.3602028 -19.897757
20.064484 7.5241785 -19.897751
20.064484 6.6881628 -19.897753
20.064484 5.8521423 -19.897755
20.064484 5.016118 -19.897751
20.064484 4.1801014 -19.897751
20.064484 3.3440821 -19.897755
20.064484 2.5080564 -19.897749
20.064484 1.6720412 -19.897751
20.064484 0.83602095 -19.897753
20.064484 1.6266246e-06 -19.897757
20.064484 -0.83602268 -19.897753
20.064484 -1.6720389 -19.897753
20.064484 -2.5080588 -19.897757
20.064484 -3.3440838 -19.897753
20.064484 -4.1800995 -19.897753
20.064484 -5.0161195 -19.897757
20.064484 -5.8521442 -19.897751
18.753822 -6.251277 -26.48987
17.738344 -6.6518798 -31.59734
20.986176 21.825621 -19.4841
21.027948 21.027948 -19.282398
21.027948 20.186832 -19.2824
21.027948 19.345713 -19.282404
21.027948 18.504595 -19.2824
21.027948 17.663479 -19.2824
21.027948 16.822359 -19.282404
21.027948 15.98124 -19.2824
21.027948 15.140125 -19.282402
21.027948 14.299006 -19.282406
21.027948 13.457889 -19.282404
21.027948 12.616768 -19.282398
21.027948 11.775648 -19.2824
21.027948 10.934533 -19.282402
21.027948 10.093416 -19.282402
21.027948 9.2523003 -19.282402
21.027948 8.4111805 -19.282406
21.027948 7.5700603 -19.282398
21.027948 6.7289438 -19.282398
21.027948 5.8878241 -19.282402
21.027948 5.0467086 -19.282404
21.027948 4.2055931 -19.282404
21.027948 3.3644683 -19.2824
21.027948 2.5233514 -19.282398
21.027948 1.6822356 -19.2824
21.027948 0.84112012 -19.282402
21.027948 6.3049816e-07 -19.282404
21.027948 -0.84111536 -19.282404
21.027948 -1.6822363 -19.282396
21.027948 -2.5233557 -19.2824
21.027948 -3.3644719 -19.2824
21.027948 -4.2055879 -19.282402
21.027948 -5.0467081 -19.282404
21.027948 -5.8878284 -19.282398
19.53648 -6.2516747 -26.483847
18.535625 -6.6728239 -31.316406
22.107079 -5.9519043 -18.177374
20.309 -6.2489257 -26.525345
19.337877 -6.6938825 -31.034004
22.967819 -5.9546232 -18.130573
21.086824 -6.2479458 -26.540066
20.154837 -6.7182779 -30.706758
24.722834 -6.1807046 -14.231823
21.86743 -6.2478333 -26.541739
21.007017 -6.7522545 -30.25106
25.605791 -6.1807046 -14.231823
22.643671 -6.2465301 -26.561466
21.867857 -6.7865763 -29.790737
26.488644 -6.1806831 -14.232253
23.419504 -6.2452054 -26.581512
22.737495 -6.8212509 -29.325705
27.366329 -6.1794949 -14.252762
24.195091 -6.2438931 -26.601225
23.61598 -6.8562493 -28.85622
28.244923 -6.1785779 -14.268567
24.970354 -6.2425885 -26.620928
24.503614 -6.891643 -28.381567
25.745203 -6.2412605 -26.640951
25.400904 -6.9275208 -27.90036
26.519815 -6.2399549 -26.660645
26.307587 -6.9637718 -27.414127
27.294106 -6.2386541 -26.680317
27.223806 -7.0004082 -26.92277
28.067972 -6.2373285 -26.700319
28.149717 -7.0374331 -26.426214
28.84161 -6.2360263 -26.719982
29.085476 -7.0748482 -25.924385
29.614927 -6.2347245 -26.739634
30.487841 -6.2539167 -26.450016
