# .PCD v0.7 - Point Cloud Data file format
VERSION 0.7
FIELDS x y z
SIZE 4 4 4
TYPE F F F
COUNT 1 1 1
WIDTH 1542
HEIGHT 1
VIEWPOINT 0 0 0 1 0 0 0
POINTS 1542
DATA ascii
1.8688102e-22 153.34134 -612.02869
3.0484221e-22 145.76266 -589.23041
1.1291338e-22 137.89874 -565.57385
-9.2460052e-24 129.73312 -541.00964
2.6903242e-22 121.24808 -515.4845
3.3936705e-22 112.42445 -488.94101
1.3559658e-22 103.24162 -461.31683
3.0277158e-22 93.677139 -432.54474
2.0527847e-22 83.706825 -402.55154
2.128948e-22 73.304169 -371.2579
3.8669517e-22 62.440506 -338.5773
-9.3932255e-24 51.084415 -304.41553
2.2145673e-22 39.201687 -268.66949
2.6863498e-22 26.754896 -231.22638
2.0205255e-22 13.702741 -191.96239
1.872419e-22 5.7046007e-05 -150.7343
-3.7205265e-22 -14.403119 -107.40594
-9.6232776e-23 -29.565895 -61.560165
5.2687634e-22 -45.558548 -12.889732
1.5336389e-22 -62.428421 37.92062
-8.7789427e-23 -80.256645 91.544327
-5.5076375e-23 -99.130104 148.31999
-1.0962387e-22 -119.14295 208.52344
3.8246743e-22 -140.40097 272.46365
-1.3249733e-23 -163.02553 340.52325
2.7114687e-22 -187.15204 413.10117
2.1278817e-22 -212.93387 490.64896
-6.2553595e-22 -240.55016 573.72449
9.9001627 217.80365 -650.96863
9.861043 207.08195 -655.6908
9.8222609 196.44525 -660.37219
9.7837534 185.89136 -665.02051
9.745575 175.42043 -669.62903
9.8334675 167.16895 -659.01941
10.008101 160.12964 -637.93927
10.18905 152.83575 -616.09686
10.376662 145.27328 -593.44995
10.571313 137.42711 -569.95349
10.773406 129.28094 -545.55865
10.983377 120.81716 -520.21295
11.201696 112.01701 -493.85959
11.42887 102.85986 -466.43738
11.665448 93.323624 -437.87979
11.912027 83.384178 -408.11499
12.169256 73.015625 -377.06476
12.43784 62.189228 -344.64383
12.718546 50.874184 -310.75946
13.012216 39.03672 -275.31049
13.319768 26.639547 -238.18567
13.642211 13.642228 -199.2634
13.980651 6.835784e-05 -158.41013
14.33631 -14.336267 -115.47811
14.711251 -29.422457 -70.218887
15.110493 -45.331409 -22.026094
15.528547 -62.114185 28.437521
15.968333 -79.841644 81.524345
16.433674 -98.602043 137.69604
16.927036 -118.48925 197.25018
17.450939 -139.60748 260.49081
18.008211 -162.07385 327.7594
18.60235 -186.02342 399.47845
19.236923 -211.60612 476.07816
19.916437 -238.99716 558.1026
19.698793 216.68674 -657.09662
19.621353 206.02426 -661.77057
19.544577 195.44579 -666.40436
19.468342 184.94928 -671.00555
19.392925 174.53636 -675.55737
19.604502 166.63832 -662.7876
19.951536 159.61234 -641.84222
20.311077 152.33311 -620.14191
20.683815 144.78676 -597.6452
21.07049 136.95825 -574.30731
21.471897 128.83141 -550.08032
21.888897 120.38894 -524.91211
22.322412 111.61211 -498.7471
22.773449 102.48055 -471.52478
23.243084 92.972351 -443.17966
23.732584 83.064079 -413.63577
24.243057 72.729202 -382.8259
24.775974 61.940006 -350.66171
25.332846 50.665771 -317.05151
25.915323 38.87302 -281.89572
26.525221 26.525196 -245.08519
27.164515 13.582256 -206.50037
27.835388 2.0111676e-05 -166.00961
28.540234 -14.270039 -123.46839
29.281706 -29.281691 -78.716576
30.071112 -45.106655 -31.071711
30.901546 -61.803101 19.049412
31.772207 -79.430489 71.598412
32.693188 -98.079567 127.18464
33.669331 -117.84264 186.09999
34.705555 -138.8222 248.64174
35.807396 -161.13329 315.14377
36.981701 -184.90854 386.01926
38.235638 -210.29602 461.70108
39.577362 -237.46419 542.68115
29.513332 226.26889 -658.49915
29.397446 215.58131 -663.16205
29.282465 204.97728 -667.78851
29.168465 194.4565 -672.37549
29.055265 184.01668 -676.9303
28.943441 173.66068 -681.42975
29.313782 166.11142 -666.5285
29.831017 159.09877 -645.71649
30.366833 151.83418 -624.15686
30.922253 144.30385 -601.80853
31.498365 136.49297 -578.6275
32.096352 128.38545 -554.56641
32.717487 119.96413 -529.57391
33.363136 111.21046 -503.59503
34.034779 102.10438 -476.57022
34.73402 92.624084 -448.43484
35.462597 82.746094 -419.11929
36.222393 72.444778 -388.54749
37.015457 61.69244 -356.6369
37.844028 50.458786 -323.29788
38.710545 38.710526 -288.43201
39.617668 26.411833 -251.93216
40.568329 13.52283 -213.68053
41.565735 3.6476795e-06 -173.54803
42.613419 -14.204432 -131.39246
43.715279 -29.143461 -87.056854
44.884075 -44.884083 -40.028145
46.121326 -61.495049 9.7548523
47.414146 -79.023537 61.774075
48.781303 -97.562569 116.78413
50.229889 -117.20302 175.07074
51.767143 -138.04572 236.92514
53.401176 -160.20346 302.67358
55.142036 -183.80678 372.72028
57.000221 -209.00076 447.48776
58.987663 -235.95059 527.4563
39.150593 225.11588 -664.55035
38.997639 214.48706 -669.16595
38.845886 203.94093 -673.74567
38.695412 193.47711 -678.28644
38.545551 183.09137 -682.80902
38.398609 172.79381 -687.24347
38.961746 165.58746 -670.24921
39.647015 158.58806 -649.56946
40.356815 151.33804 -628.14923
41.092499 143.82376 -605.94812
41.855633 136.03081 -582.91858
42.647511 127.94251 -559.02155
43.469925 119.54236 -534.20294
44.324688 110.81177 -508.40814
45.213737 101.73093 -481.5787
46.139183 92.278381 -453.65097
47.103306 82.43084 -424.556
48.108578 72.162918 -394.21918
49.157696 61.44717 -362.5593
50.25359 50.253571 -329.48764
51.399464 38.54961 -294.90796
52.598808 26.299463 -258.71448
53.855465 13.463925 -220.79156
55.173634 5.7660603e-05 -181.01225
56.557949 -14.139446 -139.23683
58.013519 -29.006741 -95.311073
59.551292 -44.663437 -48.904678
61.187641 -61.187611 0.47643179
62.896633 -78.620712 52.049854
64.700706 -97.051025 106.49254
66.611656 -116.57041 164.16074
68.638924 -137.27782 225.3389
70.793091 -159.28441 290.34659
73.08725 -182.71803 359.57889
75.53508 -207.72147 433.4487
78.152092 -234.4563 512.42419
48.690132 223.97461 -670.54022
48.500874 213.40387 -675.10919
48.313084 202.91496 -679.64294
48.126884 192.50757 -684.13818
47.940735 182.17485 -688.63226
47.759979 171.9359 -692.99603
48.549175 165.0672 -673.94312
49.400341 158.08109 -653.39423
50.281879 150.84567 -632.112
51.19545 143.34727 -610.0564
52.142838 135.57141 -587.18451
53.125946 127.50226 -563.45013
54.146835 119.12304 -538.80359
55.207733 110.41547 -513.19135
56.311035 101.35988 -486.55524
57.459335 91.934944 -458.83295
58.655437 82.117622 -429.95642
59.902397 71.882874 -399.85208
61.203529 61.203514 -368.43997
62.562439 50.049969 -335.63306
63.983063 38.389858 -301.33618
65.469704 26.187887 -265.44553
67.027069 13.405455 -227.84738
68.660332 1.8232666e-05 -188.41685
70.375473 -14.075055 -147.0096
72.178192 -28.871256 -103.48817
74.075691 -44.445358 -57.678444
76.100586 -60.880451 -8.7932243
78.222092 -78.222038 42.424393
80.454041 -96.544785 96.308418
82.817513 -115.94449 153.3678
85.324051 -136.51846 213.88092
87.986588 -158.37578 278.16019
90.821136 -181.64227 346.59229
93.844406 -206.45763 419.58035
97.07531 -232.9807 497.5813
58.13343 222.84479 -676.46967
57.908607 212.33157 -680.9928
57.685677 201.89989 -685.47766
57.464294 191.54764 -689.93158
57.242321 181.26735 -694.39734
57.095879 171.28767 -697.34351
58.076557 164.55028 -677.61389
59.091507 157.57736 -657.19464
60.142563 150.35646 -636.04901
61.231689 142.87398 -614.13751
62.360981 135.11551 -591.41785
63.532722 127.06548 -567.8443
64.749329 118.70712 -543.36798
66.013443 110.02242 -517.93597
67.327904 100.99187 -491.49109
68.69577 91.594391 -463.97177
70.120369 81.807091 -435.311
71.605309 71.605354 -405.43631
73.154503 60.962112 -374.26892
74.772209 49.848145 -341.72314
76.463081 38.231556 -307.70551
78.232201 26.077383 -272.11356
80.085121 13.347543 -234.83577
82.027939 3.9154733e-05 -195.74925
84.067368 -14.01122 -154.71913
86.210785 -28.736923 -111.59668
88.466377 -44.233139 -66.217949
90.864143 -60.576061 -17.978609
93.392891 -77.827339 32.895943
96.04435 -96.044342 86.23925
98.850273 -115.32529 142.69008
101.8256 -135.76743 202.54895
104.9856 -157.47838 266.12314
108.34742 -180.57899 333.75766
111.93229 -205.20911 405.87967
115.76249 -231.52499 482.93765
67.481941 221.72643 -682.33954
67.222267 211.27005 -686.8175
66.964775 200.89436 -691.25781
66.709053 190.59734 -695.66754
66.452263 180.37047 -700.09564
66.407211 170.76143 -700.87262
67.54425 164.0361 -681.26508
68.720909 157.07637 -660.97437
69.939285 149.86989 -639.96417
71.201645 142.40329 -618.19556
72.510414 134.66219 -595.62665
73.868195 126.63118 -572.21246
75.277802 118.29369 -547.90485
76.742249 109.63181 -522.65131
78.264801 100.62616 -496.39578
79.848999 91.25602 -469.07736
81.49865 81.498688 -440.63016
83.218193 71.329872 -410.9776
85.011551 60.722565 -380.05222
86.883919 49.648022 -347.76443
88.840614 38.074577 -314.02243
90.887474 25.967884 -278.72565
93.030869 13.290119 -241.76399
95.277809 1.4848898e-05 -203.01694
97.635971 -13.947999 -162.35184
100.11383 -28.603971 -119.62276
102.72073 -44.023094 -74.668434
105.48129 -60.274979 -27.064384
108.41137 -77.436699 23.463261
111.47332 -95.5485 76.264679
114.71271 -114.71266 132.12581
118.14658 -135.02464 191.34103
121.7924 -156.59015 254.21071
125.6697 -179.52809 321.07248
129.80272 -203.97569 392.34381
134.21683 -230.08595 468.4624
76.737076 220.61913 -688.15088
76.443253 210.21899 -692.58423
76.151901 199.8988 -696.98059
75.862534 189.65639 -701.34674
75.572372 179.48441 -705.72498
75.661705 170.23888 -704.37689
76.953178 163.5255 -684.89014
78.289497 156.57898 -664.72668
79.67305 149.38698 -643.85052
81.106377 141.93616 -622.22321
82.592232 134.2124 -599.80347
84.133537 126.20035 -576.547
85.733459 117.88351 -552.40601
87.395409 109.24428 -527.32904
89.123077 100.26346 -501.26059
90.920418 90.920418 -474.14072
92.791756 81.192833 -445.90448
94.741737 71.05632 -416.48145
96.775436 60.484676 -385.79535
98.898361 49.449192 -353.76282
101.11652 37.918686 -320.29349
103.43645 25.859156 -285.28839
105.86534 13.233207 -248.6393
108.41105 3.6034617e-06 -210.22763
111.0822 -13.885224 -169.92313
113.8883 -28.472069 -127.58224
116.83985 -43.814911 -83.046738
119.95383 -59.976917 -36.06031
123.27412 -77.04631 14.039029
126.74382 -95.057777 66.392632
130.4075 -114.10648 121.67319
134.28995 -134.28993 180.25507
138.41068 -155.71196 242.43199
142.79155 -178.4894 308.53403
147.45959 -202.75694 378.9697
152.44318 -228.66472 454.16611
85.900246 219.52286 -693.90436
85.572968 209.17839 -698.29388
85.248413 198.91293 -702.64691
84.926071 188.72466 -706.97021
84.60331 178.60706 -711.29926
84.859505 169.71902 -707.86304
86.303467 163.01765 -688.49609
87.797424 156.08437 -668.4588
89.344017 148.90669 -647.71552
90.94606 141.47173 -626.22821
92.606621 133.76515 -603.95636
94.329247 125.77235 -580.85211
96.116859 117.47619 -556.87604
97.973541 108.85952 -531.97375
99.903351 99.903389 -506.09036
101.91073 90.587326 -479.16693
104.00041 80.889259 -451.1394
106.17761 70.785118 -421.93829
108.4479 60.248856 -391.48849
110.8174 49.252178 -359.70792
113.29276 37.764309 -326.50778
115.88123 25.751474 -291.79047
118.59074 13.176749 -255.44958
121.42999 3.013362e-05 -217.36868
124.40855 -13.823157 -177.41946
127.53687 -28.341555 -135.4613
130.8266 -43.608871 -91.338531
134.29054 -59.684643 -44.879257
137.98146 -76.656288 4.6245213
141.85828 -94.572159 56.621468
145.93729 -113.50675 111.33058
150.25859 -133.56314 169.28896
154.84361 -154.84358 230.78465
159.7164 -177.46262 296.13992
164.90674 -201.55263 365.75436
170.44576 -227.26097 440.04532
176.36877 -254.75484 519.48651
94.972786 218.43741 -699.60101
94.612732 208.14804 -703.94739
94.255646 197.93692 -708.25763
93.900993 187.80197 -712.53864
93.546646 177.7386 -716.81598
94.001564 169.20284 -711.32471
95.596138 162.51344 -692.07642
97.24575 155.59323 -672.16388
98.953285 148.42995 -651.55206
100.72187 141.01062 -630.20343
102.55482 133.32124 -608.07776
104.45571 125.34685 -585.1319
106.42841 117.07124 -561.3194
108.47705 108.47704 -536.59015
110.6061 99.545479 -510.89014
112.82041 90.256393 -484.16113
115.12518 80.587616 -456.34003
117.52608 70.515678 -427.35852
120.02927 60.014664 -397.14255
122.6414 49.05658 -365.61142
125.36974 37.610992 -332.67734
128.22224 25.644453 -298.24442
131.20758 13.120788 -262.20831
134.33524 -2.047168e-06 -224.45415
137.61565 -13.761516 -184.85608
141.06088 -28.21217 -143.26857
144.68242 -43.404667 -99.552727
148.4948 -59.397846 -53.533169
152.54135 -76.270607 -4.686801
156.81906 -94.091377 46.949638
161.30547 -112.91373 101.10535
166.05531 -132.84425 158.44106
171.09425 -153.98477 219.2664
176.44765 -176.44765 283.88757
182.14784 -200.36259 352.69513
188.22864 -225.87439 426.09686
194.72833 -253.14685 504.55502
104.35122 227.67543 -700.90515
103.95605 217.36264 -705.24158
103.56387 207.12776 -709.54529
103.17492 196.97032 -713.81354
102.7886 186.88841 -718.05298
102.40315 176.8782 -722.28265
103.08817 168.68974 -714.76544
104.8315 162.01234 -695.63464
106.6348 155.10518 -675.84583
108.50124 147.95624 -655.3642
110.43416 140.55257 -634.15283
112.4372 132.88034 -612.172
114.51425 124.92465 -589.37903
116.66949 116.66954 -565.72815
118.90741 108.09768 -541.16992
121.23286 99.190544 -515.65112
123.65108 89.928093 -489.11435
126.16773 80.288597 -461.49734
128.78896 70.24855 -432.73276
131.52141 59.782478 -402.74774
134.37233 48.862701 -371.46259
137.34958 37.459011 -338.79117
140.46173 25.538486 -304.63919
143.71822 13.065301 -268.90369
147.12926 3.0019643e-05 -231.47177
150.70618 -13.700518 -192.21991
154.46133 -28.083849 -151.01193
158.40842 -43.202251 -107.69791
162.5625 -59.113617 -62.112129
166.95549 -75.888832 -13.904781
171.62852 -93.61557 37.375729
176.51308 -112.32645 90.977226
181.68289 -132.133 147.7093
187.16565 -153.1355 207.87529
192.98959 -175.44504 271.78558
199.18655 -199.18655 339.78922
205.79584 -224.50446 412.31744
212.85878 -251.56041 489.82422
113.27823 226.55649 -706.5329
112.85136 216.29845 -710.8269
112.4277 206.11746 -715.08868
112.00751 196.01315 -719.31549
111.59013 185.98357 -723.51385
111.17433 176.02608 -727.69653
112.11954 168.17934 -718.18842
114.00976 161.51387 -699.17432
115.96481 154.61975 -679.50806
117.98808 147.48512 -659.15564
120.0832 140.09711 -638.08026
122.25407 132.44189 -616.24292
124.50488 124.50493 -593.60156
126.84013 116.27015 -570.11078
129.26463 107.72056 -545.72198
131.78365 98.837784 -520.38269
134.4028 89.601891 -494.03616
137.12816 79.99144 -466.62125
139.96632 69.983185 -438.07135
142.92499 59.552101 -408.30963
146.01089 48.670277 -377.26782
149.23299 37.308228 -344.85596
152.60051 25.43343 -310.98135
156.12352 13.010323 -275.54263
159.81302 1.9947425e-05 -238.42892
163.68115 -13.640102 -199.51869
167.74117 -27.956812 -158.67819
172.00772 -43.00185 -115.76002
176.49696 -58.832314 -70.601524
181.22684 -75.511185 -23.022806
186.27855 -93.139282 27.793682
191.56328 -111.74527 80.953903
197.14403 -131.42934 137.09187
203.06071 -152.29549 196.60912
209.34354 -174.45291 259.80939
216.0264 -198.02417 327.03384
223.15125 -223.1512 398.70428
230.7621 -249.99219 475.26355
122.11793 225.44852 -712.10559
121.65999 215.24458 -716.35785
121.20547 205.11697 -720.57831
120.75466 195.06525 -724.76416
120.30687 185.08748 -728.92212
119.86172 175.18257 -733.05554
121.09675 167.67242 -721.58771
123.13206 161.01889 -702.68896
125.23696 154.13785 -683.1441
127.41507 147.01741 -662.91937
129.67029 139.64496 -641.97876
132.00677 132.00681 -620.28345
134.429 124.08836 -597.79187
136.9418 115.87386 -574.45959
139.55031 107.3464 -550.23834
142.26013 98.487785 -525.07648
145.07729 89.278358 -498.918
148.00826 79.696762 -471.70264
151.0601 69.720047 -443.36487
154.24046 59.323269 -413.83389
157.5576 48.47924 -383.03275
161.02057 37.158627 -350.87766
164.63918 25.329121 -317.27737
168.42415 12.955767 -282.13208
172.38727 2.8556211e-05 -245.33276
176.54138 -13.580035 -206.76004
180.90067 -27.830877 -166.28226
185.48065 -42.803253 -123.75497
190.2986 -58.553375 -79.018364
195.3735 -75.143661 -31.895559
200.77379 -92.664749 18.248308
206.45853 -111.1699 71.033699
212.44136 -130.73311 126.58685
218.78236 -151.46471 185.46587
225.51357 -173.47191 247.96797
232.67085 -196.87534 314.42657
240.29868 -221.81413 385.25424
248.44359 -248.44356 460.88333
130.87158 224.35133 -717.62408
130.38319 214.20099 -721.83508
129.89844 204.12614 -726.01477
129.41762 194.12643 -730.1604
128.94 184.20003 -734.27856
128.4659 174.34665 -738.36639
130.01965 167.16817 -724.96967
132.19824 160.52646 -706.18536
134.4511 153.65842 -686.76086
136.78206 146.55226 -666.6629
139.19528 139.19525 -645.85565
141.69518 131.57408 -624.30109
144.2865 123.67416 -601.95813
146.97484 115.48029 -578.77881
149.76477 106.97489 -554.72339
152.66269 98.14032 -529.73706
155.67496 88.95713 -503.76468
158.80849 79.404305 -476.7467
162.07079 69.458885 -448.61874
165.46988 59.096436 -419.31091
169.01463 48.289909 -388.74738
172.71458 37.010323 -356.84579
176.58015 25.225758 -323.51611
180.62271 12.901639 -288.6604
184.85471 9.1818089e-05 -252.17136
189.28976 -13.520679 -213.93135
193.94287 -27.706097 -173.81134
198.83051 -42.606529 -131.66916
203.97087 -58.27739 -87.348022
209.38408 -74.779984 -40.674419
215.12207 -92.19516 8.7998581
221.2012 -110.60055 61.215153
227.57747 -130.0443 116.19257
234.33342 -150.64282 174.44356
241.50273 -172.50194 236.25897
249.12329 -195.73967 301.96475
257.24185 -220.49298 371.96445
265.90735 -246.91393 446.68021
139.54045 223.26469 -723.08917
139.02222 213.1674 -727.25952
138.50821 203.1454 -731.39594
137.9976 193.19667 -735.505
137.49075 183.32103 -739.5838
136.98872 173.51907 -743.62372
138.8894 166.66736 -728.32825
141.20955 160.03752 -709.65729
143.60851 153.18243 -690.35193
146.09038 146.09035 -670.37927
148.65956 138.74892 -649.70422
151.32071 131.14462 -628.28888
154.07887 123.26311 -606.0929
156.93947 115.08898 -583.07263
159.90826 106.60549 -559.18152
162.99156 97.794945 -534.36914
166.19611 88.63797 -508.58099
169.52916 79.113655 -481.75851
172.99866 69.199486 -453.83823
176.61314 58.871075 -424.75122
180.38187 48.101891 -394.42279
184.31494 36.863045 -362.77182
188.42336 25.123165 -329.7099
192.7191 12.847977 -295.14038
197.21529 8.0178987e-05 -258.95789
201.92628 -13.461673 -221.04672
206.86786 -27.582325 -181.28001
212.05826 -42.411633 -139.51096
217.51485 -58.003956 -95.59951
223.2597 -74.419815 -49.368626
229.32463 -91.729851 -0.56188315
235.79362 -110.037 51.496696
242.55608 -129.36325 105.9167
249.71663 -149.82993 163.54028
257.31412 -171.54269 224.6801
265.3884 -194.61812 289.65707
273.98434 -219.18744 358.83194
283.15741 -245.40305 432.65094
148.12575 222.18863 -728.50146
147.57826 212.14375 -732.63184
147.03523 202.17351 -736.72876
146.49579 192.27576 -740.79858
145.96028 182.45036 -744.83868
145.43065 172.6989 -748.83441
147.70619 166.16945 -731.66675
150.16612 159.55154 -713.10809
152.70937 152.70941 -693.92078
155.34024 145.6315 -674.07239
158.06334 138.30547 -653.52808
160.88364 130.71797 -632.25067
163.8064 122.8548 -610.2002
166.83731 114.70065 -587.33368
169.9825 106.23908 -563.60498
173.24857 97.452339 -538.96448
176.64259 88.321358 -513.35852
180.17226 78.825409 -486.72922
183.84586 68.942245 -459.01404
187.67238 58.64764 -430.14511
191.66158 47.915478 -400.04898
195.82405 36.717049 -368.64548
200.17134 25.021484 -335.84784
204.71603 12.794794 -301.5607
209.47188 5.7188226e-05 -265.68069
214.45395 -13.403342 -228.09375
219.67877 -27.459812 -188.67546
225.16457 -42.218281 -147.28848
230.93134 -57.732861 -103.78147
237.00127 -74.062828 -57.987423
243.39893 -91.274574 -9.7209473
250.2229 -109.47245 41.762012
257.37738 -128.68864 95.738541
264.93469 -149.02571 152.75386
272.95059 -170.59415 213.22943
281.46674 -193.50839 277.47861
290.52979 -217.89728 345.85413
300.19763 -243.91051 418.79221
156.62868 221.12285 -733.86194
156.05255 211.12994 -737.95288
155.48106 201.21077 -742.01074
154.91331 191.36353 -746.04199
154.34972 181.58798 -750.04395
153.95555 172.06795 -752.84277
156.47003 165.67415 -734.9884
159.06801 159.06802 -716.54114
161.75372 152.23885 -697.47101
164.53168 145.17503 -677.74579
167.40672 137.86438 -657.33112
170.38402 130.29369 -636.19043
173.46913 122.44883 -614.28412
176.66805 114.31461 -591.56982
179.98714 105.87481 -568.0022
183.43335 97.111794 -543.53192
187.0141 88.006676 -518.10638
190.73743 78.538979 -491.66833
194.61205 68.686592 -464.15628
198.64731 58.425682 -435.50323
202.85422 47.730419 -405.63168
207.24237 36.572212 -374.4729
211.8246 24.920595 -341.93622
216.61404 12.742001 -307.92819
221.62506 4.1689946e-06 -272.34671
226.87343 -13.345479 -235.08005
232.37639 -27.338428 -196.00551
238.15295 -42.026974 -154.98836
244.22403 -57.464474 -111.8798
250.61273 -73.70961 -66.515991
257.34467 -90.827461 -18.715122
264.49625 -108.91018 32.065521
272.04492 -128.0211 85.665916
279.99026 -148.2301 142.08284
288.4151 -169.65593 201.90459
297.36273 -192.41112 265.43814
306.88159 -216.62227 333.02811
317.0318 -242.43604 405.10104
165.05042 220.06731 -739.17126
164.4462 210.12572 -743.22321
163.84683 200.25731 -747.24268
163.25139 190.45993 -751.23584
162.66025 180.73363 -755.20013
162.53549 171.56526 -756.03674
165.18224 165.18224 -738.28735
167.9166 158.58794 -719.95038
170.74298 151.77155 -700.99603
173.66618 144.72177 -681.39276
176.69119 137.42647 -661.10657
179.82346 129.8725 -640.10107
183.06879 122.04585 -618.3374
186.4334 113.93158 -595.77386
189.92401 105.51332 -572.3653
193.54784 96.773941 -548.06342
197.31262 87.694504 -522.81616
201.22678 78.254913 -496.56723
205.29936 68.433159 -469.25583
209.54022 58.205666 -440.81604
213.95998 47.546688 -411.17654
218.57019 36.428364 -380.25974
223.38345 24.820436 -347.98129
228.41348 12.689714 -314.24921
233.67525 3.1520147e-05 -278.96292
239.18517 -13.288006 -242.01262
244.9612 -27.217878 -203.27776
251.02309 -41.837116 -162.62575
257.39261 -57.198303 -119.91071
264.09381 -73.359367 -74.971542
271.15326 -90.384438 -27.629719
278.625 -108.35414 22.476791
286.56107 -127.36044 75.697281
294.88593 -147.44289 131.52498
303.71048 -168.72806 190.70369
313.07947 -191.32628 253.53342
323.04315 -215.36208 320.35144
333.66373 -240.97932 391.57455
173.39215 219.02168 -744.42999
172.76041 209.13101 -748.44366
172.1337 199.3127 -752.42523
171.51106 189.56491 -756.38092
170.89291 179.88728 -760.30811
171.06499 171.06505 -759.2149
173.84238 164.69281 -741.5697
176.71141 158.11028 -723.34216
179.67673 151.30678 -704.50281
182.74329 144.27104 -685.02045
185.91634 136.99098 -664.86151
189.20151 129.45374 -643.99011
192.60487 121.64516 -622.36786
196.13292 113.55067 -599.95355
199.79326 105.15438 -576.69867
203.59216 96.438385 -552.56354
207.53833 87.384613 -527.49268
211.64052 77.972862 -501.43076
215.90813 68.181549 -474.31787
220.35136 57.987221 -446.08896
224.98135 47.364563 -416.67386
229.81007 36.285809 -385.99606
234.85062 24.721151 -353.97241
240.11723 12.63779 -320.5127
245.62549 -4.1640769e-06 -285.51767
251.39238 -13.231123 -248.87946
257.43658 -27.098589 -210.47946
263.77859 -41.64925 -170.18748
270.44095 -56.934906 -127.86022
277.44861 -73.012726 -83.339294
284.82907 -89.946014 -36.449715
292.61292 -107.80469 13.002509
300.92816 -126.70662 65.831139
309.62421 -146.66406 121.07876
318.83942 -167.81018 179.62453
328.61996 -190.2536 241.7623
339.01773 -214.11646 307.82132
350.09689 -239.53992 378.2095
182.31854 227.89822 -745.63422
181.65498 217.98602 -749.6391
180.99625 208.14572 -753.61499
180.34274 198.37706 -757.55914
179.69348 188.67816 -761.47778
179.04933 179.04939 -765.3656
179.54538 170.56815 -762.3717
182.45184 164.2067 -744.82971
185.45392 157.63586 -726.71045
188.55647 150.84521 -707.98499
191.76459 143.82347 -688.62231
195.08377 136.55861 -668.58929
198.51987 129.03795 -647.85059
202.07918 121.24751 -626.36829
205.76845 113.17263 -604.1015
209.59492 104.79748 -581.00671
213.56642 96.104919 -557.03656
217.69133 87.076546 -532.14056
221.97871 77.692543 -506.26385
226.43839 67.931557 -479.34744
231.0809 57.770248 -451.32733
235.91777 47.183525 -422.13419
240.96147 36.144276 -391.69281
246.22552 24.622633 -359.92142
251.72472 12.586276 -326.73087
257.47516 1.1839606e-05 -292.02383
263.49448 -13.174701 -255.694
269.802 -26.980145 -217.62488
276.41885 -41.462799 -177.68857
283.36966 -56.673901 -135.73669
290.67776 -72.669449 -91.628372
298.37283 -89.511787 -45.184639
306.48639 -107.27022 3.7849991
315.12625 -126.05047 55.93119
324.2092 -145.89413 110.7518
333.80466 -166.90224 168.66537
343.98718 -189.19289 230.12236
354.81046 -212.88626 295.44672
366.33499 -238.11774 365.00327
217.5865 321.19916 -595.30896
216.24048 308.91504 -603.04608
214.91101 296.78189 -610.68805
213.59779 284.79706 -618.23663
212.30115 272.95868 -625.68982
211.01953 261.26227 -633.0567
190.53021 226.82169 -750.83191
189.84004 216.96005 -754.79919
189.15485 207.16966 -758.73779
188.47508 197.45009 -762.64508
187.7997 187.7997 -766.52734
187.12964 178.21872 -770.37897
187.97615 170.07373 -765.51312
191.0101 163.72299 -748.07349
194.14415 157.16434 -730.05859
197.3822 150.38643 -711.44592
200.73007 143.37868 -692.20178
204.19351 136.12904 -672.29364
207.77855 128.62485 -651.68634
211.49171 120.85239 -630.34253
215.34003 112.79722 -608.22211
219.33096 104.44335 -585.28156
223.47263 95.774002 -561.47479
227.77373 86.770958 -536.75146
232.24362 77.414581 -511.05792
236.89249 67.683594 -484.33569
241.73126 57.555077 -456.52182
246.77184 47.004173 -427.54797
252.02708 36.003876 -397.34012
257.51105 24.524893 -365.81766
263.23895 12.53524 -332.89279
269.22748 2.8602191e-05 -298.46994
275.49484 -13.118789 -262.44443
282.06094 -26.862932 -224.70158
288.94769 -41.278236 -185.1158
296.17911 -56.415054 -143.54858
303.7818 -72.329002 -99.847382
311.7851 -89.081398 -53.843536
320.2215 -106.7404 -5.3500853
329.17184 -125.39877 46.097786
338.64023 -145.13145 100.5232
348.60886 -166.00421 157.82414
359.18399 -188.14401 218.61151
370.42084 -211.66905 283.20221
382.38135 -236.71227 351.95288
232.52406 401.63251 -570.19958
231.05693 388.59579 -578.24945
229.6082 375.72253 -586.19836
228.17754 363.0097 -594.04822
226.76459 350.45441 -601.80096
225.36902 338.05356 -609.45819
223.9912 325.80542 -617.01801
222.62947 313.70517 -624.48962
221.28418 301.75116 -631.87097
219.95508 289.9408 -639.1637
218.64182 278.27142 -646.36926
217.34416 266.7406 -653.48932
216.0618 255.34583 -660.52539
198.66469 225.75533 -755.98071
197.94843 215.94373 -759.91083
197.2373 206.20267 -763.81268
196.5318 196.5318 -767.68365
195.8308 186.92943 -771.52997
195.13528 177.39577 -775.34607
196.35867 169.58253 -768.63342
199.51865 163.24255 -751.29523
202.78197 156.69516 -733.38983
206.15382 149.9301 -714.88904
209.63969 142.9362 -695.76251
213.2455 135.70166 -675.97809
216.97749 128.21404 -655.50116
220.84245 120.45958 -634.29468
224.84761 112.42386 -612.31909
229.0007 104.09123 -589.53162
233.31013 95.445114 -565.88654
237.78484 86.467224 -541.33447
242.43456 77.138306 -515.82208
247.26973 67.437248 -489.29224
252.30171 57.341335 -461.6825
257.54276 46.825989 -432.92572
263.00708 35.864624 -402.94376
268.70734 24.427986 -371.66724
274.66019 12.484605 -339.00507
280.88272 1.2126171e-05 -304.86282
287.39374 -13.063313 -269.13785
294.21381 -26.746655 -231.71718
301.36542 -41.095219 -192.47739
308.87335 -56.158741 -151.2823
316.76498 -71.991959 -107.98235
325.07043 -88.65551 -62.411659
333.82312 -106.21643 -14.386947
343.07297 -124.75375 36.365623
352.92114 -144.37677 90.401093
363.25455 -165.11568 147.09894
374.21323 -187.10658 207.22763
385.8537 -210.46567 271.09698
398.23941 -235.32323 339.05557
244.8968 457.85056 -560.73444
243.34175 444.36322 -568.89575
241.80634 431.04611 -576.95404
240.28867 417.8934 -584.91919
238.78995 404.90472 -592.78503
237.3098 392.07709 -600.55334
235.84859 379.40863 -608.22211
234.40456 366.89417 -615.80066
232.97812 354.53195 -623.28711
231.56892 342.31931 -630.68298
230.17668 330.25357 -637.98987
228.80107 318.33197 -645.20947
227.44182 306.55206 -652.34326
226.0986 294.91129 -659.39288
224.77184 283.40793 -666.35608
223.45988 272.03815 -673.24158
222.16316 260.80023 -680.04712
220.88139 249.69208 -686.77423
206.72304 224.69896 -761.08136
205.98119 214.93692 -764.97485
205.24464 205.24469 -768.84045
204.51389 195.62202 -772.67566
203.7878 186.06712 -776.48645
203.06735 176.58038 -780.26758
204.69296 169.09418 -771.73584
207.9774 162.76488 -754.49811
211.36896 156.22925 -736.69818
214.87297 149.47684 -718.30823
218.49512 142.49681 -699.2981
222.24147 135.27744 -679.63611
226.11855 127.80614 -659.28821
230.1333 120.06958 -638.21765
234.29318 112.05328 -616.38525
238.60622 103.74191 -593.74921
243.08104 95.118675 -570.26404
247.7269 86.165916 -545.88123
252.55383 76.864227 -520.54816
257.57257 67.192841 -494.20822
262.79483 57.129333 -466.80029
268.23325 46.649311 -438.25793
273.90149 35.726315 -408.50937
279.81451 24.331715 -377.47626
285.98843 12.434277 -345.07364
292.44092 2.495459e-05 -311.20898
299.19135 -13.008303 -275.78094
306.26071 -26.631405 -238.6786
313.67233 -40.913734 -199.78056
321.45148 -55.904636 -158.95316
329.62634 -71.65789 -116.04919
338.22784 -88.233315 -70.906021
347.29025 -105.69701 -23.343849
356.85168 -124.12228 26.83733
367.05432 -143.62991 80.383728
377.74432 -164.23662 136.48793
389.07767 -186.08058 195.96848
401.11203 -209.27579 259.12857
413.91248 -233.95047 326.30884
250.97908 460.12833 -583.69666
249.41447 446.86761 -591.56604
247.8685 433.7699 -599.34161
246.34158 420.83356 -607.02148
244.83409 408.05682 -614.60352
243.34421 395.43439 -622.09698
241.87236 382.96463 -629.49994
240.4182 370.64478 -636.81378
238.98 358.47 -644.04736
237.5589 346.44006 -651.19501
236.15529 334.55341 -658.25458
234.7675 322.80533 -665.23468
233.3959 311.19461 -672.13324
232.04025 299.71866 -678.9516
230.70026 288.37537 -685.69122
229.37564 277.16229 -692.35345
228.06618 266.07721 -698.9397
226.7722 255.11871 -705.44788
225.49219 244.28323 -711.8858
214.70631 223.65242 -766.13464
213.93939 213.93938 -769.99188
213.1785 204.2961 -773.81897
212.42242 194.72061 -777.62164
211.67171 185.21278 -781.39746
210.92682 175.7724 -785.14398
212.97881 168.60826 -774.82324
216.38622 162.28972 -757.6853
219.90443 155.76567 -739.99005
223.53894 149.02597 -721.70984
227.29561 142.05977 -702.81525
231.18071 134.85545 -683.27472
235.20094 127.40051 -663.05463
239.36343 119.68172 -642.11877
243.67595 111.6848 -620.42853
248.1467 103.39448 -597.94244
252.78535 94.794548 -574.61176
257.59991 85.866631 -550.39636
262.60144 76.592148 -525.24072
267.80103 66.95031 -499.08884
273.21066 56.918922 -471.8804
278.84335 46.47393 -443.55011
284.71323 35.58913 -414.02698
290.83551 24.236328 -383.23419
297.2269 12.384499 -351.0881
303.90552 4.3735683e-05 -317.49731
310.89114 -12.953732 -282.36227
318.20547 -26.517069 -245.57402
325.87225 -40.734047 -207.01291
333.91763 -55.65287 -166.5479
342.37033 -71.327164 -124.03413
351.26205 -87.81546 -79.312202
360.62796 -105.18311 -32.205372
370.50702 -123.50227 17.482363
381.01306 -142.87988 70.323822
392.08255 -163.36766 125.99896
403.77991 -185.06575 184.83228
416.19888 -208.09938 247.29477
429.40369 -232.59361 313.70996
258.5405 475.71454 -597.67993
256.84863 462.32755 -605.84906
255.2746 449.28326 -613.44916
253.7205 436.39929 -620.95306
252.18445 423.66992 -628.36963
250.6669 411.09372 -635.69708
249.1675 398.668 -642.93683
247.68666 386.3912 -650.08698
246.2226 374.25836 -657.15613
244.77573 362.2681 -664.14221
243.34576 350.41794 -671.04663
241.93314 338.70642 -677.86749
240.5361 327.12909 -684.61292
239.15512 315.68475 -691.28094
237.78853 304.36938 -697.87927
236.43817 293.18332 -704.39954
235.10237 282.12286 -710.84924
233.78159 271.18668 -717.22656
232.47557 260.37265 -723.53253
231.18407 249.67882 -729.76855
229.90681 239.1031 -735.93561
222.61559 222.61563 -771.14087
221.82407 212.95117 -774.96259
221.03877 203.3557 -778.75439
220.25842 193.82744 -782.52222
219.48357 184.36623 -786.26361
218.71471 174.97182 -789.97595
221.21774 168.12553 -777.8902
224.74667 161.81761 -760.85101
228.39003 155.30522 -743.25934
232.15344 148.57822 -725.08801
236.04297 141.62584 -706.30768
240.06503 134.43645 -686.88733
244.22656 126.99783 -666.79376
248.53491 119.29679 -645.99127
252.99799 111.31917 -624.44159
257.6243 103.04977 -602.10382
262.42294 94.472244 -578.9339
267.40375 85.569214 -554.8844
272.57727 76.321701 -529.90442
277.95496 66.709221 -503.93875
283.5491 56.709866 -476.92783
289.37302 46.299679 -448.8074
295.44122 35.452991 -419.50757
301.76938 24.141611 -388.95258
308.37454 12.334984 -357.05994
315.27533 1.6900363e-05 -323.74002
322.49203 -12.899638 -288.89468
330.04684 -26.403698 -252.41675
337.96414 -40.555618 -214.18867
346.27063 -55.403278 -174.08144
354.99722 -70.999435 -131.94574
364.1734 -87.401611 -87.639091
373.83661 -104.67424 -40.981155
384.02658 -122.8885 8.2204485
394.82123 -142.1356 60.34145
406.26785 -162.50706 115.61086
418.32272 -184.06198 173.81682
431.117 -206.93614 235.59329
444.71866 -231.25374 301.26779
264.19647 477.58594 -619.4342
262.51575 464.4509 -627.2373
260.93454 451.61752 -634.57837
259.37228 438.93771 -641.83148
257.82864 426.40887 -648.99823
256.30399 414.02957 -656.07672
254.79652 401.79459 -663.07544
253.30669 389.70264 -669.99231
251.83492 377.75241 -676.82532
250.37943 365.93918 -683.58282
248.94066 354.26172 -690.26263
247.51833 342.71768 -696.86609
246.11284 331.30579 -703.3913
244.72256 320.02182 -709.84601
243.34789 308.86472 -716.22821
241.98857 297.83215 -722.53906
240.64503 286.923 -728.77679
239.31567 276.13351 -734.94867
238.0009 265.46259 -741.05273
236.69987 254.90756 -747.09302
235.41234 244.46671 -753.07074
234.13875 234.13879 -758.9837
230.45183 221.5883 -776.10095
229.63625 211.97191 -779.88751
228.827 202.42387 -783.64459
228.02284 192.9424 -787.37805
227.22432 183.52737 -791.08539
226.43196 174.17847 -794.7641
229.40903 167.64511 -780.94244
233.05801 161.34782 -764.00122
236.82495 154.84709 -746.51239
240.71631 148.13313 -728.4458
244.73703 141.19447 -709.77875
248.89433 134.02005 -690.4776
253.19531 126.59768 -670.5094
257.64755 118.9143 -649.83887
262.25919 110.95583 -628.42841
267.03891 102.70731 -606.23761
271.99606 94.152504 -583.22284
277.14078 85.274094 -559.3374
282.48383 76.05336 -534.53101
288.03699 66.470062 -508.74936
293.81284 56.502445 -481.93369
299.82507 46.126934 -454.02063
306.0885 35.317905 -424.94128
312.6192 24.047636 -394.62112
319.43463 12.285909 -362.97888
326.55386 4.683209e-05 -329.92633
333.99768 -12.846088 -295.36676
341.78879 -26.291439 -259.19492
349.95203 -40.379036 -221.29527
358.51477 -55.156059 -181.54091
367.50702 -70.674416 -139.79225
376.96201 -86.991219 -95.895454
386.91632 -104.16975 -49.680408
397.41061 -122.28019 -0.95833057
408.49008 -141.40041 50.480419
420.30453 -161.65553 105.33164
432.70859 -183.069 162.92017
445.86932 -205.78577 224.02174
459.85574 -229.92786 288.95685
269.65784 479.39175 -640.44684
267.98987 466.50095 -647.90393
266.40292 453.87164 -654.99884
264.83545 441.3924 -662.00671
263.28552 429.05786 -668.93604
261.75363 416.86691 -675.78473
260.2402 404.81818 -682.55084
258.74347 392.90674 -689.24249
257.26382 381.13162 -695.8576
255.80101 369.49039 -702.39746
254.35547 357.98178 -708.86017
252.92546 346.60159 -715.25342
251.51143 335.3486 -721.5752
250.11383 324.22165 -727.82361
248.73099 313.21683 -734.00598
247.36334 302.33298 -740.1203
246.01067 291.56818 -746.16791
244.67336 280.9213 -752.14667
243.34985 270.38873 -758.06372
242.0406 259.96954 -763.91711
240.75433 249.67117 -769.66766
240.68822 240.68823 -769.9632
240.62216 231.71025 -770.25861
240.57536 222.75499 -770.46783
240.51833 213.79405 -770.72284
240.46196 204.83797 -770.97485
240.40497 195.88557 -771.22961
240.34866 186.9379 -771.48132
240.29173 177.9939 -771.7359
240.23483 169.05414 -771.9903
241.32188 160.88129 -767.13031
245.21092 154.39207 -749.74335
249.22736 147.69028 -731.78668
253.37759 140.76535 -713.23212
257.66837 133.60583 -694.04901
262.10696 126.19965 -674.20508
266.70117 118.53389 -653.66547
271.45929 110.59455 -632.39301
276.39026 102.36683 -610.34772
281.50372 93.834595 -587.48669
286.80994 84.980759 -563.76385
292.32004 75.786713 -539.12952
298.04599 66.232506 -513.53009
304.00076 56.296417 -486.90771
310.19833 45.955345 -459.19983
316.65384 35.183788 -430.33881
323.38489 23.954512 -400.24576
330.40714 12.237342 -368.85101
337.74112 5.7358779e-05 -336.06244
345.40808 -12.792861 -301.78525
353.43121 -26.180044 -265.9158
361.83594 -40.204037 -228.34016
370.65012 -54.911083 -188.93401
379.90445 -70.352638 -147.56003
389.63272 -86.584969 -104.06722
399.87238 -103.67054 -58.288345
410.66467 -121.67839 -10.038304
422.05569 -140.68521 40.88839
434.19485 -160.81288 95.159538
446.94006 -182.08664 152.1405
460.45853 -204.64825 212.57834
474.82025 -228.6171 276.78616
274.93607 481.13818 -660.74823
273.28229 468.48395 -667.87793
271.6908 456.05246 -674.73889
270.11777 443.76489 -681.52039
268.5636 431.62006 -688.22058
267.02646 419.61307 -694.84735
265.50681 407.74265 -701.39862
264.00436 396.00656 -707.87579
262.51956 384.40369 -714.27698
261.05063 372.9295 -720.60962
259.59808 361.58307 -726.87183
258.16229 350.3631 -733.06165
256.74158 339.26566 -739.18634
256.38095 329.63269 -740.74109
256.30869 320.38589 -741.0528
256.23642 311.14423 -741.36414
256.16422 301.90784 -741.67554
256.09207 292.67667 -741.98657
256.02063 283.45148 -742.29449
255.94855 274.23059 -742.60529
255.87651 265.01498 -742.91583
255.80452 255.80455 -743.2262
255.73256 246.59927 -743.5365
255.66064 237.39917 -743.8465
255.58876 228.20424 -744.15637
255.51691 219.0145 -744.46606
255.53575 209.90437 -744.38489
255.47368 200.72935 -744.65247
255.41167 191.55878 -744.91986
255.35037 182.39316 -745.18408
255.28842 173.23141 -745.45117
255.22649 164.07419 -745.7182
255.16527 154.92183 -745.98206
257.68839 147.25055 -735.10461
261.96652 140.33922 -716.66119
266.3891 133.19455 -697.59515
270.96353 125.80455 -677.87421
275.69785 118.15629 -657.46417
280.60052 110.23595 -636.32825
285.68073 102.02885 -614.427
290.9483 93.519081 -591.71802
296.41376 84.689682 -568.15594
302.08847 75.522148 -543.69159
307.98471 65.99678 -518.27234
314.11569 56.092129 -491.841
320.49576 45.785141 -464.33603
327.14035 35.050774 -435.69055
334.06631 23.861862 -405.83206
341.29187 12.188971 -374.68201
348.83691 3.2697018e-05 -342.15472
356.72305 -12.740058 -308.15677
364.97403 -26.069532 -272.58597
373.61575 -40.030182 -235.3308
382.67661 -54.66811 -196.26849
392.18787 -70.033546 -155.26456
402.18399 -86.182274 -112.17037
412.70297 -103.1757 -66.821945
423.78699 -121.08194 -19.037624
435.48282 -139.97658 31.384186
447.90253 -159.96515 84.926697
461.01965 -181.11482 141.47588
474.8873 -203.5231 201.26062
489.61508 -227.32129 264.75357
505.28293 -252.64143 332.29916
280.0387 482.82538 -680.38049
278.4003 470.40054 -687.20013
276.80624 458.16214 -693.83533
275.22955 446.0618 -700.39813
273.67075 434.09851 -706.88666
272.9498 423.54282 -709.88757
272.87146 414.01187 -710.21368
272.79239 404.48526 -710.54272
272.71338 394.96423 -710.87158
272.63443 385.44873 -711.20032
272.55548 375.93863 -711.52887
272.47662 366.43414 -711.85718
272.39014 356.92502 -712.2171
272.24945 347.35275 -712.8028
272.17532 337.87283 -713.11127
272.12338 328.4248 -713.32745
272.07147 318.98035 -713.54352
272.02036 309.54041 -713.75629
271.95703 300.09055 -714.01996
271.88 290.63034 -714.34045
271.80307 281.1756 -714.66083
271.23898 196.41447 -717.00873
271.17148 187.01482 -717.28967
271.10477 177.62039 -717.56732
271.03735 168.23013 -717.84808
270.96994 158.84448 -718.1286
270.90332 149.46394 -718.40588
270.85114 140.09543 -718.62317
275.05551 132.78543 -701.12268
279.76404 125.4115 -681.5238
284.63654 117.78063 -661.24213
289.68182 109.87935 -640.24152
294.90918 101.69286 -618.48309
300.32864 93.20549 -595.9248
305.952 84.400566 -572.51801
311.78894 75.259438 -548.22198
317.85297 65.762726 -522.98102
324.1575 55.889217 -496.73865
330.71722 45.61615 -469.4342
337.54794 34.918777 -441.00186
344.66672 23.770176 -411.37036
352.09225 12.141161 -380.46194
359.84482 2.258731e-05 -348.19257
367.94644 -12.68784 -314.46997
376.42126 -25.960064 -279.19409
385.29568 -39.858154 -242.25478
394.59869 -54.427376 -203.53169
404.36203 -69.717552 -162.89243
414.62073 -85.783531 -120.19118
425.41357 -102.686 -75.266663
436.78329 -120.49195 -27.940966
448.77744 -139.27571 21.983923
461.46426 -159.12555 74.791992
474.95206 -180.15417 130.93417
489.15829 -202.41034 190.06676
504.24316 -226.04002 252.85663
520.28802 -251.17351 319.64246
290.09393 483.4899 -678.77612
290.0369 473.72699 -679.00562
289.97989 463.9678 -679.23492
289.92291 454.21255 -679.46423
289.8609 444.45343 -679.71362
289.77637 434.66458 -680.05389
289.69186 424.88141 -680.39392
289.60739 415.10394 -680.73383
289.52298 405.33218 -681.07349
289.4386 395.56613 -681.41296
289.35428 385.80569 -681.75214
289.27002 376.05106 -682.09125
287.74258 182.237 -688.23712
287.66998 172.60205 -688.52936
287.59659 162.97142 -688.82458
287.52322 153.34572 -689.11981
287.45074 143.7254 -689.41156
287.37744 134.10948 -689.7063
288.5105 125.02122 -685.14728
293.51947 117.40782 -664.9928
298.70541 109.52532 -644.1261
304.07791 101.35931 -622.50885
309.64725 92.894226 -600.09961
315.42435 84.113152 -576.85431
321.42114 74.998314 -552.7251
327.65036 65.530098 -527.66064
334.12582 55.687649 -501.60544
340.8624 45.448303 -474.4996
347.87616 34.787636 -446.27832
355.18466 23.678968 -416.87115
362.80685 12.093584 -386.20193
370.76334 5.0105107e-05 -354.18753
379.0766 -12.635859 -320.73749
387.77127 -25.851357 -285.75293
396.87408 -39.687355 -249.1259
406.41461 -54.188557 -210.73792
416.42508 -69.404152 -170.45869
426.94296 -85.388618 -128.13797
438.00406 -102.20096 -83.63166
449.65347 -119.90763 -36.75795
461.93954 -138.58188 12.677276
474.91583 -158.30525 64.889816
488.73511 -179.20288 120.49422
503.27408 -201.30962 178.99455
518.70728 -224.77312 241.09297
535.117 -249.72121 307.12054
307.77246 476.55093 -647.59094
305.11023 167.31853 -657.9574
305.03033 157.43504 -658.26855
304.95047 147.55667 -658.57947
304.87155 137.68391 -658.88678
304.79178 127.81589 -659.19745
304.72998 117.96004 -659.43817
307.67108 109.17368 -647.98572
313.18677 101.028 -626.5083
318.90381 92.584984 -604.2467
324.83344 83.827957 -581.15729
330.98779 74.739174 -557.19293
337.37982 65.299347 -532.30304
344.02359 55.487675 -506.43283
350.93436 45.281879 -479.52322
358.12839 34.657585 -451.51044
365.62357 23.588602 -422.32501
373.43915 12.046488 -391.89191
381.59619 4.4384298e-05 -360.12924
390.11752 -12.584435 -326.94806
399.02814 -25.743746 -292.25107
408.35535 -39.518238 -255.93199
418.12897 -53.952091 -217.87445
428.38193 -69.093811 -177.95047
439.15039 -84.996849 -136.01927
450.47418 -101.71995 -91.925636
462.39743 -119.32831 -45.497948
474.96896 -137.89424 3.4544497
488.24323 -157.49779 55.142902
502.37329 -178.26149 110.16382
517.23712 -200.22083 168.04214
533.01013 -223.52032 229.46045
549.77539 -248.28563 294.74258
323.49677 161.74838 -625.72662
323.40973 151.59834 -626.05493
323.32275 141.45374 -626.383
323.23682 131.31499 -626.70715
323.14996 121.18124 -627.03491
323.06409 111.05333 -627.35876
323.0173 100.94292 -627.53528
328.09793 92.277542 -608.37
334.17792 83.544556 -585.43512
340.48749 74.481674 -561.63416
347.03986 65.069977 -536.91711
353.84943 55.288975 -511.23007
360.93155 45.116467 -484.51483
368.30295 34.528393 -456.70834
375.98172 23.498861 -427.74237
383.98889 11.999707 -397.53769
392.34311 -1.8827584e-05 -366.02383
401.06891 -12.53336 -333.1084
410.19165 -25.636929 -298.69543
419.73911 -39.350517 -262.68042
429.74158 -53.717682 -224.94904
440.23239 -68.786263 -185.37553
451.24823 -84.608994 -143.8214
462.8295 -101.24392 -100.13436
475.02094 -118.75517 -54.145844
487.87198 -137.21397 -5.668901
501.43771 -156.6992 45.503784
515.82172 -177.31367 99.763206
531.04999 -199.14374 157.20757
547.15448 -222.28143 217.95694
564.26624 -246.86641 282.50607
342.81387 145.43619 -592.04535
342.72018 135.011 -592.388
342.62546 124.59111 -592.73444
342.53082 114.17693 -593.08063
342.43732 103.76896 -593.42279
342.36292 93.371727 -593.69482
343.46042 83.263184 -589.68018
349.923 74.226143 -566.04071
356.63345 64.842445 -541.49463
363.60629 55.091881 -515.98871
370.85724 44.952415 -489.46552
378.40326 34.400291 -461.86288
386.26273 23.409903 -433.11368
394.45563 11.953254 -403.14496
403.0036 -1.1725688e-06 -371.8772
411.9303 -12.482688 -339.22446
421.26135 -25.530981 -305.09229
431.02493 -39.184021 -269.37805
441.25189 -53.485046 -231.96892
451.97592 -68.481209 -192.74144
463.23422 -84.224373 -151.55977
475.06772 -100.77192 -108.27408
487.52161 -118.18704 -62.718945
500.64606 -136.53979 -14.711057
514.4967 -155.90802 35.953163
529.1355 -176.37843 89.500481
544.71777 -198.07915 146.49878
561.14288 -221.05624 206.58022
578.59235 -245.46339 270.40872
363.22876 128.19841 -556.44763
363.12555 117.48183 -556.81427
363.02234 106.77132 -557.1806
362.92035 96.067184 -557.54266
362.81732 85.368828 -557.90857
362.76175 74.686256 -558.10583
366.16019 64.61657 -546.04028
373.29385 54.896179 -520.7135
380.71103 44.789577 -494.38028
388.42889 34.273148 -466.97937
396.46616 23.321556 -438.44449
404.84308 11.907199 -408.7038
413.58167 1.2779984e-05 -377.67917
422.70575 -12.432503 -345.28574
432.24152 -25.425985 -311.43073
442.21747 -39.019199 -276.01297
452.66476 -53.254715 -238.92177
463.61765 -68.179077 -200.03566
475.11371 -83.843544 -159.22108
487.19437 -100.3047 -116.33095
499.90543 -117.62479 -71.202606
513.29755 -135.87285 -23.656525
527.42688 -155.12556 26.507225
542.35614 -175.46814 79.510796
558.23737 -197.02492 135.89418
574.97791 -219.84447 195.32831
592.75659 -244.0762 258.44812
384.83533 109.95296 -518.77435
384.72278 98.928719 -519.16266
384.61151 87.91124 -519.54633
384.49905 76.899857 -519.9342
384.41068 65.898972 -520.23907
384.35385 54.907707 -520.43494
390.49237 44.627708 -499.2641
398.37933 34.146805 -472.06284
406.59149 23.233837 -443.74005
415.14935 11.861426 -414.22501
424.0752 7.6576172e-05 -383.44095
433.39328 -12.382643 -351.30402
443.1301 -25.321676 -317.72302
453.31442 -38.85548 -282.59851
463.97791 -53.026028 -245.82137
475.15515 -67.879288 -207.27248
486.88626 -83.466179 -166.81339
499.20914 -99.841797 -124.31328
512.172 -117.06785 -79.605949
525.82599 -135.2124 -32.514973
540.22797 -154.35078 17.155519
555.44104 -174.56714 69.623589
571.61108 -195.98091 125.3922
588.66211 -218.64587 184.19894
606.7616 -242.70461 246.62187
407.74231 90.609444 -478.83365
407.62082 79.259659 -479.24103
407.49805 67.916344 -479.65277
407.37527 56.57988 -480.06427
407.30911 45.256611 -480.2861
408.25806 34.021564 -477.10425
416.64233 23.146864 -448.99112
425.37823 11.816104 -419.69913
434.48828 4.0747131e-05 -389.1524
443.99707 -12.33325 -357.26868
453.9314 -25.218388 -323.95819
464.32047 -38.693348 -289.1228
475.1962 -52.799561 -252.65572
486.59363 -67.582405 -214.43927
498.55124 -83.091881 -174.34454
511.11133 -99.382721 -132.22969
524.32068 -116.51566 -87.937866
538.23083 -134.55766 -41.29586
552.89923 -153.58308 7.8882751
568.38953 -173.67458 59.828457
584.79266 -194.93086 114.82953
602.19788 -217.46031 173.19034
620.61011 -241.34834 234.92789
432.07224 70.065811 -436.40958
431.93799 58.370037 -436.84747
431.80383 46.681503 -437.28519
431.69836 35.002579 -437.62921
431.63062 23.331415 -437.85037
435.52765 11.771038 -425.13641
444.82037 -4.4812896e-06 -394.81937
454.51657 -12.284193 -363.18597
464.64496 -25.115952 -330.14258
475.23505 -38.53249 -295.59311
486.31906 -52.574978 -259.43192
497.9325 -67.288177 -221.54364
510.11417 -82.721169 -181.80171
522.9068 -98.928261 -140.06635
536.3576 -115.96917 -96.183792
550.51855 -133.90993 -49.984131
565.44769 -152.82367 -1.2787261
581.20905 -172.79187 50.141876
597.87421 -193.90509 104.51132
615.58765 -216.28751 162.30045
634.30469 -240.00714 223.36388
457.95877 48.206211 -391.27347
457.8136 36.143223 -391.73477
457.66684 24.087748 -392.20084
457.58609 12.041773 -392.4574
457.51196 1.869693e-05 -392.69296
464.95111 -12.235524 -369.06174
475.27002 -25.014162 -336.28268
486.05737 -38.372894 -302.01566
497.34576 -52.352131 -266.15692
509.17099 -66.996223 -228.59296
521.5722 -82.353508 -189.19922
534.59259 -98.477592 -147.83876
548.27972 -115.42728 -104.36024
562.6861 -133.2677 -58.597076
577.87 -152.07104 -10.363932
593.89612 -171.91727 40.544514
610.83643 -192.89574 94.357117
628.83691 -215.12837 151.53731
647.84784 -238.68076 211.9276
485.7189 37.362995 -342.65323
485.55975 24.900534 -343.14575
485.39893 12.446157 -343.64355
