# .PCD v0.7 - Point Cloud Data file format
VERSION 0.7
FIELDS x y z
SIZE 4 4 4
TYPE F F F
COUNT 1 1 1
WIDTH 1513
HEIGHT 1
VIEWPOINT 0 0 0 1 0 0 0
POINTS 1513
DATA ascii
-39.140003 3.1735125 6.8780074
-38.47847 2.0799203 4.7198
-37.835823 3.152983 6.0520172
-37.101665 2.0612051 3.5903225
-37.787266 4.3185434 9.5093088
-36.551704 3.1330032 5.2479982
-35.749245 2.0428159 2.4804142
-36.469944 4.2905793 8.6654377
-35.284924 3.1133733 4.4582467
-34.420429 2.0247288 1.3890164
-33.964222 0.99894857 -0.23066272
-36.383625 5.5126719 12.273318
-35.169567 4.2629757 7.8324232
-34.033916 3.0939932 3.6783278
-33.114929 2.0069668 0.31676573
-32.641651 0.98914009 -1.4144362
-35.047825 5.4762249 11.393394
-33.885818 4.2357264 7.0100598
-32.798389 3.0748494 2.9080555
-31.832142 1.989511 -0.73682737
-31.393265 0.98103952 -2.392369
-33.729572 5.4402556 10.525031
-32.618374 4.2088237 6.198144
-31.578056 3.0559456 2.1472545
-30.605618 1.9745578 -1.6393278
-30.189581 0.97385675 -3.2593231
-33.564495 6.7129002 14.238782
-32.430439 5.4050698 9.6756868
-31.372894 4.1830525 5.4204569
-30.382004 3.0381985 1.4334285
-29.451921 1.96346 -2.308933
-29.005047 0.96683693 -4.1070199
-32.235012 6.6693153 13.361884
-31.156658 5.3718371 8.8733225
-30.146696 4.158164 4.6694202
-29.200024 3.0206945 0.72894257
-28.310995 1.9524851 -2.971581
-27.837719 0.95992416 -4.941565
-32.015575 8.0038967 17.207899
-30.914459 6.6245275 12.460867
-29.893953 5.3382039 8.0613861
-28.934872 4.1335535 3.9266794
-28.031588 3.0033863 0.032535389
-27.182877 1.9416341 -3.626339
-26.686964 0.95310408 -5.7642546
-30.665594 7.9503403 16.284372
-29.615362 6.5811911 11.589027
-28.639097 5.3035378 7.2243729
-27.730965 4.108295 3.1643262
-26.876465 2.9862778 -0.65593445
-26.067225 1.9309024 -4.2738643
-25.552437 0.94638729 -6.5753489
-28.475559 2.740094e-06 6.4932423
-28.580437 -1.0585341 6.9621248
-28.802011 -2.1334853 7.9527311
-29.332052 7.89709 15.36615
-28.333149 6.5384183 10.728514
-27.400301 5.2692919 6.3975635
-26.536884 4.0825982 2.3889608
-25.726334 2.9684217 -1.37419
-24.963833 1.9202963 -4.9142747
-24.433794 0.93976122 -7.3750877
-24.247898 -1.154717e-06 -8.2381477
-27.502066 -1.057772 6.8700314
-27.560862 -2.1200695 7.143003
-27.636444 -3.1888177 7.4939084
-27.729626 -4.2660952 7.9265242
-27.850786 -5.3559208 8.4890337
-29.021393 9.2868443 19.313356
-28.015402 7.8443103 14.456009
-27.067497 6.4962001 9.879118
-26.181761 5.2363544 5.6024065
-25.357647 4.0572248 1.6232291
-24.587784 2.9505353 -2.0939956
-23.863289 1.9090638 -5.5921655
-23.330805 0.93322998 -8.1632261
-23.101847 2.9380412e-06 -9.2687302
-26.614109 -1.0645665 7.6899672
-26.622477 -2.1297989 7.7303686
-26.648771 -3.1978519 7.8573399
-26.678741 -4.2685971 8.002038
-26.736021 -5.3472023 8.278615
-26.793812 -6.4305134 8.5576458
-26.874664 -7.5249057 8.9480419
-26.966574 -8.6293049 9.39182
-27.103485 -9.7572556 10.052888
-27.668976 9.22299 18.349878
-26.716232 7.7922349 13.557958
-25.818211 6.4545522 9.0412521
-24.978477 5.2038507 4.8177176
-24.192978 4.0321636 0.86695784
-23.462873 2.9328585 -2.8051696
-22.775545 1.8979591 -6.2621641
-22.246124 0.92691922 -8.9249449
-22.047844 1.7767173e-06 -9.9222326
-25.82452 -1.0760223 9.0729866
-25.823761 -2.151979 9.0691786
-25.823004 -3.2278759 9.0653639
-25.823004 -4.3038325 9.0653639
-25.823509 -5.3798957 9.0679054
-25.83601 -6.4589992 9.1307774
-25.862694 -7.5432844 9.264987
-25.896666 -8.6322193 9.4358473
-25.952888 -9.7323341 9.7186308
-26.009611 -10.837336 10.003923
-26.095421 -11.9604 10.435512
-26.186079 -13.09304 10.891494
-26.337889 -14.266354 11.655025
-26.334892 9.1599607 17.398842
-25.434326 7.7408838 12.672419
-24.584719 6.4134068 8.2134304
-23.790039 5.1717453 4.0427194
-23.045231 4.0078692 0.13373564
-22.351362 2.9153986 -3.5078859
-21.70038 1.886987 -6.9244213
-21.178406 0.92079681 -9.6638842
-21.006029 -4.1057231e-07 -10.568576
-24.926737 -1.0837742 10.008436
-25.017626 -2.175441 10.485444
-25.016884 -3.2630746 10.481557
-25.016142 -4.3506312 10.477661
-25.015402 -5.4381285 10.473769
-25.01466 -6.5255628 10.469883
-25.014784 -7.6131935 10.470526
-25.015276 -8.7009668 10.473123
-25.015648 -9.7887316 10.475069
-25.032343 -10.883629 10.562687
-25.059351 -11.984906 10.70443
-25.097109 -13.094147 10.902596
-25.15221 -14.216464 11.19178
-25.208433 -15.344261 11.486858
-25.297977 -16.498684 11.956824
-25.391855 -17.663898 12.44951
-25.563244 -18.894571 13.349013
-25.934443 10.609545 21.484047
-25.02047 9.0983505 16.469227
-24.169086 7.6901612 11.797812
-23.366859 6.372777 7.3961053
-22.61628 5.1400628 3.2777944
-21.912323 3.9840572 -0.58471555
-21.253008 2.8981414 -4.2022748
-20.637573 1.8761426 -7.5790644
-20.135826 0.91526461 -10.332069
-19.919437 3.7025814e-06 -11.519369
-23.712923 -1.077859 9.2949152
-23.810497 -2.1645885 9.8302822
-23.908876 -3.2603011 10.370073
-24.00819 -4.3651257 10.915
-24.108212 -5.4791393 11.463814
-24.190813 -6.5974979 11.917034
-24.19009 -7.6968451 11.913055
-24.189245 -8.7960901 11.908418
-24.18852 -9.8953009 11.904433
-24.188881 -10.994949 11.906427
-24.189365 -12.094683 11.909081
-24.189728 -13.194398 11.911066
-24.19009 -14.294144 11.913057
-24.210646 -15.406775 12.025841
-24.237907 -16.525848 12.175421
-24.279217 -17.657612 12.402084
-24.333132 -18.802876 12.697901
-24.394165 -19.958862 13.032782
-24.481956 -21.143511 13.514487
-24.549587 -22.317806 13.885556
-24.582773 10.53548 20.490597
-23.728237 9.0393248 15.578622
-22.920319 7.6401038 10.934593
-22.164434 6.3326955 6.589674
-21.456715 5.1087403 2.521616
-20.792791 3.9605319 -1.2946876
-20.168812 2.8812602 -4.8814144
-19.586916 1.8654208 -8.2262278
-19.105707 0.90979773 -10.992279
-18.902143 -2.1846088e-06 -12.162385
-22.512173 -1.0720055 8.5885172
-22.604408 -2.1527989 9.1187057
-22.697294 -3.2424707 9.6526194
-22.791058 -4.3411527 10.191586
-22.885487 -5.4489264 10.734379
-22.9807 -6.5659113 11.281678
-23.345068 -7.7816901 13.376112
-23.345423 -8.8934927 13.378143
-23.345659 -10.005284 13.379502
-23.345659 -11.116979 13.3795
-23.34495 -12.228306 13.375431
-23.34436 -13.339638 13.372049
-23.344715 -14.45149 13.374081
-23.345186 -15.563455 13.376787
-23.345541 -16.675388 13.378825
-23.345894 -17.787346 13.380858
-23.346365 -18.899439 13.383565
-23.37044 -20.031807 13.521954
-23.397169 -21.168869 13.675598
-23.376822 -22.263638 13.558633
-24.121038 12.060517 24.76903
-23.249723 10.462379 19.510183
-22.448429 8.979372 14.673939
-21.687807 7.5907316 10.083186
-20.976942 6.2930813 5.7927213
-20.311195 5.0778003 1.774597
-19.686497 3.9373014 -1.9957982
-19.098995 2.864852 -5.5416822
-18.548199 1.8548238 -8.8660336
-18.087826 0.90439355 -11.644636
-17.896603 -5.7661191e-07 -12.798759
-21.324492 -1.0662255 7.8903642
-21.411388 -2.1411374 8.4148426
-21.498892 -3.2248311 8.9429722
-21.587114 -4.3174253 9.4754457
-21.67617 -5.4190402 10.012943
-21.765856 -6.529757 10.55425
-22.479948 -7.8679833 14.864166
-22.480291 -8.9921179 14.866244
-22.480637 -10.116286 14.868324
-22.480982 -11.240493 14.870402
-22.481211 -12.364666 14.871791
-22.481554 -13.488931 14.873864
-22.481899 -14.613231 14.875941
-22.481783 -15.737246 14.87525
-22.481323 -16.860994 14.872483
-22.481668 -17.985336 14.874557
-22.482128 -19.109808 14.877323
-22.482473 -20.234222 14.879407
-22.482817 -21.358675 14.881488
-22.750101 11.973736 23.721481
-21.935162 10.390341 18.544001
-21.184198 8.9196634 13.773001
-20.471025 7.5419588 9.2420712
-19.804213 6.2539654 5.0056767
-19.179558 5.0472536 1.0371335
-18.593021 3.9143214 -2.6892509
-18.041294 2.8486266 -6.1944785
-17.521441 1.8443645 -9.4972095
-17.081964 0.89905 -12.289288
-16.902704 -3.6981106e-08 -13.428164
-20.149555 -1.060503 7.1997113
-20.231125 -2.1295893 7.7179341
-20.313457 -3.2073882 8.2410059
-20.39636 -4.2939725 8.7677145
-20.480045 -5.3894868 9.2993822
-20.564318 -6.4939947 9.8347816
-21.595535 -7.9562488 16.386299
-21.595758 -9.092948 16.387716
-21.596092 -10.229729 16.389847
-21.596428 -11.366542 16.391968
-21.596762 -12.503386 16.394094
-21.597095 -13.640272 16.396215
-21.597319 -14.777111 16.397633
-21.597654 -15.914061 16.399759
-21.597988 -17.051044 16.401886
-21.598322 -18.188059 16.404007
-21.598658 -19.325113 16.406134
-21.598768 -20.46199 16.406841
-21.399563 11.888644 22.694334
-20.638575 10.319289 17.591036
-19.936769 8.8607874 12.884631
-19.269781 7.4938064 8.4116945
-18.645975 6.2153277 4.2283626
-18.061373 5.0170465 0.30793744
-17.512236 3.8916121 -3.3746562
-16.995581 2.8325965 -6.8394289
-16.508465 1.8342732 -10.106091
-16.087914 0.89377385 -12.926371
-15.920386 -1.4720176e-06 -14.049835
-18.987162 -1.0548424 6.5164232
-19.063616 -2.1181779 7.0291214
-19.140778 -3.1901295 7.5465837
-19.218473 -4.2707725 8.0676308
-19.296804 -5.3602223 8.5929241
-19.37587 -6.4586215 9.1231527
-19.455492 -7.5660257 9.6571064
-20.691271 -9.1961184 17.944418
-20.691593 -10.345797 17.946594
-20.691811 -11.49545 17.948048
-20.692135 -12.645189 17.950216
-20.692459 -13.794972 17.952393
-20.692783 -14.944789 17.954569
-20.693106 -16.094635 17.956739
-20.693323 -17.244436 17.958191
-20.693647 -18.394352 17.960365
-20.693974 -19.544308 17.962542
-20.834679 13.481264 27.124979
-20.068943 11.805259 21.687786
-19.360102 10.249471 16.654572
-18.705608 8.8026371 12.007255
-18.083778 7.4462633 7.5918612
-17.502043 6.1771936 3.4611704
-16.95649 4.9872022 -0.41258809
-16.44392 3.8691607 -4.0521555
-15.961499 2.8167355 -7.4776492
-15.506512 1.8242967 -10.708344
-15.105222 0.88854343 -13.557755
-14.949316 1.5359291e-06 -14.664787
-17.837112 -1.0492421 5.8403893
-17.908552 -2.1068859 6.3476486
-17.980652 -3.1730583 6.8596034
-18.053247 -4.2478189 7.3750744
-18.126431 -5.3313046 7.894731
-18.2003 -6.4236383 8.419241
-18.274683 -7.5248699 8.9474087
-19.765919 -9.3016071 19.536118
-19.766232 -10.464477 19.53834
-19.766544 -11.627379 19.540564
-19.766857 -12.790318 19.542789
-19.767067 -13.953222 19.54427
-19.76738 -15.116233 19.546494
-19.767693 -16.279276 19.548719
-19.768005 -17.442358 19.550943
-19.768318 -18.605478 19.553167
-19.465637 13.382631 26.04257
-18.75626 11.722661 20.690739
-18.102907 10.18289 15.761575
-17.490499 8.7452497 11.141315
-16.912809 7.3993568 6.7829766
-16.371984 6.1394973 2.7027619
-15.864675 4.9577131 -1.1245923
-15.387927 3.8469841 -4.7213712
-14.938934 2.8010523 -8.1087675
-14.515399 1.8144238 -11.304085
-14.139356 0.88371021 -14.141123
-13.989424 -3.5867238e-06 -15.272264
-16.699211 -1.0436974 5.1715026
-16.765738 -2.0957153 5.6734037
-16.832798 -3.156147 6.1793289
-16.900476 -4.2251177 6.6899209
-16.968618 -5.3026972 7.2040267
-17.037313 -6.3889947 7.7222896
-17.106651 -7.4841609 8.2453938
-18.819391 -9.4096975 21.167028
-18.819391 -10.585907 21.167034
-18.819693 -11.76231 21.169306
-18.819996 -12.938746 21.171579
-18.820297 -14.115225 21.173859
-18.820599 -15.291733 21.176132
-18.820799 -16.468203 21.177652
-18.821102 -17.644783 21.179924
-18.116484 13.285426 24.975883
-17.461912 11.641274 19.70829
-16.86194 10.117166 14.880104
-16.291212 8.6886482 10.287237
-15.756427 7.3530002 5.9836102
-15.255635 6.1022553 1.9535574
-14.785763 4.928586 -1.8276823
-14.343907 3.8250425 -5.3834605
-13.927694 2.7855394 -8.7328882
-13.535176 1.804689 -11.891626
-13.185781 0.87905246 -14.703351
-13.040403 4.3888413e-06 -15.873253
-15.573265 -1.0382185 4.509645
-15.634979 -2.0846655 5.0062771
-15.697184 -3.1394393 5.5068641
-15.759961 -4.2026572 6.012054
-15.823166 -5.2743902 6.5206947
-15.886881 -6.3547497 7.0334263
-15.951188 -7.4438863 7.5509224
-17.850899 -9.5204811 22.838619
-17.850801 -10.710485 22.837847
-17.850706 -11.900469 22.837063
-17.850899 -13.090656 22.838617
-17.851189 -14.280948 22.84095
-17.851477 -15.471282 22.843281
-17.851767 -16.66165 22.845613
-17.852057 -17.852055 22.847942
-17.421768 14.932948 29.399494
-16.786787 13.189624 23.92458
-16.185411 11.56101 18.739397
-15.63443 10.050708 13.988735
-15.107277 8.6327295 9.4435148
-14.614443 7.3072209 5.1942019
-14.152813 6.0654931 1.2139392
-13.719392 4.8997793 -2.5230932
-13.311728 3.8033528 -6.0380468
-12.927648 2.7702127 -9.3496685
-12.565723 1.7951039 -12.470251
-12.242252 0.87444967 -15.259274
-12.102179 3.2009768e-07 -16.467022
-14.45902 -1.0327888 3.8541172
-14.516085 -2.0737245 4.3461413
-14.573534 -3.1229002 4.8414865
-14.631439 -4.1804128 5.3407578
-14.689878 -5.2463808 5.844615
-14.748713 -6.320879 6.3519125
-14.808022 -7.4040117 6.8632855
-16.859421 -9.6339521 24.550835
-16.859236 -10.83808 24.549246
-16.859144 -12.042244 24.548443
-16.859053 -13.246396 24.547649
-16.859144 -14.450696 24.54845
-16.859329 -15.655089 24.550039
-16.859604 -16.859608 24.552425
-16.072515 14.836167 28.42601
-15.4763 13.095329 22.889891
-14.926316 11.481785 17.783045
-14.421705 9.9842577 13.097528
-13.938482 8.577529 8.610569
-13.48659 7.2620144 4.4145589
-13.063138 6.0291424 0.48263323
-12.665414 4.8713131 -3.2104254
-12.291244 3.7819238 -6.6847582
-11.938646 2.755075 -9.9587727
-11.606515 1.7856197 -13.042753
-11.308516 0.86988711 -15.809813
-11.174466 -1.1884534e-06 -17.054508
-13.356432 -1.0274199 3.2059875
-13.408871 -2.062901 3.6929035
-13.461659 -3.1065354 4.1830716
-13.514867 -4.1584177 4.6771212
-13.56856 -5.2186766 5.175683
-13.622617 -6.2873588 5.677619
-13.677104 -7.3645978 6.1835771
-15.844286 -9.7503309 26.306801
-15.84411 -10.968999 26.305172
-15.843935 -12.187644 26.303547
-15.84376 -13.406261 26.301914
-15.843585 -14.624845 26.300282
-15.843496 -15.843499 26.299471
-14.726835 14.726835 27.3262
-14.185482 13.003355 21.88061
-13.684502 11.403755 16.841139
-13.224846 9.9186363 12.217354
-12.784539 8.5230274 7.7882228
-12.372666 7.217392 3.6450882
-11.986447 5.993228 -0.23996776
-11.623612 4.8431687 -3.889811
-11.282145 3.760716 -7.324707
-10.960713 2.7401755 -10.558052
-10.657392 1.7762289 -13.609239
-10.384795 0.86539841 -16.351347
-10.266111 -5.8543009e-07 -17.545212
-12.265249 -1.0221044 2.5645616
-12.313096 -2.0521836 3.0458708
-12.361377 -3.0903451 3.5315301
-12.409979 -4.1366591 4.0204306
-12.458965 -5.191236 4.5131922
-12.508397 -6.2542005 5.010448
-12.558166 -7.3255954 5.5110626
-14.823015 -12.352512 28.293709
-14.803828 -13.570174 28.100702
-14.803662 -14.803665 28.099035
-13.400768 14.619024 26.241671
-12.912668 12.912667 20.885408
-12.462465 11.329515 15.945018
-12.043615 9.8538675 11.348683
-11.645226 8.4692516 6.9768682
-11.272295 7.1732793 2.8844452
-10.922509 5.9577317 -0.95399737
-10.593824 4.8153734 -4.5608902
-10.284431 3.7397945 -7.9560771
-9.9932966 2.725445 -11.150889
-9.7182322 1.7669482 -14.169374
-9.4719601 0.86108965 -16.871883
-9.367177 2.757449e-06 -18.021749
-11.185296 -1.0168457 1.9297379
-11.228704 -2.0415826 2.4061024
-11.272505 -3.0743191 2.8867462
-11.316595 -4.1151223 3.370573
-11.361031 -5.1641073 3.858211
-11.405871 -6.2213845 4.3502688
-11.451013 -7.2870069 4.8456378
-11.657486 12.823232 19.90399
-11.256295 11.256295 15.06118
-10.877766 9.7899914 10.49193
-10.520146 8.4161177 6.1750784
-10.185292 7.129703 2.1330354
-9.8711414 5.9226861 -1.6591028
-9.5757484 4.7878733 -5.2248058
-9.2980318 3.7192118 -8.5771484
-9.0362291 2.7108681 -11.737384
-8.7888002 1.7577618 -14.724113
-8.5681448 0.85681337 -17.387659
-8.4764671 2.4557417e-06 -18.494307
-10.116399 -1.0116395 1.3014193
-10.155457 -2.0310907 1.7729039
-10.194819 -3.0584426 2.2480404
-10.234535 -4.0938153 2.7274544
-10.274514 -5.1372576 3.2100387
-10.314855 -6.1889157 3.6969903
-10.355463 -7.2488232 4.1871896
-10.419461 12.7349 18.934608
-10.065615 11.184014 14.1887
-9.7268867 9.7268867 9.6455755
-9.4090967 8.3636379 5.3832932
-9.1114578 7.0866909 1.3912642
-8.8320322 5.8880243 -2.3564789
-8.5693464 4.7607508 -5.8796973
-8.3224297 3.6988556 -9.1914215
-8.0893755 2.6964607 -12.317204
-7.868988 1.7486632 -15.273103
-7.6732545 0.85258675 -17.898346
-7.5939393 1.5968875e-06 -18.962145
-9.0583887 -1.0064882 0.67949271
-9.0931845 -2.0207074 1.1461751
-9.1282482 -3.0427465 1.6164598
-9.1636257 -4.0727248 2.0909612
-9.1992359 -5.1106868 2.5685749
-9.2351236 -6.1567512 3.0499158
-9.2713366 -7.2110424 3.5356064
-9.1982336 12.647567 17.976309
-8.8890505 11.111314 13.311097
-8.5907478 9.6645889 8.8100643
-8.3118563 8.3118572 4.6019068
-8.0504665 7.0441561 0.65783405
-7.8050146 5.8537626 -3.0457387
-7.5745115 4.7340684 -6.5237627
-7.3574786 3.6787403 -9.7985411
-7.1525068 2.6821916 -12.89132
-6.9586468 1.7396621 -15.81645
-6.787158 0.84839553 -18.404015
-6.7194195 -1.9449376e-06 -19.426113
-8.0110655 -1.0013812 0.063321397
-8.0417175 -2.0104291 0.52583021
-8.0725689 -3.0272133 0.99133825
-8.103694 -4.0518446 1.4609864
-8.1350231 -5.084393 1.9337108
-8.1665964 -6.124949 2.4100988
-8.1984529 -7.1736455 2.8907781
-7.9935985 12.561373 17.030355
-7.726716 11.038169 12.428127
-7.46907 9.6030922 7.9851809
-7.2280855 8.2606697 3.8295548
-7.0021338 7.0021334 -0.066844128
-6.7899699 5.819973 -3.7254727
-6.5907645 4.7076926 -7.1606565
-6.4029408 3.6588249 -10.399555
-6.2255011 2.6680732 -13.459395
-6.0576539 1.7307571 -16.353811
-5.9106336 0.84437877 -18.889097
-5.8528523 2.2016313e-06 -19.885492
-6.9743423 -0.99633706 -0.54608524
-7.0008936 -2.0002544 -0.088241339
-7.0276146 -3.0118361 0.3725574
-7.0545411 -4.0311632 0.83688229
-7.081707 -5.0583625 1.3053429
-7.1090503 -6.093473 1.7768611
-7.1366048 -7.1366072 2.252033
-6.8068862 12.479296 16.129658
-6.5795851 10.965975 11.55671
-6.3616076 9.5424128 7.1713467
-6.1575813 8.2101078 3.066658
-5.9662356 6.9606071 -0.78292441
-5.7867522 5.7867527 -4.3938441
-5.6179447 4.6816201 -7.7900047
-5.4586835 3.6391225 -10.99409
-5.3082027 2.6541011 -14.02152
-5.1658168 1.721938 -16.886114
-5.0434895 0.84058136 -19.347139
-4.9940839 4.24326e-07 -20.341103
-5.9480209 -0.99133527 -1.1493804
-5.9705501 -1.9901849 -0.69611806
-5.9932237 -2.9966078 -0.23996697
-6.0160704 -4.0107136 0.21967158
-6.0391192 -5.0326004 0.68337965
-6.0623178 -6.0623174 1.1500955
-6.0856953 -7.099978 1.6204151
-5.6356683 12.398469 15.242739
-5.4473882 10.894779 10.697264
-5.2680278 9.4824524 6.3671246
-5.1001024 8.1601648 2.3130443
-4.9426184 6.9196682 -1.4889637
-4.7949443 5.7539349 -5.0541205
-4.6558194 4.6558223 -8.4129009
-4.5245399 3.6196346 -11.582264
-4.4004784 2.6402869 -14.577364
-4.2828889 1.7131557 -17.416229
-4.184073 0.8368156 -19.801859
-4.1430497 -2.1280289e-06 -20.792238
-4.9319444 -0.9863894 -1.7466501
-4.9505091 -1.9802034 -1.2984555
-4.9692369 -2.9815454 -0.84632295
-4.9880838 -3.990469 -0.39130664
-5.0070753 -5.0070777 0.067173347
-5.0262346 -6.0314784 0.52970529
-5.045517 -7.0637264 0.99524552
-4.4795456 12.318753 14.367938
-4.3297772 10.824442 9.8482714
-4.1881056 9.4232359 5.5729513
-4.0554299 8.1108608 1.5691048
-3.9310951 6.8794127 -2.1830273
-3.8143063 5.7214613 -5.7074475
-3.7042406 4.6303029 -9.028966
-3.6003642 3.600364 -12.163723
-3.5020428 2.6265328 -15.130818
-3.4089096 1.7044542 -17.941366
-3.332325 0.83308178 -20.252514
-3.2996116 -2.505016e-06 -21.239723
-3.9259427 -0.98148549 -2.3385184
-3.9406648 -1.9703293 -1.8942443
-3.9554975 -2.9666228 -1.4466165
-3.9704244 -3.9704216 -0.99615765
-3.9854648 -4.9818287 -0.54227662
-4.0006375 -6.0009561 -0.084398896
-4.0159082 -7.0278354 0.3764236
-3.3381953 12.240055 13.504299
-3.2265036 10.755014 9.0101624
-3.1216011 9.3648033 4.7892184
-3.0233192 8.0621862 0.83465499
-2.9312844 6.8396678 -2.8685501
-2.8446746 5.6893525 -6.3534451
-2.7630365 4.6050596 -9.6383123
-2.6858878 3.5811861 -12.74254
-2.6128993 2.6129012 -15.67937
-2.5437727 1.6958491 -18.460806
-2.488143 0.82937694 -20.699169
-2.463696 -2.3855698e-06 -21.682844
-2.9299059 -0.97663534 -2.9240048
-2.9408383 -1.9605603 -2.4841158
-2.9518394 -2.9518392 -2.0414689
-2.9629366 -3.9505804 -1.5949541
-2.9741039 -4.9568396 -1.1456053
-2.9853561 -5.9707136 -0.69286048
-2.9967072 -6.9923143 -0.23613398
-2.2111363 12.161251 12.639573
-2.1373036 10.686517 8.1833715
-2.0682325 9.3070478 4.0145617
-2.0036047 8.0144196 0.11392928
-1.9429533 6.8003345 -3.5467048
-1.8858662 5.6576018 -6.992229
-1.8319997 4.5800004 -10.243359
-1.7810961 3.5621934 -13.315659
-1.732945 2.5994155 -16.221836
-1.6873221 1.6873219 -18.975416
-1.651427 0.82571542 -21.141878
-1.6352235 1.1759365e-06 -22.11985
-1.9436567 -0.97182912 -3.5042572
-1.950882 -1.9508834 -3.0681729
-1.9581437 -2.9372163 -2.6298831
-1.9654685 -3.9309378 -2.1877911
-1.9728395 -4.9321003 -1.7429174
-1.9802661 -5.9407978 -1.2946868
-1.9877576 -6.9571538 -0.84253258
-1.1360089 13.632113 16.314087
-1.0983263 12.081585 11.765392
-1.061884 10.618839 7.3664227
-1.0277871 9.250082 3.2505701
-0.99589741 7.9671779 -0.59885722
-0.96592289 6.7614598 -4.2171059
-0.937684 5.6261072 -7.6258497
-0.91103041 4.5551524 -10.843216
-0.88584673 3.543385 -13.883158
-0.86202121 2.5860639 -16.75915
-0.8394534 1.6789067 -19.483328
-0.82207835 0.82207412 -21.580681
-0.81405944 -5.6504035e-07 -22.548656
-0.96706849 -0.96706933 -4.0788226
-0.97065002 -1.9412997 -3.6464939
-0.97424531 -2.9227383 -3.2125046
-0.97786731 -3.9114664 -2.7752957
-0.98152059 -4.9076033 -2.3342969
-0.98519701 -5.9111814 -1.8905164
-0.98890543 -6.9223409 -1.4428642
-2.1767291e-23 13.543777 15.425489
-1.3584378e-24 12.003027 10.90325
-1.0446029e-23 10.552011 6.5597539
-1.2839525e-23 9.1942015 2.5010121
2.6964449e-25 7.9204931 -1.3032867
3.7209677e-24 6.7229381 -4.8814068
-1.3915964e-24 5.5948381 -8.2548351
4.3377126e-24 4.5305538 -11.437047
-9.9796916e-24 3.5247941 -14.444275
8.1481853e-24 2.5728533 -17.29056
-2.538692e-23 1.6705763 -19.986204
7.4093603e-25 0.81847274 -22.015642
1.2740571e-23 -2.6309324e-06 -22.973745
-3.0485107e-23 -0.96235257 -4.6477876
3.9288993e-24 -1.9318031 -4.2196636
-4.0466569e-24 -2.9083989 -3.7894073
-8.3040658e-24 -3.8922126 -3.3564861
7.6039218e-24 -4.8833504 -2.9198229
-1.2998893e-23 -5.8818564 -2.4804327
-2.6075046e-23 -6.8878407 -2.0377507
1.1213752 13.456506 14.547651
1.0841287 11.925418 10.051594
1.0486172 10.486172 5.7649841
1.0154381 9.1389427 1.7598957
0.98428088 7.8742476 -2.0011077
0.95495385 6.6846786 -5.5411839
0.92732406 5.5639443 -8.8764086
0.90124434 4.5062237 -12.024508
0.8765949 3.5063825 -14.999952
0.85325795 2.559773 -17.816973
0.83116269 1.6623223 -20.484106
0.81498158 0.81498033 -22.437336
0.80730402 -1.9856634e-07 -23.364101
0.95768732 -0.95768398 -5.2112331
0.96119958 -1.9223979 -4.7872624
0.96473348 -2.8942022 -4.3606815
0.9682849 -3.8731375 -3.9319823
0.97186691 -4.8593316 -3.4996002
0.9754712 -5.8528237 -3.0645251
0.97910231 -6.8537169 -2.6262107
2.2284033 13.37042 13.681723
2.1543281 11.848805 9.210887
2.0842986 10.421495 4.9842405
2.0187249 9.0842609 1.0265173
1.9570906 7.8283591 -2.6934464
1.8991001 6.6468515 -6.19349
1.8444549 5.5333662 -9.4916162
1.7928667 4.4821649 -12.605241
1.7440857 3.4881711 -15.549437
1.6978822 2.5468266 -18.33806
1.6541569 1.6541531 -20.977116
1.6233766 0.81168753 -22.834867
1.6123967 -1.4419334e-06 -23.497564
1.9061294 -0.95306516 -5.769237
1.9130861 -1.9130859 -5.3493586
1.9200939 -2.8801415 -4.9264026
1.9271277 -3.854254 -4.5018702
1.9342135 -4.8355331 -4.0742083
1.94136 -5.824079 -3.6428797
1.9485509 -6.8199296 -3.208863
3.3213582 13.285433 12.826805
3.210912 11.773345 8.3828001
3.1072676 10.357562 4.2124796
3.0099819 9.0299482 0.29799438
2.9186156 7.7829781 -3.3782911
2.832633 6.6094804 -6.8379683
2.7515714 5.5031443 -10.099632
2.6750095 4.4583492 -13.180253
2.602603 3.4701383 -16.09366
2.534013 2.5340123 -18.85351
2.4691024 1.6460681 -21.465315
2.425256 0.80842239 -23.229553
2.4089973 3.3090071e-06 -23.883759
2.8454592 -0.94848436 -6.3218822
2.8557942 -1.9038597 -5.9060359
2.8662045 -2.8662024 -5.4871593
2.8766658 -3.8355522 -5.0662203
2.8871913 -4.8119845 -4.6427107
2.8978069 -5.7956114 -4.215579
2.9084878 -6.7864714 -3.7858031
4.4002638 13.200793 11.975399
4.2542458 11.699176 7.5689096
4.1176076 10.294021 3.4454789
3.9894731 8.9763174 -0.42131636
3.8690729 7.7381477 -4.0547152
3.7557108 6.572494 -7.4757152
3.6488178 5.4732251 -10.701502
3.5478408 4.4348021 -13.74875
3.4523025 3.4523063 -16.631876
3.3617873 2.5213428 -19.363409
3.2761168 1.6380581 -21.948748
3.2210896 0.80527234 -23.609339
3.1979871 -1.6048183e-06 -24.306517
3.7758241 -0.94395375 -6.8687534
3.7894559 -1.8947299 -6.4573674
3.8032033 -2.8524029 -6.0425086
3.8170342 -3.8170321 -5.6251225
3.8309326 -4.7886658 -5.2056956
3.8449328 -5.7674012 -4.7832098
3.8590522 -6.7533431 -4.3571091
5.4645329 13.11488 11.111186
5.2843394 11.625548 6.7609243
5.1156507 10.231301 2.6884086
4.9573755 8.923275 -1.1326718
4.8086224 7.6937971 -4.7239065
4.6685357 6.5359497 -8.1058979
4.5363803 5.4436579 -11.296417
4.4114828 4.4114842 -14.311701
4.2932959 3.4346368 -17.164988
4.181355 2.5088162 -19.86747
4.075315 1.6301255 -22.427504
4.0110893 0.8022179 -23.978065
3.9798946 -1.0272207e-06 -24.731159
4.6973228 -0.93946266 -7.4109097
4.714221 -1.8856903 -7.0029507
4.7312212 -2.838732 -6.5925322
4.7483644 -3.7986908 -6.1786528
4.7655706 -4.7655735 -5.7632589
4.7829022 -5.7394862 -5.3448405
4.8003807 -6.7205334 -4.9228625
4.8179669 -7.7087483 -4.4982996
6.5150385 13.030078 10.258137
6.301518 11.552786 5.9624414
6.1015778 10.169293 1.9399471
5.9139342 8.8709021 -1.8351446
5.7374887 7.6499839 -5.3849616
5.5712423 6.4997807 -8.7295761
5.4143815 5.4143848 -11.885379
5.2661114 4.3884234 -14.868332
5.1257458 3.4171622 -17.692272
4.9928193 2.4964118 -20.366549
4.8668103 1.622269 -22.901653
4.795135 0.79918677 -24.343651
4.7682366 -1.9783789e-07 -24.884811
5.6100945 -0.93501467 -7.9479313
5.6301804 -1.876727 -7.5438299
5.6504107 -2.8252046 -7.1368284
5.6707625 -3.7805066 -6.7273855
5.691237 -4.7426958 -6.3154731
5.7118354 -5.7118344 -5.901063
5.732583 -6.6880131 -5.4836559
5.7535076 -7.6713428 -5.0626893
7.5520096 12.946305 9.4154234
7.306078 11.480982 5.1744843
7.0756593 10.108085 1.2010584
6.8592987 8.8190975 -2.5299418
6.6558065 7.606636 -6.0390387
6.4640403 6.4640446 -9.3459282
6.2830157 5.3854446 -12.467598
6.1118283 4.365591 -15.419605
5.9497457 3.3998528 -18.214617
5.7962995 2.4841297 -20.860716
5.6508384 1.6145257 -23.369104
5.5732832 0.79618174 -24.706486
5.5466843 -4.0463289e-07 -25.165169
6.5142622 -0.93061197 -8.479887
6.5374746 -1.8678473 -8.0796003
6.5608535 -2.8117936 -7.6764464
6.5844007 -3.7625122 -7.2703972
6.6080599 -4.720046 -6.8623996
6.6318617 -5.6844511 -6.4519567
6.6558356 -6.6558352 -6.0385461
6.6800122 -7.6342978 -5.6216297
8.5752716 12.86291 8.5765409
8.2981892 11.410013 4.395679
8.0380478 10.047562 0.47045135
7.7937207 8.7679377 -3.2161486
7.563777 7.5637803 -6.6857405
7.347043 6.4286671 -9.9560003
7.1423841 5.3567915 -13.044067
6.9488177 4.3430123 -15.964752
6.7654667 3.3827329 -18.731306
6.5919123 2.4719694 -21.350042
6.4279075 1.6069751 -23.824677
6.3456001 0.79320049 -25.06661
6.3205957 1.3182491e-06 -25.443893
7.4099464 -0.92624354 -9.0068588
7.4362268 -1.8590583 -8.610321
7.4626942 -2.7985117 -8.2109613
7.4893503 -3.7446754 -7.8087449
7.5161333 -4.6975865 -7.4046168
7.5431094 -5.657331 -6.9975863
7.5702467 -6.6239624 -6.5881195
7.5976129 -7.597609 -6.1751966
9.5851574 12.78021 7.744669
9.2781525 11.339965 3.6270211
8.9889793 9.9877558 -0.25145501
8.7173252 8.7173281 -3.8949571
8.4616089 7.521431 -7.3247042
8.2204676 6.3936996 -10.558969
7.9926567 5.3284354 -13.614427
7.7771626 4.3206429 -16.504696
7.5729833 3.3657708 -19.243202
7.3797736 2.4599218 -21.834595
7.1977715 1.5995063 -24.275665
7.1121249 0.79023588 -25.424385
8.2681828 1.9908093e-06 -9.9189911
8.297267 -0.92191643 -9.5289049
8.3265562 -1.8503441 -9.1360712
8.3560534 -2.7853529 -8.7404461
8.3857594 -3.7270038 -8.3420115
8.4156418 -4.6753583 -7.941216
8.4457026 -5.6304693 -7.5380368
8.4759426 -6.5923972 -7.1324553
8.5064001 -7.561244 -6.7239585
10.582141 12.69857 6.9234295
10.24611 11.270721 2.867173
9.9287024 9.9287014 -0.96427274
9.6303701 8.6673298 -4.5654626
9.3494034 7.4795218 -7.957036
9.084404 6.3590846 -11.155872
8.834012 5.3004074 -14.178357
8.5970526 4.2985263 -17.038702
8.3725386 3.349016 -19.748844
8.1599951 2.4479992 -22.314465
7.9605088 1.5921028 -24.722477
7.8729711 0.78729767 -25.779156
9.1443233 3.5990342e-07 -10.43257
9.1763391 -0.91763711 -10.046098
9.208581 -1.8417165 -9.6569147
9.2410498 -2.7723148 -9.2649784
9.2737484 -3.7094998 -8.8702765
9.3066788 -4.6533403 -8.4727621
9.3397646 -5.6038604 -8.0733824
9.3730469 -6.561132 -7.671627
9.4065676 -7.5252547 -7.2670031
11.566467 12.617966 6.1126084
11.202371 11.202373 2.1171117
10.857331 9.8703022 -1.6692497
10.532957 8.6178751 -5.2288294
10.227403 7.4381132 -8.5818892
9.9390774 6.3248663 -11.745893
9.666523 5.2726483 -14.736815
9.408555 4.2766128 -17.567677
9.1642056 3.3324404 -20.249094
8.9326887 2.4361875 -22.789692
8.7161865 1.5847652 -25.165516
8.6281786 0.78437996 -26.131294
10.012427 -2.7222336e-06 -10.940966
10.047321 -0.91339338 -10.558051
10.082417 -1.833165 -10.17292
10.117801 -2.7593987 -9.7846251
10.153435 -3.692162 -9.3935938
10.18932 -4.6315079 -8.9998055
10.225372 -5.577477 -8.6041622
10.261683 -6.5301642 -8.2057114
10.298207 -7.4896011 -7.8049054
12.538377 12.538377 5.312016
12.147046 11.134792 1.3755289
11.77515 9.8126297 -2.3654535
11.42535 8.5690155 -5.8841696
11.095686 7.3971267 -9.2003317
10.784558 6.2909918 -12.33004
10.490401 5.2452002 -15.289033
10.211865 4.2549434 -18.090885
9.9480753 3.3160257 -20.744413
9.6988516 2.4247139 -23.251404
9.4655733 1.5775957 -25.598007
9.3778105 0.78148627 -26.480831
10.872526 8.9222453e-07 -11.445152
10.910242 -0.90919018 -11.065746
10.948222 -1.8247019 -10.68371
10.986422 -2.7466035 -10.299451
11.024934 -3.674979 -9.9120464
11.063717 -4.6098824 -9.5219164
11.102729 -5.551363 -9.1295023
11.141968 -6.4994798 -8.7347755
11.181439 -7.4542961 -8.3377295
13.498103 12.459785 4.5214624
13.080452 11.068073 0.64340091
12.682249 9.7555752 -3.0540826
12.307629 8.5206652 -6.5326133
11.954504 7.3566184 -9.8115215
11.621078 6.2575049 -12.907533
11.305701 5.2180147 -15.835938
11.007033 4.2334728 -18.609209
10.72426 3.2997713 -21.234873
10.457946 2.413373 -23.707727
10.217142 1.5718668 -25.943693
10.121892 0.77860743 -26.828131
11.724768 -5.0823314e-07 -11.944723
11.765254 -0.90502065 -11.568789
11.806022 -1.816309 -11.190247
11.847073 -2.7339389 -10.809075
11.88841 -3.6579733 -10.425236
11.929987 -4.5884566 -10.039178
11.971906 -5.525497 -9.6499357
12.013969 -6.469059 -9.2593641
12.05638 -7.4193139 -8.8655586
14.445871 12.382175 3.740761
14.002677 11.002106 -0.080560282
13.578923 9.6992321 -3.7342472
13.180063 8.4729004 -7.1732931
12.803914 7.3165226 -10.416528
12.448689 6.2243443 -13.47934
12.112642 5.1911316 -16.376797
11.794262 4.2122355 -19.121937
11.492874 3.2836747 -21.720551
11.209971 2.4021344 -24.159794
10.962843 1.5661192 -26.290588
10.860744 0.77576548 -27.170908
12.569259 1.2381138e-06 -12.439766
12.612465 -0.90089226 -12.067241
12.655966 -1.8079944 -11.692148
12.699771 -2.7213802 -11.314459
12.743879 -3.6411076 -10.934151
12.788295 -4.5672498 -10.551192
12.832969 -5.4998412 -10.166015
12.877901 -6.438951 -9.7785959
12.923149 -7.3846531 -9.3884583
15.381907 12.305527 2.9697213
14.913972 10.936915 -0.79593813
14.465235 9.6434898 -4.4071045
14.042711 8.4256277 -7.8073082
13.644171 7.2768927 -11.01451
13.267628 6.1915603 -14.044689
12.911261 5.1645031 -16.912525
12.57363 4.1912112 -19.629553
12.254027 3.2677388 -22.201513
11.954985 2.3909972 -24.608025
11.703112 1.5604155 -26.634949
11.594512 0.77296519 -27.508896
13.406105 -2.0705107e-07 -12.930314
13.451978 -0.89679921 -12.561163
13.498164 -1.7997527 -12.189479
13.544669 -2.7089367 -11.815229
13.591496 -3.6243992 -11.4384
13.638649 -4.5462151 -11.05895
13.686129 -5.4744492 -10.676863
13.733827 -6.409121 -10.293016
13.781799 -7.3502917 -9.9069595
16.841408 13.683646 6.2442946
16.306425 12.229819 2.2081645
15.814106 10.872201 -1.5061054
15.341483 9.5884247 -5.071763
14.895786 8.3788776 -8.4342852
14.475315 7.237658 -11.606498
14.077929 6.1590948 -14.604548
13.701779 5.1381712 -17.442379
13.345409 4.1704431 -20.130981
13.008693 3.2521739 -22.671316
12.693166 2.3799667 -25.051769
12.438533 1.5548158 -26.972836
12.324251 0.77026534 -27.835024
14.23541 -7.8877144e-07 -13.416445
14.2839 -0.89273983 -13.050622
14.332721 -1.7915885 -12.682294
14.381876 -2.6966038 -12.31144
14.43137 -3.6078401 -11.938037
14.481207 -4.5253749 -11.562057
14.531388 -5.4492717 -11.183459
14.581858 -6.3795609 -10.802697
14.632558 -7.3162785 -10.420194
17.783886 13.599442 5.4624476
17.219637 12.155035 1.4559251
16.702829 10.807712 -2.2137365
16.207712 9.533946 -5.7293787
15.739513 8.3326874 -9.0538797
15.297607 7.1988711 -12.191694
14.879778 6.1269665 -15.158548
14.484221 5.1120815 -17.967253
14.109576 4.1498771 -20.627459
13.756706 3.2368708 -23.133064
13.424569 2.3690403 -25.491446
13.17398 1.5498773 -27.270782
13.053596 0.76785576 -28.125589
15.057275 -7.7830407e-07 -13.898213
15.108332 -0.88872582 -13.53567
15.159739 -1.7834979 -13.170661
15.211493 -2.6843793 -12.803156
15.263605 -3.5914357 -12.43313
15.316074 -4.5047283 -12.060565
15.368907 -5.4243202 -11.685423
15.422104 -6.3502798 -11.307691
15.475478 -7.2825766 -10.928702
18.714926 13.516336 4.6907468
18.122992 12.081995 0.72116703
17.581074 10.743988 -2.9130251
17.064228 9.4801254 -6.3790722
16.573921 8.2869606 -9.66714
16.111069 7.1604781 -12.771098
15.673365 6.0951982 -15.706399
15.258816 5.0862741 -18.486423
14.866244 4.1295128 -21.11907
14.497662 3.2217009 -23.590843
14.149236 2.3582063 -25.927435
13.904772 1.5449736 -27.566847
13.785873 0.76588076 -28.364202
15.871861 5.5682688e-07 -14.375252
15.925377 -0.88474274 -14.016376
15.979319 -1.7754778 -13.654631
16.033627 -2.672271 -13.290427
16.088306 -3.5751817 -12.923743
16.143358 -4.4842658 -12.554549
16.198792 -5.3995943 -12.18282
16.254604 -6.321238 -11.808525
16.310669 -7.2491889 -11.432545
19.63456 13.434175 3.9278436
19.016937 12.010699 0.0039683557
18.44902 10.681012 -3.6041155
17.911049 9.4268694 -7.0219574
17.399292 8.2417717 -10.273252
16.915966 7.1225123 -13.343913
16.458702 6.0637326 -16.249001
16.025568 5.0607061 -19.000774
15.615523 4.1093512 -21.605875
15.231759 3.206687 -24.043999
14.866776 2.3473845 -26.362816
14.630954 1.5401019 -27.861042
14.515952 0.76399755 -28.591667
16.679144 -2.493249e-06 -14.848476
16.735199 -0.88079584 -14.492364
16.79163 -1.7675388 -14.133846
16.848375 -2.6602697 -13.773323
16.905575 -3.5590668 -13.409936
16.963161 -4.4639897 -13.044064
17.021145 -5.3750978 -12.675698
17.079523 -6.292459 -12.304793
17.138235 -7.2161021 -11.931788
20.543083 13.353002 3.1741626
19.900394 11.940238 -0.70481133
19.306852 10.618769 -4.2871504
18.748489 9.3742447 -7.6571717
18.215635 8.1970358 -10.873237
17.712303 7.0849228 -13.911121
17.236038 6.0326147 -16.785627
16.784716 5.0354161 -19.509596
16.358128 4.0895338 -22.084286
15.959045 3.1918063 -24.492954
15.577651 2.3366456 -26.794882
15.352513 1.5352508 -28.153708
15.252954 0.76264709 -28.754602
17.479282 -1.8948608e-06 -15.317514
17.537764 -0.8768872 -14.964546
17.596638 -1.7596623 -14.609214
17.655909 -2.6483865 -14.251477
17.715509 -3.5431011 -13.891759
17.775585 -4.4438949 -13.529173
17.836069 -5.3508215 -13.164117
17.896967 -6.263937 -12.79657
17.958281 -7.1833129 -12.4265
21.440792 13.272873 2.4300959
20.77364 11.870653 -1.4047815
20.154745 10.557245 -4.9622712
19.576548 9.3221684 -8.28582
19.023241 8.1528196 -11.466305
18.500351 7.0477543 -14.471945
18.005367 6.0017891 -17.317171
17.536381 5.0103979 -20.012974
17.094742 4.0701761 -22.551559
16.679556 3.1770594 -24.93811
16.282051 2.3260062 -27.223017
16.069599 1.5304372 -28.444216
15.988131 0.76134169 -28.912508
18.272367 -2.5724285e-07 -15.782422
18.333233 -0.8730101 -15.432565
18.394505 -1.7518568 -15.080365
18.456186 -2.6365974 -14.725804
18.518284 -3.5272887 -14.36886
18.580801 -4.4240026 -14.009501
18.643665 -5.3267617 -13.648151
18.707033 -6.2356758 -13.283903
18.770834 -7.1507955 -12.917172
22.32769 13.193634 1.6943481
21.636671 11.801823 -2.0971818
20.992868 10.496435 -5.6296139
20.395544 9.2707024 -8.9070444
19.822102 8.1090403 -12.053445
19.280098 7.010942 -15.027329
18.766947 5.9713001 -17.842909
18.280748 4.9856544 -20.510611
17.82435 4.050992 -23.014795
17.392872 3.1623421 -25.382248
16.980005 2.3154542 -27.647593
16.782202 1.525654 -28.732906
18.152082 0.82509196 -21.216583
18.20701 -4.915351e-07 -20.915192
18.272678 -0.83057624 -20.55489
18.339792 -1.6672547 -20.186642
18.407404 -2.5101018 -19.815678
18.475443 -3.3591716 -19.442356
18.544058 -4.214561 -19.06587
18.643347 -5.0845528 -18.521082
18.752705 -5.9667711 -17.921055
19.576061 -7.1185708 -13.40342
23.204062 13.115338 0.96732992
22.489748 11.733785 -2.781589
21.82205 10.43663 -6.2858591
21.205458 9.2197666 -9.5219135
20.612511 8.0657673 -12.633878
20.051821 6.9745436 -15.576531
19.520752 5.9411025 -18.363741
19.017803 4.9611664 -21.003363
18.54718 4.0319986 -23.473328
18.099354 3.1477125 -25.823652
17.669128 2.3046682 -28.081604
17.490971 1.5209531 -29.01663
18.970137 0.82478946 -21.253529
19.016159 -2.4568103e-06 -21.011986
19.062477 -0.82879949 -20.7689
19.10895 -1.6616473 -20.524998
19.166815 -2.5000179 -20.221302
19.225252 -3.3435264 -19.91461
19.284193 -4.1922193 -19.605274
19.343496 -5.0461297 -19.294035
19.403164 -5.9053078 -18.980879
19.464849 -6.7703843 -18.657139
19.538378 -7.6454487 -18.271236
19.612541 -8.5271893 -17.882002
19.686506 -9.4152851 -17.49382
19.761028 -10.310102 -17.102699
19.844593 -11.216509 -16.664125
19.96147 -12.150463 -16.050722
24.070202 13.038026 0.24944274
23.333151 11.666578 -3.4576359
22.644262 10.37862 -6.9224701
22.006247 9.1692696 -10.131452
21.394444 8.0229177 -13.208577
20.815491 6.938498 -16.120478
20.267048 5.9112225 -18.878927
19.747873 4.9369664 -21.490189
19.263266 4.0131831 -23.92758
18.799397 3.1332316 -26.260656
18.360151 2.2950206 -28.469896
18.195381 1.5162801 -29.298609
19.980869 0.83253568 -20.318302
19.982229 3.7724428e-06 -20.311466
20.001974 -0.83341926 -20.21216
20.031015 -1.6692523 -20.066088
20.060144 -2.5075147 -19.919596
20.089355 -3.3482282 -19.772665
20.137669 -4.1953483 -19.529671
20.186752 -5.0466857 -19.282791
20.2367 -5.9023681 -19.031582
20.28697 -6.7623196 -18.778736
20.337414 -7.626534 -18.525021
20.390783 -8.4961615 -18.25659
20.454092 -9.3747883 -17.938185
20.517792 -10.258894 -17.617794
20.58189 -11.148527 -17.295401
20.646551 -12.043824 -16.970173
20.711704 -12.944815 -16.642492
20.782661 -13.855104 -16.285608
20.862999 -14.777956 -15.881536
20.94396 -15.707969 -15.474333
21.025553 -16.645233 -15.063952
21.107279 -17.589399 -14.65291
21.216953 -18.564835 -14.101281
21.345007 -19.566254 -13.45723
21.519394 -22.416035 -12.580125
24.926075 12.961559 -0.46057352
24.16684 11.600085 -4.1264935
23.457285 10.321206 -7.5525208
22.796988 9.1187954 -10.74073
22.168201 7.9805508 -13.776774
21.571308 6.902822 -16.658825
21.005798 5.8816252 -19.389353
20.472685 4.9134464 -21.963461
19.971899 3.99438 -24.381458
19.493027 3.1188848 -26.693655
19.065399 2.2878463 -28.758425
18.895546 1.5116451 -29.578552
21.287884 0.85151434 -18.027309
21.287474 -3.2421678e-06 -18.029301
21.287062 -0.8514837 -18.03129
21.286734 -1.7029355 -18.032883
21.28632 -2.5543563 -18.034868
21.28591 -3.4057436 -18.036856
21.285498 -4.2571001 -18.038845
21.286898 -5.1088562 -18.032082
21.288708 -5.9608378 -18.023336
21.290604 -6.8129954 -18.014191
21.307911 -7.6708469 -17.930616
21.338974 -8.5355892 -17.780634
21.370625 -9.4030762 -17.627808
21.402454 -10.273175 -17.474133
21.454763 -11.156477 -17.221558
21.508085 -12.044524 -16.96409
21.561592 -12.936953 -16.705748
21.615871 -13.834154 -16.443659
21.670853 -14.736179 -16.178183
21.732204 -15.647185 -15.881953
21.801243 -16.568943 -15.548605
21.870722 -17.496578 -15.213129
21.940556 -18.430071 -14.875934
22.010927 -19.369619 -14.536156
22.081751 -20.315214 -14.194188
22.163023 -21.276503 -13.801775
22.250832 -22.250834 -13.377798
26.583347 14.314113 2.6046684
25.771973 12.885986 -1.162313
24.991081 11.534346 -4.7877717
24.261364 10.264421 -8.1756439
23.579069 9.0688725 -11.34333
22.933737 7.9386001 -14.339432
22.319479 6.8675313 -17.191259
21.737267 5.8523397 -19.894304
21.190697 4.8901596 -22.431875
20.673775 3.9757295 -24.8318
20.180265 3.1046543 -27.123037
19.766254 2.2807236 -29.045162
19.591372 1.5070287 -29.857096
22.637873 0.87068719 -15.713046
22.639576 2.3771772e-06 -15.705151
22.641455 -0.87082195 -15.69642
22.643246 -1.7417912 -15.6881
22.645126 -2.6129 -15.679368
22.646917 -3.4841411 -15.67105
22.648802 -4.3555374 -15.662317
22.650593 -5.2270589 -15.653995
22.652388 -6.0987196 -15.64567
22.652029 -6.9698572 -15.647333
22.651579 -7.8409319 -15.649411
22.651131 -8.7119722 -15.651492
22.650682 -9.582984 -15.653576
22.652029 -10.454783 -15.647334
22.653999 -11.326998 -15.638175
22.656061 -12.19942 -15.628601
22.658125 -13.071996 -15.619021
22.660189 -13.944733 -15.609441
22.674551 -14.825669 -15.542765
22.708374 -15.721181 -15.385738
22.742207 -16.619308 -15.228653
22.776686 -17.520529 -15.068584
22.833288 -18.442272 -14.805783
22.891365 -19.369619 -14.536156
22.949644 -20.301607 -14.26558
23.008316 -21.238443 -13.993193
23.067286 -22.180086 -13.719404
27.458494 14.237739 1.9461855
26.607702 12.811116 -1.8575133
25.806143 11.469397 -5.4410906
25.056747 10.208306 -8.7914724
24.352636 9.0194998 -11.939378
23.691362 7.8971186 -14.895782
23.05995 6.8325782 -17.718683
22.461744 5.8234172 -20.393116
21.901939 4.8670983 -22.895876
21.369051 3.957232 -25.278296
20.86133 3.0905704 -27.548191
20.462759 2.2736371 -29.330114
20.28303 1.502447 -30.133631
24.049856 0.89073348 -13.293036
24.051607 1.9858364e-06 -13.285211
24.053457 -0.89087164 -13.276938
24.055208 -1.781866 -13.26911
24.05706 -2.6730065 -13.260837
24.059103 -3.5643098 -13.251698
24.06105 -4.4557486 -13.24299
24.063097 -5.3473577 -13.233842
24.065046 -6.2390847 -13.225132
24.066994 -7.1309648 -13.216417
24.06904 -8.0230103 -13.207273
24.07099 -8.9151773 -13.198559
24.073036 -9.8075342 -13.189405
24.074989 -10.699996 -13.180685
24.077034 -11.592649 -13.171526
24.078987 -12.485403 -13.162808
24.080936 -13.378296 -13.154087
24.08123 -14.270359 -13.152779
24.08074 -15.161948 -13.154961
24.08201 -16.054674 -13.149288
24.084156 -16.948107 -13.139691
24.086401 -17.841782 -13.129656
24.088646 -18.735617 -13.119618
24.090893 -19.629616 -13.109584
24.093138 -20.523785 -13.099542
24.095287 -21.418032 -13.089938
24.007217 -22.228903 -13.48368
28.305496 14.15275 1.213377
27.433531 12.737 -2.5457335
26.611963 11.405128 -6.0875978
25.843372 10.152753 -9.4010715
25.117929 8.9706907 -12.528525
24.441013 7.8560395 -15.446768
23.793015 6.7980056 -18.240364
23.179096 5.7947764 -20.887024
22.605591 4.8440571 -23.359453
22.057966 3.9389224 -25.72032
21.536243 3.0766037 -27.969507
21.155096 2.2666171 -29.61268
20.970427 1.497889 -30.408804
25.528397 0.91173261 -10.758962
25.530405 1.880334e-07 -10.750298
25.532309 -0.91186875 -10.742095
25.534212 -1.8238744 -10.733887
25.536221 -2.736022 -10.725224
25.538126 -3.6483033 -10.717009
25.540031 -4.56072 -10.7088
25.542042 -5.4732924 -10.700132
25.544264 -6.3860664 -10.690546
25.546383 -7.298964 -10.681425
25.5485 -8.212019 -10.672291
25.550724 -9.1252594 -10.662704
25.552841 -10.038614 -10.653577
25.555065 -10.952168 -10.643985
25.557186 -11.865835 -10.634851
25.559408 -12.779708 -10.625256
25.561529 -13.693675 -10.616118
25.56365 -14.607799 -10.606978
25.565876 -15.522137 -10.597382
25.567995 -16.436573 -10.588235
25.570225 -17.351225 -10.578633
25.572346 -18.265965 -10.569485
25.574574 -19.180931 -10.559878
25.576696 -20.095978 -10.550731
29.142445 14.068765 0.48927975
28.249989 12.663788 -3.2255132
27.408802 11.341573 -6.7268925
26.621483 10.097804 -10.00407
25.878233 8.9235325 -13.097796
25.183008 7.8154187 -15.991634
24.5186 6.7637529 -18.757185
23.891392 5.7668862 -21.367907
23.302441 4.8211951 -23.819368
22.740536 3.9207826 -26.158272
22.205011 3.0627584 -28.387352
21.84384 2.2597079 -29.890703
21.659466 1.4937574 -30.65815
27.078424 0.93373525 -8.1020689
27.080492 -3.0765104e-06 -8.0934639
27.08256 -0.93388098 -8.084857
27.084743 -1.8679169 -8.0757694
27.086811 -2.8020837 -8.0671635
27.088881 -3.7363992 -8.0585489
27.091064 -4.6708713 -8.0494652
27.093134 -5.6054754 -8.0408506
27.095203 -6.5402188 -8.0322342
27.097387 -7.475142 -8.0231409
27.099461 -8.4101744 -8.0145254
27.101759 -9.345437 -8.0049419
27.104176 -10.280892 -7.9948897
27.106478 -11.216474 -7.9853039
27.108894 -12.152263 -7.9752474
27.111198 -13.088167 -7.965661
27.113615 -14.024283 -7.955596
27.115919 -14.960505 -7.9460168
27.118221 -15.896889 -7.9364276
27.120642 -16.833502 -7.9263582
27.122946 -17.770205 -7.9167657
27.125364 -18.707146 -7.9066896
27.12767 -19.644175 -7.897099
29.969519 13.985777 -0.2262872
29.056984 12.591359 -3.8980396
28.196934 11.278772 -7.3586168
27.391329 10.043488 -10.600119
26.63048 8.8768253 -13.66154
25.917263 7.775176 -16.531303
25.237009 6.7298679 -19.268433
24.597414 5.7393942 -21.84197
23.992746 4.7985492 -24.274965
23.416763 3.9027913 -26.592541
22.867865 3.0490475 -28.801132
22.528322 2.2528307 -30.167347
22.352505 1.4901658 -30.874788
28.708515 0.95695013 -5.3001757
28.710636 -1.4300364e-06 -5.2916331
28.712135 -0.95707393 -5.2856069
28.713381 -1.9142253 -5.2805839
28.714756 -2.8714726 -5.2750649
28.716503 -3.8288691 -5.2680297
28.718752 -4.7864599 -5.2589827
28.720999 -5.7441988 -5.249939
28.723373 -6.7021227 -5.2403879
28.725622 -7.6601667 -5.2313437
28.727869 -8.6183605 -5.2222924
28.730244 -9.5767469 -5.2127385
28.732494 -10.535249 -5.2036891
28.734745 -11.4939 -5.1946321
28.737244 -12.452803 -5.184576
28.739872 -13.411938 -5.1740084
28.742373 -14.371185 -5.1639433
28.745001 -15.330668 -5.1533694
28.747501 -16.290251 -5.1433001
28.750004 -17.250002 -5.1332364
28.752634 -18.209999 -5.1226573
30.787031 13.90382 -0.93291622
29.854801 12.519754 -4.5629196
28.976259 11.216619 -7.9838719
28.152821 9.9897146 -11.190249
27.374891 8.8306074 -14.219421
26.6441 7.7353868 -17.065042
25.948158 6.6963005 -19.774977
25.295797 5.7119536 -22.315191
24.676508 4.7760987 -24.726648
24.086899 3.8849812 -27.022514
23.52408 3.0353651 -29.214073
23.208733 2.2460063 -30.442005
23.066126 1.4881368 -30.997286
30.499479 -3.9354157 -2.0526109
30.435417 -4.9089417 -2.3020606
30.43786 -5.8911963 -2.292552
30.440304 -6.8736167 -2.2830353
30.441797 -7.8559504 -2.277216
30.443157 -8.8383379 -2.2719293
30.444513 -9.8208132 -2.2666419
30.445871 -10.803374 -2.2613518
30.447231 -11.786025 -2.2560611
30.448996 -12.768936 -2.2491891
30.451441 -13.752264 -2.2396674
30.453886 -14.73575 -2.2301426
30.456606 -15.719538 -2.2195621
30.459459 -16.703573 -2.2084467
31.594877 13.822758 -1.6318431
30.643595 12.448961 -5.2202849
29.747042 11.155143 -8.6022692
28.906202 9.936511 -11.77409
28.111704 8.7849064 -14.771099
27.36343 7.6959662 -17.59374
26.652447 6.6631136 -20.275724
25.987152 5.6846905 -22.785353
25.353991 4.7538714 -25.173773
24.750948 3.867336 -27.448578
24.16995 3.0212438 -29.640217
23.884949 2.2392135 -30.715313
23.770348 1.4856476 -31.1476
32.262325 -14.114768 0.88590789
32.263805 -15.12366 0.89148331
32.291458 -16.145725 0.99580044
32.424877 13.756007 -2.2073855
31.423517 12.378963 -5.8702545
30.50955 11.094382 -9.2134552
29.651724 9.8839083 -12.351299
28.840815 8.7396383 -15.317514
28.073732 7.6564727 -18.123434
27.351542 6.6306748 -20.765129
26.672037 5.6577044 -23.25069
26.025198 4.7318535 -25.616762
25.408901 3.849833 -27.871119
24.809845 3.0072551 -30.06241
24.562565 2.2329605 -30.966919
33.705299 13.878653 -1.1499141
32.349861 12.369066 -5.9621539
31.264059 11.034373 -9.8170834
30.389269 9.8318233 -12.922873
29.562452 8.6948357 -15.858328
28.779543 7.6181169 -18.637899
28.044178 6.5986295 -21.24868
27.350451 5.6309757 -23.711632
26.690123 4.7100201 -26.056004
26.061016 3.8325033 -28.289524
25.522175 3.0026076 -30.202581
25.259233 2.2287569 -31.136101
33.602962 12.481097 -4.9218531
32.279312 11.067196 -9.4869518
31.24527 9.8199444 -13.053245
30.326416 8.6646919 -16.222254
29.478886 7.5802836 -19.145281
28.738831 6.5688744 -21.697639
28.099535 5.6199088 -23.902491
27.488161 4.712255 -26.011042
26.900101 3.8428705 -28.039196
26.344326 3.0107822 -29.955986
25.998732 2.2284594 -31.147905
32.37376 9.8919821 -12.262691
31.41457 8.7262716 -15.478929
30.510702 7.6276793 -18.509668
29.713985 6.6031098 -21.181116
29.049736 5.6485572 -23.408388
28.410257 4.735045 -25.552608
27.79706 3.8606999 -27.608706
27.209774 3.0233059 -29.577925
31.638599 7.6958752 -17.59495
