# .PCD v0.7 - Point Cloud Data file format
VERSION 0.7
FIELDS x y z
SIZE 4 4 4
TYPE F F F
COUNT 1 1 1
WIDTH 1528
HEIGHT 1
VIEWPOINT 0 0 0 1 0 0 0
POINTS 1528
DATA ascii
-3.6235383 -44.690308 -55.701038
-3.6391759 -46.09623 -55.071827
-3.654937 -47.514187 -54.437645
-3.6708474 -48.944633 -53.797466
-3.6868846 -50.387428 -53.152172
-3.7030749 -51.843048 -52.500721
-3.7193956 -53.311344 -51.844032
-3.7358735 -54.792809 -51.181019
-3.752485 -56.287285 -50.512611
-3.7692583 -57.795296 -49.837719
-3.7861426 -59.316242 -49.15834
-3.8031921 -60.85107 -48.472328
-3.8204756 -62.401104 -47.776894
-4.0818577 42.859516 44.860958
-3.8781364 38.781368 32.565281
-3.6937649 35.090763 21.437477
-3.5261281 31.735149 11.319692
-3.3730624 28.671028 2.081367
-3.232718 25.861744 -6.3891525
-3.1041651 23.281235 -14.148024
-2.9854937 20.898458 -21.310482
-2.8755503 18.691078 -27.946136
-2.773417 16.640501 -34.110435
-2.6782899 14.730589 -39.85186
-2.5894814 12.947405 -45.211933
-2.5063646 11.278636 -50.228477
-2.4284174 9.7136717 -54.932991
-2.3551803 8.2431297 -59.353252
-2.2862239 6.8586693 -63.515144
-2.237788 5.5944653 -66.438499
-2.2354183 4.4708381 -66.58152
-2.3488064 3.5232055 -59.737942
-2.3905594 2.3905568 -57.217934
-2.3905361 1.1952647 -57.219349
-2.3905046 -3.0845424e-06 -57.221226
-2.3904812 -1.1952386 -57.222645
-2.3904502 -2.390456 -57.224529
-2.3904269 -3.5856428 -57.225937
-2.3903954 -4.7807894 -57.227825
-2.390372 -5.9759316 -57.229233
-2.3903487 -7.1710525 -57.230648
-2.3903177 -8.3661108 -57.232533
-2.3902941 -9.5611773 -57.233944
-2.3902628 -10.756185 -57.235821
-2.3902473 -11.951241 -57.236767
-2.3902316 -13.146278 -57.237713
-2.390224 -14.341351 -57.238178
-2.3902161 -15.536407 -57.238655
-2.3902006 -16.731403 -57.239594
-2.3901927 -17.926449 -57.240059
-2.3901849 -19.121485 -57.240532
-2.3901694 -20.316444 -57.241474
-2.3901615 -21.511456 -57.241951
-2.3901536 -22.706457 -57.24242
-2.3901381 -23.901382 -57.243359
-2.3901303 -25.096375 -57.243824
-2.3901145 -26.29126 -57.244774
-2.3901072 -27.486231 -57.245243
-2.3900993 -28.681194 -57.245705
-2.3497632 -29.372044 -59.680191
-2.3497934 -30.547321 -59.678368
-2.3497632 -31.721809 -59.680191
-2.3495147 -32.893204 -59.695206
-2.3492661 -34.064362 -59.710205
-2.3508568 -35.262852 -59.614197
-2.360683 -36.590584 -59.021137
-2.3706989 -37.93119 -58.416607
-2.3710828 -39.122871 -58.39344
-2.3717892 -40.320415 -58.350819
-2.3818457 -41.682301 -57.743855
-2.3919723 -43.055504 -57.13266
-2.4021933 -44.440578 -56.51577
-2.4124939 -45.837379 -55.89407
-2.4228914 -47.246387 -55.266525
-2.4333708 -48.667416 -54.634037
-2.4439495 -50.10096 -53.995567
-2.4546123 -51.546856 -53.352013
-2.4653766 -53.005596 -52.70232
-2.4762275 -54.477009 -52.047409
-2.4871829 -55.961617 -51.386192
-2.4982355 -57.459423 -50.719101
-2.509361 -58.96999 -50.047619
-2.5206208 -60.4949 -49.368031
-2.5320084 -62.03421 -48.680725
-2.1313956 46.890697 55.781235
-2.0205386 42.431309 42.399628
-1.9206431 38.412865 30.341187
-1.8301691 34.773205 19.420004
-1.7478272 31.460884 9.4804401
-1.6725755 28.433783 0.39675683
-1.6036274 25.658039 -7.9259958
-1.5403591 23.105383 -15.563162
-1.4818995 20.746586 -22.619865
-1.4277093 18.560225 -29.161192
-1.3773427 16.528107 -35.240982
-1.3304086 14.634491 -40.906429
-1.2865722 12.86572 -46.197941
-1.2455282 11.20975 -51.152393
-1.2070222 9.6561737 -55.800491
-1.1708292 8.1957979 -60.169369
-1.1382414 6.8294463 -64.103058
-1.1336964 5.668479 -64.651688
-1.1910197 4.7640805 -57.732166
-1.1914963 3.5744858 -57.674641
-1.2123399 2.4246807 -55.158581
-1.2123278 1.2123232 -55.160038
-1.2123117 -4.9115115e-06 -55.161976
-1.2122998 -1.2122995 -55.163429
-1.2122837 -2.4245708 -55.165367
-1.2122717 -3.6368194 -55.166817
-1.2122556 -4.8490272 -55.168755
-1.2122436 -6.0612206 -55.170208
-1.2122275 -7.2733641 -55.172142
-1.2122154 -8.4855108 -55.173599
-1.2122035 -9.6976271 -55.175053
-1.2121875 -10.909688 -55.176991
-1.2121754 -12.121754 -55.17844
-1.2121594 -13.333755 -55.180378
-1.2121553 -14.545867 -55.180862
-1.2121513 -15.757972 -55.181343
-1.2121433 -16.970011 -55.182312
-1.2121392 -18.182096 -55.182796
-1.2121353 -19.394161 -55.183285
-1.2121272 -20.606163 -55.184254
-1.2121232 -21.81822 -55.184738
-1.2121152 -23.030191 -55.185711
-1.2121111 -24.242233 -55.186184
-1.2121073 -25.454258 -55.186668
-1.2120992 -26.666182 -55.187645
-1.2120953 -27.878195 -55.188122
-1.2120912 -29.090193 -55.188606
-1.2120832 -30.302078 -55.189579
-1.2120792 -31.514055 -55.190067
-1.2120751 -32.726032 -55.19054
-1.2120671 -33.937885 -55.191509
-1.2120631 -35.149834 -55.192001
-1.1916397 -35.749195 -57.657318
-1.1916552 -36.941311 -57.655453
-1.1915272 -38.128872 -57.670895
-1.1913993 -39.316181 -57.686333
-1.1912714 -40.503231 -57.701771
-1.1937214 -41.780251 -57.40604
-1.1987928 -43.156544 -56.793854
-1.2025045 -44.492664 -56.345833
-1.202307 -45.687672 -56.369659
-1.204652 -46.981434 -56.086582
-1.209837 -48.393478 -55.460712
-1.2150627 -49.817581 -54.829903
-1.2203379 -51.2542 -54.19313
-1.2256551 -52.703171 -53.551308
-1.2310227 -54.165001 -52.903362
-1.2364335 -55.639507 -52.250233
-1.2419004 -57.127426 -51.590305
-1.2473991 -58.627762 -50.926567
-1.2529765 -60.142876 -50.253315
-1.258604 -61.6716 -49.574001
3.459806e-23 46.40168 53.098061
1.6219045e-23 42.011585 39.986984
3.0105463e-23 38.051495 28.16013
4.1192278e-23 34.461349 17.438719
1.5119114e-23 31.191319 7.6726947
4.614794e-23 28.200556 -1.2592777
5.5670709e-23 25.457848 -9.4363146
3.5562449e-23 22.932169 -16.9571
4.6660476e-23 20.596916 -23.91036
-1.0308058e-23 18.431187 -30.359354
3.1604482e-23 16.417231 -36.356369
3.9741929e-23 14.539641 -41.947338
4.0521178e-23 12.785058 -47.171593
3.038809e-23 11.141703 -52.065086
3.8263749e-23 9.5993605 -56.657791
5.1985107e-23 8.1490116 -60.976166
4.6238975e-23 6.9008632 -62.666286
1.5595313e-23 5.7735443 -62.115211
4.5741664e-23 4.8334856 -55.637539
5.033257e-23 3.6897323 -53.037598
4.7362849e-23 2.4597888 -53.039589
1.7242549e-23 1.2298795 -53.041092
3.0213051e-23 -6.2239178e-07 -53.043087
2.3954456e-23 -1.2298572 -53.044582
2.9035894e-23 -2.4596741 -53.04657
4.1358015e-23 -3.6894741 -53.048069
2.5315499e-23 -4.9192348 -53.05006
1.3873173e-23 -6.1489778 -53.051559
2.9646264e-23 -7.378675 -53.053551
4.2065642e-23 -8.6083641 -53.055046
6.2438921e-23 -9.8380384 -53.056541
-1.9615948e-23 -11.067634 -53.05854
-2.0366622e-23 -12.297251 -53.060036
4.583521e-23 -13.526793 -53.062023
3.7195473e-23 -14.756354 -53.063522
-1.4535065e-23 -15.98594 -53.064522
2.5493397e-24 -17.215515 -53.06551
5.8592776e-23 -18.445133 -53.06601
6.5115204e-23 -19.674677 -53.066998
4.4422215e-23 -20.904274 -53.067505
2.3729226e-23 -22.13386 -53.068005
6.4872071e-24 -23.363359 -53.069004
3.8733777e-23 -24.592934 -53.069496
6.0418371e-23 -25.822491 -53.069992
4.0552067e-23 -27.051954 -53.070988
-9.2025673e-24 -28.281492 -53.071495
1.5154939e-23 -29.511021 -53.071995
2.9728526e-23 -30.740446 -53.072987
2.2351474e-23 -31.96995 -53.07349
2.6363085e-23 -33.199345 -53.074478
3.2220923e-23 -34.428833 -53.074974
2.0899339e-23 -35.658314 -53.075481
3.7869962e-24 -36.887665 -53.076477
5.2022417e-23 -38.117123 -53.076973
4.7318278e-23 -39.346581 -53.077469
1.1442901e-24 -40.575878 -53.078472
3.8817734e-23 -41.805313 -53.078968
2.3508456e-23 -42.310898 -55.575916
4.4682984e-23 -43.516041 -55.588436
4.0071846e-23 -44.719952 -55.604328
-7.9777693e-24 -45.923595 -55.620216
3.730492e-23 -47.127144 -55.635609
3.0819871e-23 -48.503716 -55.128052
3.9154385e-23 -49.930878 -54.496326
9.5209989e-24 -51.224495 -54.278488
-1.0379024e-23 -52.440807 -54.287807
-3.3397215e-26 -53.856369 -53.750084
3.965321e-23 -55.321281 -53.103874
6.0544885e-23 -56.798862 -52.452496
4.4212423e-23 -58.29007 -51.793865
4.4130286e-23 -59.794918 -51.128357
4.6326888e-23 -61.313419 -50.456387
2.0873859 45.922485 50.468815
1.9809561 41.600086 37.621597
1.8848431 37.696869 26.019743
1.7976252 34.154877 15.491597
1.7181299 30.926346 5.895669
1.6453605 27.971125 -2.8883712
1.5787973 25.260759 -10.923258
1.5174356 22.761532 -18.330276
1.4606709 20.44939 -25.182379
1.4079947 18.303932 -31.54096
1.3589855 16.307829 -37.45689
1.3132782 14.446059 -42.974266
1.2705408 12.705405 -48.133106
1.2304975 11.074474 -52.96677
1.192901 9.5432081 -57.505066
1.1675336 8.1727371 -60.567184
1.166931 7.0015841 -60.639927
1.2259586 6.1297951 -53.514668
1.2479941 4.9919744 -50.85474
1.247977 3.7439282 -50.8568
1.2479643 2.4959304 -50.858337
1.2479515 1.2479481 -50.859875
1.2479346 3.5956634e-07 -50.861927
1.2479218 -1.2479193 -50.863472
1.2479048 -2.4958122 -50.865528
1.247892 -3.7436748 -50.867062
1.2478751 -4.9915023 -50.869118
1.2478623 -6.2393126 -50.870659
1.2478453 -7.4870744 -50.872704
1.2478325 -8.7348242 -50.874252
1.2478156 -9.9825296 -50.876293
1.2478027 -11.230223 -50.87785
1.24779 -12.477906 -50.879375
1.2477729 -13.725497 -50.881435
1.2477602 -14.97313 -50.882969
1.2477432 -16.220667 -50.885017
1.2477305 -17.468231 -50.886562
1.2477262 -18.715893 -50.887077
1.2477177 -19.96348 -50.888107
1.2477134 -21.211132 -50.888618
1.2477093 -22.458773 -50.889122
1.2477007 -23.706316 -50.890156
1.2476965 -24.953934 -50.890667
1.2476922 -26.20154 -50.891186
1.2476838 -27.449047 -50.8922
1.2476795 -28.69663 -50.892723
1.2476752 -29.94421 -50.893227
1.2476667 -31.191668 -50.894264
1.2476625 -32.439224 -50.894772
1.247654 -33.686661 -50.895798
1.2476498 -34.934196 -50.896313
1.2476455 -36.181725 -50.89682
1.247637 -37.429111 -50.897854
1.2476327 -38.67662 -50.898365
1.2476285 -39.924114 -50.898872
1.24762 -41.171463 -50.899899
1.2476158 -42.418941 -50.900414
1.2476115 -43.666409 -50.900921
1.2476031 -44.913708 -50.901955
1.2475988 -46.16116 -50.90247
1.2475903 -47.408436 -50.903488
1.2266196 -47.838165 -53.434875
1.2265416 -49.061665 -53.444298
1.226406 -50.282642 -53.460655
1.2262706 -51.503368 -53.477001
1.226135 -52.723808 -53.493362
1.2267182 -53.975605 -53.422966
1.2320746 -55.443356 -52.776405
1.2348869 -56.804802 -52.436928
1.2330618 -57.953907 -52.65723
1.2385617 -59.450958 -51.993332
1.2440645 -60.959164 -51.329082
4.132123 45.453362 47.894733
3.9234817 41.196556 35.302109
3.7348781 37.348778 23.918867
3.5635755 33.853966 13.579837
3.4073133 30.665815 4.1485887
3.2643249 27.746765 -4.4815211
3.1333368 25.066689 -12.387343
3.0124557 22.593412 -19.683176
2.9005661 20.303965 -26.436298
2.7966802 18.178417 -32.706367
2.6999786 16.199869 -38.542835
2.6097498 14.353625 -43.988621
2.5253479 12.62674 -49.08271
2.4462345 11.008053 -53.857643
2.3772001 9.5087976 -58.024235
2.3687291 8.2905521 -58.535519
2.4884923 7.4654765 -51.307148
2.5332344 6.333086 -48.606747
2.5332081 5.0664134 -48.60833
2.5331728 3.799757 -48.610439
2.5331466 2.5331454 -48.612034
2.5331204 1.2665578 -48.613613
2.5330853 -1.7870639e-06 -48.615726
2.5330591 -1.2665333 -48.617317
2.5330241 -2.5330281 -48.619431
2.5329976 -3.7994983 -48.621021
2.5329626 -5.0659299 -48.623131
2.5329363 -6.3323455 -48.624714
2.5329015 -7.5987077 -48.626835
2.5328751 -8.8650665 -48.628422
2.5328403 -10.131359 -48.630539
2.5328138 -11.397659 -48.632126
2.5327787 -12.663896 -48.634224
2.5327525 -13.930144 -48.635818
2.5327263 -15.196362 -48.637409
2.5326912 -16.462498 -48.639515
2.532665 -17.728657 -48.641106
2.5326297 -18.994724 -48.643215
2.5326123 -20.2609 -48.644279
2.5326035 -21.52713 -48.644806
2.5325949 -22.793358 -48.645332
2.5325773 -24.059488 -48.646389
2.5325687 -25.325691 -48.646919
2.5325599 -26.591883 -48.647442
2.5325425 -27.857967 -48.648506
2.5325336 -29.12414 -48.649033
2.5325162 -30.3902 -48.650082
2.5325074 -31.656345 -48.650612
2.5324986 -32.922489 -48.651142
2.5324812 -34.188499 -48.652199
2.5324724 -35.454617 -48.652729
2.5324638 -36.720726 -48.653255
2.5324459 -37.986687 -48.65432
2.5324371 -39.252785 -48.654835
2.5324285 -40.518856 -48.655376
2.5324109 -41.784779 -48.656433
2.5324023 -43.050842 -48.656952
2.5323846 -44.316738 -48.658009
2.5323761 -45.582771 -48.658543
2.5323672 -46.848797 -48.659073
2.5323498 -48.114655 -48.660126
2.532341 -49.380653 -48.66066
2.5323322 -50.646645 -48.661186
2.5323148 -51.912453 -48.662243
2.5102983 -52.71627 -49.991043
2.489702 -53.528599 -51.234146
2.4891267 -54.760788 -51.268879
2.4893298 -56.009918 -51.256622
2.5088625 -57.703842 -50.077702
2.4878078 -58.463486 -51.348473
2.4878671 -59.708809 -51.344902
2.4880614 -60.957504 -51.333172
6.1355052 44.993698 45.372707
5.8286533 40.800579 33.025932
5.5510602 37.007076 21.856451
5.2986803 33.558315 11.701483
5.0682516 30.409512 2.4297471
4.8576097 27.526453 -6.0458555
4.6641731 24.875593 -13.829114
4.4855528 22.427763 -21.01623
4.3201261 20.160585 -27.672499
4.166451 18.054625 -33.855907
4.0233335 16.093336 -39.614506
3.8897357 14.262366 -44.990074
3.7647123 12.549039 -50.020641
3.6474752 10.942422 -54.737885
3.606992 9.6186476 -56.366802
3.7895377 8.8422527 -49.021736
3.7890673 7.5781326 -49.040672
3.8573728 6.4289541 -46.292263
3.857332 5.1431084 -46.2939
3.8572776 3.8572762 -46.296082
3.8572371 2.5714872 -46.297718
3.819546 1.2731774 -47.814289
3.8329768 -1.296613e-06 -47.273884
3.8571017 -1.285702 -46.303162
3.8570478 -2.5713665 -46.305344
3.857007 -3.857012 -46.306976
3.8569527 -5.142601 -46.309162
3.8569124 -6.4281898 -46.310795
3.856858 -7.7137232 -46.312969
3.8568175 -8.9992485 -46.314598
3.8567634 -10.284709 -46.316784
3.8567228 -11.57017 -46.318413
3.8566685 -12.855571 -46.320595
3.8566282 -14.140974 -46.322227
3.8565874 -15.426352 -46.323856
3.8565331 -16.711643 -46.326046
3.8564925 -17.996962 -46.327679
3.8564384 -19.282198 -46.329853
3.8563979 -20.567457 -46.331486
3.8563571 -21.852692 -46.333126
3.8563435 -23.138065 -46.333664
3.8563166 -24.42334 -46.334755
3.8563032 -25.708693 -46.3353
3.856276 -26.993935 -46.336388
3.8562624 -28.279261 -46.336937
3.8562489 -29.564577 -46.337482
3.8562219 -30.849783 -46.338562
3.8562083 -32.135075 -46.339108
3.856195 -33.420361 -46.339653
3.8561676 -34.705517 -46.34074
3.8561542 -35.990776 -46.341286
3.8561406 -37.276024 -46.341843
3.8561137 -38.561138 -46.342922
3.8561001 -39.846371 -46.343468
3.8560729 -41.131443 -46.344563
3.8560593 -42.416656 -46.3451
3.856046 -43.701859 -46.345642
3.856019 -44.986893 -46.346729
3.8560054 -46.272068 -46.347279
3.8559918 -47.557236 -46.34782
3.8559647 -48.84222 -46.348919
3.8559513 -50.127369 -46.349464
3.8501549 -51.3354 -46.582684
3.8020473 -51.961311 -48.518394
3.790518 -53.067253 -48.982288
3.789629 -54.31802 -49.018055
3.8201303 -56.02858 -47.790787
3.8201568 -57.302357 -47.789719
3.8201966 -58.576355 -47.788105
3.8202364 -59.850376 -47.786507
3.8202629 -61.124214 -47.785439
3.8200641 -62.394379 -47.793453
8.0987749 44.543266 42.901184
7.6975884 40.412342 30.794333
7.3342733 36.67136 19.830322
7.0037417 33.267776 9.8556442
6.7016864 30.157585 0.74032992
6.4257917 27.309614 -7.5855374
6.1718445 24.687382 -15.249066
5.9372067 22.264519 -22.329889
5.7197781 20.01922 -28.891373
5.5176911 17.932491 -34.989887
5.3293972 15.988188 -40.672169
5.1535482 14.172255 -45.978882
4.9889164 12.472289 -50.947083
4.8830762 10.986923 -54.141094
4.882751 9.7654972 -54.150913
5.1293163 8.9763041 -46.710148
5.2222905 7.8334327 -43.9044
5.2222157 6.5277638 -43.906643
5.2221603 5.222158 -43.908333
5.222086 3.9165626 -43.91058
5.169405 2.5846996 -45.500355
5.1766019 1.2941461 -45.28318
5.154201 6.8452584e-07 -45.959179
5.2218437 -1.3054612 -43.917885
5.2217693 -2.610884 -43.920124
5.2217135 -3.9162936 -43.921806
5.2216392 -5.2216454 -43.924057
5.2215834 -6.5269756 -43.925743
5.221509 -7.8322639 -43.927998
5.2214532 -9.1375475 -43.929668
5.2213783 -10.442758 -43.931927
5.2213225 -11.747976 -43.933598
5.2212486 -13.053125 -43.935856
5.2211924 -14.35828 -43.937542
5.221118 -15.663359 -43.939774
5.2210622 -16.968454 -43.941463
5.2210064 -18.273527 -43.943153
5.220932 -19.578497 -43.945393
5.2208762 -20.883503 -43.947083
5.2208018 -22.188414 -43.949318
5.2207456 -23.493361 -43.951008
5.2207084 -24.798372 -43.952129
5.2206903 -26.103453 -43.952698
5.2206531 -27.408434 -43.953815
5.2206345 -28.713493 -43.954376
5.2206159 -30.018541 -43.954945
5.2205782 -31.323469 -43.95607
5.2205596 -32.628498 -43.956627
5.220541 -33.933525 -43.95718
5.2205043 -35.238403 -43.958309
5.2204857 -36.543404 -43.958866
5.2204671 -37.848389 -43.959435
5.2204299 -39.153221 -43.960556
5.2204108 -40.458191 -43.961113
5.2203736 -41.762997 -43.962234
5.220355 -43.067928 -43.962807
5.2203364 -44.372864 -43.963364
5.2202997 -45.67762 -43.964489
5.2202811 -46.982529 -43.965046
5.2202625 -48.287426 -43.965614
5.2202249 -49.59214 -43.966732
5.1845889 -50.549751 -45.042137
5.1321731 -51.321739 -46.623928
5.1309147 -52.591881 -46.6619
5.1346016 -53.913315 -46.550659
5.1716495 -55.595238 -45.432621
5.1717048 -56.888748 -45.430969
5.171741 -58.182091 -45.429863
5.1717958 -59.475655 -45.428207
5.1715221 -60.765381 -45.436481
5.1712298 -62.054756 -45.445293
5.1709561 -63.344215 -45.453548
10.568416 48.614708 53.643158
10.023124 44.101746 40.478668
9.531292 40.031422 28.604792
9.0854702 36.341877 17.841705
8.679533 32.982227 8.0414915
8.3086195 29.91103 -0.91314155
7.969461 27.096167 -9.1011486
7.6568727 24.501993 -16.647684
7.3678813 22.10364 -23.624565
7.0999384 19.879826 -30.093281
6.8507743 17.812014 -36.108635
6.6185055 15.884407 -41.716103
6.4014921 14.083282 -46.955265
6.2181048 12.436207 -51.382629
6.1988878 11.157996 -51.846569
6.5122399 10.41958 -44.281567
6.6290712 9.2806978 -41.461025
6.6297674 7.9557247 -41.444229
6.6296711 6.6296635 -41.446537
6.6295986 5.3036809 -41.448284
6.6295033 3.9777064 -41.4506
6.6294308 2.6517704 -41.452332
6.5343151 1.3068616 -43.748634
6.6292629 -7.1868121e-06 -41.45639
6.6291671 -1.3258324 -41.458706
6.6290946 -2.651634 -41.460449
6.6290231 -3.9774141 -41.462181
6.6289268 -5.3031406 -41.464508
6.6288552 -6.628859 -41.466236
6.6287589 -7.9545159 -41.468555
6.6286869 -9.2801628 -41.470299
6.6285911 -10.60575 -41.47261
6.6285191 -11.931332 -41.47435
6.6284232 -13.256848 -41.476658
6.6283512 -14.582375 -41.478397
6.6282554 -15.907815 -41.480713
6.6281834 -17.233282 -41.482452
6.6281109 -18.55872 -41.484192
6.6280155 -19.884045 -41.486515
6.627943 -21.209423 -41.488255
6.6278477 -22.534681 -41.49057
6.6277752 -23.859993 -41.492306
6.6276798 -25.185186 -41.494614
6.6276317 -26.510527 -41.495781
6.6275835 -27.835852 -41.496933
6.6275592 -29.161264 -41.497513
6.6275353 -30.486668 -41.498089
6.6274877 -31.811945 -41.499252
6.6274638 -33.137321 -41.499828
6.6274395 -34.462688 -41.500401
6.6273913 -35.787918 -41.501568
6.6273675 -37.113262 -41.502144
6.6273198 -38.438454 -41.503311
6.627296 -39.763775 -41.503887
6.6272717 -41.089088 -41.504463
6.6272235 -42.414234 -41.505619
6.6271996 -43.739521 -41.506199
6.6271753 -45.064796 -41.506786
6.6271281 -46.389904 -41.507935
6.6271038 -47.715145 -41.508522
6.62708 -49.040394 -41.509094
6.5458069 -49.748135 -43.471207
6.5143023 -50.811562 -44.231789
6.5127268 -52.101818 -44.269821
6.565237 -53.834949 -43.00211
6.5652843 -55.148384 -43.000973
6.5653548 -56.462055 -42.999268
6.565402 -57.775543 -42.998127
6.5650487 -59.085438 -43.006657
6.5646958 -60.395203 -43.015182
6.5643425 -61.704826 -43.023697
6.5640368 -63.014759 -43.031086
12.550924 48.111889 51.00415
11.909634 43.668659 38.102379
11.33075 39.657631 26.456142
10.805479 36.018265 15.888497
10.326752 32.701378 6.2572579
9.8897572 29.669273 -2.5344179
9.4891872 26.886024 -10.593261
9.1197643 24.319374 -18.025461
8.7780285 21.945068 -24.900656
8.4610109 19.742363 -31.278555
8.1660633 17.693138 -37.212444
7.8909864 15.781971 -42.746571
7.6338644 13.995413 -47.919464
7.5568438 12.594735 -49.469002
7.9392796 11.908918 -41.774982
7.9380178 10.584023 -41.800373
7.9372439 9.2601175 -41.815941
7.9523516 7.9523492 -41.511993
7.9757299 6.6464415 -41.041656
8.0032377 5.3354878 -40.488247
8.0309353 4.0154681 -39.931026
8.0588255 2.6862688 -39.369911
8.0813484 1.3468946 -38.91679
8.0812588 -4.4999078e-06 -38.918571
8.0811405 -1.3468549 -38.920975
8.0810509 -2.6936829 -38.922768
8.0809317 -4.0404725 -38.925152
8.080843 -5.3872361 -38.926945
8.0807543 -6.7339659 -38.928734
8.0806351 -8.0806332 -38.931133
8.0805454 -9.4273071 -38.932926
8.0804272 -10.773905 -38.935318
8.0803385 -12.120514 -38.937107
8.0802193 -13.467033 -38.939507
8.0801296 -14.813572 -38.941288
8.0800114 -16.160023 -38.943684
8.0799217 -17.506496 -38.94548
8.0798035 -18.852875 -38.947868
8.0797138 -20.199286 -38.949665
8.0796251 -21.545671 -38.951447
8.0795059 -22.891939 -38.953838
8.0794172 -24.238258 -38.955631
8.079298 -25.584446 -38.958031
8.0792093 -26.9307 -38.959824
8.0790901 -28.276815 -38.962212
8.0790606 -29.623226 -38.962807
8.079031 -30.969618 -38.963413
8.0789719 -32.315884 -38.9646
8.0789413 -33.662258 -38.965195
8.0788822 -35.008495 -38.966385
8.0788527 -36.354836 -38.966995
8.0788231 -37.70118 -38.967587
8.078764 -39.047363 -38.968781
8.0787344 -40.393665 -38.969383
8.0787039 -41.739975 -38.969975
8.0786448 -43.086109 -38.971172
8.0786152 -44.432388 -38.971764
8.0785856 -45.778656 -38.972363
8.0785255 -47.124737 -38.973568
8.0394554 -48.236732 -39.759605
7.9482102 -49.013969 -41.595314
7.9398537 -50.28574 -41.763432
7.9509711 -51.68132 -41.539772
8.0029755 -53.353172 -40.493523
8.0030336 -54.687401 -40.492352
8.0031204 -56.021847 -40.490593
8.0026836 -57.35257 -40.49939
8.0022469 -58.683147 -40.508183
8.0018101 -60.013577 -40.516979
8.0014601 -61.344528 -40.52401
8.0035868 -62.694763 -40.481216
14.492844 47.619347 48.41917
13.759528 43.244232 35.773613
13.096914 39.290737 24.347246
12.495127 35.700363 13.969782
11.946212 32.425423 4.5040956
11.445539 29.431393 -4.1296992
10.985522 26.679125 -12.062414
10.561011 24.13945 -19.382851
10.168087 21.788754 -26.158573
9.8033895 19.606777 -32.447552
9.463912 17.575832 -38.301624
9.1471605 15.680842 -43.763828
8.9580498 14.076932 -47.024921
8.9682961 12.811846 -46.848221
9.4193716 12.110623 -39.069702
9.452363 10.802703 -38.50079
9.4857273 9.4857321 -37.925453
9.5185499 8.1587563 -37.35944
9.4130087 6.7235823 -39.179436
9.4121447 5.3783655 -39.194324
9.4111776 4.0333595 -39.211002
9.4102106 2.6886349 -39.227692
9.4092426 1.3441797 -39.244366
9.4300423 -1.776883e-06 -38.885681
9.4598265 -1.3514019 -38.372082
9.4930334 -2.7122996 -37.799461
9.5264368 -4.0827632 -37.223431
9.5600767 -5.4628978 -36.643333
9.5794373 -6.8424587 -36.309475
9.5792942 -8.2108221 -36.311951
9.5791874 -9.5791845 -36.313801
9.5790434 -10.947476 -36.316265
9.5789356 -12.315775 -36.318111
9.5787935 -13.68399 -36.320587
9.5786858 -15.052226 -36.322433
9.5785418 -16.420362 -36.324898
9.5784349 -17.788528 -36.326752
9.5782919 -19.156586 -36.329224
9.5781851 -20.524685 -36.331074
9.5780411 -21.892668 -36.333538
9.5779343 -23.260698 -36.3354
9.5778265 -24.6287 -36.337246
9.5776844 -25.996572 -36.339714
9.5775757 -27.364511 -36.34156
9.5774326 -28.7323 -36.344028
9.5773258 -30.100168 -36.345886
9.577219 -31.468004 -36.34774
9.5771828 -32.83606 -36.348347
9.5771475 -34.204105 -36.348965
9.577075 -35.571995 -36.350204
9.5770397 -36.94001 -36.350822
9.5770035 -38.308018 -36.351437
9.576932 -39.675865 -36.352669
9.5768967 -41.043846 -36.353283
9.5768604 -42.411812 -36.353909
9.5767889 -43.779613 -36.355133
9.5767536 -45.147552 -36.355759
9.5767183 -46.515491 -36.356365
9.4768219 -47.384106 -38.079025
9.4127331 -48.408344 -39.184196
9.4108324 -49.742973 -39.216969
9.4868507 -51.50005 -37.906078
9.4869556 -52.8559 -37.904255
9.4870605 -54.211777 -37.902447
9.4864988 -55.563782 -37.912132
9.4859724 -56.915844 -37.921207
9.4855165 -58.268169 -37.929081
9.485095 -59.620609 -37.936337
9.4846392 -60.972687 -37.944202
16.395405 47.136791 45.8866
15.573808 42.82798 33.489651
14.830624 38.930397 22.275877
14.155208 35.388027 12.08464
13.539069 32.155289 2.7878227
12.976572 29.197289 -5.699605
12.459003 26.475384 -13.509119
11.981088 23.962177 -20.720299
11.538483 21.634649 -27.398689
11.127456 19.473047 -33.600609
10.744666 17.460079 -39.376453
10.431863 15.647794 -44.096294
10.405006 14.306883 -44.501537
10.935303 13.669121 -36.499973
11.126569 12.517388 -33.613991
11.126739 11.126737 -33.611443
10.933589 9.5668888 -36.525833
10.933222 8.1999187 -36.531384
10.932855 6.8330302 -36.536915
10.932487 5.4662437 -36.542461
10.941591 4.1030941 -36.405098
14.729381 3.6823423 20.748234
14.78132 1.8476677 21.531937
14.833628 -5.9573931e-06 22.321199
10.932774 -1.3665992 -36.538139
10.932896 -2.7332284 -36.536297
10.931753 -4.0994058 -36.553539
10.930612 -5.4653091 -36.570763
10.930978 -6.8318615 -36.565235
10.956895 -8.2176723 -36.174194
10.994059 -9.6198034 -35.613415
11.03343 -11.033429 -35.019356
11.072916 -12.457027 -34.423557
11.112643 -13.890801 -33.824116
11.126315 -15.298689 -33.617813
11.126146 -16.689224 -33.620365
11.126019 -18.079784 -33.622284
11.125851 -19.470242 -33.624828
11.125725 -20.860731 -33.626743
11.125556 -22.251114 -33.629292
11.125428 -23.641537 -33.631203
11.125301 -25.031933 -33.633114
11.125133 -26.422195 -33.635662
11.125006 -27.812513 -33.637585
11.124837 -29.2027 -33.640121
11.12471 -30.592958 -33.64204
11.124541 -31.983061 -33.644585
11.124414 -33.373245 -33.646496
11.124372 -34.763668 -33.647133
11.124289 -36.153938 -33.648411
11.124246 -37.544334 -33.649048
11.124204 -38.934719 -33.649681
11.12412 -40.324932 -33.650963
11.124077 -41.715294 -33.651596
11.124035 -43.105637 -33.652241
11.123951 -44.495804 -33.653511
11.093668 -45.761383 -34.110432
10.952717 -46.549046 -36.237232
10.932161 -47.828205 -36.547386
10.955583 -49.300121 -36.193977
11.019363 -50.964558 -35.231609
11.019446 -52.342369 -35.230358
11.018825 -53.716778 -35.239731
11.018203 -55.091022 -35.249107
11.017706 -56.465744 -35.256622
11.017209 -57.840347 -35.264118
11.01667 -59.214603 -35.272247
11.019653 -60.608097 -35.227234
18.259792 46.66391 43.404819
17.353493 42.419643 31.249247
16.532904 38.576782 20.243284
15.786492 35.081097 10.232181
15.106091 31.890638 1.1064205
14.483442 28.966883 -7.2447162
13.91015 26.274721 -14.933887
13.38046 23.787481 -22.03825
12.88963 21.482719 -28.621399
12.433583 19.341129 -34.738029
12.008661 17.345846 -40.437222
11.900923 15.867889 -41.882244
12.506989 15.286314 -33.75349
12.725176 14.139084 -30.827112
12.607684 12.607683 -32.402935
12.652787 11.246919 -31.797995
12.725471 9.8975925 -30.823158
12.712906 8.4752674 -30.991669
12.50253 6.9458461 -33.813305
12.502293 5.5565724 -33.816483
16.437599 5.4792061 18.965015
16.495096 3.6655793 19.736174
16.552996 1.8392199 20.512756
16.611303 -1.7936187e-06 21.294794
16.670023 -1.8522277 22.082367
16.72916 -3.7175899 22.875525
16.788376 -5.5961289 23.669748
16.848099 -7.48804 24.470758
16.908247 -9.3934727 25.2775
16.968828 -11.312551 26.090008
12.502861 -9.7244482 -33.808849
12.50343 -11.114161 -33.80122
12.502956 -12.502965 -33.807575
12.50163 -13.890701 -33.825386
12.505566 -15.284586 -33.772583
12.535622 -16.714163 -33.369465
12.581122 -18.172729 -32.759201
12.626954 -19.64193 -32.144485
12.672976 -21.121628 -31.527245
12.719284 -22.612066 -30.906136
12.724439 -24.035055 -30.836996
12.724243 -25.448483 -30.839626
12.724095 -26.86198 -30.841599
12.723948 -28.27544 -30.843584
12.723752 -29.688753 -30.846218
12.723604 -31.102152 -30.848183
12.723408 -32.515377 -30.850819
12.72326 -33.928699 -30.852791
12.723063 -35.341846 -30.855433
12.722965 -36.755238 -30.856749
12.722917 -38.168755 -30.857405
12.722867 -39.582256 -30.858067
12.722769 -40.995594 -30.859386
12.72272 -42.409065 -30.86005
12.722622 -43.822369 -30.861366
12.614777 -44.852543 -32.307812
12.50343 -45.845917 -33.801212
12.501439 -47.227661 -33.827934
12.602624 -49.010208 -32.470814
12.602768 -50.411076 -32.468876
12.602045 -51.808411 -32.478569
12.601371 -53.205788 -32.487621
12.600793 -54.603432 -32.495377
12.600166 -56.00074 -32.503777
12.599588 -57.398129 -32.511524
12.599011 -58.795387 -32.519268
20.087036 46.200188 40.971024
19.099564 42.019039 29.051161
18.204538 38.22953 18.247269
17.389643 34.779293 8.4106035
16.647528 31.630295 -0.54753965
15.966715 28.740093 -8.7656565
15.339465 26.077084 -16.337231
14.759576 23.61532 -23.337124
14.221932 21.332897 -29.827051
13.722134 19.210985 -35.860157
13.446611 17.480598 -39.185986
14.131828 16.958193 -30.914698
14.131228 15.544353 -30.921938
14.334479 14.334483 -28.468487
14.249043 12.824136 -29.499777
14.205384 11.364308 -30.0268
14.377977 10.064579 -27.943407
14.127032 8.4762211 -30.972597
14.126923 7.0634618 -30.973909
18.121134 7.2484546 17.24049
18.181494 5.4544482 17.969101
18.244802 3.6489618 18.733288
18.308552 1.8308549 19.502821
18.372751 3.3279177e-06 20.277754
18.437401 -1.8437392 21.058144
18.502413 -3.7004797 21.842909
18.567696 -5.5703096 22.630957
18.633444 -7.4533815 23.424597
18.699656 -9.349824 24.223858
18.766247 -11.259748 25.027678
18.833023 -13.183117 25.833729
18.900469 -15.120378 26.647886
18.9685 -17.071644 27.469082
19.036922 -19.036924 28.295025
19.10594 -21.016533 29.128136
19.17536 -23.010431 29.966118
14.125725 -18.363443 -30.988386
14.126378 -19.776926 -30.98049
14.127032 -21.19055 -30.972588
14.125834 -22.601334 -30.987062
14.134392 -24.028469 -30.883759
14.171416 -25.508553 -30.436817
14.2237 -27.025034 -29.805714
14.276425 -28.552856 -29.16925
14.329544 -30.092051 -28.528051
14.376623 -31.628572 -27.959763
14.376397 -33.06572 -27.962484
14.376228 -34.502949 -27.964535
14.376002 -35.940006 -27.967255
14.375834 -37.377167 -27.969303
14.375664 -38.814293 -27.971346
14.375551 -40.251541 -27.972708
14.375495 -41.688934 -27.973385
14.368952 -43.106861 -28.052357
14.168839 -43.923412 -30.467924
14.125997 -45.203186 -30.985096
14.167963 -46.75428 -30.47851
14.239515 -48.414356 -29.614798
14.238685 -49.835396 -29.624828
14.238021 -51.256878 -29.632843
14.237357 -52.678219 -29.640862
14.236637 -54.099224 -29.649542
14.235972 -55.520294 -29.65756
14.235254 -56.941021 -29.666233
21.878439 45.745827 38.586422
20.812857 41.625702 26.893034
19.846348 37.888481 16.286865
18.966158 34.483929 6.627924
18.164 31.374178 -2.1746988
17.426943 28.516813 -10.262954
16.747438 25.882404 -17.719618
16.118872 23.445625 -24.617325
15.53578 21.185158 -31.015999
15.075539 19.187044 -36.066551
15.045362 17.780882 -36.39769
15.811927 17.249376 -27.985645
16.087204 16.0872 -24.964828
16.086563 14.624143 -24.971874
16.086821 13.161946 -24.969065
16.087011 11.699649 -24.966946
15.837349 10.078305 -27.706665
15.807523 8.6222849 -28.033989
19.776983 8.9895391 15.525683
19.841068 7.2149363 16.228951
19.909607 5.4298992 16.981052
19.978621 3.6324787 17.738369
20.048111 1.8225518 18.500957
20.118088 2.9568366e-07 19.268869
20.188555 -1.8353307 20.042162
20.25952 -3.6835487 20.820875
20.330675 -5.5447326 21.60173
20.402227 -7.4189887 22.386932
20.47439 -9.3065453 23.178835
20.547066 -11.207493 23.976362
20.619732 -13.121647 24.773762
20.693235 -15.049627 25.580343
20.767366 -16.991486 26.393858
20.841925 -18.947206 27.212042
20.917023 -20.917023 28.036123
20.992769 -22.901201 28.867369
21.06896 -24.899683 29.703444
21.145704 -26.912712 30.545609
21.223566 -28.941231 31.400066
21.302008 -30.984741 32.260838
21.379667 -33.041298 33.113052
21.457895 -35.112915 33.971504
15.804173 -27.298124 -28.070728
15.804918 -28.736217 -28.062567
15.805662 -30.174448 -28.054399
15.805971 -31.611942 -28.051003
15.820061 -33.078312 -27.896389
15.865227 -34.61504 -27.400755
15.924865 -36.192875 -26.746305
15.984952 -37.782616 -26.086918
16.045494 -39.384403 -25.422531
16.085215 -40.944183 -24.986675
15.982288 -42.135128 -26.116144
15.806158 -43.107712 -28.04895
15.803926 -44.538338 -28.073454
15.932548 -46.349228 -26.661991
15.931665 -47.794998 -26.671667
15.930909 -49.240993 -26.679968
15.930091 -50.686657 -26.688948
15.929335 -52.132374 -26.697243
15.928579 -53.577946 -26.705544
15.92776 -55.023178 -26.714516
15.927005 -56.468479 -26.722811
23.634949 45.300312 36.24826
22.494486 41.239891 24.776085
21.459122 37.553474 14.361142
20.516886 34.194805 4.8829837
19.656113 31.122177 -3.7757368
18.864656 28.296982 -11.737161
18.134544 25.690601 -19.081522
17.458773 23.278368 -25.879271
16.831554 21.039446 -32.188595
16.701269 19.484818 -33.499165
17.5515 19.014124 -24.946503
17.85743 17.85743 -21.869081
17.855253 16.367308 -21.890972
17.855471 14.87956 -21.888794
17.855688 13.391761 -21.886595
17.652872 11.768586 -23.926775
17.547155 10.23584 -24.990206
17.749041 8.8745193 -22.959391
21.479153 8.9496441 14.562641
21.548235 7.1827426 15.257541
21.622334 5.4055886 16.002935
21.696947 3.6161566 16.753485
21.772076 1.8143449 17.509214
21.847727 -2.0694265e-06 18.270216
21.923906 -1.8269998 19.036507
22.000505 -3.6667504 19.807047
22.077423 -5.5193572 20.580778
22.154881 -7.3849649 21.359932
22.232882 -9.2636976 22.144566
22.310869 -11.155438 22.929064
22.389862 -13.060749 23.723656
22.469299 -14.979534 24.522753
22.549303 -16.91198 25.327536
22.629995 -18.858328 26.139233
22.711151 -20.818562 26.955591
22.792891 -22.792892 27.777819
22.87534 -24.781614 28.607185
22.958145 -26.784506 29.440163
23.0424 -28.803005 30.287699
23.127153 -30.836212 31.140255
23.211308 -32.882687 31.986774
23.295954 -34.943932 32.83823
17.540993 -36.543739 -25.052187
17.541832 -38.007305 -25.043741
17.542673 -39.471012 -25.035292
17.543512 -40.934868 -25.02684
17.542673 -42.394791 -25.035292
17.539944 -43.849857 -25.062752
17.68384 -45.683258 -23.615253
17.682985 -47.154636 -23.623844
17.68206 -48.625675 -23.633144
17.681208 -50.09676 -23.641737
17.680285 -51.567493 -23.651035
17.67943 -53.038296 -23.659618
17.678576 -54.508949 -23.668203
25.357576 44.8634 33.955204
24.145227 40.861149 22.698013
23.043514 37.224133 12.468133
22.04183 33.910511 3.167063
21.124447 30.874191 -5.3512468
20.280375 28.080521 -13.188828
19.501244 25.501625 -20.423382
18.77969 23.113459 -27.123329
18.415075 21.248165 -30.508949
19.353413 20.842136 -21.796066
19.690849 19.690845 -18.662828
19.688406 18.17391 -18.685501
19.686939 16.658184 -18.699121
19.687185 15.143993 -18.696854
19.577259 13.553482 -19.717566
19.348772 11.906941 -21.839159
19.567039 10.536096 -19.812441
23.087875 10.655948 12.880033
23.161211 8.9081593 13.561005
23.240232 7.150836 14.294765
23.319681 5.3814621 15.032486
23.399792 3.5999696 15.776327
23.480452 1.8061872 16.525295
23.561672 -4.355963e-06 17.279463
23.643456 -1.8187262 18.038849
23.725807 -3.6501269 18.803528
23.80838 -5.4942451 19.570242
23.891525 -7.3512435 20.34231
23.975256 -9.2212543 21.119778
24.058847 -11.104085 21.895952
24.143513 -13.000354 22.6821
24.228899 -14.910092 23.474955
24.314766 -16.833302 24.272278
24.401247 -18.770191 25.075274
24.488468 -20.721012 25.885168
24.576189 -22.685715 26.699705
24.664671 -24.664669 27.521273
24.753403 -26.657511 28.34519
24.843813 -28.665936 29.184702
24.934755 -30.688932 30.029148
25.025578 -32.725758 30.872469
25.11627 -34.776375 31.714579
19.348694 -43.162472 -21.839886
19.346807 -44.646481 -21.857405
19.344921 -46.130192 -21.874928
19.359077 -47.653111 -21.743465
19.43557 -49.336449 -21.033186
19.49342 -50.982792 -20.496042
19.492382 -52.479488 -20.505676
19.491425 -53.976257 -20.514557
28.462618 48.793064 43.909176
27.047291 44.434834 31.705954
25.765924 40.489307 20.657776
24.601185 36.901772 10.615165
23.541624 33.63089 1.4794376
22.569563 30.630116 -6.9018521
21.674597 27.867331 -14.618439
20.847982 25.315411 -21.745659
20.219337 23.107811 -27.165966
20.190834 21.633038 -27.411722
21.219217 21.219212 -18.54479
21.588179 20.046165 -15.363549
21.585453 18.501814 -15.38705
21.584908 16.959568 -15.391761
21.58527 15.418047 -15.38862
21.215443 13.6385 -18.577353
21.215708 12.123257 -18.575068
24.671732 12.335869 11.22344
24.754751 10.60918 11.93924
24.832796 8.8688526 12.612175
24.917149 7.1191797 13.339455
25.002073 5.3575854 14.0717
25.087578 3.5839384 14.808942
25.17367 1.7981194 15.551254
25.260357 -3.855418e-07 16.298666
25.347641 -1.8105428 17.051254
25.435532 -3.6336434 17.809059
25.523653 -5.469358 18.568857
25.612257 -7.317791 19.33283
25.701609 -9.1791468 20.103239
25.790806 -11.053205 20.872316
25.881151 -12.940581 21.651276
25.972128 -14.841216 22.435703
26.063881 -16.755352 23.226801
26.156149 -18.682966 24.022362
26.249207 -20.624378 24.824741
26.342796 -22.579542 25.631672
26.437054 -24.548693 26.444384
26.531715 -26.53171 27.260563
26.628162 -28.530176 28.092157
26.725174 -30.543056 28.928602
26.822474 -32.570148 29.767544
26.919212 -34.610416 30.601646
21.203424 -53.008564 -18.680971
30.192152 48.307438 41.466717
28.70488 44.014153 29.498081
27.357391 40.124172 18.654327
26.133228 36.586514 8.8030176
25.016886 33.355854 -0.18059313
23.992014 30.389887 -8.4281425
23.047808 27.657372 -16.02652
22.175196 25.131889 -23.04875
22.033878 23.5028 -24.186001
23.155149 23.155149 -15.162709
23.558271 21.98772 -11.918631
23.555243 20.414547 -11.943013
23.552616 18.842094 -11.96414
23.552919 17.272135 -11.961699
23.151148 15.434095 -15.194907
23.152025 13.891218 -15.18784
26.231176 13.989964 9.5912495
26.31889 12.282148 10.297111
26.40719 10.562869 11.007704
26.489824 8.8299427 11.672694
26.579409 7.0878344 12.393606
26.669598 5.3339243 13.119393
26.760403 3.5680504 13.850139
26.851828 1.790125 14.585862
26.94388 1.5588184e-06 15.326641
27.036564 -1.8024378 16.07251
27.129755 -3.6173053 16.822462
27.223322 -5.4446659 17.57542
27.317535 -7.284677 18.333595
27.411581 -9.1371984 19.090425
27.50683 -11.002736 19.85692
27.60288 -12.881341 20.629871
27.699465 -14.773048 21.407131
27.796869 -16.678122 22.190958
27.894817 -18.59655 22.9792
27.993458 -20.528532 23.773003
28.092945 -22.474354 24.573599
28.192993 -24.433929 25.378748
28.293468 -26.407238 26.187298
28.395689 -28.395689 27.009907
28.498652 -30.398556 27.838469
28.602362 -32.416012 28.673082
28.705181 -34.446217 29.500496
31.8876 47.831402 39.072411
30.331533 43.601582 27.332798
28.920412 39.765564 16.686691
27.639313 36.276596 7.0215721
26.468216 33.085274 -1.8136832
25.392324 30.153383 -9.9306602
24.400482 27.450546 -17.413532
23.944748 25.441296 -20.851782
25.164972 25.164967 -11.645892
25.602661 24.002493 -8.3437843
25.53372 22.342003 -8.8639107
25.595953 20.796705 -8.3944016
25.594389 19.195793 -8.4062157
25.194294 17.321075 -11.424692
25.161407 15.725878 -11.672794
27.767002 15.618937 7.9849124
27.859142 13.929574 8.6800385
27.951895 12.228953 9.3798027
28.038155 10.514305 10.030589
28.132242 8.7913303 10.740413
28.226959 7.0567369 11.45502
28.322321 5.310432 12.174447
28.418324 3.5522909 12.898745
28.514984 1.7821867 13.627985
28.612303 -3.2736639e-06 14.362199
28.710287 -1.7943888 15.101432
28.808947 -3.6011176 15.845758
28.907856 -5.4202261 16.591982
29.00745 -7.2518582 17.343351
29.106718 -9.0958462 18.092274
29.207397 -10.952775 18.851845
29.30892 -12.822651 19.617785
29.411007 -14.705503 20.38796
29.513805 -16.601515 21.163504
29.617474 -18.510921 21.945631
29.721724 -20.433683 22.732134
29.82671 -22.370039 23.524197
29.932592 -24.320227 24.323015
30.038614 -26.283791 25.122892
30.146629 -28.262463 25.937805
30.255426 -30.255426 26.758604
30.365168 -32.262997 27.586544
30.474123 -34.283382 28.408543
33.549957 47.364643 36.724812
31.927975 43.196678 25.207722
30.456186 39.413883 14.75709
29.1201 35.971893 5.2700491
27.896187 32.819046 -3.4205048
26.771008 29.920542 -11.409991
25.948526 27.474905 -17.250114
26.016182 26.016178 -16.769716
27.248663 25.6458 -8.0183325
27.455933 24.225819 -6.5465951
27.48041 22.630924 -6.3727961
27.323038 20.894085 -7.4902229
27.413502 19.350706 -6.8478804
27.247471 17.630711 -8.0267992
29.279356 17.22315 6.4008651
29.375916 15.55195 7.0864997
29.472975 13.869635 7.7756782
29.570675 12.176157 8.4694252
29.661396 10.468722 9.1135912
29.760494 8.7530861 9.8172588
29.860258 7.0259442 10.525652
29.960695 5.2871799 11.238808
30.061808 3.536684 11.956771
30.163605 1.7743306 12.679592
30.266096 -4.919641e-06 13.407342
30.369286 -1.7864314 14.140046
30.473179 -3.5850806 14.877752
30.577335 -5.3960018 15.617346
30.68115 -7.2190928 16.354477
30.786585 -9.054882 17.10313
30.892591 -10.903267 17.855852
30.999332 -12.764427 18.613771
31.10697 -14.638577 19.378065
31.215199 -16.525694 20.146566
31.324183 -18.425989 20.920424
31.434092 -20.339712 21.700842
31.544613 -22.266792 22.48562
31.656076 -24.207592 23.277077
31.767519 -26.161489 24.068394
31.88122 -28.130493 24.875731
31.995901 -30.113794 25.690037
32.111244 -32.111244 26.509037
32.226421 -34.122093 27.32687
35.18 46.906677 34.421349
33.495037 42.799217 23.121756
31.966896 39.070648 12.873808
30.576216 35.672256 3.5477104
29.301361 32.557068 -5.0016537
28.128563 29.691256 -12.86663
27.992407 27.992413 -13.779714
29.416941 27.782665 -4.2265701
29.790199 26.480171 -1.7234522
29.885946 24.904951 -1.0813642
29.919447 23.270678 -0.85669798
29.769751 21.500374 -1.8605694
29.415104 19.610069 -4.2388959
29.745975 18.178099 -2.0200169
30.869862 17.149927 5.5169339
30.971087 15.485541 6.1957564
31.073124 13.810276 6.8800416
31.175541 12.123819 7.566864
31.270622 10.423539 8.2045031
31.374647 8.7151785 8.9021053
31.479364 6.9954181 9.604351
31.584785 5.2641311 10.311308
31.690912 3.5212095 11.023021
31.797756 1.7665414 11.739532
31.905323 -2.4511871e-06 12.460889
32.013466 -1.7785316 13.186104
32.122498 -3.5691667 13.917296
32.2318 -5.3719692 14.650311
32.340744 -7.186832 15.380896
32.451221 -9.014225 16.121777
32.562622 -10.854214 16.86883
32.674622 -12.706799 17.619936
32.787399 -14.572178 18.376226
32.901123 -16.450563 19.138861
33.015469 -18.341932 19.905697
33.130779 -20.246592 20.678995
33.246731 -22.164488 21.456577
33.363499 -24.095863 22.239641
33.480412 -26.040316 23.023653
33.599686 -27.999739 23.823523
33.719982 -29.973322 24.630262
33.840969 -31.96092 25.441631
33.962303 -33.962307 26.255323
36.779011 46.457699 32.163231
35.033527 42.409004 21.073835
33.451519 38.733326 11.023024
32.008274 35.37756 1.8538159
30.684282 32.299244 -6.5577826
30.13641 30.136406 -10.038514
31.755877 30.084515 0.25026661
31.856911 28.50355 0.89216465
31.660952 26.661854 -0.35279185
31.662394 24.996626 -0.34364319
31.664986 23.332092 -0.32716087
31.66931 21.668474 -0.29969844
32.016228 20.220774 1.9043444
32.341343 18.723942 3.9698577
32.446751 17.07723 4.6395321
32.552845 15.419772 5.3135705
32.659485 13.751359 5.9910669
32.757721 12.068631 6.6151986
32.865864 10.378694 7.3022332
32.97472 8.6775599 7.9938331
33.084305 6.9651151 8.6900377
33.194618 5.24125 9.390872
33.305668 3.5058608 10.096402
33.417465 1.7588168 10.806658
33.530014 -4.2097633e-07 11.521712
33.643322 -1.7706993 12.24159
33.757401 -3.5534127 12.96636
33.871101 -5.3480678 13.688716
33.985569 -7.1548572 14.415962
34.101151 -8.9739904 15.150259
34.217522 -10.805531 15.889575
34.334854 -12.649686 16.635035
34.452827 -14.506454 17.384531
34.571781 -16.376108 18.140284
34.691395 -18.258627 18.900179
34.811829 -20.154219 19.665346
34.933285 -22.063128 20.436962
35.055412 -23.985287 21.212868
35.177505 -25.920263 21.988554
35.302246 -27.870199 22.78105
35.428055 -29.834154 23.580336
35.554581 -31.811991 24.384169
35.682014 -33.804008 25.193771
38.347706 46.017246 29.947941
36.544582 42.026272 19.065107
34.910728 38.401798 9.2039232
33.41687 35.087715 0.18769635
32.36861 32.368607 -6.1391249
34.005276 32.305012 3.7390316
34.617226 31.155497 7.4324894
34.618046 29.425335 7.4374194
34.618206 27.694574 7.438417
34.007801 25.50585 3.7542694
34.012379 23.80867 3.7819107
34.013329 22.108658 3.7876375
34.006695 20.404018 3.747611
34.041622 18.722889 3.9584043
34.153042 17.076523 4.630878
34.26503 15.419269 5.3067966
34.391151 13.756459 6.0680218
34.334736 12.017154 5.7274981
34.447598 10.334282 6.4086881
34.561203 8.6403036 7.0943708
34.675564 6.9351134 7.7845898
34.790684 5.218605 8.4793911
34.90657 3.4906559 9.1788282
35.023228 1.7511637 9.8829298
35.140671 -4.7926046e-06 10.591762
35.258907 -1.7629434 11.305359
35.377937 -3.5377984 12.023777
35.49588 -5.3243852 12.735647
35.615829 -7.1231675 13.459587
35.736416 -8.934103 14.187373
35.857819 -10.75735 14.920125
35.980228 -12.593083 15.658935
36.103298 -14.44132 16.401722
36.227215 -16.302246 17.149611
36.352161 -18.176086 17.903755
36.477795 -20.062788 18.662008
36.604481 -21.962694 19.426632
36.731865 -23.875713 20.195467
36.859028 -25.801317 20.96295
36.989315 -27.741982 21.749304
37.120338 -29.696268 22.540102
37.252289 -31.66445 23.336515
37.38538 -33.646847 24.139767
39.88694 45.585075 27.774254
38.031048 41.653057 17.106373
36.345169 38.075882 7.4157095
34.837563 34.837566 -1.2502052
34.693779 33.041695 -2.0767062
36.449371 32.978001 8.0146914
37.09613 31.796682 11.732329
37.097382 30.031212 11.739534
37.09774 28.264936 11.741588
37.097919 26.498524 11.742614
37.097919 24.731947 11.742618
37.097919 22.965385 11.742611
37.097919 21.198809 11.742614
37.097919 19.432241 11.742621
36.940594 17.590757 10.838264
36.456284 15.624125 8.0544052
36.523972 13.913898 8.4434948
36.453346 12.151118 8.0375195
36.455246 10.415782 8.0484467
36.447815 8.678051 8.0057507
36.452999 6.9434257 8.0355453
36.524323 5.217762 8.4454861
36.645088 3.4900112 9.1396732
36.767357 1.7508307 9.8425083
36.787407 1.4042821e-06 9.9577494
36.860214 -1.7552465 10.376273
36.984108 -3.5222931 11.08842
37.106869 -5.3009825 11.794055
37.231525 -7.0917206 12.510596
37.357204 -8.8945704 13.233021
37.483551 -10.709586 13.959282
37.610756 -12.536917 14.690471
37.739014 -14.376768 15.427712
37.867966 -16.229132 16.16893
37.997982 -18.094276 16.916298
38.128708 -19.972181 17.667727
38.260338 -21.863045 18.424349
38.39307 -23.767141 19.187325
38.525185 -25.683462 19.946733
38.660736 -27.614815 20.725893
38.79705 -29.559656 21.509443
38.93433 -31.518263 22.298536
39.072781 -33.490955 23.094378
41.397522 45.160942 25.641005
39.491352 41.286411 15.182108
37.755466 37.75547 5.6575804
37.116333 35.42923 2.1507494
38.996338 35.451214 12.466062
39.678036 34.267403 16.20644
39.679405 32.46497 16.213936
39.680576 30.662266 16.220379
39.556103 28.76807 15.537406
39.677254 27.052677 16.202152
39.681946 25.252144 16.227884
39.681946 23.44842 16.22788
39.681946 21.644697 16.227875
39.623985 19.811998 15.909879
39.000301 17.727409 12.48781
39.11636 16.002148 13.124614
38.990868 14.178503 12.436035
39.674126 12.623587 16.184992
39.670223 10.819151 16.163572
39.669636 9.01583 16.160347
39.669247 7.2125902 16.158203
39.668854 5.4093852 16.156063
39.66827 3.6062055 16.152851
39.667881 1.8030852 16.150709
39.667294 -3.2580194e-06 16.147497
38.971817 -1.7714458 12.331532
38.982754 -3.543891 12.391537
39.142582 -5.337626 13.268492
39.002758 -7.0914092 12.501279
39.133648 -8.8940105 13.219462
39.265423 -10.708749 13.942481
39.359406 -12.523444 14.458148
39.356518 -14.311466 14.44233
39.494061 -16.156662 15.196988
39.62886 -18.013119 15.936616
39.764778 -19.882389 16.682396
39.90144 -21.764421 17.432215
40.03904 -23.659435 18.187214
40.176189 -25.566666 18.939741
40.316906 -27.488798 19.711823
40.458408 -29.424297 20.488218
40.600906 -31.37343 21.270094
40.744621 -33.336506 22.058622
40.888729 -35.312996 22.849331
45.04163 48.958298 34.890598
42.880478 44.74485 23.548252
40.926163 40.926174 13.29144
39.641396 37.917858 6.5485926
41.654701 38.032547 17.115021
42.370396 36.843826 20.871199
42.371891 35.002872 20.879038
42.373383 33.161774 20.886864
41.755253 30.862585 17.642736
42.020611 29.23173 19.035404
42.376793 27.637043 20.904762
42.376793 25.794577 20.904762
42.377007 23.952217 20.90588
42.377007 22.109739 20.905872
41.648933 19.919064 17.084751
41.826988 18.185648 18.019222
41.636997 16.292736 17.022095
42.377216 14.7399 20.906998
42.372528 12.895982 20.882393
42.36784 11.052478 20.857784
42.366138 9.2100306 20.848841
42.365711 7.3679438 20.846601
42.365284 5.5259075 20.844357
42.364643 3.6838794 20.841007
42.36422 1.8419194 20.838774
42.083168 -4.8790412e-06 19.363718
41.618687 -1.8095034 16.926004
41.649757 -3.6217172 17.089075
41.659443 -5.4338369 17.139885
42.391296 -7.3724017 20.980865
42.390656 -9.2153597 20.977514
42.389587 -11.058159 20.971918
42.388523 -12.900851 20.966312
42.387455 -14.743467 20.960718
41.619923 -16.28606 16.932484
41.620129 -18.095707 16.933565
41.620541 -19.90547 16.935717
41.711628 -21.762592 17.41379
41.854004 -23.656614 18.16102
41.815983 -25.453213 17.961479
42.020397 -27.404608 19.034304
42.104622 -29.290173 19.476315
42.252449 -31.230072 20.252171
42.401108 -33.183479 21.032383
42.550819 -35.150673 21.818089
