# .PCD v0.7 - Point Cloud Data file format
VERSION 0.7
FIELDS x y z
SIZE 4 4 4
TYPE F F F
COUNT 1 1 1
WIDTH 1520
HEIGHT 1
VIEWPOINT 0 0 0 1 0 0 0
POINTS 1520
DATA ascii
-13.938062 37.168163 28.63406
-13.788102 34.470268 25.617123
-13.641268 31.829626 22.663029
-13.497527 29.244642 19.771206
-13.35685 26.713707 16.941006
-13.219011 24.234858 14.167894
-13.083988 21.806654 11.451444
-12.951756 19.427635 8.7911425
-12.82211 17.096155 6.1828837
-12.695093 14.810946 3.6274984
-12.570511 12.570518 1.1210912
-12.44835 10.37363 -1.3365984
-12.328596 8.2190723 -3.745878
-12.211068 6.1055331 -6.1103263
-12.095868 4.0319629 -8.4279861
-11.982769 1.9971317 -10.703378
-11.871765 -1.0995466e-06 -12.936586
-11.762849 -1.9604732 -15.12782
-11.655864 -3.8852897 -17.280188
-11.550857 -5.7754226 -19.39279
-11.447675 -7.6317797 -21.468613
-11.34637 -9.4553099 -23.506739
-11.246794 -11.24679 -25.51005
-11.148996 -13.007162 -27.477583
-11.052841 -14.737112 -29.412088
-10.958373 -16.437551 -31.312632
-10.865463 -18.109108 -33.181816
-10.774158 -19.752628 -35.018738
-10.684334 -21.368668 -36.825874
-10.595994 -22.957987 -38.603127
-10.509143 -24.521338 -40.35043
-10.423666 -26.059166 -42.070107
-10.339605 -27.572285 -43.761261
-10.256852 -29.061077 -45.426125
-10.175451 -30.526352 -47.063801
-10.095295 -31.968433 -48.676418
-10.016428 -33.388088 -50.2631
-9.9387474 -34.78561 -51.825909
-9.862298 -36.161766 -53.363941
-9.7869816 -37.516758 -54.879211
-9.7324781 -38.929913 -55.975731
-9.6973925 -40.4058 -56.681591
-9.6858225 -41.971893 -56.914383
-9.6857195 -43.585743 -56.916435
-9.6856165 -45.199547 -56.918503
-9.6854801 -46.813152 -56.921253
-9.6856852 -48.428425 -56.91713
-9.8852873 -51.073986 -52.901436
-9.885252 -52.721344 -52.902157
-9.8852167 -54.36869 -52.90287
-9.8851805 -56.016018 -52.903595
-9.8851442 -57.663338 -52.904312
-9.8851442 -59.310863 -52.904308
-9.8067455 -60.47493 -54.481583
-9.8020153 -62.079437 -54.57674
-9.8023653 -63.715378 -54.569687
-9.802681 -65.351212 -54.563354
-9.803031 -66.987373 -54.556305
-9.803381 -68.623665 -54.549259
-12.100853 50.823589 40.362389
-11.965213 47.860863 37.087742
-11.832582 44.963825 33.885715
-11.702916 42.130505 30.755341
-11.576005 39.358421 27.691401
-11.451816 36.645817 24.693224
-11.330318 33.990959 21.76004
-11.211319 31.391699 18.887104
-11.094791 28.846453 16.073902
-10.980715 26.353716 13.319851
-10.868909 23.911604 10.620602
-10.759407 21.518818 7.9769893
-10.652039 19.173681 5.384912
-10.546794 16.874876 2.844063
-10.443656 14.621123 0.35408863
-10.342467 12.410967 -2.0887928
-10.243222 10.243229 -4.4848018
-10.145908 8.1167307 -6.8341584
-10.05047 6.0302863 -9.1382427
-9.956768 3.9827013 -11.40042
-9.8647966 1.9729569 -13.620815
-9.7745495 8.026318e-06 -15.799563
-9.6858988 -1.9371853 -17.939775
-9.5988817 -3.8395479 -20.040571
-9.5133743 -5.7080216 -22.104887
-9.4294167 -7.5435328 -24.131813
-9.3468885 -9.3468809 -26.124222
-9.26583 -11.118999 -28.081123
-9.1861296 -12.86058 -30.005276
-9.1078243 -14.572513 -31.895748
-9.0308065 -16.255449 -33.755116
-8.9551153 -17.910229 -35.582436
-8.8806486 -19.537418 -37.380238
-8.8074102 -21.137789 -39.148365
-8.7354031 -22.712048 -40.88678
-8.6645308 -24.260681 -42.597782
-8.5948315 -25.784496 -44.280464
-8.5262136 -27.283888 -45.937057
-8.4587135 -28.75963 -47.566654
-8.3922424 -30.21207 -49.171406
-8.3268394 -31.641985 -50.750385
-8.2624168 -33.049671 -52.305672
-8.1990137 -34.435856 -53.836369
-8.1555853 -35.884571 -54.884827
-8.1260786 -37.379963 -55.59716
-8.1187782 -38.970131 -55.773411
-8.1186924 -40.593464 -55.77549
-8.1186056 -42.216747 -55.777584
-8.1185198 -43.840004 -55.779663
-8.2861309 -46.402328 -51.733158
-8.2861013 -48.059387 -51.733883
-8.2860708 -49.716423 -51.734612
-8.2860413 -51.373451 -51.735336
-8.2860117 -53.030468 -51.736053
-8.2859812 -54.687469 -51.736782
-8.2859812 -56.344666 -51.736786
-8.2859516 -58.001656 -51.737507
-8.2859211 -59.658634 -51.738228
-8.2227793 -60.848564 -53.262623
-8.2171936 -62.450676 -53.397453
-8.2173119 -64.095024 -53.394608
-8.2176075 -65.74086 -53.38747
-8.2179031 -67.386795 -53.380344
-8.2181978 -69.032867 -53.373215
-9.7569504 56.10247 42.663975
-9.6467314 53.057034 39.337841
-9.5390253 50.079887 36.087498
-9.4336491 47.168251 32.907478
-9.330575 44.32024 29.796963
-9.2297754 41.533997 26.755072
-9.1310854 38.807117 23.776821
-9.0345287 36.138111 20.862947
-8.9399481 33.524811 18.008745
-8.8473282 30.965645 15.213661
-8.756649 28.45911 12.477179
-8.6677685 26.003307 9.7949896
-8.5806742 23.596855 7.1666775
-8.4953527 21.238379 4.5918775
-8.4116716 18.926266 2.0665946
-8.3296242 16.659252 -0.40942091
-8.249198 14.436108 -2.8364909
-8.1702738 12.255415 -5.218235
-8.0928822 10.116107 -7.5537457
-8.0169773 8.016983 -9.8443651
-7.9424491 5.9568415 -12.093462
-7.8692937 3.9346502 -14.301123
-7.7975063 1.9493847 -16.467495
-7.726985 1.8893235e-06 -18.595669
-7.6577592 -1.9144341 -20.684746
-7.5897312 -3.794863 -22.737659
-7.5229325 -5.6421967 -24.753496
-7.4572692 -7.457274 -26.735058
-7.3927717 -9.2409611 -28.68145
-7.3293514 -10.994018 -30.595333
-7.2670383 -12.717314 -32.475792
-7.2057476 -14.411497 -34.325394
-7.1455107 -16.077389 -36.143215
-7.0862441 -17.715607 -37.93174
-7.0279531 -19.326864 -39.690826
-6.9706392 -20.911926 -41.420403
-6.9142275 -22.471243 -43.122791
-6.8587465 -24.005606 -44.797077
-6.8041239 -25.515457 -46.445477
-6.7503891 -27.001556 -48.067062
-6.6974716 -28.464254 -49.663975
-6.645402 -29.90431 -51.235321
-6.5941114 -31.322023 -52.783154
-6.5610223 -32.805107 -53.781708
-6.5372224 -34.320415 -54.49992
-6.533277 -35.933014 -54.619003
-6.5332065 -37.565941 -54.621109
-6.5331364 -39.198818 -54.62323
-6.5330667 -40.831665 -54.625332
-6.6680274 -43.342175 -50.552525
-6.6680274 -45.009186 -50.552528
-6.6680036 -46.676029 -50.553253
-6.6679788 -48.342854 -50.553993
-6.6679544 -50.009663 -50.554726
-6.6679306 -51.676456 -50.55547
-6.6679306 -53.343441 -50.555454
-6.6679063 -55.010223 -50.55619
-6.6678815 -56.676998 -50.556923
-6.6678576 -58.34375 -50.557663
-6.6678333 -60.010494 -50.558399
-6.6678085 -61.677235 -50.559132
-6.614953 -62.842049 -52.154186
-6.6132789 -64.479469 -52.204712
-6.6135187 -66.135178 -52.197502
-6.6137338 -67.790764 -52.190994
-6.6139727 -69.446709 -52.183788
-6.6150727 -71.11203 -52.150585
-7.3758221 61.465187 45.00211
-7.2918868 58.335098 41.624786
-7.2098017 55.275154 38.32196
-7.1295815 52.283604 35.094143
-7.0510907 49.357639 31.935928
-6.974309 46.495396 28.84647
-6.8992167 43.695045 25.824978
-6.8256898 40.954155 22.866493
-6.7537136 38.271049 19.970394
-6.6832724 35.644127 17.136063
-6.6142535 33.071278 14.358943
-6.5466456 30.551022 11.6386
-6.4804363 28.08189 8.9745483
-6.4155221 25.66209 6.3626313
-6.3519263 23.290392 3.8037047
-6.2895489 20.965166 1.293856
-6.228385 18.685152 -1.1671855
-6.1684275 16.449141 -3.579706
-6.1095858 14.2557 -5.9473128
-6.0518827 12.10377 -8.2691164
-5.9952855 9.9921446 -10.546389
-5.9397116 7.9196138 -12.78251
-5.8851838 5.8851871 -14.976546
-5.8316236 3.8877583 -17.131668
-5.7790284 1.9263452 -19.247913
-5.7273984 2.7126114e-06 -21.325352
-5.6766591 -1.8922168 -23.366947
-5.6268334 -3.7512257 -25.371763
-5.5778522 -5.5778461 -27.342615
-5.5297389 -7.3729801 -29.278538
-5.4824266 -9.1373835 -31.182234
-5.4359388 -10.871877 -33.052761
-5.3902111 -12.577165 -34.892696
-5.3452678 -14.254053 -36.701084
-5.3010473 -15.90314 -38.480396
-5.2575517 -17.525171 -40.230511
-5.2147841 -19.120876 -41.951332
-5.1726875 -20.690744 -43.645187
-5.1312842 -22.235559 -45.311134
-5.0905194 -23.755753 -46.951374
-5.050416 -25.252077 -48.565014
-5.010921 -26.724907 -50.154171
-4.9720573 -28.17499 -51.717926
-4.9484916 -29.690948 -52.666138
-4.9304934 -31.226454 -53.390331
-4.9290056 -32.860039 -53.450203
-4.9289522 -34.502666 -53.452335
-4.9288993 -36.145256 -53.454487
-4.9288812 -37.788086 -53.455196
-5.0307293 -40.245838 -49.357136
-5.0307293 -41.922741 -49.357143
-5.0307112 -43.599495 -49.357887
-5.0306926 -45.27623 -49.35862
-5.030674 -46.952961 -49.359371
-5.0306554 -48.629673 -49.360111
-5.0306373 -50.306377 -49.360847
-5.0306373 -51.98325 -49.360855
-5.0306187 -53.659927 -49.361599
-5.0306005 -55.336605 -49.362343
-5.030582 -57.013264 -49.363075
-5.0305634 -58.689907 -49.363819
-5.0305448 -60.366543 -49.364555
-5.0305448 -62.043385 -49.364571
-4.9947028 -63.266235 -50.806751
-4.9907055 -64.879166 -50.967583
-4.9900517 -66.534027 -50.993874
-4.9902334 -68.19986 -50.986572
-4.9904151 -69.865807 -50.979279
-4.9904876 -71.530319 -50.976353
-4.9566016 66.914131 47.379288
-4.8997231 63.696404 43.946396
-4.8441615 60.552025 40.59293
-4.7898202 57.47784 37.313168
-4.7366848 54.471878 34.106155
-4.6847396 51.532146 30.970972
-4.6338973 48.655933 27.902388
-4.5841475 45.841476 24.899704
-4.5354762 43.087029 21.962143
-4.4878063 40.390255 19.084988
-4.4411492 37.749767 16.268991
-4.395431 35.163452 13.509667
-4.3506451 32.629848 10.806575
-4.3067822 30.147478 8.1592398
-4.2637753 27.71454 5.5635481
-4.2216191 25.32971 3.0191901
-4.1803069 22.991684 0.52580011
-4.1397772 20.698895 -1.9204065
-4.1000257 18.450111 -4.3196106
-4.0610485 16.244194 -6.6721044
-4.0228052 14.079826 -8.9802923
-3.9852929 11.95588 -11.244363
-3.9484568 9.8711481 -13.467623
-3.912312 7.8246198 -15.649147
-3.8768065 5.8152189 -17.792099
-3.8419394 3.8419409 -19.896492
-3.8077104 1.9038612 -21.96242
-3.77407 9.0435333e-07 -23.99279
-3.741034 -1.8705156 -25.986691
-3.7085567 -3.7085478 -27.94689
-3.6766527 -5.5149732 -29.872452
-3.6452785 -7.290555 -31.766045
-3.6144495 -9.0361261 -33.626724
-3.5841238 -10.752372 -35.457043
-3.5543165 -12.440105 -37.256088
-3.5249872 -14.09995 -39.026253
-3.4961379 -15.732621 -40.767456
-3.4677706 -17.33885 -42.47961
-3.4398465 -18.919163 -44.164959
-3.4123814 -20.474281 -45.822636
-3.3853388 -22.0047 -47.454784
-3.3587341 -23.511133 -49.060535
-3.3325319 -24.993982 -50.641987
-3.3176868 -26.541492 -51.537952
-3.3056235 -28.097805 -52.266014
-3.3055878 -29.750286 -52.268192
-3.305552 -31.402737 -52.270355
-3.305516 -33.055157 -52.272518
-3.305552 -34.70829 -52.270355
-3.373862 -37.11248 -48.147469
-3.3738499 -38.799274 -48.148212
-3.3738499 -40.486202 -48.148216
-3.3738372 -42.172966 -48.148968
-3.3738248 -43.859722 -48.149712
-3.3738124 -45.546467 -48.150478
-3.3738 -47.233196 -48.15123
-3.3738 -48.920101 -48.151215
-3.3737874 -50.606812 -48.151978
-3.373775 -52.29351 -48.152714
-3.3737626 -53.980202 -48.153469
-3.3737502 -55.666878 -48.154232
-3.3737378 -57.353542 -48.154968
-3.3737378 -59.040405 -48.154976
-3.3737252 -60.727055 -48.155727
-3.373713 -62.413685 -48.156487
-3.3737004 -64.100311 -48.157219
-3.3469465 -65.265457 -49.771965
-3.3468363 -66.936729 -49.77861
-3.3470201 -68.613907 -49.767532
-3.3471305 -70.289734 -49.76088
-3.3472531 -71.965935 -49.753487
-3.3493857 -73.686493 -49.624744
-2.4982984 72.450653 49.793236
-2.4694145 69.143616 46.306641
-2.4411778 65.911804 42.898174
-2.4135795 62.753075 39.566757
-2.3866107 59.665272 36.311359
-2.3602259 56.645428 33.126408
-2.3344181 53.69162 30.011112
-2.30918 50.801964 26.964626
-2.2844708 47.973885 23.981928
-2.2602954 45.205917 21.063745
-2.2366157 42.495705 18.205349
-2.2134271 39.841686 15.406211
-2.1907248 37.242325 12.665797
-2.1684732 34.695572 9.9798012
-2.1466689 32.200039 7.3477988
-2.1253088 29.754322 4.7694063
-2.1043599 27.356682 2.2406473
-2.0838199 25.005842 -0.23876095
-2.0636864 22.700548 -2.6690867
-2.0439289 20.439299 -5.0540266
-2.0245552 18.220999 -7.3926406
-2.0055454 16.044363 -9.6873379
-1.9868977 13.908288 -11.938293
-1.9685853 11.811512 -14.1488
-1.9506155 9.7530823 -16.317949
-1.9329627 7.7318568 -18.448818
-1.9156266 5.7468834 -20.54147
-1.8986065 3.7972143 -22.595974
-1.8818787 1.881881 -24.615221
-1.8654504 4.7075637e-06 -26.598278
-1.8492991 -1.8492923 -28.547916
-1.8334323 -3.6668584 -30.463192
-1.8178284 -5.4534893 -32.34676
-1.802495 -7.2099781 -34.197681
-1.7874109 -8.9370508 -36.018478
-1.7725842 -10.635505 -37.80822
-1.7579947 -12.305956 -39.569336
-1.7436433 -13.949142 -41.301704
-1.7295308 -15.565779 -43.005215
-1.7156388 -17.156387 -44.682148
-1.7019743 -18.721706 -46.331604
-1.6885194 -20.262236 -47.955734
-1.6752818 -21.778666 -49.553646
-1.6682901 -23.356066 -50.397633
-1.6627216 -24.940823 -51.069801
-1.6627034 -26.603252 -51.071995
-1.6626854 -28.265654 -51.074177
-1.6626673 -29.928011 -51.076374
-1.6627096 -31.591482 -51.071259
-1.6970729 -33.941452 -46.923252
-1.6970667 -35.638397 -46.924004
-1.6970667 -37.335468 -46.924004
-1.6970603 -39.032394 -46.924763
-1.6970539 -40.72929 -46.925529
-1.6970476 -42.426189 -46.926296
-1.6970413 -44.12307 -46.927055
-1.6872735 -45.556389 -48.106144
-1.6970351 -47.516983 -46.927807
-1.6970288 -49.213833 -46.928566
-1.6970224 -50.910675 -46.929321
-1.6970162 -52.607498 -46.930092
-1.6970099 -54.304317 -46.930855
-1.6970036 -56.001118 -46.931606
-1.6970036 -57.698124 -46.931614
-1.6969974 -59.394901 -46.932373
-1.696991 -61.091671 -46.933128
-1.6969846 -62.788441 -46.933887
-1.6942812 -64.38269 -47.260231
-1.6841044 -65.680069 -48.488674
-1.6836393 -67.345581 -48.544804
-1.6837262 -69.032768 -48.53434
-1.6837881 -70.719101 -48.526848
-1.6838502 -72.405556 -48.519363
-1.6838254 -74.08831 -48.522362
-4.8105356e-23 74.678062 48.703213
-9.1966477e-24 71.356773 45.240044
-7.2958066e-23 68.111557 41.857342
1.1145082e-23 64.939064 38.549301
-4.5680859e-23 61.837597 35.316467
-4.777797e-23 58.804131 32.153366
1.8714008e-23 55.836761 29.059198
4.4345114e-24 52.933666 26.033157
-3.4794414e-23 50.092201 23.070244
-2.6185345e-23 47.310703 20.169886
-5.8879682e-23 44.587524 17.331394
-3.5767477e-23 41.920391 14.550272
1.7373614e-23 39.307819 11.82604
-6.2183558e-23 36.748344 9.1582079
-1.8745399e-23 34.239986 6.542625
-8.795269e-24 31.781555 3.9801443
2.8665896e-24 29.371292 1.4668459
-2.9491117e-23 27.00794 -0.99754149
-3.5729565e-23 24.69026 -3.4133222
-6.8956023e-23 22.416697 -5.7840853
-4.931705e-23 20.186213 -8.1089516
-6.5899711e-23 17.997503 -10.390269
-3.9991685e-23 15.849462 -12.628241
-6.5968298e-23 13.740821 -14.826115
-7.0585444e-23 11.670644 -16.982952
-1.3326331e-23 9.637764 -19.101866
-7.3656233e-23 7.6412611 -21.182875
-5.7790593e-23 5.6801634 -23.226049
1.8009726e-24 3.7535033 -25.234243
-8.6205546e-23 1.8604169 -27.206566
-2.3569615e-23 -4.3043965e-06 -29.145721
6.354871e-24 -1.8285652 -31.0508
-2.1158521e-23 -3.6260858 -32.924431
-6.5855655e-23 -5.393364 -34.765652
-6.3860518e-23 -7.131135 -36.576996
-6.7498366e-23 -8.8401661 -38.357529
-7.7256651e-24 -10.521117 -40.109638
-9.7154689e-24 -12.174681 -41.833229
-6.3683857e-23 -13.801583 -43.528191
-5.8339394e-23 -15.402377 -45.196777
-3.5380509e-23 -16.977785 -46.838062
-7.4101428e-23 -18.528284 -48.454243
-9.7968712e-23 -20.134209 -49.243515
-6.6692194e-23 -21.745838 -49.858421
-7.0395032e-23 -23.418339 -49.860641
1.3249156e-23 -25.090811 -49.862843
-1.1561429e-23 -26.763233 -49.865059
-1.9679883e-23 -28.436977 -49.85767
-1.0238275e-23 -30.732071 -45.684212
-6.6893278e-23 -32.439281 -45.68499
-5.0756387e-23 -34.146484 -45.685764
-8.0853282e-23 -35.853817 -45.685764
1.4580548e-24 -37.561001 -45.686523
-6.8399415e-23 -39.268166 -45.687298
-7.2082443e-23 -40.975327 -45.688068
-2.9735733e-24 -42.682476 -45.688831
-4.3624343e-23 -44.389774 -45.688831
-5.3892396e-23 -46.096901 -45.689606
-1.9548415e-24 -47.804016 -45.690369
-2.9394207e-23 -49.511112 -45.691147
-5.6833579e-23 -51.218204 -45.691917
-1.4789771e-23 -52.925285 -45.692684
-7.2611857e-23 -54.632545 -45.692688
-3.0568054e-23 -56.339611 -45.693443
-8.904133e-23 -58.046642 -45.694229
-5.6891273e-23 -59.753685 -45.694992
-3.3108398e-23 -61.271305 -46.33083
-4.6969886e-23 -62.666115 -47.332947
-7.3672073e-23 -64.366463 -47.311752
-2.26647e-23 -69.454712 -47.292053
-3.8201678e-23 -71.153748 -47.277657
-3.9414223e-23 -72.850319 -47.27084
-6.9853362e-23 -74.547264 -47.263271
2.4803035 76.889404 47.621059
2.4518187 73.554565 44.182648
2.4239936 70.295815 40.823856
2.3967805 67.109856 37.538914
2.3701713 63.994625 34.326923
2.3441586 60.94812 31.186934
2.3186991 57.967484 28.113684
2.2937868 55.050877 25.106472
2.2694151 52.196548 22.164562
2.2455449 49.401993 19.283178
2.2221823 46.665825 16.463079
2.1992903 43.985813 13.699773
2.1768653 41.360439 10.992826
2.1549032 38.788261 8.3417416
2.1333694 36.267288 5.7424312
2.1122622 33.7962 3.1945369
2.091578 31.373682 0.69773179
2.0712855 28.997999 -1.7517757
2.051383 26.667984 -4.154222
2.0318685 24.382416 -6.5098343
2.0127215 22.139942 -8.8210621
1.9939324 19.939322 -11.089131
1.975499 17.779501 -13.314235
1.9573952 15.659161 -15.499558
1.9396284 13.577396 -17.644213
1.9221729 11.53304 -19.75127
1.9050289 9.5251484 -21.820734
1.8881959 7.5527859 -23.852657
1.87165 5.6149521 -25.849916
1.8553991 3.7108042 -27.811577
1.8394208 1.8394257 -29.740351
1.8237222 1.0528891e-05 -31.635311
1.8082825 -1.8082803 -33.499065
1.7931089 -3.5862179 -35.330669
1.778181 -5.3345394 -37.132626
1.7635064 -7.0540304 -38.904015
1.7490653 -8.7453222 -40.647209
1.7348654 -10.409182 -42.361301
1.7208875 -12.046209 -44.04855
1.7071334 -13.657067 -45.708836
1.6938983 -15.245082 -47.30645
1.6875224 -16.875225 -48.07608
1.6829082 -18.511982 -48.633076
1.6828897 -20.194668 -48.635315
1.6828711 -21.877319 -48.637562
1.6828587 -23.56002 -48.63905
1.6829392 -25.244087 -48.62933
1.7177267 -27.483624 -44.430111
1.7177203 -29.201241 -44.430889
1.7177138 -30.918852 -44.431664
1.7177138 -32.636562 -44.431667
1.7177074 -34.354149 -44.432446
1.7177008 -36.071724 -44.43322
1.7176944 -37.789276 -44.434006
1.717688 -39.506824 -44.434784
1.7176815 -41.224358 -44.435558
1.7176815 -42.942036 -44.435566
1.7176751 -44.65955 -44.436348
1.7176687 -46.377048 -44.437122
1.7176622 -48.09454 -44.437889
1.7176558 -49.812016 -44.438671
1.7176493 -51.52948 -44.439449
1.7176493 -53.247124 -44.439457
1.7176428 -54.964561 -44.440239
1.7176363 -56.681992 -44.441017
1.7097502 -58.1315 -45.392952
1.7040163 -59.640572 -46.085083
1.7045944 -71.592972 -46.015316
1.7046707 -73.300835 -46.006123
1.7047342 -75.008308 -45.99844
1.7046515 -76.709328 -46.008415
4.8862419 75.736755 43.132736
4.8309584 72.464378 39.79607
4.7769365 69.265579 36.535542
4.7240849 66.137192 33.345684
4.6724138 63.077591 30.227064
4.6218376 60.083904 27.17452
4.5723448 57.154312 24.187342
4.5239224 54.287083 21.264824
4.4764938 51.479679 18.402243
4.4300489 48.730553 15.599054
4.3845792 46.038086 12.854702
4.3400126 43.400127 10.164876
4.2963428 40.815266 7.5291686
4.2535634 38.282066 4.9471755
4.2116075 35.798664 2.414933
4.1704903 33.36393 -0.066712335
4.1301498 30.976131 -2.5014842
4.0905819 28.634081 -4.8896055
4.0517831 26.336597 -7.2313266
4.0137134 24.082283 -9.5290298
3.9763525 21.869936 -11.783966
3.9396973 19.698492 -13.996288
3.9036953 17.566635 -16.169203
3.8683617 15.473453 -18.301781
3.8336463 13.417765 -20.397051
3.7995479 11.398644 -22.455059
3.7660666 9.4151678 -24.475845
3.7331545 7.4663162 -26.462254
3.7008283 5.5512462 -28.413328
3.6690419 3.66905 -30.331799
3.6378114 1.8189101 -32.216717
3.6070943 6.6507023e-06 -34.070686
3.576905 -1.7884538 -35.892746
3.5472033 -3.5472031 -37.685402
3.5180047 -5.2770042 -39.447716
3.4892688 -6.9785433 -41.182049
3.4610121 -8.6525259 -42.887505
3.4331965 -10.299588 -44.566315
3.4075122 -11.926291 -46.116512
3.3946118 -13.578448 -46.895119
3.3863666 -15.238647 -47.392754
3.3863289 -16.931643 -47.395027
3.3862915 -18.624599 -47.397301
3.3863041 -20.317825 -47.396538
3.3864794 -22.012114 -47.385937
3.5028329 -24.519835 -40.363377
3.428936 -25.717018 -44.823463
3.4564605 -27.65168 -43.162231
3.4564474 -29.379795 -43.163017
3.4564474 -31.108023 -43.163021
3.4564342 -32.836128 -43.163799
3.4564214 -34.564209 -43.164589
3.456408 -36.292286 -43.165375
3.4563951 -38.02034 -43.166172
3.4563951 -39.748547 -43.166161
3.456382 -41.476585 -43.166946
3.4563689 -43.204605 -43.167747
3.456356 -44.932629 -43.168522
3.4563429 -46.660622 -43.169327
3.4563296 -48.388618 -43.170109
3.4563296 -50.116791 -43.170101
3.4563167 -51.844761 -43.170891
3.4581201 -53.600864 -43.062042
3.4351826 -54.962921 -44.446465
3.4289489 -56.577663 -44.822681
3.4302478 -72.03521 -44.744282
3.4305439 -73.756699 -44.726425
3.4306726 -75.474792 -44.718666
3.4307756 -77.192451 -44.71244
7.2211113 74.618141 38.777004
7.1406403 71.406395 35.539112
7.0619068 68.265106 32.371136
6.9848909 65.192322 29.272242
6.9095716 62.186138 26.241623
6.835825 59.243816 23.274309
6.7636361 56.363632 20.369652
6.6929884 53.543907 17.527006
6.6237702 50.782246 14.741868
6.5559678 48.077106 12.013727
6.4895711 45.427006 9.3421278
6.4244752 42.829842 6.7228613
6.360702 40.284451 4.156827
6.2981539 37.788925 1.6400766
6.2368236 35.34201 -0.82768071
6.1767039 32.942425 -3.2467031
6.1177044 30.58853 -5.6206384
6.0598221 28.279167 -7.9496427
6.0030775 26.013334 -10.232888
5.9473596 23.789442 -12.474812
5.8926916 21.606533 -14.67446
5.838995 19.463314 -16.835054
5.7862926 17.358879 -18.955635
5.7345085 15.292023 -21.039249
5.6836433 13.261839 -23.085905
5.6336961 11.267388 -25.095631
5.5845962 9.3076591 -27.071264
5.5363669 7.3818254 -29.011862
5.4889421 5.4889421 -30.920107
5.4423437 3.6282363 -32.795071
5.3965087 1.7988391 -34.63932
5.3514605 -6.954956e-07 -36.451912
5.3071375 -1.7690412 -38.23534
5.2635632 -3.5090404 -39.988651
5.2206783 -5.2206717 -41.714191
5.1785064 -6.9046745 -43.41106
5.1411877 -8.5686407 -44.912659
5.1216679 -10.243336 -45.698067
5.1107731 -11.925138 -46.136433
5.1107159 -13.628574 -46.138729
5.1106586 -15.331974 -46.141026
5.1107349 -17.035778 -46.137966
5.1178274 -18.765368 -45.852596
5.2866249 -21.146494 -39.060699
5.2865438 -22.908356 -39.063969
5.2864823 -24.67025 -39.066429
5.2451897 -26.225945 -40.72794
5.1768842 -27.610052 -43.476318
5.216589 -29.560675 -41.878738
5.2165689 -31.299408 -41.879539
5.2165494 -33.038147 -41.880322
5.2165289 -34.776859 -41.881134
5.2165093 -36.515572 -41.881924
5.2165093 -38.254398 -41.881931
5.2164898 -39.993084 -41.882725
5.2164698 -41.731762 -41.883518
5.2164502 -43.470417 -41.884315
5.2164307 -45.209068 -41.885113
5.2164102 -46.947689 -41.885918
5.2164102 -48.686497 -41.88591
5.2112384 -50.375309 -42.094009
5.177959 -51.779587 -43.433083
5.1752048 -53.477116 -43.543907
5.1779199 -74.216858 -43.434654
5.1782322 -75.947411 -43.422077
5.1784277 -77.676422 -43.414219
5.1780171 -79.396278 -43.430717
9.594614 76.75692 37.765041
9.4880133 73.532112 34.548054
9.3838024 70.378525 31.403215
9.2818089 67.293129 28.325298
9.1820087 64.274063 25.313576
9.0843773 61.319565 22.367275
8.9887562 58.426926 19.481642
8.8951702 55.594814 16.657436
8.8034706 52.820824 13.890155
8.7136421 50.103432 11.179341
8.6256685 47.441193 8.5245132
8.5394144 44.831932 5.9215641
8.4548683 42.274338 3.3701417
8.3720169 39.767094 0.86991948
8.2907372 37.308319 -1.5829197
8.2110205 34.896843 -3.9885912
8.1328583 32.531433 -6.3473463
8.0561342 30.21051 -8.6627035
7.9809141 27.933201 -10.93266
7.9070516 25.697922 -13.161678
7.8345771 23.503729 -15.348774
7.7633867 21.349318 -17.497152
7.6935101 19.233772 -19.605856
7.6248488 17.155912 -21.677896
7.5574331 15.114862 -23.712341
7.4911685 13.10954 -25.712048
7.4260559 11.139082 -27.676998
7.3620949 9.2026243 -29.607195
7.2991972 7.2991996 -31.505285
7.2373943 5.4280491 -33.37038
7.1766009 3.5882988 -35.204983
7.116847 1.7792172 -37.008205
7.058054 6.2607451e-06 -38.782452
7.0002503 -1.7500646 -40.526814
6.9433599 -3.4716721 -42.243652
6.8952789 -5.1714582 -43.694603
6.8689971 -6.8689961 -44.487724
6.8564839 -8.57061 -44.865345
6.8564067 -10.284607 -44.867691
6.8563294 -11.998574 -44.870014
6.8565354 -13.713075 -44.863792
7.0926466 -15.958454 -37.738533
7.0925636 -17.731403 -37.741024
7.0924535 -19.504244 -37.744347
7.0923438 -21.277033 -37.747658
7.0922332 -23.049761 -37.750984
7.0921235 -24.822433 -37.754295
7.092041 -26.595158 -37.756783
6.9433069 -27.773226 -42.245235
7.0025549 -29.760853 -40.457272
6.9984827 -31.493164 -40.580166
6.998456 -33.242657 -40.580978
6.998456 -34.992279 -40.580971
6.9984293 -36.741756 -40.581772
6.9984026 -38.491215 -40.582588
6.9983754 -40.240658 -40.583393
6.9983487 -41.990089 -40.584209
6.998322 -43.739517 -40.585007
6.998322 -45.489094 -40.585018
6.9806948 -47.119694 -41.116943
6.9428854 -48.600193 -42.257969
6.9431753 -50.338017 -42.249218
6.9470778 -74.681084 -42.131443
6.9477906 -76.425697 -42.109943
6.9480543 -78.165611 -42.101982
6.9480543 -79.902626 -42.101971
11.819308 75.643578 33.565281
11.689933 72.477585 30.441887
11.5633 69.379807 27.38472
11.439384 66.348427 24.393076
11.318149 63.381634 21.466219
11.199402 60.476772 18.599428
11.083121 57.632229 15.792165
10.969283 54.846416 13.043858
10.857709 52.117008 10.350216
10.748381 49.442547 7.7107964
10.641282 46.821644 5.1252022
10.536248 44.252254 2.5894551
10.433314 41.733253 0.10442112
10.332326 39.262844 -2.3336401
10.233274 36.839787 -4.7249575
10.136148 34.46291 -7.0697985
10.040805 32.130585 -9.3715916
9.9473248 29.84198 -11.628403
9.855526 27.59548 -13.8446
9.7654495 25.390173 -16.019268
9.6769619 23.224709 -18.155527
9.5901051 21.09823 -20.252451
9.5047531 19.009508 -22.313015
9.4209461 16.957712 -24.336304
9.3385658 14.941714 -26.325134
9.2576141 12.960665 -28.279476
9.178091 11.013714 -30.199352
9.0998859 9.0998907 -32.087387
9.023037 7.2184315 -33.942669
8.9474421 5.3684683 -35.767719
8.8731356 3.5492642 -37.561615
8.8000202 1.7600057 -39.326763
8.7281342 5.6051686e-06 -41.062279
8.6701498 -1.7340255 -42.462147
8.6370058 -3.4548037 -43.262295
8.62391 -5.1743374 -43.578465
8.6238117 -6.8990479 -43.580811
8.6237144 -8.6237068 -43.583176
8.6241055 -10.348922 -43.573753
8.921154 -12.489614 -36.402351
8.9210148 -14.273625 -36.405708
8.9208765 -16.057575 -36.409073
8.9207363 -17.841473 -36.412426
8.9206324 -19.625393 -36.414944
8.9204931 -21.409174 -36.41832
8.9203539 -23.192915 -36.421669
8.9202147 -24.976601 -36.425034
8.9201097 -26.760328 -36.427547
8.9199705 -28.543909 -36.430912
8.7326012 -29.690838 -40.954437
8.8025961 -31.689344 -39.264606
8.8025961 -33.449863 -39.264603
8.8025618 -35.210239 -39.26543
8.8025274 -36.970619 -39.266243
8.802494 -38.730972 -39.267056
8.8024607 -40.49131 -39.267887
8.8024263 -42.251648 -39.268692
8.7667189 -43.833595 -40.130749
8.7327671 -45.410389 -40.950405
8.7394428 -76.907097 -40.789249
8.7401447 -78.661301 -40.772293
8.7404785 -80.412407 -40.764236
8.7395096 -82.15139 -40.787624
13.980388 74.562065 29.485615
13.829521 71.45253 26.450413
13.681808 68.40905 23.478651
13.537217 65.429878 20.569719
13.395716 62.513344 17.722914
13.257077 59.656841 14.933732
13.121342 56.859154 12.202962
12.988297 54.117905 9.5262794
12.857923 51.431698 6.903368
12.730199 48.799088 4.3337584
12.604929 46.218079 1.8135359
12.482101 43.687363 -0.65757674
12.361699 41.205658 -3.0798612
12.243545 38.771229 -5.4569755
12.127625 36.382874 -7.7890635
12.013934 34.03949 -10.076365
11.902408 31.739759 -12.320131
11.79288 29.482201 -14.523637
11.6854 27.265936 -16.685966
11.579813 25.089605 -18.810221
11.476165 22.952335 -20.895464
11.374309 20.8529 -22.944645
11.274291 18.790489 -24.956856
11.175971 16.763952 -26.934883
11.079351 14.772473 -28.878729
10.984431 12.815168 -30.788359
10.891082 10.891084 -32.666412
10.799347 8.9994593 -34.511982
10.709104 7.1394105 -36.327538
10.620397 5.3101964 -38.112175
10.533108 3.5110359 -39.868317
10.46613 1.7443584 -41.215786
10.426002 1.1166918e-05 -42.023106
10.413498 -1.7355831 -42.274662
10.41338 -3.4711277 -42.277046
10.41334 -5.2066755 -42.277836
10.413855 -6.9425735 -42.267502
10.772593 -8.9771585 -35.050232
10.772424 -10.772421 -35.053627
10.772296 -12.567679 -35.05619
10.772127 -14.362838 -35.059586
10.771958 -16.157932 -35.062992
10.771789 -17.952982 -35.066395
10.771663 -19.748049 -35.068951
10.771494 -21.542986 -35.072353
10.771324 -23.33787 -35.075745
10.771155 -25.13269 -35.079163
10.757936 -26.894848 -35.345089
10.689286 -28.504759 -36.726223
10.688246 -30.283361 -36.747173
10.54671 -31.640133 -39.59462
10.629324 -33.659534 -37.932552
10.629284 -35.43095 -37.93338
10.629242 -37.202347 -37.934219
10.629202 -38.97374 -37.935036
10.569544 -40.516579 -39.135265
10.545131 -42.180519 -39.626427
10.553769 -77.39431 -39.452618
10.554947 -79.162102 -39.428936
10.555475 -80.925308 -39.418304
10.55511 -82.681686 -39.425659
16.255457 76.632866 28.53723
16.080544 73.511063 25.520981
15.909433 70.456055 22.570295
15.741849 67.465073 19.680407
15.577834 64.536751 16.852074
15.41713 61.668514 14.080793
15.259704 58.858852 11.366114
15.105534 56.106277 8.7075357
14.954377 53.408485 6.1009355
14.806215 50.764168 3.5459893
14.661029 48.171951 1.0423323
14.518596 45.629887 -1.4138465
14.378968 43.136913 -3.8216333
14.241937 40.691257 -6.1846614
14.107493 38.291775 -8.5030584
13.975625 35.937328 -10.777048
13.846258 33.626633 -13.007882
13.719207 31.358191 -15.198815
13.594523 29.131117 -17.348898
13.47203 26.944061 -19.461245
13.351778 24.796156 -21.534895
13.2336 22.686167 -23.5728
13.11755 20.613291 -25.574026
13.003464 18.57638 -27.541365
12.891345 16.574587 -29.474771
12.781195 14.607084 -31.374243
12.672861 12.67286 -33.242401
12.566397 10.771199 -35.078312
12.461658 8.9011793 -36.884453
12.358699 7.0621214 -38.659931
12.283673 5.2644286 -39.953693
12.236436 3.4961321 -40.768272
12.225594 1.7465149 -40.955231
12.225454 3.231122e-06 -40.957661
12.225594 -1.7465047 -40.955246
12.226202 -3.4932058 -40.944763
12.647425 -5.4203315 -33.681023
12.647276 -7.227016 -33.683613
12.647076 -9.0336256 -33.687057
12.646876 -10.840173 -33.69051
12.646726 -12.646729 -33.693092
12.646525 -14.453178 -33.696529
12.646326 -16.259569 -33.699978
12.646126 -18.065895 -33.70343
12.645976 -19.87225 -33.706005
12.645777 -21.678469 -33.709461
12.613388 -23.424866 -34.267975
12.546942 -25.093885 -35.413815
12.55127 -26.895576 -35.339153
12.380639 -31.835926 -38.28159
12.476958 -33.866039 -36.620605
12.474674 -35.641922 -36.660019
12.389983 -37.169949 -38.120441
12.3804 -38.909832 -38.285706
12.392621 -79.666855 -38.074951
12.393821 -81.445107 -38.054276
12.394301 -83.218872 -38.045998
12.392478 -84.97699 -38.077435
18.316668 75.556259 24.599104
18.122404 72.489624 21.667902
17.932131 69.487015 18.796906
17.745811 66.546791 15.985536
17.563408 63.66737 13.2333
17.384634 60.846233 10.535806
17.209463 58.081944 7.892674
17.037867 55.373074 5.3034797
16.869579 52.717442 2.7642262
16.70466 50.113991 0.27580315
16.54286 47.560726 -2.1655803
16.384165 45.056454 -4.5601091
16.228558 42.599964 -6.9080424
16.075806 40.189522 -9.212882
15.925973 37.824192 -11.473679
15.778976 35.502708 -13.6917
15.634601 33.22353 -15.870156
15.492909 30.985819 -18.008116
15.353699 28.788189 -20.108648
15.217031 26.629807 -22.170815
15.082711 24.509405 -24.197519
14.950804 22.426212 -26.187855
14.821125 20.379042 -28.144562
14.693675 18.36709 -30.067631
14.568456 16.389521 -31.957045
14.445296 14.445295 -33.815361
14.324258 12.533727 -35.641693
14.205176 10.653885 -37.438507
14.123137 8.8269625 -38.676376
14.068663 7.0343308 -39.498341
14.060714 5.2727613 -39.618267
14.060498 3.5151229 -39.621532
14.060876 1.7576102 -39.615822
14.061579 8.7771059e-06 -39.605232
14.546097 -1.8182608 -32.294407
14.545923 -3.6364789 -32.297028
14.54575 -5.4546542 -32.299644
14.545519 -7.2727599 -32.303139
14.545287 -9.0907955 -32.306633
14.545056 -10.908786 -32.310127
14.544883 -12.726768 -32.312737
14.544651 -14.544645 -32.316231
14.54442 -16.362469 -32.319714
14.544188 -18.180231 -32.323204
14.487399 -19.920179 -33.180088
14.430937 -21.646406 -34.032024
14.239124 -33.817913 -36.926277
14.239013 -35.597527 -36.927952
14.253826 -80.177765 -36.704437
14.255437 -81.968765 -36.680134
14.256437 -83.756569 -36.665043
14.255492 -85.532951 -36.679295
20.537971 77.587891 23.683315
20.320765 74.509468 20.770073
20.1082 71.495834 17.919119
19.899942 68.544243 15.125879
19.696049 65.653488 12.391193
19.496197 62.821072 9.7107258
19.30036 60.045578 7.0841146
19.108509 57.325527 4.5109267
18.920345 54.658775 1.9872345
18.735851 52.044029 -0.48723632
18.555006 49.480022 -2.9128056
18.377535 46.964821 -5.2930851
18.203428 44.497276 -7.6282797
18.032667 42.076233 -9.9185753
17.86508 39.700176 -12.166289
17.700655 37.368065 -14.371608
17.539156 35.078316 -16.537693
17.38065 32.830112 -18.663622
17.224911 30.622066 -20.752449
17.072008 28.453348 -22.803204
16.921726 26.322681 -24.818825
16.774136 24.229311 -26.798344
16.629032 22.172045 -28.744534
16.486416 20.150063 -30.657337
16.346291 18.162548 -32.536762
16.208464 16.208462 -34.385334
16.073004 14.287117 -36.202171
15.984921 12.432717 -37.383572
15.923015 10.615344 -38.213848
15.919196 8.8440037 -38.265068
15.919011 7.0751114 -38.267544
15.919626 5.3065357 -38.259285
15.920427 3.5378702 -38.248547
16.469067 1.829895 -30.890053
16.468868 1.0464761e-05 -30.892712
16.46867 -1.8298479 -30.895355
16.468407 -3.6596529 -30.898888
16.468143 -5.4893866 -30.902422
16.467945 -7.3190851 -30.905083
16.467682 -9.1487045 -30.908617
16.467419 -10.97828 -30.912146
16.467155 -12.807787 -30.915678
16.466957 -14.637293 -30.918335
16.380251 -16.380245 -32.081276
16.339151 -18.154604 -32.6325
16.140955 -82.498222 -35.290764
16.14279 -84.301239 -35.266148
16.142981 -86.095894 -35.263592
16.140575 -87.876465 -35.295872
22.504845 76.516479 19.879461
22.270197 73.491661 17.047005
22.040287 70.528915 14.27172
21.815073 67.626717 11.553154
21.594517 64.783562 8.89081
21.378277 61.997009 6.2805586
21.166325 59.265713 3.7220654
20.95863 56.588306 1.2149801
20.754877 53.962685 -1.2445414
20.55514 51.387848 -3.6555681
20.359121 48.861897 -6.0217433
20.166803 46.383648 -8.3431978
19.978174 43.951981 -10.620164
19.793041 41.565388 -12.854932
19.611391 39.222786 -15.047642
19.432962 36.92263 -17.201462
19.257832 34.664101 -19.315474
19.085751 32.445786 -21.392685
18.916796 30.266874 -23.43215
18.750729 28.126093 -25.436754
18.587627 26.022686 -27.405556
18.427265 23.95545 -29.341305
18.269646 21.923574 -31.243923
18.114773 19.926247 -33.113415
17.962433 17.962431 -34.952328
17.869429 16.082487 -36.074955
17.801746 14.241402 -36.891987
17.801537 12.461082 -36.894493
17.801331 10.680798 -36.896999
17.802299 8.9011593 -36.885296
17.803202 7.1212788 -36.874413
18.416876 5.5250692 -29.466715
18.416578 3.68332 -29.470299
18.335426 1.8335472 -30.449881
18.416134 1.6421202e-06 -29.47567
18.415838 -1.8415817 -29.479244
18.415541 -3.6831036 -29.482824
18.415243 -5.5245705 -29.486418
18.415022 -7.3660073 -29.489092
18.414724 -9.2073584 -29.492683
18.427563 -11.056539 -29.337706
18.292227 -12.804556 -30.97134
18.272055 -14.617645 -31.21484
18.050989 -83.034554 -33.883331
18.053057 -84.849365 -33.858395
18.054625 -86.662193 -33.83947
18.052773 -88.45858 -33.861839
24.418139 75.474243 16.17922
24.166975 72.500923 13.423014
23.920809 69.587807 10.721674
23.679722 66.733772 8.0760317
23.443335 63.936375 5.4819899
23.21162 61.194267 2.9392281
22.984547 58.506119 0.44740373
22.76177 55.869804 -1.9972855
22.54327 53.2841 -4.3950186
22.329025 50.74778 -6.7460938
22.118715 48.259018 -9.0539656
21.912428 45.816895 -11.317704
21.709951 43.419903 -13.539624
21.511274 41.066978 -15.719834
21.316113 38.756565 -17.861506
21.124546 36.487854 -19.963688
20.936304 34.259411 -22.029383
20.751474 32.070473 -24.057642
20.569799 29.919714 -26.051325
20.391356 27.806395 -28.009495
20.2159 25.72933 -29.934879
20.04352 23.687792 -31.826527
19.873976 21.68071 -33.687061
19.777319 19.777319 -34.747734
19.708511 17.916834 -35.502823
19.708279 16.124964 -35.505363
19.708279 14.333294 -35.50536
19.709282 12.54228 -35.494347
19.710363 10.75111 -35.482487
20.389868 9.2681246 -28.02582
20.38962 7.4144087 -28.028543
20.389288 5.5607219 -28.032173
20.389042 3.7071023 -28.034885
20.38871 1.8535221 -28.038519
20.388462 -6.9263137e-08 -28.041241
20.388132 -1.8534576 -28.044868
20.3878 -3.706871 -28.048491
20.38747 -5.560216 -28.052116
20.37401 -7.408731 -28.19982
20.235418 -9.1979218 -29.720692
20.228745 -11.033857 -29.793924
19.988247 -85.404327 -32.433079
19.990629 -87.231842 -32.406929
19.990551 -89.048805 -32.40781
26.552387 77.444458 15.318315
26.280136 74.460388 12.579694
26.013288 71.536545 9.8954277
25.751808 68.671501 7.265111
25.495647 65.863762 4.6883569
25.244417 63.111057 2.1611762
24.998091 60.41206 -0.31667441
24.756638 57.765491 -2.7455206
24.519693 55.169308 -5.1289811
24.287241 52.622368 -7.4672751
24.059263 50.12347 -9.7605724
23.835524 47.671043 -12.011226
23.615906 45.263824 -14.220398
23.400398 42.900734 -16.38822
23.188692 40.580215 -18.51783
22.980877 38.30146 -20.60828
22.776659 36.063042 -22.662552
22.576134 33.864208 -24.679703
22.379015 31.703606 -26.662552
22.185398 29.580538 -28.610191
21.995016 27.493776 -30.525295
21.807959 25.442617 -32.406933
21.708746 23.517807 -33.40493
21.640003 21.640007 -34.096436
21.639748 19.836447 -34.099014
21.640089 18.033407 -34.09557
21.641199 16.230907 -34.084419
21.671453 14.447637 -33.780075
22.388601 13.06002 -26.566124
22.388329 11.194165 -26.568884
22.387964 9.3283215 -26.572557
22.38769 7.4625616 -26.575304
22.387415 5.5968566 -26.578062
22.387049 3.7311809 -26.581747
22.386684 1.8655657 -26.585419
22.38641 9.3725002e-06 -26.588175
22.386044 -1.8654993 -26.591852
22.340477 -3.7234082 -27.050228
22.210539 -5.5526357 -28.357279
22.21027 -7.40342 -28.359989
21.954275 -85.987572 -30.935122
21.951551 -87.806206 -30.962503
21.953922 -89.645187 -30.938652
28.379766 76.407074 11.740466
28.092638 73.473061 9.0743494
27.811132 70.597496 6.4604483
27.535212 67.778984 3.8984096
27.264837 65.016159 1.3878649
26.999599 62.306767 -1.0749949
26.739592 59.649857 -3.489275
26.484425 57.043377 -5.8586059
26.234085 54.486176 -8.1831369
25.988544 51.977093 -10.463088
25.747557 49.514538 -12.700744
25.511002 47.097237 -14.897296
25.278858 44.724133 -17.052835
25.050793 42.393658 -19.170502
24.826914 40.105015 -21.249313
24.606899 37.856762 -23.292257
24.390846 35.648163 -25.298384
24.178459 33.477875 -27.270502
23.969837 31.345171 -29.207661
23.764687 29.248854 -31.112579
23.664316 27.304983 -32.044544
23.596781 25.411924 -32.671638
23.596502 23.596497 -32.67424
23.59725 21.782082 -32.66729
23.598467 19.967934 -32.655987
24.413887 18.779919 -25.084469
24.413586 16.901712 -25.087254
24.413284 15.023566 -25.090048
24.412983 13.145455 -25.09284
24.412584 11.267341 -25.09656
24.412281 9.3893366 -25.099358
24.411983 7.5113764 -25.102152
24.411581 5.6334453 -25.105871
24.411179 3.7555704 -25.109604
24.41078 1.8777552 -25.113323
24.327269 1.2529375e-06 -25.888742
24.220127 -1.8630846 -26.883583
23.938562 -88.388542 -29.498041
23.941359 -90.240509 -29.47209
30.158979 75.397453 8.2584152
29.857704 72.511574 5.6607575
29.562386 69.682762 3.1144807
29.272987 66.909698 0.61923546
28.989069 64.190079 -1.8287565
28.710604 61.522736 -4.2297297
28.437567 58.906387 -6.5839243
28.169548 56.339104 -8.8948164
27.906656 53.819992 -11.161529
27.648626 51.347454 -13.386314
27.395323 48.920223 -15.570352
27.146736 46.53727 -17.713718
26.902506 44.196976 -19.819521
26.662741 41.898594 -21.886805
26.427103 39.640659 -23.91851
26.195704 37.422436 -25.91371
25.968212 35.242584 -27.875166
25.748367 33.105045 -29.7707
25.644405 31.139631 -30.667082
25.579445 29.233658 -31.227188
25.57914 27.406221 -31.229832
25.580265 25.580259 -31.220131
25.581593 23.754333 -31.208679
26.465776 22.684959 -23.585073
26.46534 20.794193 -23.58884
26.465012 18.903582 -23.591661
26.464684 17.013016 -23.594501
26.464355 15.122492 -23.597336
26.463919 13.231956 -23.601099
26.463591 11.341539 -23.603939
26.463152 9.4511261 -23.607697
26.462715 7.5607767 -23.611483
26.462387 5.6705079 -23.6143
26.334703 3.7620986 -24.715195
26.256294 1.8754479 -25.39126
25.972427 -89.048325 -27.83882
25.955158 -90.843048 -27.987722
32.212284 77.309479 7.4463639
31.891636 74.413826 4.8660197
31.577169 71.574921 2.3353589
31.268839 68.791451 -0.14587151
30.966614 66.062119 -2.5780072
30.670038 63.38475 -4.9646602
30.379221 60.758442 -7.3049741
30.093737 58.181221 -9.6023655
29.8137 55.652245 -11.855947
29.538824 53.16988 -14.067973
29.26897 50.732891 -16.239571
29.004126 48.340214 -18.370878
28.743912 45.990261 -20.464916
28.488443 43.682278 -22.520777
28.237358 41.414795 -24.541349
27.990776 39.187092 -26.525688
27.76194 37.015923 -28.36722
27.649364 35.022522 -29.273153
27.588314 33.105976 -29.764452
27.588093 31.266504 -29.766235
27.589647 29.428957 -29.753736
27.591087 27.591087 -29.742128
28.544874 26.641884 -22.06666
28.544516 24.738586 -22.069527
28.544043 22.835236 -22.073353
28.543686 20.932043 -22.076223
28.543329 19.028896 -22.079092
28.542974 17.125792 -22.081955
28.5425 15.222669 -22.085777
28.542141 13.319671 -22.088644
28.541668 11.416661 -22.092463
28.541193 9.5137329 -22.096281
28.363224 7.5635223 -23.528452
28.317209 5.6634431 -23.89875
27.995916 -91.453323 -26.48432
33.912895 76.304008 4.0749831
33.57967 73.455536 1.5609782
33.252777 70.662155 -0.90523398
32.932335 67.922951 -3.322772
32.617867 65.235748 -5.6952605
32.309349 62.599373 -8.022871
32.006748 60.012653 -10.305796
31.709764 57.473953 -12.546367
31.418243 54.981926 -14.745738
31.13203 52.535305 -16.905031
30.851116 50.133072 -19.024351
30.5751 47.773598 -21.106752
30.304102 45.456158 -23.151262
30.037746 43.179256 -25.160774
29.801134 40.976555 -26.945881
29.679884 38.954857 -27.860636
29.624006 37.030018 -28.282202
29.624247 35.178799 -28.28039
29.625925 33.32917 -28.267721
29.627485 31.479204 -28.255957
30.651823 30.651829 -20.527906
30.65144 28.735731 -20.530823
30.650925 26.819561 -20.534685
30.650539 24.90357 -20.537603
30.650154 22.987621 -20.540501
30.649769 21.071718 -20.543413
30.649258 19.155787 -20.547287
30.64887 17.239988 -20.550182
30.648357 15.324182 -20.554073
30.646688 13.407926 -20.566654
30.424568 11.409217 -22.24242
30.405224 9.5016403 -22.388357
35.570004 75.324722 0.79131657
35.224777 72.521606 -1.6600062
34.886189 69.772385 -4.0642033
34.554199 67.075806 -6.4215331
34.228321 64.429779 -8.7354927
33.908531 61.833206 -11.006202
33.594948 59.285206 -13.23281
33.286972 56.783672 -15.419636
32.984592 54.327576 -17.56673
32.687794 51.915916 -19.674196
32.396152 49.547054 -21.74502
32.109806 47.220303 -23.778288
31.86644 44.987915 -25.506327
31.736349 42.937412 -26.430054
31.687191 41.006954 -26.779085
31.68784 39.143803 -26.774504
31.689648 37.281944 -26.761669
31.691328 35.419716 -26.749743
32.091911 33.979679 -23.905348
32.530769 32.530777 -20.789186
32.614426 30.695942 -20.195148
32.785809 28.928658 -18.978216
32.785397 26.999743 -18.981171
32.784981 25.070871 -18.984121
32.784565 23.142054 -18.987064
32.784012 21.213181 -18.990982
32.783596 19.28447 -18.993929
32.73542 17.330526 -19.336031
32.525597 15.306169 -20.825901
32.521244 13.391099 -20.856815
37.548111 77.182228 0.02514668
37.184948 74.369896 -2.4102609
36.828579 71.61113 -4.8001223
36.479137 68.905052 -7.1435366
36.136108 66.249535 -9.4439468
35.799465 63.643505 -11.701509
35.469345 61.086094 -13.91535
35.145111 58.575184 -16.089731
34.826748 56.109768 -18.224726
34.514244 53.68882 -20.320408
34.207157 51.310745 -22.379772
33.958363 49.050968 -24.048246
33.819122 46.971008 -24.982018
33.778179 45.037575 -25.256552
33.779427 43.162609 -25.248205
33.781368 41.288345 -25.23518
33.783173 39.4137 -25.223083
34.483879 38.315422 -20.524035
34.483303 36.39904 -20.52791
34.482868 34.482872 -20.530827
34.215546 32.314686 -22.323507
34.664974 30.813318 -19.309603
34.793476 28.99457 -18.447832
34.948738 27.182352 -17.406631
34.948292 25.240435 -17.409624
34.947697 23.298466 -17.413591
34.846355 21.294998 -18.093222
34.673004 19.262779 -19.255743
39.133392 76.207146 -3.1560256
38.759464 73.438995 -5.531693
38.392609 70.723228 -7.8623767
38.032803 68.058693 -10.148305
37.679516 65.443359 -12.392825
37.33305 62.876724 -14.593975
36.992741 60.356583 -16.756031
36.658577 57.881973 -18.879023
36.330551 55.4519 -20.963034
36.077869 53.167393 -22.568382
35.928982 51.056976 -23.514292
35.897659 49.123116 -23.713289
35.899586 47.236305 -23.701033
35.901665 45.349472 -23.687849
35.903591 43.462246 -23.675594
36.647911 42.434425 -18.946812
36.647293 40.504906 -18.950741
36.646828 38.575607 -18.953674
36.646362 36.646366 -18.956625
36.645744 34.71703 -18.960556
36.645283 32.787884 -18.963491
36.368874 30.626417 -20.719559
36.840435 29.084562 -17.723644
37.005657 27.267324 -16.673948
36.979984 25.302095 -16.837051
36.84684 23.271696 -17.682947
53.107628 30.746527 85.624969
40.67894 75.25605 -6.2589273
40.295048 72.531097 -8.5759449
39.918507 69.857384 -10.848574
39.548763 67.232903 -13.080168
39.186146 64.657143 -15.268761
38.829952 62.12793 -17.41856
38.480335 59.644531 -19.528681
38.225105 57.337654 -21.069147
38.066326 55.196178 -22.027452
38.046848 53.265594 -22.145023
38.048904 51.366028 -22.132607
38.051121 49.466461 -22.119223
38.053181 47.566479 -22.10681
38.841496 46.609798 -17.348902
38.841 44.667149 -17.351883
38.840504 42.724556 -17.354879
38.839848 40.781845 -17.358864
38.839352 38.839355 -17.361841
38.838856 36.896919 -17.364832
38.838196 34.954376 -17.368811
38.8377 33.012051 -17.371796
38.837208 31.069763 -17.374786
38.552677 28.914513 -19.092062
39.046288 27.332399 -16.112869
39.705006 25.808254 -12.137157
55.524693 33.314812 83.343094
55.531433 30.542288 83.383797
56.355389 28.177696 88.356773
42.587116 77.062393 -6.9819007
42.186386 74.328384 -9.2853346
41.793125 71.645378 -11.54584
41.40731 69.012184 -13.763565
41.028728 66.427475 -15.939688
40.656834 63.889317 -18.0774
40.400444 61.56258 -19.551159
40.231529 59.3894 -20.522095
40.2258 57.465431 -20.555029
40.227993 55.55294 -20.542437
40.230183 53.640247 -20.52986
40.286888 51.797443 -20.20389
41.065571 50.843094 -15.7279
41.065044 48.886959 -15.730942
41.064522 46.930885 -15.733967
41.063816 44.974667 -15.738003
41.06329 43.018688 -15.74104
41.062763 41.062771 -15.744059
41.062061 39.106728 -15.748106
41.061535 37.150917 -15.751127
41.061008 35.195148 -15.754148
41.060307 33.2393 -15.758189
41.05978 31.283638 -15.761213
41.059254 29.328039 -15.764245
40.771622 27.181086 -17.417582
41.378944 25.615541 -13.926625
58.709743 33.548431 85.693054
58.712975 30.754416 85.711617
58.753925 27.978069 85.946999
59.656536 25.567089 91.135315
44.066723 76.115242 -9.9906082
43.65712 73.42334 -12.238029
43.255245 70.781311 -14.443054
42.860889 68.187775 -16.606842
42.604778 65.84375 -18.012072
42.433704 63.65057 -18.950724
42.435139 61.723846 -18.942869
42.437466 59.798244 -18.930107
42.439789 57.872456 -18.917341
43.321369 57.105442 -14.080256
43.320625 55.135338 -14.084346
43.320061 53.165531 -14.08742
43.319504 51.195782 -14.090484
43.318756 49.225864 -14.094571
43.318199 47.256226 -14.097657
43.317638 45.286629 -14.100718
43.316895 43.316895 -14.104809
43.316334 41.347416 -14.107887
43.315586 39.377804 -14.111974
43.315025 37.40844 -14.115053
43.314468 35.439114 -14.118108
43.313721 33.469696 -14.122208
43.313164 31.500488 -14.125281
43.312603 29.531324 -14.128353
43.311859 27.562092 -14.132432
43.027885 25.425573 -15.690562
61.943214 30.971609 88.095009
61.946651 28.157578 88.113846
62.050186 25.384172 88.681938
63.011673 22.913353 93.957466
45.510399 75.191109 -12.92626
45.092659 72.540375 -15.118685
44.838531 70.182053 -16.452448
44.673409 67.981285 -17.319031
44.675499 66.042046 -17.308077
44.677963 64.103165 -17.295132
44.680431 62.164082 -17.28219
45.608086 61.471775 -12.41357
45.607296 59.487774 -12.417742
45.606705 57.504112 -12.420851
45.605911 55.520233 -12.424994
45.605316 53.536682 -12.428102
45.604725 51.553169 -12.431233
45.60413 49.569702 -12.434332
45.346367 47.317944 -13.787152
45.602943 45.602959 -12.44056
45.602352 43.619648 -12.443683
45.601757 41.636398 -12.446792
45.601166 39.653191 -12.449893
45.600773 37.670208 -12.451982
45.600178 35.687099 -12.455094
45.599586 33.704041 -12.458198
45.598991 31.721037 -12.461314
45.406467 29.612915 -13.471739
45.24435 27.540043 -14.322585
65.223045 28.357847 90.531418
65.226685 25.523479 90.550514
65.400681 22.748068 91.463692
66.422905 20.215677 96.828644
47.353062 76.948738 -13.610537
47.102081 74.5783 -14.872887
46.944733 72.373131 -15.664299
46.94754 70.421318 -15.65016
46.950153 68.468971 -15.637025
46.952763 66.516426 -15.6239
47.927517 65.900345 -10.721267
