# .PCD v0.7 - Point Cloud Data file format
VERSION 0.7
FIELDS x y z
SIZE 4 4 4
TYPE F F F
COUNT 1 1 1
WIDTH 1504
HEIGHT 1
VIEWPOINT 0 0 0 1 0 0 0
POINTS 1504
DATA ascii
-41.092854 -8.5019751 -80.731636
-41.050751 -9.9088001 -80.906898
-41.050751 -11.324345 -80.906898
-41.082161 -12.749634 -80.776154
-39.675858 -8.5019751 -80.731636
-39.635208 -9.9088001 -80.906898
-39.635208 -11.324345 -80.906898
-39.665535 -12.749634 -80.776154
-38.772346 71.800644 -78.435982
-38.769791 70.359993 -78.447411
-38.767357 68.919739 -78.458298
-38.764801 67.479469 -78.469719
-38.762241 66.039383 -78.481155
-38.759811 64.599686 -78.492027
-38.757256 63.159981 -78.503456
-38.7547 61.720448 -78.514877
-38.752144 60.28112 -78.526291
-38.749714 58.842159 -78.53717
-38.747158 57.403198 -78.548584
-38.744606 55.964439 -78.560005
-38.742176 54.526024 -78.570869
-38.73962 53.087631 -78.582291
-38.737068 51.649426 -78.593697
-38.734516 50.211411 -78.60511
-38.73209 48.773743 -78.615967
-38.729538 47.336105 -78.627373
-38.726986 45.898651 -78.638779
-38.724556 44.461529 -78.649643
-38.722004 43.024456 -78.661041
-38.719456 41.587563 -78.67244
-38.716908 40.150864 -78.683846
-38.714478 38.714485 -78.694695
-38.711929 37.278156 -78.7061
-38.709381 35.842018 -78.717491
-38.706955 34.406185 -78.728333
-38.704403 32.970421 -78.739731
-38.701859 31.534855 -78.751122
-38.699432 30.099564 -78.761963
-38.696884 28.664358 -78.773354
-38.694336 27.229353 -78.784737
-38.691792 25.794523 -78.79612
-38.689365 24.35997 -78.806961
-38.686821 22.92552 -78.818344
-38.684277 21.491262 -78.829727
-38.68185 20.057261 -78.840561
-38.679306 18.623369 -78.851936
-38.676762 17.189678 -78.863319
-38.674217 15.756168 -78.874687
-38.671795 14.322886 -78.885521
-38.66925 12.889755 -78.896896
-38.66671 11.456806 -78.908264
-38.664288 10.024075 -78.919083
-38.661747 8.5915003 -78.930443
-38.659203 7.1591115 -78.941826
-38.656662 5.7269158 -78.953178
-38.654243 4.2949195 -78.964005
-38.651699 2.8630846 -78.975365
-38.649162 1.4314551 -78.986725
-38.64674 -1.0173442e-06 -78.997536
-38.644199 -1.4312642 -79.008896
-38.641659 -2.8623428 -79.020248
-38.639118 -4.2932324 -79.031609
-38.636703 -5.723959 -79.042419
-38.634163 -7.1544747 -79.053764
-38.258865 -8.5019751 -80.731636
-38.219666 -9.9088001 -80.906898
-38.219666 -11.324345 -80.906898
-38.248909 -12.749634 -80.776154
-37.336334 71.800644 -78.435982
-37.333874 70.359993 -78.447411
-37.331528 68.919739 -78.458298
-37.329063 67.479469 -78.469719
-37.326603 66.039383 -78.481155
-37.324261 64.599686 -78.492027
-37.3218 63.159981 -78.503456
-37.31934 61.720448 -78.514877
-37.316883 60.28112 -78.526291
-37.314537 58.842159 -78.53717
-37.31208 57.403198 -78.548584
-37.30962 55.964439 -78.560005
-37.307278 54.526024 -78.570869
-37.304821 53.087631 -78.582291
-37.302364 51.649426 -78.593697
-37.299904 50.211411 -78.60511
-37.297565 48.773743 -78.615967
-37.295109 47.336105 -78.627373
-37.292652 45.898651 -78.638779
-37.290314 44.461529 -78.649643
-37.287857 43.024456 -78.661041
-37.2854 41.587563 -78.67244
-37.282948 40.150864 -78.683846
-37.280609 38.714485 -78.694695
-37.278156 37.278156 -78.7061
-37.2757 35.842018 -78.717491
-37.273361 34.406185 -78.728333
-37.270908 32.970421 -78.739731
-37.268456 31.534855 -78.751122
-37.266117 30.099564 -78.761963
-37.263668 28.664358 -78.773354
-37.261215 27.229353 -78.784737
-37.258762 25.794523 -78.79612
-37.256428 24.35997 -78.806961
-37.253975 22.92552 -78.818344
-37.251526 21.491262 -78.829727
-37.249191 20.057261 -78.840561
-37.246738 18.623369 -78.851936
-37.244289 17.189678 -78.863319
-37.24184 15.756168 -78.874687
-37.239506 14.322886 -78.885521
-37.237057 12.889755 -78.896896
-37.234608 11.456806 -78.908264
-37.232277 10.024075 -78.919083
-37.229828 8.5915003 -78.930443
-37.227383 7.1591115 -78.941826
-37.224934 5.7269158 -78.953178
-37.222603 4.2949195 -78.964005
-37.220154 2.8630846 -78.975365
-37.217709 1.4314551 -78.986725
-37.215378 -1.0173442e-06 -78.997536
-37.212933 -1.4312642 -79.008896
-37.210487 -2.8623428 -79.020248
-37.208042 -4.2932324 -79.031609
-37.205715 -5.723959 -79.042419
-37.203266 -7.1544747 -79.053764
-36.841869 -8.5019751 -80.731636
-36.804123 -9.9088001 -80.906898
-36.804123 -11.324345 -80.906898
-36.832283 -12.749634 -80.776154
-35.900322 71.800644 -78.435982
-35.897953 70.359993 -78.447411
-35.895699 68.919739 -78.458298
-35.893333 67.479469 -78.469719
-35.890968 66.039383 -78.481155
-35.88871 64.599686 -78.492027
-35.886345 63.159981 -78.503456
-35.88398 61.720448 -78.514877
-35.881618 60.28112 -78.526291
-35.879364 58.842159 -78.53717
-35.876999 57.403198 -78.548584
-35.874638 55.964439 -78.560005
-35.872383 54.526024 -78.570869
-35.870022 53.087631 -78.582291
-35.867657 51.649426 -78.593697
-35.865295 50.211411 -78.60511
-35.863045 48.773743 -78.615967
-35.860683 47.336105 -78.627373
-35.858318 45.898651 -78.638779
-35.856071 44.461529 -78.649643
-35.85371 43.024456 -78.661041
-35.851349 41.587563 -78.67244
-35.849098 40.150993 -78.683304
-35.846741 38.714485 -78.694695
-35.844379 37.278156 -78.7061
-35.842018 35.842018 -78.717491
-35.839771 34.406185 -78.728333
-35.83741 32.970421 -78.739731
-35.835052 31.534855 -78.751122
-35.832809 30.099564 -78.761963
-35.830448 28.664358 -78.773354
-35.828091 27.229353 -78.784737
-35.825733 25.794523 -78.79612
-35.823486 24.35997 -78.806961
-35.821129 22.92552 -78.818344
-35.818775 21.491262 -78.829727
-35.816528 20.057261 -78.840561
-35.814171 18.623369 -78.851936
-35.811817 17.189678 -78.863319
-35.80946 15.756168 -78.874687
-35.807217 14.322886 -78.885521
-35.804863 12.889755 -78.896896
-35.802509 11.456806 -78.908264
-35.800266 10.024075 -78.919083
-35.797913 8.5915003 -78.930443
-35.795559 7.1591115 -78.941826
-35.793205 5.7269158 -78.953178
-35.790962 4.2949195 -78.964005
-35.788612 2.8630846 -78.975365
-35.786259 1.4314551 -78.986725
-35.784019 -1.0173442e-06 -78.997536
-35.781666 -1.4312642 -79.008896
-35.779312 -2.8623428 -79.020248
-35.776962 -4.2932324 -79.031609
-35.774723 -5.723959 -79.042419
-35.772373 -7.1544747 -79.053764
-35.424873 -8.5019751 -80.731636
-35.38858 -9.9088001 -80.906898
-35.38858 -11.324345 -80.906898
-35.415657 -12.749634 -80.776154
-34.464306 71.800644 -78.435982
-34.462036 70.359993 -78.447411
-34.459869 68.919739 -78.458298
-34.4576 67.479469 -78.469719
-34.455326 66.039383 -78.481155
-34.453163 64.599686 -78.492027
-34.450893 63.159981 -78.503456
-34.448624 61.720448 -78.514877
-34.44635 60.28112 -78.526291
-34.444187 58.842159 -78.53717
-34.441917 57.403198 -78.548584
-34.439651 55.964439 -78.560005
-34.437489 54.526024 -78.570869
-34.435219 53.087631 -78.582291
-34.432953 51.649426 -78.593697
-34.430683 50.211411 -78.60511
-34.42852 48.773743 -78.615967
-34.426254 47.336105 -78.627373
-34.423988 45.898651 -78.638779
-34.421829 44.461529 -78.649643
-34.419559 43.024456 -78.661041
-34.417294 41.587563 -78.67244
-34.415134 40.150993 -78.683304
-34.412868 38.714485 -78.694695
-34.410606 37.278156 -78.7061
-34.408337 35.842018 -78.717491
-34.406181 34.406185 -78.728333
-34.403915 32.970421 -78.739731
-34.401653 31.534855 -78.751122
-34.399494 30.099564 -78.761963
-34.397232 28.664358 -78.773354
-34.394966 27.229353 -78.784737
-34.392704 25.794523 -78.79612
-34.390549 24.35997 -78.806961
-34.388287 22.92552 -78.818344
-34.386021 21.491262 -78.829727
-34.383869 20.057261 -78.840561
-34.381603 18.623369 -78.851936
-34.379345 17.189678 -78.863319
-34.377083 15.756168 -78.874687
-34.374931 14.322886 -78.885521
-34.372669 12.889755 -78.896896
-34.370411 11.456806 -78.908264
-34.368256 10.024075 -78.919083
-34.365993 8.5915003 -78.930443
-34.363735 7.1591115 -78.941826
-34.361477 5.7269158 -78.953178
-34.359325 4.2949195 -78.964005
-34.357067 2.8630846 -78.975365
-34.354809 1.4314551 -78.986725
-34.352657 -1.0173442e-06 -78.997536
-34.350399 -1.4312642 -79.008896
-34.348141 -2.8623428 -79.020248
-34.345886 -4.2932324 -79.031609
-34.343735 -5.723959 -79.042419
-34.34148 -7.1544747 -79.053764
-34.007881 -8.5019751 -80.731636
-33.973038 -9.9088001 -80.906898
-33.973038 -11.324345 -80.906898
-33.999031 -12.749634 -80.776154
-33.677197 73.211304 -75.030342
-33.66534 71.721817 -75.092583
-33.653492 70.233383 -75.154762
-33.641655 68.745979 -75.216904
-33.629822 67.259636 -75.279007
-33.617996 65.774345 -75.341064
-33.606178 64.290085 -75.403069
-33.594372 62.80687 -75.465042
-33.58268 61.324902 -75.526398
-33.570889 59.843758 -75.58828
-33.559109 58.363667 -75.650124
-33.547333 56.884613 -75.711914
-33.535568 55.40659 -75.773666
-33.523811 53.929611 -75.835381
-33.512062 52.453659 -75.897041
-33.50032 50.978745 -75.958664
-33.488586 49.504871 -76.020233
-33.47686 48.032017 -76.081779
-33.465145 46.560204 -76.143272
-33.453438 45.089413 -76.20472
-33.441734 43.619656 -76.266129
-33.430042 42.150928 -76.327484
-33.418358 40.68322 -76.388809
-33.406685 39.216541 -76.450089
-33.395016 37.750889 -76.511322
-33.383358 36.286263 -76.572517
-33.371704 34.822651 -76.633659
-33.360062 33.360062 -76.694763
-33.348427 31.8985 -76.755836
-33.3368 30.437946 -76.816856
-33.325287 28.97851 -76.877281
-33.313675 27.519991 -76.938217
-33.302074 26.062496 -76.999115
-33.290478 24.606009 -77.059967
-33.278893 23.150534 -77.120773
-33.267315 21.696081 -77.181541
-33.255745 20.242628 -77.242264
-33.244183 18.79019 -77.302956
-33.232838 17.338869 -77.36248
-33.2215 15.888544 -77.421982
-33.210171 14.43921 -77.481445
-33.198746 12.990807 -77.541405
-33.187431 11.543453 -77.600792
-32.957401 10.030513 -78.808044
-32.957401 8.5975857 -78.808052
-32.957401 7.1646509 -78.808044
-32.957401 5.7317195 -78.808052
-32.957401 4.2987981 -78.808044
-32.957401 2.8658671 -78.808052
-32.957401 1.432932 -78.808044
-32.957401 1.4506372e-07 -78.808044
-32.957401 -1.432927 -78.808052
-32.957401 -2.8658621 -78.808044
-32.957401 -4.2987933 -78.808052
-32.957401 -5.7317286 -78.808044
-32.957401 -7.1646552 -78.808052
-32.590885 -8.5019751 -80.731636
-32.557491 -9.9088001 -80.906898
-32.557491 -11.324345 -80.906898
-32.582405 -12.749634 -80.776154
-31.524471 10.030513 -78.808044
-31.524471 8.5975857 -78.808052
-31.524471 7.1646509 -78.808044
-31.524471 5.7317195 -78.808052
-31.524471 4.2987981 -78.808044
-31.524471 2.8658671 -78.808052
-31.524471 1.432932 -78.808044
-31.524471 1.4506372e-07 -78.808044
-31.524471 -1.432927 -78.808052
-31.524471 -2.8658621 -78.808044
-31.524471 -4.2987933 -78.808052
-31.524471 -5.7317286 -78.808044
-31.524471 -7.1646552 -78.808052
-31.173889 -8.5019751 -80.731636
-31.141949 -9.9088001 -80.906898
-31.141949 -11.324345 -80.906898
-31.165777 -12.749634 -80.776154
-30.091541 10.030513 -78.808044
-30.091541 8.5975857 -78.808052
-30.091541 7.1646509 -78.808044
-30.091541 5.7317195 -78.808052
-30.091541 4.2987981 -78.808044
-30.091541 2.8658671 -78.808052
-30.091541 1.432932 -78.808044
-30.091541 1.4506372e-07 -78.808044
-30.091541 -1.432927 -78.808052
-30.091541 -2.8658621 -78.808044
-30.091541 -4.2987933 -78.808052
-30.091541 -5.7317286 -78.808044
-30.091541 -7.1646552 -78.808052
-29.756893 -8.5019751 -80.731636
-29.726406 -9.9088001 -80.906898
-29.726406 -11.324345 -80.906898
-29.749151 -12.749634 -80.776154
-28.658611 10.030513 -78.808044
-28.658611 8.5975857 -78.808052
-28.658611 7.1646509 -78.808044
-28.658611 5.7317195 -78.808052
-28.658611 4.2987981 -78.808044
-28.658611 2.8658671 -78.808052
-28.658611 1.432932 -78.808044
-28.658611 1.4506372e-07 -78.808044
-28.658611 -1.432927 -78.808052
-28.658611 -2.8658621 -78.808044
-28.658611 -4.2987933 -78.808052
-28.658611 -5.7317286 -78.808044
-28.658611 -7.1646552 -78.808052
-28.339899 -8.5019751 -80.731636
-28.310863 -9.9088001 -80.906898
-28.310863 -11.324345 -80.906898
-28.332525 -12.749634 -80.776154
-27.225681 10.030513 -78.808044
-27.225681 8.5975857 -78.808052
-27.225681 7.1646509 -78.808044
-27.225681 5.7317195 -78.808052
-27.225681 4.2987981 -78.808044
-27.225681 2.8658671 -78.808052
-27.225681 1.432932 -78.808044
-27.225681 1.4506372e-07 -78.808044
-27.225681 -1.432927 -78.808052
-27.225681 -2.8658621 -78.808044
-27.225681 -4.2987933 -78.808052
-27.225681 -5.7317286 -78.808044
-27.225681 -7.1646552 -78.808052
-26.922903 -8.5019751 -80.731636
-26.895321 -9.9088001 -80.906898
-26.895321 -11.324345 -80.906898
-26.915899 -12.749634 -80.776154
-25.792749 10.030513 -78.808044
-25.792749 8.5975857 -78.808052
-25.792749 7.1646509 -78.808044
-25.792749 5.7317195 -78.808052
-25.792749 4.2987981 -78.808044
-25.792749 2.8658671 -78.808052
-25.792749 1.432932 -78.808044
-25.792749 1.4506372e-07 -78.808044
-25.792749 -1.432927 -78.808052
-25.792749 -2.8658621 -78.808044
-25.792749 -4.2987933 -78.808052
-25.792749 -5.7317286 -78.808044
-25.792749 -7.1646552 -78.808052
-25.505909 -8.5019751 -80.731636
-25.479774 -9.9088001 -80.906898
-25.479774 -11.324345 -80.906898
-25.499273 -12.749634 -80.776154
-24.359819 10.030513 -78.808044
-24.359819 8.5975857 -78.808052
-24.359819 7.1646509 -78.808044
-24.359819 5.7317195 -78.808052
-24.359819 4.2987981 -78.808044
-24.359819 2.8658671 -78.808052
-24.359819 1.432932 -78.808044
-24.359819 1.4506372e-07 -78.808044
-24.359819 -1.432927 -78.808052
-24.359819 -2.8658621 -78.808044
-24.359819 -4.2987933 -78.808052
-24.359819 -5.7317286 -78.808044
-24.359819 -7.1646552 -78.808052
-24.088915 -8.5019751 -80.731636
-24.064232 -9.9088001 -80.906898
-24.064232 -11.324345 -80.906898
-24.082645 -12.749634 -80.776154
-22.926889 10.030513 -78.808044
-22.926889 8.5975857 -78.808052
-22.926889 7.1646509 -78.808044
-22.926889 5.7317195 -78.808052
-22.926889 4.2987981 -78.808044
-22.926889 2.8658671 -78.808052
-22.926889 1.432932 -78.808044
-22.926889 1.4506372e-07 -78.808044
-22.926889 -1.432927 -78.808052
-22.926889 -2.8658621 -78.808044
-22.926889 -4.2987933 -78.808052
-22.926889 -5.7317286 -78.808044
-22.926889 -7.1646552 -78.808052
-22.671919 -8.5019751 -80.731636
-22.648689 -9.9088001 -80.906898
-22.648689 -11.324345 -80.906898
-22.666019 -12.749634 -80.776154
-21.493958 10.030513 -78.808044
-21.493958 8.5975857 -78.808052
-21.493958 7.1646509 -78.808044
-21.493958 5.7317195 -78.808052
-21.493958 4.2987981 -78.808044
-21.493958 2.8658671 -78.808052
-21.493958 1.432932 -78.808044
-21.493958 1.4506372e-07 -78.808044
-21.493958 -1.432927 -78.808052
-21.493958 -2.8658621 -78.808044
-21.493958 -4.2987933 -78.808052
-21.493958 -5.7317286 -78.808044
-21.493958 -7.1646552 -78.808052
-21.254925 -8.5019751 -80.731636
-21.233147 -9.9088001 -80.906898
-21.233147 -11.324345 -80.906898
-21.249392 -12.749634 -80.776154
-37.988373 89.544014 75.764938
-37.985889 86.824898 75.743546
-37.983414 84.10614 75.722191
-37.980934 81.387726 75.700821
-37.978455 78.669662 75.679436
-37.975975 75.951965 75.658073
-37.973499 73.234604 75.636711
-37.971024 70.517624 75.615349
-37.968544 67.80098 75.593987
-37.966068 65.084694 75.572639
-37.963814 62.369137 75.553223
-37.961338 59.653538 75.531883
-37.958862 56.938297 75.510536
-37.956387 54.223423 75.489189
-37.953915 51.508892 75.467842
-37.951439 48.794716 75.446503
-37.948967 46.080902 75.425171
-37.946487 43.367424 75.403824
-37.944016 40.654312 75.382507
-37.941544 37.941547 75.361168
-37.939068 35.229145 75.339851
-37.936596 32.517086 75.318535
-37.934124 29.805399 75.297211
-37.931652 27.094051 75.275902
-37.929405 24.383192 75.256523
-37.926933 21.672541 75.235199
-20.061028 10.030513 -78.808044
-20.061028 8.5975857 -78.808052
-20.061028 7.1646509 -78.808044
-20.061028 5.7317195 -78.808052
-20.061028 4.2987981 -78.808044
-20.061028 2.8658671 -78.808052
-20.061028 1.432932 -78.808044
-20.061028 1.4506372e-07 -78.808044
-20.061028 -1.432927 -78.808052
-20.061028 -2.8658621 -78.808044
-20.061028 -4.2987933 -78.808052
-20.061028 -5.7317286 -78.808044
-20.061028 -7.1646552 -78.808052
-19.837929 -8.5019751 -80.731636
-19.817604 -9.9088001 -80.906898
-19.817604 -11.324345 -80.906898
-19.832767 -12.749634 -80.776154
-35.274914 89.544014 75.764938
-35.272614 86.824898 75.743546
-35.270313 84.10614 75.722191
-35.268009 81.387726 75.700821
-35.265709 78.669662 75.679436
-35.263405 75.951965 75.658073
-35.261108 73.234604 75.636711
-35.258804 70.517624 75.615349
-35.256504 67.80098 75.593987
-35.254208 65.084694 75.572639
-35.252113 62.369137 75.553223
-35.249817 59.653538 75.531883
-35.247517 56.938297 75.510536
-35.24522 54.223423 75.489189
-35.24292 51.508892 75.467842
-35.240623 48.794716 75.446503
-35.238323 46.080902 75.425171
-35.236027 43.367424 75.403824
-35.23373 40.654312 75.382507
-35.231434 37.941547 75.361168
-35.229137 35.229145 75.339851
-35.226837 32.517086 75.318535
-35.224545 29.805399 75.297211
-35.222248 27.094051 75.275902
-35.220161 24.383192 75.256523
-35.217865 21.672541 75.235199
-18.628096 10.030513 -78.808044
-18.628096 8.5975857 -78.808052
-18.628096 7.1646509 -78.808044
-18.628096 5.7317195 -78.808052
-18.628096 4.2987981 -78.808044
-18.628096 2.8658671 -78.808052
-18.628096 1.432932 -78.808044
-18.628096 1.4506372e-07 -78.808044
-18.628096 -1.432927 -78.808052
-18.628096 -2.8658621 -78.808044
-18.628096 -4.2987933 -78.808052
-18.628096 -5.7317286 -78.808044
-18.628096 -7.1646552 -78.808052
-18.420935 -8.5019751 -80.731636
-18.402061 -9.9088001 -80.906898
-18.402061 -11.324345 -80.906898
-18.416142 -12.749634 -80.776154
-17.195166 10.030513 -78.808044
-17.195166 8.5975857 -78.808052
-17.195166 7.1646509 -78.808044
-17.195166 5.7317195 -78.808052
-17.195166 4.2987981 -78.808044
-17.195166 2.8658671 -78.808052
-17.195166 1.432932 -78.808044
-17.195166 1.4506372e-07 -78.808044
-17.195166 -1.432927 -78.808052
-17.195166 -2.8658621 -78.808044
-17.195166 -4.2987933 -78.808052
-17.195166 -5.7317286 -78.808044
-17.195166 -7.1646552 -78.808052
-17.003941 -8.5019751 -80.731636
-16.986519 -9.9088001 -80.906898
-16.986519 -11.324345 -80.906898
-16.999516 -12.749634 -80.776154
-15.762236 10.030513 -78.808044
-15.762236 8.5975857 -78.808052
-15.762236 7.1646509 -78.808044
-15.762236 5.7317195 -78.808052
-15.762236 4.2987981 -78.808044
-15.762236 2.8658671 -78.808052
-15.762236 1.432932 -78.808044
-15.762236 1.4506372e-07 -78.808044
-15.762236 -1.432927 -78.808052
-15.762236 -2.8658621 -78.808044
-15.762236 -4.2987933 -78.808052
-15.762236 -5.7317286 -78.808044
-15.762236 -7.1646552 -78.808052
-15.586945 -8.5019751 -80.731636
-15.570974 -9.9088001 -80.906898
-15.570974 -11.324345 -80.906898
-15.582889 -12.749634 -80.776154
-14.329306 10.030513 -78.808044
-14.329306 8.5975857 -78.808052
-14.329306 7.1646509 -78.808044
-14.329306 5.7317195 -78.808052
-14.329306 4.2987981 -78.808044
-14.329306 2.8658671 -78.808052
-14.329306 1.432932 -78.808044
-14.329306 1.4506372e-07 -78.808044
-14.329306 -1.432927 -78.808052
-14.329306 -2.8658621 -78.808044
-14.329306 -4.2987933 -78.808052
-14.329306 -5.7317286 -78.808044
-14.329306 -7.1646552 -78.808052
-14.16995 -8.5019751 -80.731636
-14.155432 -9.9088001 -80.906898
-14.155432 -11.324345 -80.906898
-14.166263 -12.749634 -80.776154
-12.896375 10.030513 -78.808044
-12.896375 8.5975857 -78.808052
-12.896375 7.1646509 -78.808044
-12.896375 5.7317195 -78.808052
-12.896375 4.2987981 -78.808044
-12.896375 2.8658671 -78.808052
-12.896375 1.432932 -78.808044
-12.896375 1.4506372e-07 -78.808044
-12.896375 -1.432927 -78.808052
-12.896375 -2.8658621 -78.808044
-12.896375 -4.2987933 -78.808052
-12.896375 -5.7317286 -78.808044
-12.896375 -7.1646552 -78.808052
-12.752954 -8.5019751 -80.731636
-12.739887 -9.9088001 -80.906898
-12.739887 -11.324345 -80.906898
-12.749637 -12.749634 -80.776154
-11.463445 10.030513 -78.808044
-11.463445 8.5975857 -78.808052
-11.463445 7.1646509 -78.808044
-11.463445 5.7317195 -78.808052
-11.463445 4.2987981 -78.808044
-11.463445 2.8658671 -78.808052
-11.463445 1.432932 -78.808044
-11.463445 1.4506372e-07 -78.808044
-11.463445 -1.432927 -78.808052
-11.463445 -2.8658621 -78.808044
-11.463445 -4.2987933 -78.808052
-11.463445 -5.7317286 -78.808044
-11.463445 -7.1646552 -78.808052
-11.335959 -8.5019751 -80.731636
-11.324345 -9.9088001 -80.906898
-11.324345 -11.324345 -80.906898
-11.33301 -12.749634 -80.776154
-10.030514 10.030513 -78.808044
-10.030514 8.5975857 -78.808052
-10.030514 7.1646509 -78.808044
-10.030514 5.7317195 -78.808052
-10.030514 4.2987981 -78.808044
-10.030514 2.8658671 -78.808052
-10.030514 1.432932 -78.808044
-10.030514 1.4506372e-07 -78.808044
-10.030514 -1.432927 -78.808052
-10.030514 -2.8658621 -78.808044
-10.030514 -4.2987933 -78.808052
-10.030514 -5.7317286 -78.808044
-10.030514 -7.1646552 -78.808052
-9.9189644 -8.5019751 -80.731636
-9.908802 -9.9088001 -80.906898
-9.908802 -11.324345 -80.906898
-9.9163837 -12.749634 -80.776154
-8.5975828 10.030513 -78.808044
-8.5975828 8.5975857 -78.808052
-8.5975828 7.1646509 -78.808044
-8.5975828 5.7317195 -78.808052
-8.5975828 4.2987981 -78.808044
-8.5975828 2.8658671 -78.808052
-8.5975828 1.432932 -78.808044
-8.5975828 1.4506372e-07 -78.808044
-8.5975828 -1.432927 -78.808052
-8.5975828 -2.8658621 -78.808044
-8.5975828 -4.2987933 -78.808052
-8.5975828 -5.7317286 -78.808044
-8.5975828 -7.1646552 -78.808052
-8.5019703 -8.5019751 -80.731636
-8.4932594 -9.9088001 -80.906898
-8.4932594 -11.324345 -80.906898
-8.4997578 -12.749634 -80.776154
-7.1646528 10.030513 -78.808044
-7.1646528 8.5975857 -78.808052
-7.1646528 7.1646509 -78.808044
-7.1646528 5.7317195 -78.808052
-7.1646528 4.2987981 -78.808044
-7.1646528 2.8658671 -78.808052
-7.1646528 1.432932 -78.808044
-7.1646528 1.4506372e-07 -78.808044
-7.1646528 -1.432927 -78.808052
-7.1646528 -2.8658621 -78.808044
-7.1646528 -4.2987933 -78.808052
-7.1646528 -5.7317286 -78.808044
-7.1646528 -7.1646552 -78.808052
-7.0849748 -8.5019751 -80.731636
-7.0777159 -9.9088001 -80.906898
-7.0777159 -11.324345 -80.906898
-7.0831313 -12.749634 -80.776154
-5.7317224 10.030513 -78.808044
-5.7317224 8.5975857 -78.808052
-5.7317224 7.1646509 -78.808044
-5.7317224 5.7317195 -78.808052
-5.7317224 4.2987981 -78.808044
-5.7317224 2.8658671 -78.808052
-5.7317224 1.432932 -78.808044
-5.7317224 1.4506372e-07 -78.808044
-5.7317224 -1.432927 -78.808052
-5.7317224 -2.8658621 -78.808044
-5.7317224 -4.2987933 -78.808052
-5.7317224 -5.7317286 -78.808044
-5.7317224 -7.1646552 -78.808052
-5.6679797 -8.5019751 -80.731636
-5.6621723 -9.9088001 -80.906898
-5.6621723 -11.324345 -80.906898
-5.6665049 -12.749634 -80.776154
-4.2987914 10.030513 -78.808044
-4.2987914 8.5975857 -78.808052
-4.2987914 7.1646509 -78.808044
-4.2987914 5.7317195 -78.808052
-4.2987914 4.2987981 -78.808044
-4.2987914 2.8658671 -78.808052
-4.2987914 1.432932 -78.808044
-4.2987914 1.4506372e-07 -78.808044
-4.2987914 -1.432927 -78.808052
-4.2987914 -2.8658621 -78.808044
-4.2987914 -4.2987933 -78.808052
-4.2987914 -5.7317286 -78.808044
-4.2987914 -7.1646552 -78.808052
-4.2509851 -8.5019751 -80.731636
-4.2466297 -9.9088001 -80.906898
-4.2466297 -11.324345 -80.906898
-4.2498789 -12.749634 -80.776154
-2.8658612 10.030513 -78.808044
-2.8658612 8.5975857 -78.808052
-2.8658612 7.1646509 -78.808044
-2.8658612 5.7317195 -78.808052
-2.8658612 4.2987981 -78.808044
-2.8658612 2.8658671 -78.808052
-2.8658612 1.432932 -78.808044
-2.8658612 1.4506372e-07 -78.808044
-2.8658612 -1.432927 -78.808052
-2.8658612 -2.8658621 -78.808044
-2.8658612 -4.2987933 -78.808052
-2.8658612 -5.7317286 -78.808044
-2.8658612 -7.1646552 -78.808052
-2.8339899 -8.5019751 -80.731636
-2.8310862 -9.9088001 -80.906898
-2.8310862 -11.324345 -80.906898
-2.8332524 -12.749634 -80.776154
-1.4329306 10.030513 -78.808044
-1.4329306 8.5975857 -78.808052
-1.4329306 7.1646509 -78.808044
-1.4329306 5.7317195 -78.808052
-1.4329306 4.2987981 -78.808044
-1.4329306 2.8658671 -78.808052
-1.4329306 1.432932 -78.808044
-1.4329306 1.4506372e-07 -78.808044
-1.4329306 -1.432927 -78.808052
-1.4329306 -2.8658621 -78.808044
-1.4329306 -4.2987933 -78.808052
-1.4329306 -5.7317286 -78.808044
-1.4329306 -7.1646552 -78.808052
-1.4169949 -8.5019751 -80.731636
-1.4155431 -9.9088001 -80.906898
-1.4155431 -11.324345 -80.906898
-1.4166262 -12.749634 -80.776154
-1.8508747e-23 10.030513 -78.808044
-5.4851026e-23 8.5975857 -78.808052
-1.2219897e-24 7.1646509 -78.808044
-5.813501e-24 5.7317195 -78.808052
-3.6874792e-23 4.2987981 -78.808044
-4.1466303e-23 2.8658671 -78.808052
-4.0776826e-23 1.432932 -78.808044
-4.0087349e-23 1.4506372e-07 -78.808044
-2.3490069e-23 -1.432927 -78.808052
3.6691877e-24 -2.8658621 -78.808044
-2.7392103e-23 -4.2987933 -78.808052
-2.6702626e-23 -5.7317286 -78.808044
-6.3044905e-23 -7.1646552 -78.808052
1.4375848e-23 -8.5019751 -80.731636
-1.5248814e-23 -9.9088001 -80.906898
-3.078139e-23 -11.324345 -80.906898
-5.3468172e-23 -12.749634 -80.776154
1.4329306 10.030513 -78.808044
1.4329306 8.5975857 -78.808052
1.4329306 7.1646509 -78.808044
1.4329306 5.7317195 -78.808052
1.4329306 4.2987981 -78.808044
1.4329306 2.8658671 -78.808052
1.4329306 1.432932 -78.808044
1.4329306 1.4506372e-07 -78.808044
1.4329306 -1.432927 -78.808052
1.4329306 -2.8658621 -78.808044
1.4329306 -4.2987933 -78.808052
1.4329306 -5.7317286 -78.808044
1.4329306 -7.1646552 -78.808052
1.4169949 -8.5019751 -80.731636
1.4155431 -9.9088001 -80.906898
1.4155431 -11.324345 -80.906898
1.4166262 -12.749634 -80.776154
2.8658612 10.030513 -78.808044
2.8658612 8.5975857 -78.808052
2.8658612 7.1646509 -78.808044
2.8658612 5.7317195 -78.808052
2.8658612 4.2987981 -78.808044
2.8658612 2.8658671 -78.808052
2.8658612 1.432932 -78.808044
2.8658612 1.4506372e-07 -78.808044
2.8658612 -1.432927 -78.808052
2.8658612 -2.8658621 -78.808044
2.8658612 -4.2987933 -78.808052
2.8658612 -5.7317286 -78.808044
2.8658612 -7.1646552 -78.808052
2.8339899 -8.5019751 -80.731636
2.8310862 -9.9088001 -80.906898
2.8310862 -11.324345 -80.906898
2.8332524 -12.749634 -80.776154
4.2987914 10.030513 -78.808044
4.2987914 8.5975857 -78.808052
4.2987914 7.1646509 -78.808044
4.2987914 5.7317195 -78.808052
4.2987914 4.2987981 -78.808044
4.2987914 2.8658671 -78.808052
4.2987914 1.432932 -78.808044
4.2987914 1.4506372e-07 -78.808044
4.2987914 -1.432927 -78.808052
4.2987914 -2.8658621 -78.808044
4.2987914 -4.2987933 -78.808052
4.2987914 -5.7317286 -78.808044
4.2987914 -7.1646552 -78.808052
4.2509851 -8.5019751 -80.731636
4.2466297 -9.9088001 -80.906898
4.2466297 -11.324345 -80.906898
4.2498789 -12.749634 -80.776154
5.7317224 10.030513 -78.808044
5.7317224 8.5975857 -78.808052
5.7317224 7.1646509 -78.808044
5.7317224 5.7317195 -78.808052
5.7317224 4.2987981 -78.808044
5.7317224 2.8658671 -78.808052
5.7317224 1.432932 -78.808044
5.7317224 1.4506372e-07 -78.808044
5.7317224 -1.432927 -78.808052
5.7317224 -2.8658621 -78.808044
5.7317224 -4.2987933 -78.808052
5.7317224 -5.7317286 -78.808044
5.7317224 -7.1646552 -78.808052
5.6679797 -8.5019751 -80.731636
5.6621723 -9.9088001 -80.906898
5.6621723 -11.324345 -80.906898
5.6665049 -12.749634 -80.776154
7.1646528 10.030513 -78.808044
7.1646528 8.5975857 -78.808052
7.1646528 7.1646509 -78.808044
7.1646528 5.7317195 -78.808052
7.1646528 4.2987981 -78.808044
7.1646528 2.8658671 -78.808052
7.1646528 1.432932 -78.808044
7.1646528 1.4506372e-07 -78.808044
7.1646528 -1.432927 -78.808052
7.1646528 -2.8658621 -78.808044
7.1646528 -4.2987933 -78.808052
7.1646528 -5.7317286 -78.808044
7.1646528 -7.1646552 -78.808052
7.0849748 -8.5019751 -80.731636
7.0777159 -9.9088001 -80.906898
7.0777159 -11.324345 -80.906898
7.0831313 -12.749634 -80.776154
8.5975828 10.030513 -78.808044
8.5975828 8.5975857 -78.808052
8.5975828 7.1646509 -78.808044
8.5975828 5.7317195 -78.808052
8.5975828 4.2987981 -78.808044
8.5975828 2.8658671 -78.808052
8.5975828 1.432932 -78.808044
8.5975828 1.4506372e-07 -78.808044
8.5975828 -1.432927 -78.808052
8.5975828 -2.8658621 -78.808044
8.5975828 -4.2987933 -78.808052
8.5975828 -5.7317286 -78.808044
8.5975828 -7.1646552 -78.808052
8.5019703 -8.5019751 -80.731636
8.4932594 -9.9088001 -80.906898
8.4932594 -11.324345 -80.906898
8.4997578 -12.749634 -80.776154
10.030514 10.030513 -78.808044
10.030514 8.5975857 -78.808052
10.030514 7.1646509 -78.808044
10.030514 5.7317195 -78.808052
10.030514 4.2987981 -78.808044
10.030514 2.8658671 -78.808052
10.030514 1.432932 -78.808044
10.030514 1.4506372e-07 -78.808044
10.030514 -1.432927 -78.808052
10.030514 -2.8658621 -78.808044
10.030514 -4.2987933 -78.808052
10.030514 -5.7317286 -78.808044
10.030514 -7.1646552 -78.808052
9.9189644 -8.5019751 -80.731636
9.908802 -9.9088001 -80.906898
9.908802 -11.324345 -80.906898
9.9163837 -12.749634 -80.776154
11.463445 10.030513 -78.808044
11.463445 8.5975857 -78.808052
11.463445 7.1646509 -78.808044
11.463445 5.7317195 -78.808052
11.463445 4.2987981 -78.808044
11.463445 2.8658671 -78.808052
11.463445 1.432932 -78.808044
11.463445 1.4506372e-07 -78.808044
11.463445 -1.432927 -78.808052
11.463445 -2.8658621 -78.808044
11.463445 -4.2987933 -78.808052
11.463445 -5.7317286 -78.808044
11.463445 -7.1646552 -78.808052
11.335959 -8.5019751 -80.731636
11.324345 -9.9088001 -80.906898
11.324345 -11.324345 -80.906898
11.33301 -12.749634 -80.776154
12.896375 10.030513 -78.808044
12.896375 8.5975857 -78.808052
12.896375 7.1646509 -78.808044
12.896375 5.7317195 -78.808052
12.896375 4.2987981 -78.808044
12.896375 2.8658671 -78.808052
12.896375 1.432932 -78.808044
12.896375 1.4506372e-07 -78.808044
12.896375 -1.432927 -78.808052
12.896375 -2.8658621 -78.808044
12.896375 -4.2987933 -78.808052
12.896375 -5.7317286 -78.808044
12.896375 -7.1646552 -78.808052
12.752954 -8.5019751 -80.731636
12.739887 -9.9088001 -80.906898
12.739887 -11.324345 -80.906898
12.749637 -12.749634 -80.776154
14.329306 10.030513 -78.808044
14.329306 8.5975857 -78.808052
14.329306 7.1646509 -78.808044
14.329306 5.7317195 -78.808052
14.329306 4.2987981 -78.808044
14.329306 2.8658671 -78.808052
14.329306 1.432932 -78.808044
14.329306 1.4506372e-07 -78.808044
14.329306 -1.432927 -78.808052
14.329306 -2.8658621 -78.808044
14.329306 -4.2987933 -78.808052
14.329306 -5.7317286 -78.808044
14.329306 -7.1646552 -78.808052
14.16995 -8.5019751 -80.731636
14.155432 -9.9088001 -80.906898
14.155432 -11.324345 -80.906898
14.166263 -12.749634 -80.776154
15.762236 10.030513 -78.808044
15.762236 8.5975857 -78.808052
15.762236 7.1646509 -78.808044
15.762236 5.7317195 -78.808052
15.762236 4.2987981 -78.808044
15.762236 2.8658671 -78.808052
15.762236 1.432932 -78.808044
15.762236 1.4506372e-07 -78.808044
15.762236 -1.432927 -78.808052
15.762236 -2.8658621 -78.808044
15.762236 -4.2987933 -78.808052
15.762236 -5.7317286 -78.808044
15.762236 -7.1646552 -78.808052
15.586945 -8.5019751 -80.731636
15.570974 -9.9088001 -80.906898
15.570974 -11.324345 -80.906898
15.582889 -12.749634 -80.776154
32.574604 89.580154 75.897148
32.571705 86.85788 75.867973
32.568996 84.136581 75.840744
32.566292 81.415741 75.813538
32.563583 78.695335 75.786324
32.560883 75.975403 75.759102
32.557983 73.255463 75.729942
32.555279 70.536446 75.702759
32.552383 67.817467 75.673615
32.542923 65.085854 75.578453
32.540607 62.369499 75.555176
32.538292 59.653538 75.531883
32.536167 56.938297 75.510536
32.53405 54.223423 75.489189
32.531925 51.508892 75.467842
32.529804 48.794716 75.446503
32.527683 46.080902 75.425171
32.525562 43.367424 75.403824
32.523445 40.654312 75.382507
32.521324 37.941547 75.361168
32.519203 35.229145 75.339851
32.517082 32.517086 75.318535
32.514965 29.805399 75.297211
32.513039 27.094193 75.277832
32.510918 24.383192 75.256523
32.508801 21.672541 75.235199
17.195166 10.030513 -78.808044
17.195166 8.5975857 -78.808052
17.195166 7.1646509 -78.808044
17.195166 5.7317195 -78.808052
17.195166 4.2987981 -78.808044
17.195166 2.8658671 -78.808052
17.195166 1.432932 -78.808044
17.195166 1.4506372e-07 -78.808044
17.195166 -1.432927 -78.808052
17.195166 -2.8658621 -78.808044
17.195166 -4.2987933 -78.808052
17.195166 -5.7317286 -78.808044
17.195166 -7.1646552 -78.808052
17.003941 -8.5019751 -80.731636
16.986519 -9.9088001 -80.906898
16.986519 -11.324345 -80.906898
16.999516 -12.749634 -80.776154
35.274914 89.544014 75.764938
35.272614 86.824898 75.743546
35.270313 84.10614 75.722191
35.268009 81.387726 75.700821
35.265709 78.669662 75.679436
35.263405 75.951965 75.658073
35.261108 73.234604 75.636711
35.258804 70.517624 75.615349
35.256504 67.80098 75.593987
35.254208 65.084694 75.572639
35.252113 62.369137 75.553223
35.249817 59.653538 75.531883
35.247517 56.938297 75.510536
35.24522 54.223423 75.489189
35.24292 51.508892 75.467842
35.240623 48.794716 75.446503
35.238323 46.080902 75.425171
35.236027 43.367424 75.403824
35.23373 40.654312 75.382507
35.231434 37.941547 75.361168
35.229137 35.229145 75.339851
35.226837 32.517086 75.318535
35.224545 29.805399 75.297211
35.222248 27.094051 75.275902
35.220161 24.383192 75.256523
35.217865 21.672541 75.235199
18.628096 10.030513 -78.808044
18.628096 8.5975857 -78.808052
18.628096 7.1646509 -78.808044
18.628096 5.7317195 -78.808052
18.628096 4.2987981 -78.808044
18.628096 2.8658671 -78.808052
18.628096 1.432932 -78.808044
18.628096 1.4506372e-07 -78.808044
18.628096 -1.432927 -78.808052
18.628096 -2.8658621 -78.808044
18.628096 -4.2987933 -78.808052
18.628096 -5.7317286 -78.808044
18.628096 -7.1646552 -78.808052
18.420935 -8.5019751 -80.731636
18.402061 -9.9088001 -80.906898
18.402061 -11.324345 -80.906898
18.416142 -12.749634 -80.776154
38.003704 89.580154 75.897148
38.000095 86.857376 75.866028
37.996712 84.135582 75.836853
37.993103 81.413803 75.805748
37.989723 78.693001 75.776604
37.98634 75.972694 75.747444
37.982735 73.252426 75.716354
37.979355 70.533104 75.68721
37.968544 67.80098 75.593987
37.966068 65.084694 75.572639
37.963814 62.369137 75.553223
37.961338 59.653538 75.531883
37.958862 56.938297 75.510536
37.956387 54.223423 75.489189
37.953915 51.508892 75.467842
37.951439 48.794716 75.446503
37.948967 46.080902 75.425171
37.946487 43.367424 75.403824
37.944016 40.654312 75.382507
37.941544 37.941547 75.361168
37.939068 35.229145 75.339851
37.936596 32.517086 75.318535
37.934124 29.805399 75.297211
37.931652 27.094051 75.275902
37.929405 24.383192 75.256523
37.926933 21.672541 75.235199
20.061028 10.030513 -78.808044
20.061028 8.5975857 -78.808052
20.061028 7.1646509 -78.808044
20.061028 5.7317195 -78.808052
20.061028 4.2987981 -78.808044
20.061028 2.8658671 -78.808052
20.061028 1.432932 -78.808044
20.061028 1.4506372e-07 -78.808044
20.061028 -1.432927 -78.808052
20.061028 -2.8658621 -78.808044
20.061028 -4.2987933 -78.808052
20.061028 -5.7317286 -78.808044
20.061028 -7.1646552 -78.808052
19.837929 -8.5019751 -80.731636
19.817604 -9.9088001 -80.906898
19.817604 -11.324345 -80.906898
19.832767 -12.749634 -80.776154
21.493958 10.030513 -78.808044
21.493958 8.5975857 -78.808052
21.493958 7.1646509 -78.808044
21.493958 5.7317195 -78.808052
21.493958 4.2987981 -78.808044
21.493958 2.8658671 -78.808052
21.493958 1.432932 -78.808044
21.493958 1.4506372e-07 -78.808044
21.493958 -1.432927 -78.808052
21.493958 -2.8658621 -78.808044
21.493958 -4.2987933 -78.808052
21.493958 -5.7317286 -78.808044
21.493958 -7.1646552 -78.808052
21.254925 -8.5019751 -80.731636
21.233147 -9.9088001 -80.906898
21.233147 -11.324345 -80.906898
21.249392 -12.749634 -80.776154
22.926889 10.030513 -78.808044
22.926889 8.5975857 -78.808052
22.926889 7.1646509 -78.808044
22.926889 5.7317195 -78.808052
22.926889 4.2987981 -78.808044
22.926889 2.8658671 -78.808052
22.926889 1.432932 -78.808044
22.926889 1.4506372e-07 -78.808044
22.926889 -1.432927 -78.808052
22.926889 -2.8658621 -78.808044
22.926889 -4.2987933 -78.808052
22.926889 -5.7317286 -78.808044
22.926889 -7.1646552 -78.808052
22.671919 -8.5019751 -80.731636
22.648689 -9.9088001 -80.906898
22.648689 -11.324345 -80.906898
22.666019 -12.749634 -80.776154
24.359819 10.030513 -78.808044
24.359819 8.5975857 -78.808052
24.359819 7.1646509 -78.808044
24.359819 5.7317195 -78.808052
24.359819 4.2987981 -78.808044
24.359819 2.8658671 -78.808052
24.359819 1.432932 -78.808044
24.359819 1.4506372e-07 -78.808044
24.359819 -1.432927 -78.808052
24.359819 -2.8658621 -78.808044
24.359819 -4.2987933 -78.808052
24.359819 -5.7317286 -78.808044
24.359819 -7.1646552 -78.808052
24.088915 -8.5019751 -80.731636
24.064232 -9.9088001 -80.906898
24.064232 -11.324345 -80.906898
24.082645 -12.749634 -80.776154
25.792749 10.030513 -78.808044
25.792749 8.5975857 -78.808052
25.792749 7.1646509 -78.808044
25.792749 5.7317195 -78.808052
25.792749 4.2987981 -78.808044
25.792749 2.8658671 -78.808052
25.792749 1.432932 -78.808044
25.792749 1.4506372e-07 -78.808044
25.792749 -1.432927 -78.808052
25.792749 -2.8658621 -78.808044
25.792749 -4.2987933 -78.808052
25.792749 -5.7317286 -78.808044
25.792749 -7.1646552 -78.808052
25.505909 -8.5019751 -80.731636
25.479774 -9.9088001 -80.906898
25.479774 -11.324345 -80.906898
25.499273 -12.749634 -80.776154
27.225681 10.030513 -78.808044
27.225681 8.5975857 -78.808052
27.225681 7.1646509 -78.808044
27.225681 5.7317195 -78.808052
27.225681 4.2987981 -78.808044
27.225681 2.8658671 -78.808052
27.225681 1.432932 -78.808044
27.225681 1.4506372e-07 -78.808044
27.225681 -1.432927 -78.808052
27.225681 -2.8658621 -78.808044
27.225681 -4.2987933 -78.808052
27.225681 -5.7317286 -78.808044
27.225681 -7.1646552 -78.808052
26.922903 -8.5019751 -80.731636
26.895321 -9.9088001 -80.906898
26.895321 -11.324345 -80.906898
26.915899 -12.749634 -80.776154
28.658611 10.030513 -78.808044
28.658611 8.5975857 -78.808052
28.658611 7.1646509 -78.808044
28.658611 5.7317195 -78.808052
28.658611 4.2987981 -78.808044
28.658611 2.8658671 -78.808052
28.658611 1.432932 -78.808044
28.658611 1.4506372e-07 -78.808044
28.658611 -1.432927 -78.808052
28.658611 -2.8658621 -78.808044
28.658611 -4.2987933 -78.808052
28.658611 -5.7317286 -78.808044
28.658611 -7.1646552 -78.808052
28.339899 -8.5019751 -80.731636
28.310863 -9.9088001 -80.906898
28.310863 -11.324345 -80.906898
28.332525 -12.749634 -80.776154
30.091541 10.030513 -78.808044
30.091541 8.5975857 -78.808052
30.091541 7.1646509 -78.808044
30.091541 5.7317195 -78.808052
30.091541 4.2987981 -78.808044
30.091541 2.8658671 -78.808052
30.091541 1.432932 -78.808044
30.091541 1.4506372e-07 -78.808044
30.091541 -1.432927 -78.808052
30.091541 -2.8658621 -78.808044
30.091541 -4.2987933 -78.808052
30.091541 -5.7317286 -78.808044
30.091541 -7.1646552 -78.808052
29.756893 -8.5019751 -80.731636
29.726406 -9.9088001 -80.906898
29.726406 -11.324345 -80.906898
29.749151 -12.749634 -80.776154
32.65176 11.873373 -72.62278
31.524471 10.030513 -78.808044
31.524471 8.5975857 -78.808052
31.524471 7.1646509 -78.808044
31.524471 5.7317195 -78.808052
31.524471 4.2987981 -78.808044
31.524471 2.8658671 -78.808052
31.524471 1.432932 -78.808044
31.524471 1.4506372e-07 -78.808044
31.524471 -1.432927 -78.808052
31.524471 -2.8658621 -78.808044
31.524471 -4.2987933 -78.808052
31.524471 -5.7317286 -78.808044
31.524471 -7.1646552 -78.808052
31.173889 -8.5019751 -80.731636
31.141949 -9.9088001 -80.906898
31.141949 -11.324345 -80.906898
31.165777 -12.749634 -80.776154
33.15176 72.069054 -77.787987
33.14069 70.604073 -77.846107
33.129623 69.140083 -77.904182
33.118462 67.676857 -77.962761
33.10741 66.214828 -78.02076
33.096367 64.753769 -78.078705
33.085228 63.293484 -78.137177
33.0742 61.834377 -78.195053
33.063183 60.37624 -78.252892
33.052166 58.919086 -78.310699
33.041058 57.462715 -78.369011
33.032028 56.010834 -78.416389
33.029125 54.569859 -78.431625
33.026115 53.128975 -78.447418
33.023212 51.688515 -78.462646
33.020206 50.248146 -78.478432
33.017303 48.808193 -78.49366
33.014297 47.368343 -78.509438
33.011398 45.928902 -78.524666
32.995865 44.472691 -78.606194
32.992657 43.033901 -78.623032
32.989445 41.595398 -78.63987
32.985104 40.155773 -78.662674
32.982723 38.718849 -78.675163
32.980343 37.282127 -78.687645
32.977966 35.845612 -78.700119
32.97559 34.409306 -78.712608
32.973209 32.973213 -78.725082
32.97073 31.53722 -78.738106
32.96825 30.10145 -78.751122
32.965664 28.665796 -78.764679
32.963085 27.230371 -78.778236
32.960602 25.795258 -78.791245
32.958023 24.360277 -78.804794
32.955441 22.92552 -78.818344
32.95327 21.491262 -78.829727
32.951206 20.057261 -78.840561
32.949039 18.623369 -78.851936
32.946873 17.189678 -78.863319
32.944702 15.756168 -78.874687
32.942642 14.322886 -78.885521
32.940475 12.889755 -78.896896
32.938309 11.456806 -78.908264
32.936245 10.024075 -78.919083
32.934078 8.5915003 -78.930443
32.931915 7.1591115 -78.941826
32.929749 5.7269158 -78.953178
32.927685 4.2949195 -78.964005
32.925522 2.8630846 -78.975365
32.923355 1.4314551 -78.986725
32.921299 -1.0173442e-06 -78.997536
32.919132 -1.4312642 -79.008896
32.916969 -2.8623428 -79.020248
32.914806 -4.2932324 -79.031609
32.912746 -5.723959 -79.042419
32.910583 -7.1544747 -79.053764
32.590885 -8.5019751 -80.731636
32.557491 -9.9088001 -80.906898
32.557491 -11.324345 -80.906898
32.582405 -12.749634 -80.776154
34.464306 71.800644 -78.435982
34.462036 70.359993 -78.447411
34.459869 68.919739 -78.458298
34.4576 67.479469 -78.469719
34.455326 66.039383 -78.481155
34.453163 64.599686 -78.492027
34.450893 63.159981 -78.503456
34.448624 61.720448 -78.514877
34.44635 60.28112 -78.526291
34.444187 58.842159 -78.53717
34.441917 57.403198 -78.548584
34.439651 55.964439 -78.560005
34.437489 54.526024 -78.570869
34.435219 53.087631 -78.582291
34.432953 51.649426 -78.593697
34.430683 50.211411 -78.60511
34.42852 48.773743 -78.615967
34.426254 47.336105 -78.627373
34.423988 45.898651 -78.638779
34.421829 44.461529 -78.649643
34.419559 43.024456 -78.661041
34.417294 41.587563 -78.67244
34.415028 40.150864 -78.683846
34.412868 38.714485 -78.694695
34.410606 37.278156 -78.7061
34.408337 35.842018 -78.717491
34.406181 34.406185 -78.728333
34.403915 32.970421 -78.739731
34.401653 31.534855 -78.751122
34.399494 30.099564 -78.761963
34.397232 28.664358 -78.773354
34.394966 27.229353 -78.784737
34.392704 25.794523 -78.79612
34.390549 24.35997 -78.806961
34.388287 22.92552 -78.818344
34.386021 21.491262 -78.829727
34.383869 20.057261 -78.840561
34.381603 18.623369 -78.851936
34.379345 17.189678 -78.863319
34.377083 15.756168 -78.874687
34.374931 14.322886 -78.885521
34.372669 12.889755 -78.896896
34.370411 11.456806 -78.908264
34.368256 10.024075 -78.919083
34.365993 8.5915003 -78.930443
34.363735 7.1591115 -78.941826
34.361477 5.7269158 -78.953178
34.359325 4.2949195 -78.964005
34.357067 2.8630846 -78.975365
34.354809 1.4314551 -78.986725
34.352657 -1.0173442e-06 -78.997536
34.350399 -1.4312642 -79.008896
34.348141 -2.8623428 -79.020248
34.345886 -4.2932324 -79.031609
34.343735 -5.723959 -79.042419
34.34148 -7.1544747 -79.053764
34.007881 -8.5019751 -80.731636
33.973038 -9.9088001 -80.906898
33.973038 -11.324345 -80.906898
33.999031 -12.749634 -80.776154
35.900322 71.800644 -78.435982
35.897953 70.359993 -78.447411
35.895699 68.919739 -78.458298
35.893333 67.479469 -78.469719
35.890968 66.039383 -78.481155
35.88871 64.599686 -78.492027
35.886345 63.159981 -78.503456
35.88398 61.720448 -78.514877
35.881618 60.28112 -78.526291
35.879364 58.842159 -78.53717
35.876999 57.403198 -78.548584
35.874638 55.964439 -78.560005
35.872383 54.526024 -78.570869
35.870022 53.087631 -78.582291
35.867657 51.649426 -78.593697
35.865295 50.211411 -78.60511
35.863045 48.773743 -78.615967
35.860683 47.336105 -78.627373
35.858318 45.898651 -78.638779
35.856071 44.461529 -78.649643
35.85371 43.024456 -78.661041
35.851349 41.587563 -78.67244
35.848988 40.150864 -78.683846
35.846741 38.714485 -78.694695
35.844379 37.278156 -78.7061
35.842018 35.842018 -78.717491
35.839771 34.406185 -78.728333
35.83741 32.970421 -78.739731
35.835052 31.534855 -78.751122
35.832809 30.099564 -78.761963
35.830448 28.664358 -78.773354
35.828091 27.229353 -78.784737
35.825733 25.794523 -78.79612
35.823486 24.35997 -78.806961
35.821129 22.92552 -78.818344
35.818775 21.491262 -78.829727
35.816528 20.057261 -78.840561
35.814171 18.623369 -78.851936
35.811817 17.189678 -78.863319
35.80946 15.756168 -78.874687
35.807217 14.322886 -78.885521
35.804863 12.889755 -78.896896
35.802509 11.456806 -78.908264
35.800266 10.024075 -78.919083
35.797913 8.5915003 -78.930443
35.795559 7.1591115 -78.941826
35.793205 5.7269158 -78.953178
35.790962 4.2949195 -78.964005
35.788612 2.8630846 -78.975365
35.786259 1.4314551 -78.986725
35.784019 -1.0173442e-06 -78.997536
35.781666 -1.4312642 -79.008896
35.779312 -2.8623428 -79.020248
35.776962 -4.2932324 -79.031609
35.774723 -5.723959 -79.042419
35.772373 -7.1544747 -79.053764
35.424873 -8.5019751 -80.731636
35.38858 -9.9088001 -80.906898
35.38858 -11.324345 -80.906898
35.415657 -12.749634 -80.776154
37.336334 71.800644 -78.435982
37.333874 70.359993 -78.447411
37.331528 68.919739 -78.458298
37.329063 67.479469 -78.469719
37.326603 66.039383 -78.481155
37.324261 64.599686 -78.492027
37.3218 63.159981 -78.503456
37.31934 61.720448 -78.514877
37.316883 60.28112 -78.526291
37.314537 58.842159 -78.53717
37.31208 57.403198 -78.548584
37.30962 55.964439 -78.560005
37.307278 54.526024 -78.570869
37.304821 53.087631 -78.582291
37.302364 51.649426 -78.593697
37.299904 50.211411 -78.60511
37.297565 48.773743 -78.615967
37.295109 47.336105 -78.627373
37.292652 45.898651 -78.638779
37.290314 44.461529 -78.649643
37.287857 43.024456 -78.661041
37.2854 41.587563 -78.67244
37.282948 40.150864 -78.683846
37.280609 38.714485 -78.694695
37.278156 37.278156 -78.7061
37.2757 35.842018 -78.717491
37.273361 34.406185 -78.728333
37.270908 32.970421 -78.739731
37.268456 31.534855 -78.751122
37.266117 30.099564 -78.761963
37.263668 28.664358 -78.773354
37.261215 27.229353 -78.784737
37.258762 25.794523 -78.79612
37.256428 24.35997 -78.806961
37.253975 22.92552 -78.818344
37.251526 21.491262 -78.829727
37.249191 20.057261 -78.840561
37.246738 18.623369 -78.851936
37.244289 17.189678 -78.863319
37.24184 15.756168 -78.874687
37.239506 14.322886 -78.885521
37.237057 12.889755 -78.896896
37.234608 11.456806 -78.908264
37.232277 10.024075 -78.919083
37.229828 8.5915003 -78.930443
37.227383 7.1591115 -78.941826
37.224934 5.7269158 -78.953178
37.222603 4.2949195 -78.964005
37.220154 2.8630846 -78.975365
37.217709 1.4314551 -78.986725
37.215378 -1.0173442e-06 -78.997536
37.212933 -1.4312642 -79.008896
37.210487 -2.8623428 -79.020248
37.208042 -4.2932324 -79.031609
37.205715 -5.723959 -79.042419
37.203266 -7.1544747 -79.053764
36.841869 -8.5019751 -80.731636
36.804123 -9.9088001 -80.906898
36.804123 -11.324345 -80.906898
36.832283 -12.749634 -80.776154
38.766262 61.738857 -78.463196
38.762241 60.296825 -78.481148
38.75835 58.85527 -78.49855
38.754456 57.414013 -78.515961
38.750565 55.973042 -78.533356
38.746552 54.532181 -78.5513
38.742661 53.091797 -78.568703
38.737068 51.649426 -78.593697
38.734516 50.211411 -78.60511
38.73209 48.773743 -78.615967
38.729538 47.336105 -78.627373
38.726986 45.898651 -78.638779
38.724556 44.461529 -78.649643
38.722004 43.024456 -78.661041
38.719456 41.587563 -78.67244
38.716908 40.150864 -78.683846
38.714478 38.714485 -78.694695
38.711929 37.278156 -78.7061
38.709381 35.842018 -78.717491
38.706955 34.406185 -78.728333
38.704403 32.970421 -78.739731
38.701859 31.534855 -78.751122
38.699432 30.099564 -78.761963
38.696884 28.664358 -78.773354
38.694336 27.229353 -78.784737
38.691792 25.794523 -78.79612
38.689365 24.35997 -78.806961
38.686821 22.92552 -78.818344
38.684277 21.491262 -78.829727
38.68185 20.057261 -78.840561
38.679306 18.623369 -78.851936
38.676762 17.189678 -78.863319
38.674217 15.756168 -78.874687
38.671795 14.322886 -78.885521
38.66925 12.889755 -78.896896
38.66671 11.456806 -78.908264
38.664288 10.024075 -78.919083
38.661747 8.5915003 -78.930443
38.659203 7.1591115 -78.941826
38.656662 5.7269158 -78.953178
38.654243 4.2949195 -78.964005
38.651699 2.8630846 -78.975365
38.649162 1.4314551 -78.986725
38.64674 -1.0173442e-06 -78.997536
38.644199 -1.4312642 -79.008896
38.641659 -2.8623428 -79.020248
38.639118 -4.2932324 -79.031609
38.636703 -5.723959 -79.042419
38.634163 -7.1544747 -79.053764
38.258865 -8.5019751 -80.731636
38.219666 -9.9088001 -80.906898
38.219666 -11.324345 -80.906898
38.248909 -12.749634 -80.776154
39.675858 -8.5019751 -80.731636
39.635208 -9.9088001 -80.906898
39.635208 -11.324345 -80.906898
39.665535 -12.749634 -80.776154
41.050751 -9.9088001 -80.906898
41.050751 -11.324345 -80.906898
41.082161 -12.749634 -80.776154
