# .PCD v0.7 - Point Cloud Data file format
VERSION 0.7
FIELDS x y z
SIZE 4 4 4
TYPE F F F
COUNT 1 1 1
WIDTH 1491
HEIGHT 1
VIEWPOINT 0 0 0 1 0 0 0
POINTS 1491
DATA ascii
-236.6445 -20.880436 -396.39624
-235.63509 -27.721783 -399.98001
-234.63493 -34.50515 -403.53082
-233.64326 -41.231194 -407.05157
-232.65993 -47.900616 -410.54272
-231.68483 -54.514103 -414.00461
-230.71788 -61.072426 -417.43759
-229.75829 -67.575981 -420.84454
-228.8073 -74.025925 -424.22076
-227.86415 -80.422676 -427.56921
-226.92876 -86.766922 -430.89011
-226.00171 -93.059563 -434.18149
-225.0815 -99.300713 -437.44852
-224.16879 -105.4912 -440.68896
-211.70163 -105.85086 -484.95126
-209.76506 -111.05212 -491.82669
-210.00099 -117.35352 -490.98907
-209.13675 -123.02165 -494.05737
-210.49771 -130.01331 -489.22556
-228.17334 -147.64162 -426.4715
-250.87625 -169.71045 -345.86902
-279.65164 -197.4012 -243.70738
-312.953 -230.11252 -125.47705
-295.00546 446.97794 -157.45827
-293.39349 435.6449 -163.35463
-291.79788 424.43323 -169.19122
-290.22067 413.34454 -174.96046
-288.66046 402.37521 -180.66765
-287.11578 391.52145 -186.31795
-285.58865 380.78482 -191.90401
-284.0766 370.16037 -197.43495
-282.58157 359.6492 -202.9037
-281.10214 349.24808 -208.31519
-279.63712 338.95404 -213.67415
-278.18829 328.76797 -218.97375
-276.75339 318.68573 -224.22247
-275.33423 308.70807 -229.41359
-273.92957 298.83224 -234.55174
-272.53815 289.0556 -239.64139
-271.1618 279.37881 -244.67601
-269.79929 269.79926 -249.66
-268.44937 260.31451 -254.59773
-267.11389 250.92517 -259.48276
-265.7869 241.62444 -264.33688
-264.47299 232.41562 -269.14301
-263.17105 223.29665 -273.90533
-261.88281 214.26775 -278.61758
-260.60715 205.3268 -283.28387
-259.34381 196.47256 -287.905
-258.0918 187.70311 -292.4848
-256.85178 179.01788 -297.02054
-255.62276 170.41516 -301.51624
-254.40633 161.89488 -305.96585
-253.20053 153.45485 -310.37653
-252.00697 145.09489 -314.7424
-250.82887 136.81573 -319.05179
-249.66089 128.61316 -323.3241
-248.50459 120.48704 -327.55377
-247.35892 112.43585 -331.74451
-246.22377 104.45857 -335.89673
-245.09901 96.554138 -340.01105
-243.98447 88.721588 -344.08786
-242.88002 80.959976 -348.12787
-241.78473 73.268105 -352.13431
-240.70007 65.645462 -356.1019
-239.62511 58.090897 -360.03409
-238.55966 50.603558 -363.9313
-237.50369 43.182457 -367.79395
-236.457 35.826801 -371.62259
-235.41875 28.535555 -375.42041
-234.39034 21.308174 -379.18228
-233.37086 14.14366 -382.91144
-232.3602 7.0411549 -386.60828
-231.35828 -5.0163224e-05 -390.27325
-230.36494 -6.9807982 -393.90674
-229.38013 -13.901849 -397.50916
-228.40295 -20.763941 -401.08353
-227.43478 -27.567871 -404.625
-226.47479 -34.314381 -408.13654
-225.52286 -41.004204 -411.61856
-224.57892 -47.637978 -415.07147
-223.64284 -54.216492 -418.49561
-222.71384 -60.740162 -421.89374
-221.79321 -67.210091 -425.26129
-220.88017 -73.626747 -428.60117
-219.97459 -79.990784 -431.91367
-219.0764 -86.302879 -435.19904
-218.18555 -92.563599 -438.45779
-217.30191 -98.773628 -441.69006
-216.42537 -104.93354 -444.89633
-204.3902 -105.29195 -488.91977
-202.47038 -110.43844 -495.94223
-202.76135 -116.7414 -494.87796
-201.93124 -122.3826 -497.91443
-202.67853 -128.97729 -495.18091
-217.7159 -145.14397 -440.17572
-238.97604 -166.55908 -362.40823
-265.48148 -193.0775 -265.45395
-297.45154 -225.34212 -148.51079
-284.02151 443.78366 -165.17004
-282.47949 432.54675 -170.98692
-280.95523 421.43277 -176.7368
-279.44623 410.43658 -182.42911
-277.95441 399.55945 -188.0565
-276.47842 388.79773 -193.62415
-275.01703 378.14841 -199.13695
-273.57202 367.61243 -204.58783
-272.14212 357.18646 -209.98174
-270.72604 346.86771 -215.32343
-269.32565 336.65707 -220.60594
-267.93869 326.5502 -225.83792
-266.56689 316.54819 -231.01256
-265.20911 306.64801 -236.13445
-263.86411 296.84708 -241.20808
-262.53363 287.14615 -246.22687
-261.21652 277.54251 -251.19539
-259.91159 268.03381 -256.11774
-258.62057 258.62054 -260.98773
-257.33774 249.29593 -265.82697
-256.06662 240.06244 -270.62186
-254.80888 230.92056 -275.36621
-253.56349 221.86801 -280.06421
-252.32928 212.90283 -284.71985
-251.10793 204.02516 -289.32706
-249.89748 195.23236 -293.89316
-248.69862 186.52394 -298.41547
-247.51038 177.89807 -302.89783
-246.33424 169.35478 -307.33432
-245.16843 160.89175 -311.73203
-244.01527 152.50952 -316.08206
-242.87616 144.20767 -320.37894
-241.74686 135.98256 -324.63901
-240.62878 127.83401 -328.85651
-239.52103 119.76048 -333.03522
-238.42342 111.76095 -337.17566
-237.33582 103.83439 -341.27829
-236.2581 95.979813 -345.34366
-235.18935 88.195969 -349.37521
-234.131 80.482506 -353.36755
-233.08211 72.838135 -357.3241
-232.0426 65.261955 -361.24545
-231.01233 57.753036 -365.13187
-229.99113 50.310493 -368.98395
-228.97896 42.933537 -372.80215
-227.97491 35.621063 -376.58966
-226.98033 28.372522 -380.34134
-225.99443 21.186928 -384.06042
-225.01703 14.06355 -387.74734
-224.04807 7.0014811 -391.4025
-223.0874 -1.9077264e-05 -395.02637
-222.13493 -6.9417572 -398.61923
-221.1899 -13.824396 -402.18414
-220.25351 -20.6488 -405.71631
-219.32504 -27.41568 -409.21866
-218.40437 -34.12571 -412.69165
-217.49141 -40.779682 -416.13556
-216.58604 -47.378216 -419.55084
-215.68752 -53.921906 -422.94022
-214.79707 -60.411686 -426.29916
-213.91393 -66.848129 -429.63052
-213.03804 -73.231857 -432.93457
-212.16928 -79.563522 -436.21167
-211.30759 -85.843765 -439.46216
-210.45287 -92.073166 -442.68637
-209.60503 -98.252396 -445.88458
-208.76399 -104.38204 -449.05713
-197.19949 -104.76225 -492.68091
-195.38574 -109.90453 -499.52277
-195.59682 -116.13564 -498.72653
-194.80072 -121.75049 -501.72958
-195.10713 -128.03908 -500.57373
-207.66348 -142.76871 -453.2085
-227.50975 -163.52267 -378.34427
-251.86835 -188.90128 -286.45862
-282.1138 -220.40144 -172.36639
-320.0022 -260.00177 -29.443548
-273.19241 440.6329 -172.77657
-271.7207 429.49396 -178.50729
-270.2637 418.47284 -184.1806
-268.8233 407.57083 -189.78934
-267.39819 396.78436 -195.33865
-265.98706 386.11023 -200.83339
-264.5918 375.54956 -206.26653
-263.21106 365.09921 -211.6429
-261.84369 354.75592 -216.96736
-260.49139 344.52084 -222.23294
-259.15207 334.38974 -227.44821
-257.82736 324.36343 -232.60638
-256.51614 314.43915 -237.71213
-255.21729 304.61414 -242.76982
-253.93242 294.88922 -247.77292
-252.65952 285.26071 -252.72951
-251.40021 275.72925 -257.63309
-250.1534 266.2923 -262.48807
-248.91354 256.94296 -267.31595
-247.68678 247.68677 -272.09271
-246.47208 238.52136 -276.82269
-245.26836 229.44455 -281.50986
-244.07719 220.45679 -286.14813
-242.89754 211.55591 -290.74155
-241.72841 202.73991 -295.29407
-240.56963 194.00775 -299.80618
-239.42192 185.35887 -304.27527
-238.2859 176.79274 -308.69876
-237.15982 168.30693 -313.08362
-236.04675 159.90262 -317.41785
-234.94643 151.57832 -321.70227
-233.85556 143.33078 -325.95004
-232.77554 135.15997 -330.15549
-231.70546 127.06423 -334.3223
-230.64517 119.04263 -338.45099
-229.59456 111.0941 -342.54199
-228.55345 103.21765 -346.59592
-227.521 95.411987 -350.61618
-226.49858 87.676826 -354.59738
-225.48529 80.010872 -358.54294
-224.48106 72.413223 -362.45337
-223.48572 64.882935 -366.32916
-222.49913 57.419121 -370.17072
-221.52126 50.020874 -373.97849
-220.55122 42.687305 -377.75571
-219.59035 35.417759 -381.49722
-218.63782 28.211298 -385.20633
-217.69351 21.06708 -388.88336
-216.75732 13.984301 -392.52878
-215.82915 6.9621973 -396.14297
-214.90822 -5.1017621e-05 -399.72891
-213.99579 -6.9031191 -403.28183
-213.09108 -13.74783 -406.80472
-212.19398 -20.53491 -410.29797
-211.3044 -27.26512 -413.76187
-210.42224 -33.939106 -417.1969
-209.54742 -40.557594 -420.60336
-208.67923 -47.121128 -423.98401
-207.8188 -53.630707 -427.33438
-206.96545 -60.086769 -430.65729
-206.11908 -66.490059 -433.95294
-205.2796 -72.841187 -437.22171
-204.44695 -79.1408 -440.46402
-203.621 -85.389488 -443.68015
-202.8017 -91.587906 -446.87042
-201.98898 -97.736649 -450.03506
-201.18275 -103.83631 -453.17444
-190.10367 -104.25044 -496.31525
-188.37794 -109.38079 -503.035
-188.50577 -115.53582 -502.53729
-187.74298 -121.12453 -505.50751
-187.69679 -127.14951 -505.68729
-197.91563 -140.45631 -465.89624
-216.45335 -160.59444 -393.71243
-238.95157 -184.99478 -306.10672
-267.43524 -215.6736 -195.19432
-301.48428 -252.85782 -62.610962
-262.51697 437.52832 -180.27173
-261.11169 426.48245 -185.92624
-259.72235 415.55579 -191.51645
-258.34772 404.74478 -197.04749
-256.9866 394.04611 -202.52428
-255.64072 383.46109 -207.93973
-254.30789 372.98489 -213.3026
-252.98985 362.61877 -218.606
-251.68538 352.3595 -223.85477
-250.39339 342.20422 -229.05341
-249.11548 332.15399 -234.19521
-247.85057 322.20575 -239.28487
-246.59753 312.35687 -244.32664
-245.358 302.60818 -249.31413
-244.12999 292.95596 -254.25537
-242.91507 283.40091 -259.14374
-241.71132 273.93948 -263.98724
-240.51601 264.5676 -268.79688
-239.33246 255.28793 -273.55911
-238.15965 246.09827 -278.27814
-236.99911 236.99908 -282.94778
-235.84982 227.98814 -287.57208
-234.71082 219.06343 -292.15512
-233.58278 210.22444 -296.69406
-232.46469 201.46939 -301.19284
-231.35728 192.7977 -305.64877
-230.26115 184.20889 -310.05923
-229.17458 175.70045 -314.43124
-228.1013 167.27428 -318.74973
-227.03883 158.92714 -323.0249
-225.98694 150.65793 -327.25735
-224.94475 142.46497 -331.45078
-223.91212 134.34726 -335.60571
-222.88896 126.3037 -339.72263
-221.87508 118.33337 -343.80212
-220.87041 110.43518 -347.84467
-219.87405 102.60787 -351.85367
-218.88736 94.851135 -355.82376
-217.9095 87.163742 -359.75842
-216.94032 79.544746 -363.65808
-215.97974 71.993225 -367.52319
-215.02762 64.508263 -371.35425
-214.08385 57.089016 -375.15161
-213.14767 49.734402 -378.91855
-212.22031 42.444019 -382.64996
-211.30096 35.216778 -386.34909
-210.38957 28.051926 -390.01633
-209.48598 20.94858 -393.65201
-208.59013 13.905973 -397.25659
-207.70129 6.9233184 -400.8331
-206.8206 -3.4147797e-05 -404.37668
-205.94736 -6.8649306 -407.89032
-205.08145 -13.67213 -411.37439
-204.22281 -20.422331 -414.82935
-203.37134 -27.116196 -418.25549
-202.5269 -33.754524 -421.65314
-201.68887 -40.337818 -425.02518
-200.85835 -46.866966 -428.36697
-200.03464 -53.342583 -431.68137
-199.21764 -59.76532 -434.96866
-198.40729 -66.135803 -438.22925
-197.60352 -72.454659 -441.46341
-196.80563 -78.72229 -444.67377
-196.01476 -84.939743 -447.85605
-195.23021 -91.10746 -451.01282
-194.45192 -97.226006 -454.14444
-193.67981 -103.29593 -457.25119
-183.12123 -103.76873 -499.73557
-181.91441 -109.14868 -504.59149
-181.59004 -115.00708 -505.89658
-180.75743 -120.50497 -509.24683
-180.48222 -126.33762 -510.35416
-188.45209 -138.19823 -478.28586
-205.78659 -157.76974 -408.53729
-226.76154 -181.40926 -324.14053
-252.25212 -210.2101 -221.57443
-284.74838 -246.78195 -90.81958
-251.98996 434.46545 -187.66612
-250.65138 423.5144 -193.23793
-249.32693 412.67908 -198.75078
-248.01547 401.95612 -204.20969
-246.71867 391.34689 -209.60748
-245.43446 380.84656 -214.95308
-244.16444 370.45633 -220.23944
-242.90749 360.17313 -225.47141
-241.66252 349.99399 -230.65352
-240.43114 339.91989 -235.77901
-239.21223 329.94791 -240.85266
-238.00476 320.07538 -245.87862
-236.81029 310.30313 -250.85057
-235.62689 300.62741 -255.77641
-234.4561 291.04892 -260.64975
-233.29604 281.56421 -265.47842
-232.1441 272.16891 -270.27328
-231.00267 262.86508 -275.02448
-229.8732 253.65318 -279.7258
-228.75471 244.5309 -284.38135
-227.64629 235.49612 -288.99518
-226.54854 226.54854 -293.56448
-225.46133 217.68677 -298.08987
-224.38373 208.90894 -302.57538
-223.31639 200.21466 -307.01813
-222.25989 191.60336 -311.41568
-221.21262 183.07248 -315.77496
-220.17888 174.62459 -320.07779
-219.15475 166.25533 -324.34064
-218.14085 157.96402 -328.56091
-217.13631 149.74913 -332.74237
-216.14093 141.60956 -336.88541
-215.15468 133.54427 -340.99072
-214.17737 125.55219 -345.05872
-213.20891 117.63248 -349.0899
-212.24846 109.78362 -353.08768
-211.29732 102.00555 -357.04678
-210.35464 94.29689 -360.97049
-209.42036 86.656693 -364.85944
-208.49434 79.084038 -368.7139
-207.57649 71.578072 -372.53445
-206.666 64.137711 -376.32428
-205.76413 56.762474 -380.07831
-204.87007 49.45137 -383.79968
-203.98378 42.20351 -387.48883
-203.1051 35.018082 -391.14627
-202.23399 27.894283 -394.77228
-201.3703 20.8314 -398.36734
-200.51334 13.828486 -401.93436
-199.66426 6.8849339 -405.46866
-198.82233 -4.3876098e-05 -408.97311
-197.98747 -6.827189 -412.44812
-197.15959 -13.597221 -415.8941
-196.33862 -20.310919 -419.31134
-195.52446 -26.96892 -422.70029
-194.71643 -33.571835 -426.06363
-193.91563 -40.120499 -429.39688
-193.12138 -46.615524 -432.70288
-192.33363 -53.057564 -435.98187
-191.55228 -59.447308 -439.23422
-190.77724 -65.785278 -442.46027
-190.0079 -72.071999 -445.6626
-189.24529 -78.308434 -448.83694
-188.48877 -84.494995 -451.98593
-187.73827 -90.632286 -455.1098
-186.99373 -96.720924 -458.20889
-186.25508 -102.76146 -461.28348
-176.22884 -103.3066 -503.01709
-175.44368 -108.8961 -506.28528
-174.79987 -114.52409 -508.96506
-173.84344 -119.89205 -512.94611
-173.41103 -125.57355 -514.74603
-179.28802 -136.01163 -490.28342
-195.48857 -155.04271 -422.84967
-215.03505 -177.96008 -341.48868
-239.57211 -206.52773 -239.35469
-269.08954 -241.2527 -116.49027
-241.61024 431.44681 -194.95369
-240.33566 420.58743 -200.44847
-239.07356 409.84036 -205.88956
-237.82553 399.20712 -211.2699
-236.58958 388.68289 -216.59821
-235.36729 378.26886 -221.8676
-234.15756 367.96188 -227.08287
-232.95935 357.759 -232.2485
-231.77419 347.66129 -237.35786
-230.60017 337.66452 -242.41914
-229.43883 327.76978 -247.42578
-228.28915 317.97412 -252.38223
-227.15009 308.27512 -257.29279
-226.02313 298.67343 -262.15115
-224.90654 289.1655 -266.96497
-223.79691 279.74609 -271.74866
-222.69896 270.42017 -276.48199
-221.61174 261.18521 -281.1691
-220.53432 252.0392 -285.814
-219.46809 242.98247 -290.41064
-218.41058 234.01132 -294.96964
-217.36397 225.12694 -299.48166
-216.32661 216.32658 -303.9538
-215.29985 207.61053 -308.38037
-214.28204 198.97617 -312.76819
-213.2738 190.42302 -317.11472
-212.27934 181.95372 -321.40201
-211.2934 173.56239 -325.65253
-210.31725 165.24922 -329.86075
-209.3501 157.01254 -334.03024
-208.3918 148.85126 -338.16153
-207.44223 140.76433 -342.25525
-206.50127 132.75079 -346.3118
-205.56883 124.80962 -350.33167
-204.64409 116.93946 -354.3183
-203.7283 109.14013 -358.26636
-202.82066 101.41032 -362.17926
-201.92108 93.749046 -366.0575
-201.02943 86.155464 -369.9014
-200.14565 78.628586 -373.71152
-199.26895 71.167458 -377.49106
-198.40053 63.771561 -381.23492
-197.53964 56.439861 -384.94626
-196.6862 49.171524 -388.62552
-195.84009 41.965698 -392.27316
-195.00124 34.821629 -395.88956
-194.16954 27.738497 -399.47507
-193.34431 20.71546 -403.03275
-192.52666 13.751856 -406.55774
-191.71588 6.8469744 -410.05301
-190.91191 -1.6578992e-05 -413.51901
-190.11465 -6.7898211 -416.95605
-189.32404 -13.523182 -420.3645
-188.53941 -20.200657 -423.74716
-187.7618 -26.823166 -427.09946
-186.99059 -33.39119 -430.42422
-186.22569 -39.90554 -433.7218
-185.46701 -46.366787 -436.99252
-184.71449 -52.7756 -440.23672
-183.96806 -59.132626 -443.45462
-183.2271 -65.438278 -446.64896
-182.49263 -71.693535 -449.81543
-181.76401 -77.898895 -452.95657
-181.04117 -84.054878 -456.07272
-180.32407 -90.162064 -459.16422
-179.61264 -96.221092 -462.23126
-178.9068 -102.23248 -465.27426
-169.48634 -102.90244 -505.88672
-168.34973 -108.22486 -510.7868
-167.51404 -113.67027 -514.38947
-167.0746 -119.33904 -516.28394
-166.58392 -124.93797 -518.39929
-170.40942 -133.89314 -501.90723
-185.54051 -152.40834 -436.67563
-203.74615 -174.63962 -358.18933
-226.17635 -201.94321 -261.49069
-253.95137 -235.81201 -141.74988
-289.1015 -278.77649 9.7857218
-231.37288 428.46826 -202.14459
-230.16068 417.69901 -207.56401
-228.96114 407.04199 -212.92694
-227.77316 396.49396 -218.2381
-226.59831 386.05637 -223.49055
-225.4355 375.7258 -228.68922
-224.28372 365.49942 -233.83842
-223.1445 355.3783 -238.93167
-222.01599 345.35818 -243.97705
-220.89963 335.44016 -248.96805
-219.79443 325.62134 -253.90915
-218.69945 315.89917 -258.80453
-217.61609 306.27448 -263.64789
-216.54189 296.74255 -268.45041
-215.47592 287.30121 -273.21613
-214.42041 277.95233 -277.93506
-213.37442 268.6937 -282.61142
-212.33936 259.52585 -287.23901
-211.31352 250.44565 -291.82523
-210.29684 241.45189 -296.37061
-209.2906 232.54512 -300.86923
-208.29324 223.72235 -305.32819
-207.30606 214.98401 -309.7417
-206.32745 206.32747 -314.11676
-205.35878 197.75287 -318.44751
-204.40259 189.26163 -322.72241
-203.45459 180.8485 -326.96066
-202.51602 172.51361 -331.15686
-201.58606 164.25529 -335.31445
-200.66461 156.07243 -339.43408
-199.75154 147.9641 -343.51614
-198.84676 139.92915 -347.56131
-197.94946 131.96629 -351.57285
-197.06088 124.07535 -355.5455
-196.18024 116.25494 -359.4826
-195.30743 108.50412 -363.3847
-194.44237 100.82195 -367.25223
-193.58493 93.207535 -371.08566
-192.73502 85.659973 -374.88541
-191.89192 78.178146 -378.65466
-191.05678 70.761749 -382.3884
-190.22888 63.409599 -386.08978
-189.40811 56.120918 -389.75922
-188.59441 48.894855 -393.39713
-187.78766 41.730579 -397.00388
-186.98778 34.627312 -400.57996
-186.19412 27.584301 -404.12823
-185.40773 20.600815 -407.64398
-184.62796 13.676134 -411.13013
-183.85472 6.8093777 -414.58713
-183.08794 -4.3668406e-05 -418.01526
-182.32751 -6.7529025 -421.41492
-181.57283 -13.449837 -424.78891
-180.82492 -20.091671 -428.13266
-180.08315 -26.679029 -431.44894
-179.34743 -33.212521 -434.73816
-178.61771 -39.692875 -438.00061
-177.89389 -46.120667 -441.2366
-177.17592 -52.496597 -444.4465
-176.46321 -58.821098 -447.63287
-175.75671 -65.095116 -450.79144
-175.05585 -71.319084 -453.92484
-174.36055 -77.493614 -457.03333
-173.67076 -83.619286 -460.11719
-172.98642 -89.696709 -463.17679
-172.30695 -95.726097 -466.21457
-171.63327 -101.70864 -469.22635
-163.24405 -102.78332 -506.73264
-161.6933 -107.79558 -513.66565
-160.74974 -113.12022 -517.88403
-160.60635 -118.9677 -518.52515
-160.11028 -124.53027 -520.74292
-161.79753 -131.83507 -513.19965
-175.92436 -149.86151 -450.04193
-192.87021 -171.44019 -374.28104
-213.42863 -197.61914 -282.36908
-239.48 -230.61041 -165.89955
-271.3425 -271.34253 -23.449709
-221.27672 425.53214 -209.23302
-220.12534 414.85156 -214.57863
-218.98503 404.28006 -219.87267
-217.85732 393.819 -225.10838
-216.74113 383.46509 -230.29047
-215.63556 373.21533 -235.42339
-214.54198 363.07095 -240.50056
-213.45865 353.02774 -245.53018
-212.38698 343.08667 -250.50554
-211.32603 333.24487 -255.4313
-210.27487 323.49976 -260.31158
-209.23485 313.85226 -265.14005
-208.2036 304.29752 -269.92795
-207.18022 294.8334 -274.67908
-206.16615 285.46078 -279.38715
-205.16267 276.18054 -284.04605
-204.16891 266.99008 -288.65976
-203.18332 257.88654 -293.23557
-202.20721 248.87039 -297.76743
-201.24112 239.9413 -302.25272
-200.28352 231.09633 -306.69855
-199.33568 222.33592 -311.09909
-198.3961 213.65729 -315.46136
-197.46666 205.06151 -319.77646
-196.54855 196.54854 -324.039
-195.63828 188.11366 -328.26511
-194.73705 179.75722 -332.44925
-193.84409 171.47743 -336.59506
-192.95927 163.27322 -340.70294
-192.0825 155.14354 -344.77353
-191.21367 147.0874 -348.80734
-190.35204 139.10339 -352.80765
-189.49875 131.19139 -356.76926
-188.65308 123.35007 -360.69547
-187.81491 115.57836 -364.58679
-186.98416 107.87546 -368.44373
-186.16074 100.24038 -372.26666
-185.34454 92.672256 -376.05609
-184.53487 85.169899 -379.81512
-183.73282 77.733093 -383.53879
-182.93773 70.360596 -387.23019
-182.14948 63.05167 -390.88983
-181.36798 55.805496 -394.51804
-180.59317 48.621216 -398.11526
-179.8244 41.497902 -401.68445
-179.0627 34.435097 -405.22083
-178.30743 27.431871 -408.72739
-177.55849 20.487484 -412.20441
-176.81583 13.601201 -415.65247
-176.07935 6.7722497 -419.07175
-175.34897 -3.5560992e-05 -422.46265
-174.62411 -6.7163482 -425.82794
-173.90573 -13.377394 -429.16318
-173.19325 -19.983889 -432.47104
-172.48657 -26.53644 -435.75195
-171.78564 -33.035732 -439.0062
-171.09039 -39.482441 -442.23404
-170.40074 -45.877159 -445.43588
-169.71614 -52.220394 -448.61435
-169.03749 -58.513016 -451.76505
-168.36426 -64.755516 -454.89069
-167.69637 -70.948502 -457.99155
-167.03375 -77.092545 -461.06784
-166.37636 -83.188225 -464.11996
-165.72365 -89.235863 -467.15033
-165.07649 -95.236465 -470.15485
-164.43439 -101.19042 -473.13599
-163.79726 -107.09824 -476.09402
-155.2809 -107.50221 -515.63306
-154.36453 -112.80491 -519.88751
-154.35063 -118.73129 -519.95209
-153.88986 -124.29569 -522.09125
-154.59476 -130.81099 -518.81854
-166.62479 -147.3989 -462.96661
-182.38615 -168.35646 -389.79102
-201.44084 -193.69315 -301.32541
-224.92931 -224.92935 -192.2751
-254.62177 -264.41492 -54.421425
-211.31799 422.63599 -216.22498
-210.22508 412.04114 -221.50203
-209.1442 401.55685 -226.72099
-208.07359 391.17834 -231.89032
-207.01466 380.90701 -237.0033
-205.96645 370.73953 -242.06453
-204.92805 360.67337 -247.07837
-203.90082 350.70944 -252.03828
-202.88383 340.84482 -256.94873
-201.87621 331.07693 -261.81403
-200.87926 321.4068 -266.62766
-199.88998 311.82834 -271.40433
-198.90898 302.34161 -276.14102
-197.93756 292.94757 -280.83148
-196.97557 283.64481 -285.47635
-196.02222 274.43109 -290.07956
-195.07736 265.30521 -294.64169
-194.14159 256.26685 -299.1601
-193.21539 247.31567 -303.63211
-192.29733 238.44867 -308.06488
-191.38861 229.66634 -312.45255
-190.48781 220.96582 -316.80206
-189.59737 212.34901 -321.10153
-188.7171 203.81441 -325.35178
-187.84435 195.35811 -329.5658
-186.98026 186.98022 -333.73801
-186.12408 178.67908 -337.87201
-185.27571 170.45363 -341.96829
-184.43503 162.30281 -346.02744
-183.60196 154.22562 -350.04987
-182.77577 146.22058 -354.03906
-181.95758 138.28775 -357.98962
-181.14668 130.42557 -361.905
-180.34297 122.63321 -365.78558
-179.54637 114.90966 -369.63196
-178.75679 107.25404 -373.44446
-177.97411 99.665451 -377.22354
-177.19769 92.142761 -380.97247
-176.42857 84.685692 -384.6861
-175.66609 77.293022 -388.36758
-174.91019 69.964058 -392.01743
-174.16077 62.697865 -395.63602
-173.41772 55.493626 -399.22369
-172.68047 48.350521 -402.78348
-171.94998 41.267982 -406.31058
-171.22565 34.245087 -409.80795
-170.5074 27.281185 -413.27597
-169.79515 20.375385 -416.71503
-169.08882 13.527069 -420.12546
-168.38835 6.7354603 -423.50766
-167.69315 -6.0090089e-05 -426.86438
-167.00417 -6.6801939 -430.1911
-166.32083 -13.305709 -433.4906
-165.64305 -19.877224 -436.76315
-164.97078 -26.395359 -440.00916
-164.30394 -32.860828 -443.22894
-163.642 -39.274094 -446.42511
-162.98582 -45.636066 -449.59335
-162.3349 -51.947189 -452.7363
-161.68918 -58.208118 -455.85416
-161.04854 -64.419456 -458.94739
-160.41298 -70.581749 -462.01617
-159.78239 -76.69558 -465.06085
-159.15633 -82.761307 -468.08389
-158.53557 -88.779953 -471.08112
-157.91965 -94.751839 -474.05505
-157.30849 -100.67747 -477.00601
-156.70204 -106.55743 -479.93417
-149.07489 -107.33397 -516.76123
-148.18829 -112.62316 -521.04218
-148.25105 -118.60087 -520.73914
-147.84566 -124.19038 -522.69659
-148.0919 -130.32089 -521.50757
-157.66405 -145.05096 -475.28915
-172.27258 -165.38171 -404.7529
-189.92007 -189.92009 -319.54333
-212.23077 -220.72009 -211.81764
-239.00755 -258.12817 -82.527954
-201.49316 419.77744 -223.12621
-200.45882 409.27011 -228.32854
-199.43431 398.86856 -233.48145
-198.42094 388.57437 -238.57828
-197.41782 378.38409 -243.62361
-196.42407 368.2951 -248.62173
-195.44099 358.30844 -253.56628
-194.467 348.42001 -258.46509
-193.50336 338.63086 -263.31177
-192.54922 328.93823 -268.11072
-191.60242 319.33737 -272.87286
-190.66351 309.82822 -277.59518
-189.73309 300.41071 -282.27481
-188.81236 291.08572 -286.90567
-187.89989 281.84982 -291.49509
-186.99553 272.70178 -296.04364
-186.10048 263.6423 -300.54538
-185.21332 254.66832 -305.00745
-184.33459 245.77942 -309.42715
-183.46478 236.97533 -313.802
-182.60251 228.25308 -318.13885
-181.75076 219.61549 -322.42276
-180.90755 211.05881 -326.66388
-180.07271 202.58177 -330.86273
-179.24554 194.18263 -335.02304
-178.42595 185.86035 -339.14529
-177.61382 177.61378 -343.23001
-176.80904 169.44199 -347.27774
-176.01152 161.34389 -351.28897
-175.2206 153.31796 -355.26703
-174.43732 145.36443 -359.20663
-173.661 137.48158 -363.11118
-172.89157 129.66866 -366.98111
-172.12892 121.92462 -370.81693
-171.37297 114.2486 -374.61902
-170.62364 106.63976 -378.38788
-169.88029 99.096786 -382.12665
-169.14392 91.619598 -385.83029
-168.41391 84.206902 -389.50192
-167.69019 76.857971 -393.14209
-166.97264 69.57193 -396.75101
-166.26122 62.347927 -400.32919
-165.55531 55.185093 -403.87961
-164.8559 48.082947 -407.39743
-164.16234 41.04055 -410.88568
-163.47461 34.057201 -414.34473
-162.79262 27.13209 -417.7749
-162.1163 20.264507 -421.17654
-161.44557 13.453776 -424.55002
-160.77988 6.6991224 -427.89816
-160.12015 -2.9038218e-05 -431.2164
-159.46579 -6.6444421 -434.50754
-158.81677 -13.234776 -437.77185
-158.17302 -19.771654 -441.00967
-157.53445 -26.255762 -444.22141
-156.90057 -32.68766 -447.40955
-156.27222 -39.0681 -450.56992
-155.6489 -45.397633 -453.70508
-155.0305 -51.676868 -456.81531
-154.41702 -57.90641 -459.90091
-153.80836 -64.086845 -462.96222
-153.2045 -70.218765 -465.99945
-152.60492 -76.302483 -469.01511
-152.01042 -82.339012 -472.00507
-151.42056 -88.328705 -474.97189
-150.83527 -94.272087 -477.91574
-150.25447 -100.16968 -480.83694
-149.67813 -106.02202 -483.73575
-143.0468 -107.28515 -517.08868
-142.30029 -112.65442 -520.84338
-142.27695 -118.56417 -520.96075
-141.92508 -124.1845 -522.73047
-141.91084 -130.08499 -522.80212
-148.95337 -142.74702 -487.38095
-162.51022 -162.51025 -419.19525
-178.83897 -186.29063 -337.06793
-199.09683 -215.68826 -235.17877
-224.11955 -252.13454 -109.32422
-255.99933 -298.66589 51.018635
-191.80106 416.95883 -229.93092
-190.82234 406.53455 -235.06747
-189.85426 396.21756 -240.14828
-188.89595 386.00473 -245.17775
-187.94658 375.89316 -250.16035
-187.00739 365.88397 -255.08948
-186.07686 355.97308 -259.97318
-185.15622 346.16156 -264.80499
-184.24463 336.44672 -269.58923
-183.34003 326.82349 -274.33688
-182.44232 317.29099 -279.04828
-181.554 307.85239 -283.71045
-180.67366 298.50427 -288.33072
-179.80182 289.24634 -292.9064
-178.93771 280.07642 -297.44147
-178.0825 270.99509 -301.92981
-177.23482 261.99927 -306.37875
-176.39517 253.08868 -310.78549
-175.56403 244.26297 -315.14755
-174.7401 235.51921 -319.4718
-173.92679 226.86101 -323.74026
-173.12103 218.283 -327.96909
-172.32327 209.78484 -332.15604
-171.53284 201.36458 -336.30447
-170.7496 193.02127 -340.41504
-169.97351 184.75378 -344.48825
-169.20442 176.5611 -348.5246
-168.44228 168.44226 -352.52457
-167.68642 160.39568 -356.49155
-166.93785 152.42149 -360.42026
-166.19592 144.51816 -364.314
-165.46059 136.68481 -368.17331
-164.73172 128.92044 -371.99866
-164.00925 121.22419 -375.79044
-163.29256 113.59477 -379.55179
-162.58263 106.03212 -383.27771
-161.87885 98.534904 -386.97141
-161.18111 91.102356 -390.63324
-160.48938 83.733574 -394.26364
-159.80356 76.427757 -397.86307
-159.12357 69.18412 -401.43179
-158.44887 62.00169 -404.9729
-157.78033 54.880062 -408.48151
-157.11743 47.818317 -411.96063
-156.46007 40.815632 -415.41068
-155.80818 33.871315 -418.832
-155.1617 26.984596 -422.22488
-154.52057 20.154821 -425.58972
-153.88426 13.381196 -428.92929
-153.25362 6.6631689 -432.23911
-152.62811 -4.8455062e-05 -435.52185
-152.00771 -6.6090446 -438.77795
-151.39232 -13.164598 -442.00763
-150.78191 -19.667242 -445.21133
-150.17595 -26.11758 -448.39163
-149.57527 -32.516407 -451.5441
-148.97937 -38.864235 -454.67148
-148.38823 -45.161678 -457.77405
-147.80174 -51.409328 -460.85211
-147.21988 -57.607819 -463.90591
-146.64258 -63.757645 -466.93579
-146.06935 -69.859283 -469.94412
-145.50102 -75.91362 -472.92688
-144.93709 -81.920998 -475.88657
-144.37752 -87.882011 -478.82336
-143.82227 -93.79715 -481.73758
-143.27126 -99.666977 -484.62946
-142.72403 -105.49173 -487.50134
-137.19237 -107.36797 -516.5332
-136.76163 -112.97704 -518.79382
-136.50946 -118.70391 -520.11719
-136.10313 -124.26812 -522.24976
-135.93547 -130.02528 -523.1297
-140.51508 -140.51511 -499.09467
-153.08061 -159.73634 -433.14703
-168.17401 -182.7979 -353.93246
-186.56932 -210.9045 -257.38849
-209.90637 -246.41187 -134.90892
-238.12149 -289.88705 13.172136
-182.23756 414.17621 -236.64857
-181.31448 403.83679 -241.71336
-180.40071 393.60156 -246.72708
-179.49545 383.46753 -251.69414
-178.59987 373.43604 -256.60803
-177.71254 363.50293 -261.47659
-176.83464 353.66925 -266.29361
-175.96535 343.93225 -271.06323
-175.10208 334.2858 -275.7999
-174.24663 324.7323 -280.49365
-173.39949 315.27176 -285.14175
-172.55934 305.9006 -289.75153
-171.72789 296.62088 -294.31351
-170.90382 287.42911 -298.83505
-170.08821 278.32614 -303.31021
-169.27977 269.30869 -307.746
-168.47897 260.37656 -312.13983
-167.68629 251.52943 -316.48914
-166.90047 242.76431 -320.80084
-166.12535 234.08568 -325.05392
-165.35681 225.48654 -329.27066
-164.59593 216.96733 -333.44559
-163.842 208.52617 -337.58221
-163.09496 200.16196 -341.68112
-162.35469 191.8737 -345.74289
-161.62111 183.66031 -349.76794
-160.89413 175.52086 -353.75674
-160.17314 167.45372 -357.71271
-159.45911 159.45908 -361.63049
-158.7514 151.53542 -365.51355
-158.04996 143.68175 -369.3623
-157.35468 135.89719 -373.17719
-156.6655 128.18083 -376.95862
-155.98183 120.53136 -380.70981
-155.30458 112.94874 -384.42572
-154.63321 105.43171 -388.1095
-153.96761 97.97934 -391.76154
-153.30771 90.590889 -395.38232
-152.65344 83.265488 -398.97217
-152.00473 76.002327 -402.53152
-151.36107 68.800461 -406.06326
-150.72327 61.659508 -409.56274
-150.09082 54.578465 -413.03284
-149.46368 47.556587 -416.47388
-148.84175 40.593155 -419.88635
-148.22498 33.687454 -423.27057
-147.61284 26.838661 -426.62921
-147.00618 20.046274 -429.95779
-146.4045 13.309494 -433.25919
-145.80771 6.6275687 -436.53369
-145.21577 -2.5693142e-05 -439.78156
-144.62862 -6.5740671 -443.00314
-144.04619 -13.095136 -446.19885
-143.46803 -19.563845 -449.37115
-142.8949 -25.9809 -452.51587
-142.32632 -32.346909 -455.63553
-141.76225 -38.662441 -458.73047
-141.20265 -44.92815 -461.80096
-140.64743 -51.144566 -464.84732
-140.09657 -57.312267 -467.86978
-139.54962 -63.431686 -470.87088
-139.00731 -69.50367 -473.8465
-138.46919 -75.528679 -476.79904
-137.93523 -81.50724 -479.72876
-137.40536 -87.439819 -482.63605
-136.87956 -93.327003 -485.52109
-136.35738 -99.169022 -488.38614
-135.97896 -105.07468 -490.46252
-131.52019 -107.60746 -514.92706
-130.98232 -113.12115 -517.8783
-130.6286 -118.7533 -519.81909
-130.35948 -124.4341 -521.29578
-130.1313 -130.13136 -522.54773
-132.28046 -138.29327 -510.75558
-143.96793 -157.05595 -446.6282
-157.90161 -179.43365 -370.1763
-174.82137 -206.60715 -277.34006
-196.32407 -240.94321 -159.35799
-222.35559 -282.99808 -16.527002
-172.8015 411.43207 -243.27351
-171.93135 401.17316 -248.27518
-171.07057 391.01837 -253.22314
-170.21834 380.96484 -258.12183
-169.37396 371.00961 -262.9754
-168.53851 361.15393 -267.77768
-167.71127 351.39499 -272.53278
-166.88974 341.72662 -277.25504
-166.07564 332.15128 -281.93463
-165.26884 322.66772 -286.57208
-164.46988 313.27594 -291.16473
-163.67801 303.97342 -295.71646
-162.89374 294.76007 -300.22458
-162.11749 285.63556 -304.68649
-161.34808 276.59665 -309.10922
-160.58647 267.64407 -313.48706
-159.83147 258.77472 -317.82684
-159.08408 249.98924 -322.12299
-158.34631 241.2896 -326.36377
-157.61482 232.66945 -330.56848
-156.89058 224.12936 -334.73145
-156.17297 215.66743 -338.85638
-155.4619 207.28249 -342.94373
-154.75726 198.97362 -346.99405
-154.05899 190.7397 -351.00781
-153.3665 182.57913 -354.98837
-152.68068 174.49217 -358.93045
-152.00099 166.47725 -362.83743
-151.32732 158.53336 -366.70981
-150.65959 150.65956 -370.548
-149.99773 142.85497 -374.35248
-149.34166 135.11862 -378.12369
-148.69083 127.44926 -381.86475
-148.04611 119.84683 -385.57062
-147.40697 112.31003 -389.24451
-146.7733 104.83803 -392.88684
-146.14508 97.430016 -396.49799
-145.5222 90.085136 -400.07834
-144.90462 82.802635 -403.6283
-144.29181 75.58139 -407.15085
-143.6846 68.421211 -410.64111
-143.08249 61.32103 -414.1022
-142.48538 54.280113 -417.53436
-141.89325 47.297729 -420.93799
-141.30602 40.373123 -424.31348
-140.72321 33.505486 -427.66354
-140.14561 26.694401 -430.9837
-139.57272 19.938927 -434.27673
-139.0045 13.238491 -437.54288
-138.4409 6.5924177 -440.78262
-137.88184 -2.5481233e-05 -443.99619
-137.32727 -6.5394545 -447.18387
-136.77675 -13.026413 -450.3483
-136.23103 -19.461601 -453.48523
-135.68964 -25.845682 -456.59717
-135.15254 -32.179207 -459.68451
-134.61967 -38.462803 -462.7475
-134.09099 -44.697029 -465.78644
-133.56607 -50.882366 -468.80377
-133.04561 -57.019592 -471.79541
-132.52919 -63.109165 -474.76382
-132.01677 -69.151657 -477.70926
-131.5083 -75.147621 -480.63202
-131.18051 -81.207008 -482.51627
-131.12019 -87.41349 -482.86295
-131.12056 -93.65757 -482.86087
-131.12093 -99.901695 -482.85873
-131.12128 -106.14585 -482.85669
-126.10764 -108.0923 -511.67575
-125.23491 -113.30783 -516.69226
-124.72002 -118.78102 -519.65192
-124.73293 -124.73296 -519.57782
-124.46927 -130.39642 -521.09326
-125.20026 -137.12413 -516.89154
-135.15604 -154.46405 -459.66443
-148.00047 -176.19104 -385.83298
-163.5426 -202.48135 -296.49481
-183.16241 -235.49455 -183.71764
-207.04428 -276.05905 -46.441559
-163.48906 408.7226 -249.81485
-162.67178 398.5459 -254.74744
-161.86266 388.47034 -259.63095
-161.06096 378.49326 -264.46967
-160.26773 368.61581 -269.2572
-159.48228 358.83511 -273.99786
-158.70224 349.1449 -278.70578
-157.92868 339.54666 -283.3746
-157.16263 330.0415 -287.99814
-156.40398 320.62811 -292.57703
-155.65207 311.30414 -297.11523
-154.90735 302.06931 -301.60995
-154.17026 292.92346 -306.05872
-153.43962 283.86328 -310.46851
-152.7164 274.88953 -314.8335
-151.99945 265.99902 -319.16074
-151.29022 257.19336 -323.44128
-150.5896 248.47279 -327.66989
-149.89494 239.83189 -331.86255
-149.20715 231.27109 -336.0137
-148.52565 222.78845 -340.12689
-147.85034 214.383 -344.20276
-147.18117 206.05359 -348.2417
-146.51801 197.79926 -352.24417
-145.86032 189.61841 -356.21368
-145.20897 181.5112 -360.14484
-144.56343 173.47606 -364.04105
-143.9236 165.5121 -367.90277
-143.28941 157.61833 -371.7305
-142.66078 149.79381 -375.5246
-142.03764 142.03758 -379.28555
-141.41946 134.34846 -383.01648
-140.80711 126.72636 -386.71243
-140.20003 119.17001 -390.37653
-139.59814 111.67848 -394.00909
-139.00143 104.25105 -397.61069
-138.40979 96.886833 -401.18161
-137.82274 89.584732 -404.72479
-137.24106 82.344604 -408.2355
-136.66426 75.165321 -411.71671
-136.09232 68.04612 -415.16876
-135.52512 60.986252 -418.59207
-134.96265 53.985058 -421.98697
-134.40482 47.041664 -425.35376
-133.85117 40.155342 -428.69528
-133.30246 33.325584 -432.00699
-132.75824 26.551641 -435.29166
-132.21844 19.832733 -438.54962
-131.68303 13.168301 -441.78119
-131.15192 6.5575762 -444.98666
-130.62509 -1.2496386e-05 -448.16641
-130.10208 -6.5051246 -451.323
-129.58363 -12.958385 -454.45218
-129.06929 -19.360424 -457.55646
-128.55902 -25.711845 -460.63623
-128.05276 -32.013218 -463.69174
-127.55049 -38.26516 -466.72327
-127.05177 -44.468159 -469.73325
-126.56516 -50.626083 -472.67026
-126.27875 -56.82547 -474.39883
-126.2759 -63.137974 -474.41605
-126.27626 -69.451965 -474.41391
-126.27626 -75.765778 -474.41391
-126.27661 -82.079857 -474.41174
-126.27697 -88.393913 -474.40961
-126.27734 -94.708046 -474.40747
-126.27768 -101.02219 -474.4053
-126.27734 -107.33573 -474.40747
-126.27734 -113.64963 -474.40744
-119.57913 -113.6002 -514.83466
-119.03751 -119.03756 -518.10358
-119.14101 -125.09813 -517.47894
-118.92599 -130.81863 -518.77667
-119.20852 -137.08984 -517.07147
-126.6299 -151.95592 -472.27951
-138.45041 -173.06306 -400.93637
-152.70494 -198.51645 -314.90262
-170.51601 -230.19659 -207.40349
-192.46669 -269.4534 -74.919258
-220.63087 -319.91479 95.066551
-154.29903 406.05005 -256.26703
-153.53271 395.95279 -261.1355
-152.77344 385.95395 -265.95932
-152.02217 376.05481 -270.73227
-151.27773 366.25134 -275.46182
-150.53894 356.53955 -280.15555
-149.80681 346.92099 -284.80698
-149.0807 337.39316 -289.41992
-148.36214 327.95837 -293.98514
-147.64995 318.61301 -298.50983
-146.94456 309.35696 -302.99124
-146.24638 300.18994 -307.42691
-145.55432 291.10861 -311.82376
-144.86928 282.1138 -316.17603
-144.19014 273.20236 -320.49066
-143.5188 264.37671 -324.7558
-142.85464 255.63461 -328.97534
-142.19708 246.97385 -333.15295
-141.54555 238.39247 -337.29227
-140.89995 229.88939 -341.39383
-140.26022 221.46349 -345.45819
-139.62628 213.11375 -349.48581
-138.99803 204.8392 -353.47714
-138.37497 196.63806 -357.43558
-137.7579 188.51077 -361.3559
-137.14633 180.45566 -365.24136
-136.54015 172.47177 -369.0925
-135.93932 164.55811 -372.90976
-135.34375 156.71379 -376.69351
-134.75336 148.93791 -380.44431
-134.16769 141.2291 -384.16519
-133.58751 133.58746 -387.85123
-133.01231 126.01167 -391.50552
-132.44206 118.50074 -395.12845
-131.87668 111.05401 -398.72046
-131.3161 103.67059 -402.28195
-130.75987 96.349358 -405.81583
-130.20871 89.090149 -409.31735
-129.6622 81.891899 -412.78949
-129.12025 74.753784 -416.2326
-128.58281 67.67511 -419.64706
-128.04984 60.655117 -423.0332
-127.52124 53.693119 -426.39139
-126.99662 46.788216 -429.7244
-126.47668 39.93998 -433.02768
-125.96098 33.147587 -436.30408
-125.44947 26.410368 -439.55377
-124.94209 19.72765 -442.77725
-124.4388 13.098789 -445.97473
-123.93919 6.5230842 -449.14886
-123.44394 -2.788878e-05 -452.29532
-122.95262 -6.4712424 -455.41672
-122.4652 -12.891109 -458.5134
-121.98163 -19.260284 -461.58563
-121.54871 -25.589243 -464.33609
-121.32146 -31.926731 -465.77988
-121.32146 -38.312088 -465.77985
-121.32181 -44.697548 -465.77765
-121.32214 -51.083019 -465.77548
-121.32249 -57.46859 -465.77325
-121.32284 -63.854141 -465.77106
-121.32284 -70.239571 -465.77106
-121.32319 -76.625206 -465.76883
-121.32354 -83.010872 -465.76666
-121.32388 -89.396576 -465.76443
-121.32422 -95.782326 -465.76224
-121.32422 -102.1678 -465.76224
-121.32388 -108.55298 -465.76447
-121.32354 -114.93812 -465.76663
-114.0274 -114.02744 -512.12042
-113.56683 -119.54407 -515.04645
-113.61533 -125.5749 -514.73834
-113.43459 -131.34534 -515.88666
-113.47118 -137.35989 -515.65417
-118.37656 -149.52834 -484.48935
-129.23393 -170.04468 -415.51041
-142.28406 -194.70454 -332.60034
-158.28175 -224.92674 -230.96394
-178.56969 -263.1554 -102.07069
-203.63756 -310.81525 57.190323
-145.22839 403.4122 -262.63538
-144.51128 393.39182 -267.4444
-143.80173 383.47125 -272.20276
-143.0986 373.6463 -276.91803
-142.40082 363.91315 -281.5975
-141.7088 354.27197 -286.23828
-141.02298 344.72281 -290.83746
-140.34425 335.26685 -295.38904
-139.67155 325.90027 -299.90027
-139.00575 316.62421 -304.36526
-138.34578 307.43506 -308.79111
-137.69206 298.33276 -313.17505
-137.04495 289.31711 -317.51468
-136.40344 280.3848 -321.81677
-135.76973 271.53943 -326.0665
-135.14233 262.77676 -330.27396
-134.52115 254.09547 -334.43967
-133.90565 245.49368 -338.56726
-133.29578 236.9702 -342.65723
-132.69142 228.52408 -346.71014
-132.09251 220.15421 -350.72644
-131.49901 211.85951 -354.70667
-130.91037 203.63831 -358.65411
-130.32741 195.49109 -362.56357
-129.7496 187.41606 -366.43839
-129.17691 179.41237 -370.27896
-128.60925 171.47899 -374.08582
-128.04655 163.61502 -377.85928
-127.48836 155.81906 -381.60266
-126.9354 148.09129 -385.31079
-126.38724 140.43022 -388.98694
-125.84377 132.83508 -392.6315
-125.30496 125.30494 -396.24478
-124.77076 117.839 -399.8273
-124.24107 110.43647 -403.37943
-123.71551 103.09621 -406.90402
-123.19473 95.818092 -410.39636
-122.67831 88.60096 -413.8595
-122.16622 81.444138 -417.2937
-121.65839 74.346756 -420.69937
-121.15475 67.308182 -424.07681
-120.65526 60.32761 -427.42639
-120.15952 53.404205 -430.75089
-119.6682 46.537594 -434.04581
-119.18087 39.72691 -437.31387
-118.6975 32.971481 -440.55542
-118.21804 26.270643 -443.77078
-117.74242 19.623701 -446.9603
-117.27029 13.03002 -450.12653
-116.80226 6.4890099 -453.26523
-116.42124 -3.3652428e-05 -455.82037
-116.25345 -6.4585586 -456.94565
-116.25378 -12.917128 -456.94342
-116.2541 -19.375725 -456.94116
-116.25444 -25.834349 -456.93893
-116.25444 -32.292965 -456.9389
-116.25478 -38.751629 -456.93668
-116.25511 -45.210381 -456.93442
-116.25546 -51.669128 -456.93216
-116.25579 -58.127914 -456.92993
-116.25579 -64.586601 -456.92993
-116.25613 -71.045441 -456.92767
-116.25646 -77.504372 -456.92542
-116.2568 -83.963264 -456.92322
-116.25713 -90.422279 -456.92093
-116.25713 -96.880959 -456.92093
-116.2568 -103.33941 -456.92322
-116.2568 -109.79811 -456.92319
-116.25646 -116.25649 -456.92545
-108.63647 -114.67187 -508.02625
-108.38479 -120.42759 -509.71399
-108.17345 -126.20241 -511.13135
-107.99413 -131.99286 -512.3338
-107.90167 -137.87442 -512.95386
-110.2901 -147.0535 -496.93671
-120.33342 -167.12979 -429.58475
-132.25584 -191.03622 -349.63126
-146.80057 -220.2009 -252.09203
-165.30817 -257.14606 -127.97737
-187.95226 -302.81201 23.877268
-136.27437 400.80692 -268.92499
-135.60628 390.86508 -273.66882
-134.94421 381.01895 -278.36981
-134.28719 371.26456 -283.03519
-133.6351 361.60083 -287.66541
-132.98933 352.03058 -292.25073
-132.35022 342.5535 -296.78876
-131.7168 333.16592 -301.28665
-131.08983 323.86896 -305.73846
-130.46835 314.65894 -310.15128
-129.85275 305.53586 -314.5224
-129.24336 296.49951 -318.84943
-128.63925 287.54654 -323.13907
-128.04289 278.68158 -327.3735
-127.45205 269.89844 -331.56891
-126.86707 261.19687 -335.72275
-126.28741 252.5748 -339.83859
-125.71304 244.03114 -343.91702
-125.14386 235.56488 -347.95859
-124.57982 227.17494 -351.96362
-124.02083 218.86024 -355.93277
-123.46643 210.61917 -359.86926
-122.91738 202.45215 -363.76794
-122.37318 194.35736 -367.63211
-121.83379 186.33401 -371.46216
-121.29912 178.38101 -375.25864
-120.76913 170.49756 -379.02188
-120.24336 162.68219 -382.75513
-119.72253 154.93501 -386.45334
-119.2062 147.2547 -390.11966
-118.69431 139.64032 -393.75446
-118.18678 132.09109 -397.35818
-117.68358 124.6061 -400.93121
-117.18465 117.18462 -404.47397
-116.68957 109.82544 -407.98932
-116.19901 102.5285 -411.47263
-115.71255 95.292664 -414.92676
-115.23016 88.117165 -418.35205
-114.75177 81.001236 -421.7489
-114.27734 73.944145 -425.11768
-113.80646 66.944931 -428.46115
-113.3398 60.003422 -431.77478
-112.87695 53.118526 -435.06131
-112.41786 46.289696 -438.32117
-111.96249 39.516163 -441.55457
-111.5108 32.797253 -444.7619
-111.17943 26.159822 -447.11472
-111.06824 19.600239 -447.90433
-111.06855 13.066874 -447.90204
-111.06887 6.533453 -447.89975
-111.06887 -3.752792e-05 -447.89975
-111.0692 -6.5335422 -447.89743
-111.06952 -13.067035 -447.89511
-111.06985 -19.600592 -447.89285
-111.06985 -26.134117 -447.89288
-111.07017 -32.667747 -447.89053
-111.0705 -39.201389 -447.88824
-111.07082 -45.735073 -447.88596
-111.07114 -52.26878 -447.88367
-111.07114 -58.802391 -447.88367
-111.07146 -65.336182 -447.88138
-111.07179 -71.870033 -447.87903
-111.07211 -78.403893 -447.87671
-111.07244 -84.937782 -447.87442
-111.07244 -91.471474 -447.87442
-111.07211 -98.004852 -447.87674
-111.07211 -104.53852 -447.87674
-111.07179 -111.07183 -447.87903
-111.07179 -117.60545 -447.87903
-103.71162 -115.91301 -500.1409
-102.85851 -121.01006 -506.19852
-102.43831 -126.54147 -509.18228
-102.63097 -132.81656 -507.81421
-102.51495 -138.69673 -508.638
-103.42409 -146.01053 -502.1825
-111.7329 -164.31311 -443.18475
-122.5985 -187.50363 -366.03223
-135.80499 -215.69035 -272.25778
-151.87192 -250.142 -158.1725
-173.0183 -295.1489 -8.019927
-127.43569 398.23648 -275.13046
-126.81448 388.36935 -279.8172
-126.19751 378.59247 -284.47192
-125.58563 368.90778 -289.0881
-124.97966 359.3165 -293.65982
-124.37994 349.81854 -298.18436
-123.78552 340.41016 -302.66891
-123.19719 331.09238 -307.1076
-122.61399 321.86169 -311.50748
-122.03629 312.71796 -315.86588
-121.46442 303.66101 -320.1803
-120.89747 294.68753 -324.45752
-120.33822 285.80328 -328.67676
-119.78373 276.99985 -332.86014
-119.23471 268.27805 -337.00214
-118.6907 259.63586 -341.10638
-118.15163 251.07217 -345.17331
-117.61745 242.58595 -349.20349
-117.08806 234.1761 -353.19733
-116.56342 225.84158 -357.15546
-116.04308 217.58075 -361.08109
-115.52775 209.39403 -364.96899
-115.01697 201.27968 -368.82251
-114.51069 193.23676 -372.64215
-114.00883 185.26436 -376.42828
-113.51138 177.3615 -380.18137
-113.01788 169.52679 -383.90451
-112.52901 161.76039 -387.5928
-112.04434 154.06093 -391.2493
-111.56383 146.42751 -394.87442
-111.08743 138.85922 -398.46863
-110.61507 131.35538 -402.03226
-110.14673 123.91502 -405.56567
-109.68199 116.53706 -409.07184
-109.22149 109.22147 -412.54605
-108.76485 101.96701 -415.99118
-108.312 94.772957 -419.40765
-107.86291 87.638588 -422.79578
-107.41753 80.56311 -426.15591
-106.97549 73.545593 -429.49088
-106.53738 66.585838 -432.79608
-106.10286 59.682858 -436.07431
-105.8194 52.909691 -438.21277
-105.76134 46.270546 -438.65085
-105.76134 39.66048 -438.65085
-105.76165 33.05048 -438.6485
-105.76196 26.440454 -438.64615
-105.76228 19.8304 -438.6438
-105.76259 13.220274 -438.64142
-105.76259 6.610116 -438.64142
-105.7629 -3.3235196e-05 -438.6391
-105.76321 -6.6101985 -438.63675
-105.76352 -13.220473 -438.6344
-105.76352 -19.830688 -438.63437
-105.76383 -26.44099 -438.63202
-105.76414 -33.051304 -438.62967
-105.76446 -39.66169 -438.62732
-105.76477 -46.272118 -438.62494
-105.76477 -52.882397 -438.62497
-105.76508 -59.492893 -438.62259
-105.7654 -66.103401 -438.62027
-105.76571 -72.713936 -438.61789
-105.76602 -79.32457 -438.61554
-105.76602 -85.934929 -438.61554
-105.76602 -92.545303 -438.61557
-105.76571 -99.15538 -438.61789
-105.7654 -105.76543 -438.62024
-105.7654 -112.37579 -438.62024
-105.76508 -118.98576 -438.62262
-105.76508 -125.59609 -438.62259
-97.467888 -121.83491 -501.22009
-97.030739 -127.35291 -504.51813
-97.320236 -133.81535 -502.33408
-97.273491 -139.83069 -502.68668
-97.64444 -146.46671 -499.88812
-103.41718 -161.58939 -456.33615
-113.29147 -184.09866 -381.84042
-125.2504 -211.36009 -291.61722
-140.30386 -245.5318 -178.04761
-158.82082 -287.86276 -38.347958
-182.75772 -342.67078 142.2421
-118.70926 395.69751 -281.26016
-118.13217 385.89844 -285.90424
-117.56026 376.19281 -290.50665
-116.99386 366.58072 -295.0647
-116.43329 357.06207 -299.57578
-115.87767 347.633 -304.04703
-115.32773 338.29465 -308.47269
-114.78258 329.04337 -312.85968
-114.24295 319.88028 -317.20227
-113.70798 310.80182 -321.50726
-113.17841 301.80905 -325.7691
-112.65561 292.90454 -329.97626
-112.13724 284.08099 -334.14767
-111.624 275.33917 -338.27795
-111.11543 266.67703 -342.37057
-110.61148 258.09344 -346.42606
-110.11208 249.58736 -350.44492
-109.61717 241.15776 -354.42764
-109.12634 232.80284 -358.37759
-108.64023 224.5231 -362.28955
-108.15843 216.31682 -366.16672
-107.68089 208.18303 -370.00974
-107.20753 200.12068 -373.81888
-106.73834 192.12895 -377.59476
-106.27322 184.20689 -381.33768
-105.81181 176.35298 -385.05084
-105.35473 168.5675 -388.72922
-104.90157 160.84903 -392.37598
-104.45229 153.19667 -395.99149
-104.00684 145.60957 -399.57614
-103.56518 138.08684 -403.13034
-103.12725 130.62784 -406.65451
-102.6927 123.23123 -410.15152
-102.2621 115.89705 -413.61667
-101.83511 108.6241 -417.05289
-101.41166 101.41162 -420.46057
-100.99172 94.258911 -423.83994
-100.57704 87.166733 -427.177
-100.33712 80.269653 -429.10776
-100.32814 73.573929 -429.18005
-100.32844 66.885567 -429.17764
-100.32874 60.197189 -429.1752
-100.32904 53.508789 -429.17279
-100.32904 46.820179 -429.17282
-100.32933 40.131695 -429.17041
-100.32964 33.443172 -429.16803
-100.32993 26.754629 -429.16556
-100.33023 20.066011 -429.16318
-100.33023 13.377333 -429.16318
-100.33054 6.6886826 -429.16077
-100.33083 -1.9549325e-05 -429.15836
-100.33113 -6.6887794 -429.15594
-100.33113 -13.377513 -429.15594
-100.33144 -20.066324 -429.15353
-100.33173 -26.755165 -429.15112
