# .PCD v0.7 - Point Cloud Data file format
VERSION 0.7
FIELDS x y z
SIZE 4 4 4
TYPE F F F
COUNT 1 1 1
WIDTH 1464
HEIGHT 1
VIEWPOINT 0 0 0 1 0 0 0
POINTS 1464
DATA ascii
-0.74017531 -1.9244553 -8.5989408
-0.74309498 -2.0806658 -8.528451
-0.74604017 -2.2381201 -8.4573498
-0.74900877 -2.3968282 -8.3856821
-0.75199872 -2.5567958 -8.3134966
-0.75501502 -2.7180543 -8.2406769
-0.75805557 -2.8806114 -8.1672707
-0.76111847 -3.0444739 -8.0933275
-0.7642085 -3.209676 -8.0187273
-0.76732129 -3.3762136 -7.9435768
-0.77046204 -3.5441256 -7.867754
-0.77362853 -3.7134168 -7.7913065
-0.7768212 -3.8841057 -7.7142296
-0.78004283 -4.0562234 -7.6364522
-0.78329122 -4.229773 -7.5580282
-0.78656685 -4.4047737 -7.47895
-0.78986996 -4.5812459 -7.3992043
-0.79320085 -4.7592049 -7.318789
-0.79656011 -4.938673 -7.23769
-0.79994524 -5.1196499 -7.1559649
-0.80335933 -5.3021717 -7.0735435
-0.80679995 -5.486239 -6.990479
-0.81027025 -5.6718917 -6.9066982
-0.81377321 -5.8591661 -6.8221297
-0.81730384 -6.048049 -6.7368922
-0.82086796 -6.2385969 -6.650846
-0.82446063 -6.4307928 -6.5641127
-0.82808763 -6.6247015 -6.4765491
-0.83174664 -6.820322 -6.3882127
-0.83543819 -7.0176802 -6.2990909
-0.83916545 -7.2168236 -6.2091055
-0.84292328 -7.4177251 -6.1183844
-0.84671777 -7.6204605 -6.0267754
-0.8505466 -7.8250294 -5.9343405
-0.85440439 -8.0314007 -5.841207
-0.85829425 -8.239625 -5.7472963
-0.86222571 -8.4498119 -5.6523819
-0.76255667 7.2442884 -3.4561684
-0.48840526 4.5177484 -11.72942
-0.49000543 4.4100485 -11.681131
-0.49162221 4.3016944 -11.632339
-0.49324727 4.1926026 -11.5833
-0.49488309 4.0827856 -11.533934
-0.49652982 3.972239 -11.484241
-0.49818751 3.8609529 -11.434214
-0.49985632 3.7489228 -11.383853
-0.50599259 3.6684468 -11.198676
-0.50769848 3.55389 -11.147196
-0.50941592 3.4385583 -11.095366
-0.51114374 3.3224347 -11.043225
-0.51288462 3.2055287 -10.990689
-0.51463747 3.0878251 -10.937794
-0.51640087 2.969305 -10.884577
-0.51817781 2.8499782 -10.830952
-0.51996708 2.7298276 -10.776958
-0.52176732 2.6088362 -10.722631
-0.52358145 2.4870124 -10.667884
-0.52540684 2.3643315 -10.612799
-0.52724642 2.2407973 -10.557283
-0.52909893 2.1163957 -10.501379
-0.53096306 1.9911118 -10.445124
-0.53284186 1.8649462 -10.388427
-0.53473395 1.7378858 -10.331327
-0.53663808 1.6099143 -10.273865
-0.53855729 1.4810326 -10.215948
-0.54049033 1.3512256 -10.157615
-0.54243571 1.22048 -10.098907
-0.5443967 1.088793 -10.039729
-0.54637039 0.95614839 -9.9801674
-0.54835999 0.82253969 -9.920125
-0.55036414 0.68795502 -9.8596468
-0.5523814 0.5523808 -9.798769
-0.55441511 0.41581085 -9.7373962
-0.55646378 0.27823189 -9.6755714
-0.55852616 0.13963217 -9.6133356
-0.56060541 5.5010798e-07 -9.5505877
-0.56270027 -0.14067556 -9.4873714
-0.56480914 -0.28240451 -9.4237289
-0.56693554 -0.42520133 -9.3595591
-0.56907636 -0.5690763 -9.2949543
-0.57123506 -0.71404397 -9.2298088
-0.57341021 -0.86011529 -9.1641684
-0.57560033 -1.0073007 -9.0980759
-0.57780898 -1.155618 -9.0314255
-0.58003455 -1.3050772 -8.964262
-0.58227563 -1.4556891 -8.8966303
-0.58453584 -1.6074735 -8.8284225
-0.58681369 -1.7604405 -8.7596836
-0.58910757 -1.9145998 -8.6904593
-0.59142119 -2.0699744 -8.6206379
-0.59375316 -2.2265742 -8.5502663
-0.59610176 -2.3844068 -8.4793921
-0.59847075 -2.5435009 -8.4078999
-0.6008569 -2.7038558 -8.3358927
-0.60326391 -2.8655035 -8.2632523
-0.60569042 -3.0284517 -8.1900282
-0.60813451 -3.1927063 -8.1162701
-0.61060035 -3.3583021 -8.0418558
-0.61308628 -3.5252459 -7.9668365
-0.61559063 -3.6935439 -7.8912606
-0.61811745 -3.863234 -7.8150086
-0.62066507 -4.0343232 -7.7381268
-0.62323582 -4.2068419 -7.6605473
-0.62582791 -4.380795 -7.5823255
-0.62844157 -4.5562024 -7.5034485
-0.63107723 -4.7330794 -7.4239111
-0.63373506 -4.9114475 -7.3437037
-0.63641548 -5.0913234 -7.2628174
-0.63911647 -5.2727108 -7.1813064
-0.64183843 -5.455627 -7.0991631
-0.64458585 -5.6401262 -7.0162535
-0.64735466 -5.8261924 -6.9326963
-0.65014958 -6.0138831 -6.8483529
-0.65296656 -6.2031832 -6.7633429
-0.65581024 -6.3941498 -6.6775284
-0.65867656 -6.5867658 -6.5910277
-0.66157031 -6.781096 -6.5037017
-0.66448957 -6.9771404 -6.4156051
-0.66743475 -7.1749234 -6.3267283
-0.67040837 -7.3744917 -6.2369909
-0.6734063 -7.5758209 -6.1465197
-0.67643356 -7.7789865 -6.0551634
-0.6794858 -7.9839578 -5.9630542
-0.68256092 -8.190731 -5.870254
-0.68566644 -8.3994141 -5.7765374
-0.51457173 6.517909 -5.7635832
-0.36474171 4.4984808 -11.79228
-0.36593249 4.3911896 -11.744367
-0.36713383 4.2832274 -11.696028
-0.36834213 4.1745448 -11.647409
-0.36955842 4.0651426 -11.598468
-0.37078279 3.9550166 -11.549204
-0.37201533 3.8441584 -11.499613
-0.37325606 3.7325602 -11.449689
-0.37783334 3.6523888 -11.265512
-0.37910157 3.5382812 -11.214483
-0.38037738 3.4233966 -11.163148
-0.38166282 3.3077443 -11.111427
-0.38295692 3.1913075 -11.059355
-0.38425887 3.0740709 -11.006969
-0.3855707 2.9560418 -10.954185
-0.3868905 2.8371971 -10.901081
-0.3882204 2.7175434 -10.84757
-0.38955945 2.5970631 -10.79369
-0.39090675 2.4757433 -10.73948
-0.39226443 2.3535867 -10.684851
-0.39363158 2.2305791 -10.62984
-0.39500725 2.1067057 -10.574488
-0.39639363 1.9819685 -10.518704
-0.39778978 1.8563522 -10.462528
-0.39919472 1.7298439 -10.405999
-0.40061069 1.602443 -10.349023
-0.40203562 1.4741304 -10.291687
-0.40347189 1.3449064 -10.233897
-0.40491843 1.2147553 -10.175694
-0.40637425 1.0836643 -10.117116
-0.40784171 0.95163131 -10.05807
-0.40931979 0.81863946 -9.9985952
-0.41080752 0.68467915 -9.9387341
-0.41230723 0.54974318 -9.8783903
-0.41381794 0.41381797 -9.817605
-0.41533855 0.27689227 -9.7564192
-0.41687161 0.13895726 -9.6947346
-0.41841483 3.7598696e-07 -9.6326408
-0.41997069 -0.13999034 -9.5700369
-0.42153817 -0.28102529 -9.5069656
-0.42311621 -0.42311633 -9.443471
-0.42470732 -0.56627661 -9.3794498
-0.42631042 -0.71051735 -9.3149452
-0.42792445 -0.85584873 -9.2500019
-0.42955199 -1.0022877 -9.184515
-0.43119195 -1.1498451 -9.1185274
-0.43284324 -1.29853 -9.0520859
-0.43450847 -1.4483619 -8.9850817
-0.43618658 -1.5993506 -8.9175596
-0.4378764 -1.7515056 -8.8495665
-0.43958068 -1.9048501 -8.7809916
-0.44129694 -2.0593858 -8.711935
-0.443028 -2.2151399 -8.6422825
-0.44477269 -2.3721206 -8.5720816
-0.44652981 -2.5303361 -8.50138
-0.44830227 -2.6898134 -8.4300632
-0.4500888 -2.8505626 -8.3581762
-0.45188826 -3.0125885 -8.2857714
-0.45370361 -3.175925 -8.2127285
-0.45553356 -3.3405793 -8.1390972
-0.45737693 -3.5065567 -8.0649261
-0.45923668 -3.6738939 -7.9900937
-0.4611102 -3.8425856 -7.9147091
-0.46300054 -4.0126715 -7.8386497
-0.46490642 -4.1841583 -7.7619619
-0.46682951 -4.3570766 -7.6845818
-0.4687686 -4.5314293 -7.6065602
-0.4707239 -4.7072387 -7.5278869
-0.4726955 -4.8845201 -7.448554
-0.47468373 -5.0632939 -7.3685527
-0.47668874 -5.243576 -7.2878776
-0.47870922 -5.4253721 -7.2065792
-0.48074538 -5.6086965 -7.1246514
-0.48280045 -5.7936049 -7.0419626
-0.4848716 -5.980083 -6.9586248
-0.48696059 -6.1681676 -6.8745694
-0.48906928 -6.3579006 -6.7897229
-0.4911947 -6.5492625 -6.704205
-0.49334028 -6.7423177 -6.6178713
-0.49550307 -6.9370422 -6.5308485
-0.49768823 -7.1335311 -6.442925
-0.49989107 -7.3317361 -6.3542891
-0.50211519 -7.5317273 -6.2647982
-0.50435746 -7.73348 -6.1745758
-0.5066216 -7.9370718 -6.0834732
-0.50890088 -8.142415 -5.9917603
-0.51120079 -8.3496141 -5.8992205
-0.31190071 5.9261136 -7.6434803
-0.24212788 4.4793658 -11.854643
-0.2429162 4.3724914 -11.807063
-0.24370965 4.2649188 -11.759173
-0.24450834 4.156642 -11.710968
-0.24531226 4.0476518 -11.662449
-0.24612148 3.9379439 -11.613608
-0.24693605 3.8275082 -11.564443
-0.24775605 3.716341 -11.514953
-0.25079113 3.6364715 -11.331768
-0.25162864 3.5228007 -11.281221
-0.25247237 3.4083772 -11.230296
-0.25332117 3.2931752 -11.179068
-0.25417632 3.1772041 -11.127455
-0.25503728 3.0604475 -11.075492
-0.25590339 2.9428892 -11.023216
-0.25677612 2.8245373 -10.970543
-0.25765482 2.7053761 -10.917509
-0.25853884 2.5853884 -10.864153
-0.25942966 2.4645815 -10.810388
-0.26032662 2.3429394 -10.756251
-0.26122913 2.2204483 -10.70178
-0.26213861 2.0971088 -10.646889
-0.26305375 1.9729029 -10.591655
-0.26397598 1.8478316 -10.535993
-0.26490471 1.7218806 -10.479939
-0.26583931 1.5950363 -10.423531
-0.26678121 1.467297 -10.366681
-0.26772985 1.3386496 -10.309426
-0.26868451 1.2090796 -10.251808
-0.26964673 1.0785862 -10.193732
-0.27061588 0.94715554 -10.135239
-0.27159128 0.81477374 -10.07637
-0.27257445 0.6814363 -10.017029
-0.27356404 0.5471276 -9.9573021
-0.27456158 0.41184202 -9.8970947
-0.27556646 0.27556688 -9.8364458
-0.27657795 0.13828909 -9.7753963
-0.27759764 -2.2440065e-07 -9.7138529
-0.27862489 -0.13931262 -9.6518526
-0.27965897 -0.27965951 -9.5894403
-0.28070155 -0.42105266 -9.5265141
-0.28175196 -0.56350398 -9.4631176
-0.28280941 -0.70702326 -9.3992939
-0.28387567 -0.85162717 -9.334939
-0.28495002 -0.99732494 -9.2700977
-0.28603166 -1.1441265 -9.204814
-0.28712243 -1.2920507 -9.1389818
-0.28822064 -1.4411033 -9.0726967
-0.28932819 -1.5913047 -9.0058517
-0.29044425 -1.7426656 -8.9384909
-0.2915681 -1.8951927 -8.8706598
-0.29270157 -2.0489109 -8.802249
-0.29384387 -2.2038293 -8.7333059
-0.29499426 -2.3599536 -8.6638746
-0.29615453 -2.517314 -8.5938435
-0.297324 -2.6759164 -8.5232601
-0.29850185 -2.8357673 -8.4521713
-0.29968998 -2.9968994 -8.3804626
-0.30088666 -3.1593099 -8.3082352
-0.30209389 -3.3230331 -8.2353735
-0.30331081 -3.4880743 -8.1619244
-0.30453667 -3.6544402 -8.0879383
-0.30577341 -3.8221679 -8.0132942
-0.30702025 -3.9912624 -7.9380422
-0.30827633 -4.1617303 -7.8622313
-0.30954465 -4.3336248 -7.7856808
-0.31082249 -4.5069261 -7.7085552
-0.31211191 -4.6816783 -7.6307325
-0.31341204 -4.8578863 -7.5522614
-0.3147231 -5.0355692 -7.4731321
-0.31604517 -5.2147455 -7.3933396
-0.31737837 -5.3954329 -7.3128729
-0.31872082 -5.5776138 -7.2318497
-0.32007572 -5.761363 -7.150075
-0.32144111 -5.94666 -7.0676656
-0.32281929 -6.1335664 -6.9844856
-0.32420826 -6.3220611 -6.9006538
-0.32561028 -6.5122061 -6.8160324
-0.32702345 -6.7039809 -6.7307425
-0.32844996 -6.89745 -6.6446414
-0.32988793 -7.0925908 -6.5578537
-0.33133966 -7.2894716 -6.4702373
-0.33280528 -7.4881196 -6.3817754
-0.33428285 -7.6885066 -6.2925963
-0.33577472 -7.8907065 -6.2025533
-0.33727768 -8.0946646 -6.1118441
-0.33879298 -8.3004284 -6.0203862
-0.25425246 9.9158468 4.2226357
-0.14299594 5.433845 -9.2072172
-0.12055199 4.4604235 -11.916441
-0.12094281 4.3539414 -11.869264
-0.12133618 4.2467661 -11.821779
-0.12173211 4.1388917 -11.773986
-0.12213064 4.0303116 -11.725881
-0.12253179 3.9210169 -11.677457
-0.12293559 3.8110032 -11.628715
-0.12443846 3.7331533 -11.447301
-0.12485114 3.6206834 -11.397486
-0.12526657 3.5074644 -11.347339
-0.12568446 3.3934808 -11.296896
-0.12610546 3.2787418 -11.246077
-0.12652929 3.1632326 -11.194915
-0.12695566 3.0469358 -11.143449
-0.12738524 2.9298604 -11.091595
-0.12781774 2.8119907 -11.039388
-0.12825283 2.6933098 -10.986866
-0.12869126 2.5738246 -10.933944
-0.12913233 2.4535136 -10.8807
-0.12957679 2.3323827 -10.82705
-0.13002433 2.2104137 -10.773028
-0.13047461 2.0875936 -10.718673
-0.13092838 1.9639255 -10.663899
-0.1313853 1.8393945 -10.608743
-0.13184509 1.7139854 -10.553243
-0.13230845 1.5877008 -10.49731
-0.13277508 1.4605255 -10.440983
-0.13324465 1.3324466 -10.384299
-0.13371792 1.2034608 -10.32717
-0.13419421 1.073554 -10.269678
-0.13467425 0.94271988 -10.211731
-0.13515775 0.8109467 -10.153368
-0.13564436 0.678222 -10.094628
-0.13613486 0.54453897 -10.035419
-0.13662893 0.40988627 -9.9757814
-0.13712621 0.27425256 -9.9157553
-0.1376275 0.13762787 -9.8552427
-0.13813248 5.4966762e-08 -9.7942867
-0.13864079 -0.13864037 -9.7329283
-0.13915324 -0.2783066 -9.6710701
-0.13966949 -0.41900826 -9.6087532
-0.1401892 -0.5607571 -9.5460186
-0.14071319 -0.7035656 -9.482769
-0.1412407 -0.84744459 -9.4190922
-0.1417726 -0.99240816 -9.354887
-0.1423085 -1.1384679 -9.2901974
-0.14284807 -1.2856324 -9.2250652
-0.14339215 -1.4339216 -9.1593885
-0.1439404 -1.5833449 -9.0932083
-0.14449243 -1.7339091 -9.0265722
-0.14504915 -1.8856394 -8.9593716
-0.14561017 -2.0385427 -8.8916502
-0.1461751 -2.1926267 -8.8234558
-0.14674489 -2.347918 -8.7546778
-0.14731868 -2.5044177 -8.6854143
-0.14789744 -2.6621537 -8.6155539
-0.14848074 -2.8211341 -8.5451412
-0.14906821 -2.9813643 -8.474226
-0.14966081 -3.1428773 -8.4026928
-0.15025817 -3.3056793 -8.3305883
-0.15085982 -3.4697757 -8.2579613
-0.15146679 -3.6352024 -8.1846952
-0.15207863 -3.8019662 -8.110836
-0.152695 -3.9700704 -8.0364351
-0.15331684 -4.139555 -7.9613714
-0.15394329 -4.3104129 -7.8857517
-0.15457585 -4.4826994 -7.8093963
-0.15521364 -4.6564093 -7.732409
-0.1558567 -4.8315578 -7.6547837
-0.15650463 -5.0081482 -7.5765715
-0.15715846 -5.1862288 -7.4976482
-0.15781778 -5.3658047 -7.4180603
-0.15848266 -5.5468931 -7.3378038
-0.15915214 -5.729476 -7.2569919
-0.1598278 -5.9136276 -7.1754313
-0.16050869 -6.0993304 -7.0932379
-0.16119596 -6.286643 -7.0102768
-0.16188861 -6.4755445 -6.9266691
-0.16258723 -6.6660767 -6.8423367
-0.16329244 -6.8582826 -6.7572107
-0.16400327 -7.0521402 -6.6714077
-0.16472085 -7.2477169 -6.5847874
-0.16544473 -7.4450126 -6.497407
-0.16617556 -7.6440759 -6.4091873
-0.16691233 -7.8448792 -6.3202529
-0.16765565 -8.047471 -6.2305245
-0.16840447 -8.2518187 -6.1401353
-7.1874655e-24 8.6327553 0.25127885
-5.8751836e-25 5.0170879 -10.531087
-1.4111791e-24 4.4416299 -11.977755
2.2052922e-25 4.335547 -11.93094
-3.7898266e-24 4.2287674 -11.883857
-1.5843372e-24 4.1212931 -11.836468
-3.0972746e-24 4.0131187 -11.78877
-3.0476505e-24 3.9042363 -11.74076
-4.0921686e-24 3.7946393 -11.692435
-7.834367e-25 3.7170784 -11.511984
-4.2196864e-24 3.6050408 -11.462598
-7.4217265e-24 3.4922523 -11.412923
9.1372181e-26 3.3787224 -11.362878
-1.7195432e-25 3.2644343 -11.3125
-4.8624597e-24 3.1493759 -11.261825
-2.8471962e-24 3.0335512 -11.210769
1.334019e-24 2.9169388 -11.15941
-2.358448e-24 2.7995462 -11.107663
-2.637659e-24 2.6813576 -11.055566
-5.4204116e-24 2.5623579 -11.003154
-3.5426039e-24 2.4425526 -10.950344
-6.2297561e-24 2.3219261 -10.897173
-2.8550533e-24 2.2004645 -10.843676
-8.176354e-25 2.0781698 -10.789768
-1.3972257e-24 1.9550296 -10.735489
-4.5533004e-24 1.8310288 -10.680875
-4.8936828e-25 1.7061682 -10.625836
-2.3349573e-24 1.5804297 -10.570457
1.0266709e-24 1.4538133 -10.514644
-2.9306214e-24 1.3263052 -10.458439
-9.3142069e-25 1.1978914 -10.401879
-3.0315704e-24 1.06857 -10.344876
-6.5419478e-24 0.93832815 -10.287467
-1.6750988e-25 0.80715263 -10.229691
-1.9098969e-24 0.67503959 -10.171456
-2.4625413e-24 0.54197484 -10.112803
-3.0970616e-24 0.40794891 -10.053771
9.5026185e-27 0.27295187 -9.9942656
-3.0695051e-25 0.13697185 -9.9343729
-2.2346063e-25 -2.7403328e-07 -9.8739967
3.0860081e-25 -0.13797623 -9.813179
-3.9512307e-24 -0.27696583 -9.7519617
-5.902841e-25 -0.41698384 -9.6902428
-1.3811692e-25 -0.55803818 -9.628068
-3.2062242e-24 -0.70013958 -9.5654783
-7.3081021e-24 -0.84330416 -9.5023737
-2.4649024e-24 -0.98754191 -9.438796
7.8976494e-25 -1.132862 -9.3747883
-1.0149177e-24 -1.2792813 -9.3102493
-5.1817228e-24 -1.426811 -9.2452202
-1.0635738e-24 -1.5754584 -9.1797466
-6.0384589e-24 -1.7252454 -9.1137238
-3.4290371e-24 -1.8761753 -9.0472441
-6.9118178e-25 -2.0282724 -8.9802017
-4.1270599e-25 -2.1815438 -8.9126425
-5.4840111e-25 -2.3359973 -8.8446121
-3.2690995e-24 -2.4916604 -8.7759981
-1.8965707e-24 -2.6485403 -8.7068491
-5.6320204e-24 -2.8066423 -8.6372099
-5.7339806e-24 -2.9659984 -8.5669689
8.3699483e-25 -3.1266146 -8.496172
2.5652155e-24 -3.288497 -8.4248686
-5.0467929e-24 -3.4516788 -8.3529415
-2.3268194e-24 -3.6161556 -8.2804947
5.9634966e-25 -3.7819653 -8.2074099
-1.1755313e-24 -3.9491127 -8.1337347
-5.5891489e-24 -4.1176014 -8.0595198
-9.4463648e-25 -4.2874737 -7.9846435
-2.3924163e-24 -4.4587326 -7.9091573
-3.6880194e-25 -4.6313968 -7.8330498
-6.5718409e-24 -4.8054976 -7.7562599
-7.703831e-24 -4.981039 -7.678833
-1.8066911e-24 -5.1580396 -7.6007614
-5.4503725e-24 -5.3365173 -7.5220389
-1.0220569e-24 -5.5164723 -7.4427185
1.583391e-24 -5.6979427 -7.36273
-3.4486076e-24 -5.8809428 -7.2820663
-1.1538325e-24 -6.0654759 -7.2007813
-3.5189598e-24 -6.2515993 -7.1187434
-5.4005749e-24 -6.4392934 -7.0360656
-5.3935379e-24 -6.6286201 -6.9526138
-2.975299e-24 -6.8195581 -6.8685069
-1.7139328e-24 -7.0121722 -6.7836061
-9.8456838e-24 -7.2064371 -6.6980348
-3.9859114e-24 -7.4024243 -6.6116486
-4.5660263e-24 -7.600132 -6.5245028
-7.932151e-24 -7.7996082 -6.4365234
-7.5963108e-24 -8.0008249 -6.3478322
-4.1304891e-24 -8.2037764 -6.2584872
0.19599093 7.6436472 -2.8101525
0.1226238 4.6597042 -11.666351
0.11954095 4.4230151 -12.038485
0.11992553 4.3173194 -11.992061
0.1203123 4.2109303 -11.945374
0.12070157 4.1038537 -11.898384
0.12109337 3.9960811 -11.85109
0.12148771 3.8876064 -11.803487
0.12188464 3.778424 -11.755575
0.12337136 3.7011411 -11.576113
0.12377667 3.5895238 -11.527187
0.12418497 3.4771795 -11.477901
0.12459565 3.3640833 -11.428328
0.12500937 3.2502439 -11.378386
0.12542586 3.1356471 -11.328111
0.12584482 3.0202758 -11.277539
0.1262669 2.9041378 -11.226589
0.12669182 2.7872202 -11.175298
0.12711927 2.6695046 -11.123698
0.12754996 2.5509989 -11.07171
0.12798359 2.4316881 -11.019368
0.12841982 2.3115571 -10.966708
0.12885937 2.1906095 -10.91365
0.12930162 2.068826 -10.860267
0.12974724 1.9462088 -10.806474
0.13019596 1.8227439 -10.75231
0.13064744 1.6984166 -10.697811
0.1311024 1.5732293 -10.642893
0.13156055 1.4471668 -10.587589
0.13202156 1.3202157 -10.53194
0.13248616 1.1923754 -10.475857
0.13295405 1.0636324 -10.419379
0.13342489 0.93397444 -10.362542
0.13389945 0.80339754 -10.305259
0.13437703 0.67188495 -10.24761
0.13485838 0.53943324 -10.189505
0.13534321 0.40602991 -10.13098
0.13583116 0.27166265 -10.072082
0.13632302 0.13632296 -10.012708
0.13681845 -2.0738523e-07 -9.9529037
0.13731712 -0.13731685 -9.8927107
0.13781981 -0.27563933 -9.8320293
0.1383262 -0.41497824 -9.7709036
0.13883594 -0.55534375 -9.7093725
0.13934983 -0.69674933 -9.6473389
0.13986756 -0.83920491 -9.5848446
0.14038873 -0.98272121 -9.5219326
0.14091422 -1.1273135 -9.4585018
0.14144324 -1.2729895 -9.3946438
0.14197665 -1.4197669 -9.3302536
0.14251412 -1.5676554 -9.265377
0.14305525 -1.7166628 -9.200057
0.14360091 -1.8668118 -9.1341887
0.14415076 -2.0181112 -9.0678148
0.14470442 -2.1705666 -9.0009832
0.14526276 -2.3242049 -8.9335852
0.14582545 -2.4790323 -8.8656645
0.14639206 -2.6350574 -8.797267
0.14696352 -2.7923067 -8.7282848
0.14753905 -2.9507809 -8.6588144
0.14811952 -3.1105101 -8.5887442
0.14870459 -3.2715011 -8.5181198
0.14929385 -3.4337583 -8.44699
0.14988826 -3.5973175 -8.3752394
0.15048741 -3.7621849 -8.3029156
0.15109089 -3.9283638 -8.2300663
0.15169972 -4.0958929 -8.1565752
0.15231347 -4.2647772 -8.082489
0.15293173 -4.4350209 -8.0078573
0.15355553 -4.6066656 -7.9325595
0.15418442 -4.7797165 -7.856647
0.15481897 -4.9542065 -7.7800498
0.15545876 -5.1301389 -7.7028198
0.15610388 -5.3075314 -7.6249485
0.15675436 -5.4864016 -7.5464292
0.15741028 -5.6667695 -7.4672513
0.15807068 -5.8486156 -7.3875303
0.1587372 -6.0320129 -7.3070774
0.15940882 -6.2169437 -7.226006
0.16008668 -6.4034677 -7.1441808
0.16076981 -6.5915618 -7.0617199
0.16145878 -6.7812691 -6.9785533
0.16215423 -6.9726315 -6.8946066
0.16285513 -7.165626 -6.8099985
0.16356269 -7.3603215 -6.7245889
0.16427587 -7.5566897 -6.6385021
0.16499639 -7.7548299 -6.551527
0.1657227 -7.95469 -6.4638519
0.16645488 -8.1562891 -6.3754711
0.35168818 6.8579202 -5.2420917
0.2373268 4.5092087 -12.144414
0.23808409 4.4045558 -12.098705
0.23884626 4.2992325 -12.052705
0.23961334 4.1932335 -12.00641
0.24038532 4.0865502 -11.959814
0.24116233 3.9791784 -11.912919
0.24194436 3.8711097 -11.865719
0.24273148 3.7623382 -11.818213
0.24568865 3.6853304 -11.63973
0.24649298 3.5741482 -11.591186
0.24730195 3.4622271 -11.542358
0.2481169 3.3495791 -11.493174
0.24893722 3.2361834 -11.443662
0.24976236 3.1220293 -11.393861
0.2505936 3.0071235 -11.34369
0.25143042 2.8914499 -11.293184
0.25227222 2.7749941 -11.242378
0.2531203 2.6577625 -11.191192
0.25397342 2.5397339 -11.1397
0.25483298 2.4209139 -11.08782
0.25569841 2.3012862 -11.035588
0.25656906 2.1808367 -10.98304
0.25744632 2.0595706 -10.930093
0.2583296 1.9374714 -10.876781
0.25921831 1.8145285 -10.823144
0.26011381 1.6907394 -10.769095
0.2610155 1.5660936 -10.714673
0.26192281 1.4405758 -10.659913
0.26283714 1.3141861 -10.604729
0.26375717 1.1869075 -10.549199
0.26468435 1.0587374 -10.493238
0.26561809 0.92966372 -10.436882
0.26655772 0.79967362 -10.380171
0.26750475 0.66876191 -10.323011
0.26845855 0.53691691 -10.265447
0.26941839 0.40412825 -10.207514
0.27038589 0.27038592 -10.149119
0.2713604 0.1356803 -10.090304
0.27234116 -4.5650631e-07 -10.03111
0.27332979 -0.13666436 -9.9714403
0.27432564 -0.27432555 -9.911335
0.27532801 -0.41299206 -9.8508368
0.27633849 -0.55267692 -9.7898493
0.27735564 -0.69338888 -9.7284575
0.27838111 -0.83514303 -9.6665668
0.27941418 -0.97794956 -9.6042147
0.28045413 -1.121817 -9.5414476
0.28150266 -1.2667621 -9.4781628
0.2825591 -1.4127955 -9.414403
0.28362262 -1.5599247 -9.3502121
0.28469503 -1.7081707 -9.2854862
0.28577557 -1.8575412 -9.2202702
0.28686354 -2.0080445 -9.1546059
0.28796065 -2.1597047 -9.0883894
0.2890653 -2.3125222 -9.0217161
0.29017937 -2.4665251 -8.9544773
0.29130206 -2.6217186 -8.8867188
0.29243258 -2.7781093 -8.8184872
0.29357275 -2.9357276 -8.7496691
0.29472187 -3.0945799 -8.6803131
0.29587916 -3.2546706 -8.610465
0.29704642 -3.416034 -8.5400133
0.29822299 -3.5786757 -8.4690037
0.29940796 -3.7425995 -8.3974829
0.3006033 -3.9078431 -8.3253374
0.30180734 -4.074399 -8.2526684
0.30302197 -4.2423077 -8.1793594
0.3042464 -4.4115729 -8.1054573
0.30547985 -4.5821981 -8.0310116
0.30672428 -4.7542262 -7.955904
0.30797887 -4.9276624 -7.8801823
0.30924478 -5.1025386 -7.8037791
0.3105211 -5.2788587 -7.7267466
0.31180802 -5.4566407 -7.6490736
0.31310564 -5.6359015 -7.5707555
0.31441313 -5.8166413 -7.4918427
0.31573156 -5.9988999 -7.4122672
0.31706008 -6.1826715 -7.3320851
0.31840083 -6.3680162 -7.2511621
0.31975195 -6.5549154 -7.1696138
0.32111564 -6.7434287 -7.0873079
0.32248998 -6.9335351 -7.0043602
0.32387716 -7.1252975 -6.9206362
0.32527524 -7.3186932 -6.8362532
0.32668656 -7.5137916 -6.7510729
0.32810909 -7.7105637 -6.665216
0.32954624 -7.9091096 -6.5784769
0.33099386 -8.1093493 -6.491106
0.47835943 6.2186737 -7.220655
0.35451451 4.4905167 -12.203792
0.35564104 4.3862395 -12.158463
0.35677481 4.2812977 -12.112844
0.35791579 4.1756845 -12.066933
0.35906413 4.0693932 -12.020729
0.36021981 3.9624176 -11.974227
0.36138299 3.8547518 -11.927423
0.36255372 3.746388 -11.880319
0.36696625 3.6696622 -11.702769
0.36816156 3.5588956 -11.654675
0.3693656 3.4474125 -11.606228
0.37057757 3.3351982 -11.557463
0.37179658 3.2222369 -11.508413
0.37302452 3.1085379 -11.459004
0.37425971 2.9940782 -11.409304
0.37550408 2.878864 -11.359236
0.3767567 2.762882 -11.308834
0.37801674 2.646117 -11.258133
0.37928623 2.5285745 -11.207053
0.38056424 2.4102395 -11.155628
0.38184994 2.2910993 -11.103896
0.38314536 2.1711571 -11.051774
0.38444957 2.0503983 -10.999295
0.38576171 1.9288082 -10.9465
0.38708383 1.8063906 -10.893301
0.38841403 1.6831282 -10.839779
0.38975441 1.5590181 -10.785845
0.3911041 1.4340487 -10.731538
0.39246213 1.3082068 -10.676895
0.39383066 1.1814916 -10.62183
0.39520878 1.0538902 -10.566379
0.39659551 0.92538935 -10.510581
0.39799309 0.79598582 -10.454348
0.3994005 0.66566765 -10.397717
0.40081689 0.53442311 -10.340727
0.40224442 0.4022446 -10.283287
0.40368214 0.26912132 -10.225437
0.40512908 0.1350432 -10.167218
0.40658754 -2.0888959e-07 -10.108532
0.40805542 -0.13601847 -10.04947
0.40953505 -0.27302322 -9.989933
0.41102549 -0.41102588 -9.9299641
0.41252565 -0.55003422 -9.8696022
0.41403794 -0.69006348 -9.8087511
0.41556138 -0.83112288 -9.7474537
0.41709492 -0.97322172 -9.68575
0.41864094 -1.1163757 -9.6235409
0.4201985 -1.2605957 -9.5608692
0.42176649 -1.4058882 -9.4977779
0.42334747 -1.5522745 -9.434166
0.42493907 -1.6997563 -9.3701248
0.42654392 -1.848357 -9.3055496
0.428161 -1.9980847 -9.2404842
0.4297891 -2.1489453 -9.1749754
0.43143085 -2.3009651 -9.1089144
0.43308523 -2.4541495 -9.0423489
0.43475106 -2.6085062 -8.9753208
0.43643102 -2.7640634 -8.9077234
0.43812406 -2.9208267 -8.8396015
0.43982896 -3.0788026 -8.7710018
0.4415485 -3.2380221 -8.7018127
0.44328016 -3.3984816 -8.6321344
0.44502687 -3.560215 -8.5618534
0.44678739 -3.7232282 -8.4910164
0.44856048 -3.8875246 -8.419672
0.45034912 -4.0531425 -8.347703
0.45215204 -4.2200856 -8.2751579
0.45396811 -4.3883586 -8.2020864
0.45580021 -4.5580025 -8.1283684
0.45764717 -4.7290206 -8.0540543
0.4595077 -4.9014158 -7.9791903
0.46138486 -5.075233 -7.9036593
0.46327889 -5.2504945 -7.8274493
0.46518853 -5.4272003 -7.7506104
0.46711397 -5.6053677 -7.6731358
0.46905544 -5.7850175 -7.5950189
0.47101158 -5.9661469 -7.5163088
0.47298416 -6.1487927 -7.4369407
0.47497177 -6.3329573 -7.3569641
0.47697768 -6.5186954 -7.2762523
0.47899905 -6.7059865 -7.1949186
0.48103923 -6.894896 -7.1128283
0.48309523 -7.0853972 -7.0300994
0.48516893 -7.277534 -6.9466615
0.4872621 -7.4713516 -6.8624401
0.48937178 -7.6668253 -6.7775507
0.49150145 -7.8640232 -6.6918607
0.49364978 -8.0629454 -6.6054206
1.055447 10.554471 5.3825774
0.5834294 5.688437 -8.8618126
0.47073352 4.4719682 -12.262712
0.47222432 4.3680754 -12.217722
0.47372347 4.2635117 -12.172482
0.47523215 4.1582818 -12.126953
0.47675052 4.0523791 -12.081134
0.47827858 3.9457989 -12.03502
0.47981644 3.8385315 -11.98861
0.48136428 3.7305732 -11.9419
0.48721588 3.65412 -11.765313
0.48879734 3.543781 -11.717587
0.49038789 3.4327149 -11.669589
0.49199006 3.3209324 -11.621239
0.49360272 3.2084179 -11.572572
0.49522474 3.095155 -11.523623
0.49685872 2.9811521 -11.474315
0.49850351 2.8663957 -11.424679
0.50015795 2.7508688 -11.37475
0.50182468 2.6345804 -11.324452
0.50350261 2.5175126 -11.273817
0.50519049 2.3996546 -11.222882
0.50689095 2.2810087 -11.171564
0.50860167 2.1615577 -11.11994
0.51032525 2.0413008 -11.067925
0.51206058 1.9202275 -11.015558
0.51380634 1.7983227 -10.962873
0.51556551 1.6755878 -10.909786
0.51733667 1.5520099 -10.856338
0.51911873 1.4275759 -10.802559
0.52091444 1.3022863 -10.748367
0.52272266 1.1761258 -10.693801
0.52454209 1.0490845 -10.638896
0.52637559 0.92115706 -10.583564
0.52822202 0.79233336 -10.527843
0.5300799 0.66260046 -10.471776
0.53195244 0.53195292 -10.415267
0.53383678 0.40037736 -10.358401
0.53573596 0.26786774 -10.301088
0.53764874 0.13441168 -10.243366
0.53957373 -8.0197992e-08 -10.185275
0.54151404 -0.13537847 -10.126721
0.54346836 -0.27173409 -10.067744
0.54543531 -0.40907657 -10.008386
0.54741806 -0.54741824 -9.9485502
0.54941535 -0.68676966 -9.888278
0.55142564 -0.82713884 -9.827611
0.55345225 -0.96854132 -9.7664528
0.55549228 -1.1109844 -9.7048893
0.557549 -1.2544854 -9.6428232
0.55962098 -1.3990521 -9.5802956
0.56170678 -1.5446941 -9.5173492
0.56380987 -1.6914302 -9.4538832
0.56592876 -1.8392681 -9.3899412
0.56806201 -1.9882172 -9.3255653
0.57021302 -2.1382985 -9.2606525
0.57238036 -2.2895212 -9.1952477
0.57456261 -2.441891 -9.1293917
0.57676321 -2.5954347 -9.0629826
0.57897907 -2.7501504 -8.9961138
0.58121371 -2.9060686 -8.9286766
0.5834657 -3.0631945 -8.8607187
0.58573341 -3.2215335 -8.792284
0.58802062 -3.3811183 -8.7232618
0.59032571 -3.5419543 -8.653698
0.59264719 -3.7040453 -8.5836401
0.59498882 -3.8674273 -8.5129766
0.59734899 -4.0321059 -8.4417515
0.5997262 -4.1980824 -8.3700142
0.60212415 -4.3653998 -8.2976484
0.60453957 -4.5340462 -8.2247572
0.60697627 -4.7040658 -8.1512222
0.60943276 -4.8754621 -8.0770922
0.61190724 -5.0482354 -8.0024166
0.61440384 -5.2224326 -7.9270759
0.61692286 -5.3980746 -7.851059
0.61946255 -5.5751638 -7.774415
0.62202328 -5.7537155 -7.6971383
0.62460524 -5.9337497 -7.6192212
0.6272068 -6.1152663 -7.5407138
0.62982804 -6.2982802 -7.4616098
0.63247335 -6.4828515 -7.3817806
0.63513887 -6.6689582 -7.3013411
0.63782912 -6.8566632 -7.2201562
0.64054012 -7.0459404 -7.1383448
0.64327633 -7.2368588 -7.0557723
0.64603394 -7.4293904 -6.9725537
0.64881742 -7.6236048 -6.888555
0.65162277 -7.8194747 -6.8038936
0.65445477 -8.0170708 -6.7184319
1.1430027 9.1440229 1.1261772
0.67198765 5.2415037 -10.245134
0.58599913 4.4535942 -12.321081
0.58784598 4.3500605 -12.276494
0.58970445 4.2458725 -12.231627
0.59157473 4.1410232 -12.186476
0.59345692 4.0355067 -12.141036
0.59535104 3.9293175 -12.095305
0.59725744 3.8224475 -12.049283
0.59917599 3.7148907 -12.002965
0.60645258 3.6387157 -11.827291
0.60841131 3.5287852 -11.780005
0.61038417 3.4181509 -11.732375
0.61236984 3.3067975 -11.684436
0.61436701 3.1947086 -11.636221
0.61637878 3.0818934 -11.587652
0.61840379 2.9683383 -11.538766
0.62044048 2.8540268 -11.489594
0.62249231 2.738966 -11.440059
0.62455612 2.6231365 -11.390234
0.62663525 2.5065413 -11.340039
0.62872833 2.389168 -11.289509
0.6308338 2.2710009 -11.238677
0.63295501 2.1520474 -11.187467
0.63509059 2.03229 -11.13591
0.63723892 1.9117168 -11.084044
0.63940352 1.7903297 -11.031786
0.64158285 1.6681153 -10.979172
0.6437754 1.5450613 -10.926238
0.64598477 1.4211665 -10.872902
0.64820927 1.296418 -10.819196
0.65044749 1.1708056 -10.765162
0.65270287 1.0443248 -10.710711
0.65497226 0.91696149 -10.655924
0.65725923 0.78871119 -10.600711
0.65956223 0.65956265 -10.545112
0.66187966 0.52950406 -10.489165
0.66421515 0.3985289 -10.432779
0.66656727 0.26662713 -10.375996
0.66893423 0.13378721 -10.318851
0.6713199 -4.7479037e-07 -10.261256
0.67372262 -0.13474423 -10.203249
0.67614084 -0.27045599 -10.144869
0.67857826 -0.40714759 -10.086022
0.68103153 -0.54482532 -10.026797
0.6835044 -0.68350434 -9.9670963
0.6859954 -0.82319427 -9.9069595
0.68850261 -0.96390349 -9.8464298
0.6910302 -1.1056482 -9.785408
0.69357634 -1.2484378 -9.723937
0.6961394 -1.3922787 -9.6620598
0.69872344 -1.5371919 -9.5996761
0.70132679 -1.6831843 -9.5368271
0.70394754 -1.8302639 -9.4735556
0.70659 -1.9784521 -9.4097605
0.70925033 -2.1277504 -9.3455353
0.71193284 -2.2781851 -9.2807732
0.71463573 -2.4297619 -9.2155199
0.71735704 -2.5824854 -9.1498203
0.72010136 -2.7363853 -9.0835686
0.72286665 -2.8914664 -9.0168066
0.7256512 -3.047735 -8.9495811
0.72845948 -3.2052219 -8.8817844
0.73128951 -3.3639317 -8.8134613
0.73413944 -3.5238693 -8.7446575
0.73701394 -3.6850698 -8.6752625
0.73990875 -3.8475254 -8.6053753
0.74282867 -4.0112743 -8.5348825
0.74577171 -4.1763215 -8.4638319
0.74873579 -4.3426681 -8.392271
0.75172597 -4.5103555 -8.3200817
0.75474006 -4.679388 -8.2473164
0.75777608 -4.8497672 -8.1740198
0.76083893 -5.0215368 -8.1000748
0.76392674 -5.1947012 -8.0255299
0.76703727 -5.3692603 -7.9504347
0.77017808 -5.5452824 -7.874608
0.77334464 -5.7227502 -7.7981606
0.77653748 -5.9016848 -7.7210803
0.77975672 -6.0821028 -7.6433606
0.78300023 -6.2640014 -7.5650549
0.78626835 -6.447401 -7.4861546
0.78956646 -6.6323586 -7.4065313
0.79288977 -6.8188515 -7.3263006
0.79624373 -7.0069451 -7.2453289
0.79962355 -7.1966124 -7.1637316
0.80303484 -7.3879209 -7.0813751
0.80647272 -7.5808434 -6.9983778
0.80994022 -7.7754254 -6.9146662
0.81344026 -7.9717155 -6.8301649
1.2099111 8.0660753 -2.1268189
0.74796319 4.8617611 -11.420495
0.70031983 4.4353585 -12.379005
0.70251787 4.3321929 -12.334785
0.70472974 4.2283783 -12.290286
0.70695555 4.123908 -12.245504
0.70919549 4.018774 -12.20044
0.71144968 3.9129736 -12.155089
0.7137183 3.8064969 -12.109449
0.72237074 3.7322493 -11.935375
0.72468656 3.6234326 -11.888785
0.72701895 3.5139246 -11.84186
0.72936648 3.4037104 -11.794631
0.73172748 3.292774 -11.747134
0.73410553 3.1811235 -11.699289
0.73649728 3.068738 -11.651172
0.7389065 2.9556258 -11.602701
0.74133158 2.8417709 -11.553914
0.74377072 2.7271588 -11.504842
0.74622786 2.6117976 -11.455409
0.74870121 2.4956708 -11.405646
0.75118923 2.3787658 -11.355592
0.75369573 2.2610865 -11.305165
0.75621891 2.1426206 -11.254402
0.75875723 2.0233524 -11.203335
0.76131457 1.9032869 -11.151887
0.76388919 1.782408 -11.100089
0.76647931 1.6607051 -11.047979
0.76908904 1.5381787 -10.995477
0.77171457 1.4148097 -10.942654
0.77436012 1.2905999 -10.889429
0.77702391 1.1655363 -10.835838
0.77970397 1.0396054 -10.781919
0.78240472 0.91280586 -10.727586
0.78512424 0.78512377 -10.672873
0.78786057 0.65655059 -10.617822
0.79061818 0.52707845 -10.562343
0.79339516 0.39669803 -10.506474
0.79618967 0.26539701 -10.450254
0.79900599 0.13316759 -10.393594
0.80184013 2.3389333e-07 -10.336576
0.80469662 -0.13411602 -10.279106
0.80757356 -0.26919129 -10.221226
0.81046897 -0.40523437 -10.162976
0.81338739 -0.54225838 -10.104261
0.81632698 -0.68027222 -10.045122
0.81928557 -0.81928587 -9.9855986
0.82226801 -0.95931304 -9.9255981
0.8252722 -1.1003631 -9.8651571
0.82829612 -1.2424443 -9.8043213
0.8313446 -1.3855746 -9.7429905
0.83441329 -1.529758 -9.6812534
0.83750707 -1.6750139 -9.6190119
0.84062386 -1.8213513 -9.5563068
0.84376156 -1.9687767 -9.4931812
0.84692514 -2.1173134 -9.429534
0.85011256 -2.2669671 -9.3654089
0.85332155 -2.4177449 -9.3008471
0.85655749 -2.5696719 -9.2357473
0.85981792 -2.7227569 -9.1701517
0.86310083 -2.8770025 -9.104105
0.86641139 -3.0324397 -9.0375013
0.86974496 -3.1890647 -8.9704361
0.87310672 -3.346909 -8.9028015
0.87649471 -3.5059786 -8.8346415
0.87990642 -3.6662765 -8.7660027
0.88334739 -3.8278387 -8.6967745
0.88681549 -3.9906695 -8.6270037
0.89030814 -4.1547718 -8.556736
0.89383113 -4.3201833 -8.485858
0.89738214 -4.4869108 -8.4144173
0.90095878 -4.6549535 -8.3424625
0.90456676 -4.8243561 -8.2698746
0.90820092 -4.9951053 -8.1967602
0.91186726 -5.1672478 -8.1229992
0.91556334 -5.3407865 -8.0486403
0.91928947 -5.5157371 -7.9736757
0.92304897 -5.6921353 -7.8980417
0.92683643 -5.8699632 -7.8218441
0.93065792 -6.0492773 -7.7449589
0.93451124 -6.2300739 -7.6674385
0.93839049 -6.4123354 -7.5893936
0.94230521 -6.5961361 -7.5106368
0.9462496 -6.7814555 -7.4312801
0.95023024 -6.9683547 -7.3511963
0.95424145 -7.1568117 -7.2704964
0.95828974 -7.3468881 -7.1890521
0.96236944 -7.5385604 -7.1069751
0.96648717 -7.7318969 -7.0241318
0.97063702 -7.9268703 -6.9406419
1.2627127 7.2155013 -4.6936517
0.81369859 4.533464 -12.436624
0.81371009 4.4172835 -12.436424
0.8162536 4.3144832 -12.392564
0.81881297 4.2110386 -12.348428
0.82138854 4.1069422 -12.304015
0.82398027 4.0021906 -12.259321
0.82658851 3.8967738 -12.214344
0.8292132 3.7906885 -12.169083
0.85157406 3.7712574 -11.783484
0.85156357 3.6495581 -11.783664
0.85155308 3.527863 -11.783846
0.85154253 3.4061704 -11.784026
0.85153419 3.2844887 -11.784171
0.85282785 3.1676464 -11.761862
0.85559672 3.0557027 -11.714114
0.85838366 2.9430301 -11.666056
0.86118668 2.829613 -11.617721
0.86401016 2.7154605 -11.569031
0.86685216 2.6005566 -11.520021
0.86971092 2.4848886 -11.470725
0.8725906 2.3684602 -11.421066
0.87548953 2.2512593 -11.371076
0.87840551 2.1332707 -11.320791
0.88134325 2.0144992 -11.270133
0.88429838 1.8949249 -11.219172
0.88727582 1.7745516 -11.167829
0.89027321 1.6533644 -11.116139
0.89328873 1.5313523 -11.064139
0.89632702 1.4085141 -11.011746
0.89938605 1.2848375 -10.958996
0.90246367 1.16031 -10.905924
0.90556484 1.0349311 -10.852447
0.90868729 0.90868771 -10.7986
0.91182905 0.78156787 -10.744423
0.91499501 0.65356809 -10.689829
0.91818058 0.52467489 -10.634895
0.92139083 0.39488167 -10.579535
0.92462367 0.26417807 -10.523787
0.92787677 0.13255456 -10.467691
0.93115532 1.1476084e-07 -10.411154
0.93445712 -0.13349357 -10.354216
0.9377799 -0.26793662 -10.296917
0.94112891 -0.40334135 -10.239163
0.94450206 -0.53971553 -10.180998
0.94789678 -0.67706847 -10.122458
0.95131856 -0.81541604 -10.063451
0.95476258 -0.95476234 -10.004062
0.95823425 -1.095125 -9.9441938
0.96173126 -1.2365118 -9.8838902
0.96525115 -1.3789303 -9.8231916
0.96879965 -1.5223994 -9.7620001
0.97237438 -1.6669281 -9.7003555
0.97597277 -1.8125207 -9.6383038
0.97960073 -1.9592016 -9.5757418
0.98325574 -2.1069765 -9.5127144
0.98693532 -2.255852 -9.4492626
0.99064535 -2.4058528 -9.3852854
0.99438047 -2.5569782 -9.3208742
0.99814683 -2.7092557 -9.2559252
1.0019418 -2.8626909 -9.190484
1.0057628 -3.0172884 -9.1245937
1.009616 -3.173079 -9.0581465
1.0134989 -3.3300676 -8.991189
1.0174087 -3.4882586 -8.9237661
1.0213519 -3.6476855 -8.8557701
1.0253258 -3.8083522 -8.7872438
1.0293275 -3.9702632 -8.718235
1.0333638 -4.1334553 -8.648632
1.0374287 -4.2979188 -8.578536
1.0415288 -4.463695 -8.5078297
1.0456616 -4.6307864 -8.4365654
1.049824 -4.7991958 -8.3647852
1.0540229 -4.9689651 -8.2923784
1.0582556 -5.1400986 -8.219388
1.0625191 -5.3125958 -8.1458654
1.0668204 -5.4865046 -8.0716944
1.0711566 -5.6618285 -7.9969172
1.0755317 -5.8386011 -7.9214725
1.0799426 -6.0168233 -7.8454094
1.0843898 -6.1965132 -7.7687187
1.0888704 -6.3776689 -7.6914554
1.0933846 -6.560308 -7.6136093
1.09794 -6.7444882 -7.5350547
1.10253 -6.9301891 -7.4559035
1.107162 -7.1174707 -7.3760262
1.1118295 -7.3063092 -7.2955375
1.1165402 -7.4967699 -7.2143054
1.1212875 -7.688828 -7.1324425
1.126075 -7.8825259 -7.0498819
1.3054405 6.5272031 -6.7707767
0.92331237 4.5011477 -12.536645
0.92617774 4.3993444 -12.49341
0.92906094 4.2969074 -12.449905
0.93196213 4.19383 -12.406129
0.93488163 4.090107 -12.362078
0.93781936 3.9857328 -12.317752
0.94077563 3.8806996 -12.273145
0.94375056 3.775002 -12.228256
0.98921031 3.8331902 -11.542322
0.96103305 3.603874 -11.967483
0.9641071 3.494889 -11.9211
0.96720088 3.3852031 -11.874416
0.97031468 3.2748122 -11.827435
0.97345084 3.1637156 -11.780113
0.97660494 3.0518906 -11.732522
0.98912358 2.9673705 -11.543631
0.98911357 2.8437018 -11.54378
0.98910123 2.7200291 -11.543968
0.98911357 2.5964231 -11.54378
0.98968178 2.4742045 -11.535208
0.99294221 2.358238 -11.486012
0.99622661 2.2415102 -11.436454
0.99953288 2.1240075 -11.386566
1.0028586 2.0057175 -11.336385
1.006209 1.8866421 -11.28583
1.009582 1.7667686 -11.234937
1.0129751 1.6460838 -11.18374
1.0163935 1.5245904 -11.132158
1.0198352 1.4022734 -11.080227
1.0232977 1.279122 -11.027983
1.0267863 1.1551344 -10.975342
1.0302962 1.0302964 -10.922382
1.0338329 0.9046036 -10.86902
1.0373939 0.77804512 -10.815288
1.0409768 0.65061015 -10.761225
1.0445873 0.52229333 -10.706747
1.0482229 0.39308369 -10.65189
1.0518811 0.26297012 -10.596692
1.0555677 0.13194557 -10.541064
1.0592804 2.0917557e-07 -10.485046
1.0630163 -0.13287754 -10.428675
1.0667815 -0.26669526 -10.371862
1.0705707 -0.40146363 -10.314689
1.0743897 -0.53719515 -10.257063
1.0782361 -0.67389727 -10.199026
1.0821072 -0.81158084 -10.140615
1.0860093 -0.95025772 -10.081739
1.0899394 -1.0899397 -10.022436
1.0938951 -1.2306321 -9.9627495
1.0978827 -1.3723537 -9.9025812
1.1018995 -1.5151116 -9.8419733
1.1059427 -1.6589143 -9.7809658
1.1100187 -1.8037803 -9.7194633
1.1141219 -1.9497133 -9.6575518
1.1182585 -2.0967348 -9.5951338
1.122426 -2.2448523 -9.5322495
1.1266216 -2.3940713 -9.4689445
1.1308517 -2.5444174 -9.4051151
1.135114 -2.6958954 -9.3408051
1.139405 -2.8485124 -9.2760582
1.143732 -3.0022967 -9.2107697
1.1480919 -3.157253 -9.1449833
1.1524818 -3.3133852 -9.0787439
1.156909 -3.4707267 -9.0119448
1.1613666 -3.6292706 -8.9446831
1.1658624 -3.789053 -8.8768473
1.170393 -3.9500759 -8.808486
1.1749554 -4.1123443 -8.7396431
1.1795572 -4.2758951 -8.6702089
1.184195 -4.440731 -8.6002283
1.188866 -4.6068563 -8.5297489
1.1935775 -4.7743106 -8.4586582
1.1983266 -4.9430971 -8.3869991
1.20311 -5.1132178 -8.3148241
1.2079352 -5.2847176 -8.2420158
1.2127959 -5.457581 -8.1686773
1.2176993 -5.6318593 -8.0946894
1.2226425 -5.8075523 -8.0200987
1.22763 -5.9846964 -7.9448457
1.2326584 -6.1632919 -7.8689737
1.2377281 -6.3433566 -7.7924776
1.2428317 -6.5248666 -7.7154703
1.2479817 -6.7079005 -7.6377635
1.2531705 -6.8924379 -7.5594697
1.2584066 -7.078537 -7.4804626
1.2636826 -7.2661753 -7.4008532
1.2690071 -7.4554167 -7.3205137
1.2743726 -7.6462364 -7.2395535
1.2797879 -7.8387003 -7.1578441
1.3407265 5.9587851 -8.4861298
1.0345379 4.4829984 -12.592822
1.0377356 4.3815508 -12.549935
1.0409529 4.2794724 -12.506782
1.0441904 4.1767612 -12.463361
1.0474479 4.0734081 -12.419669
1.0507259 3.9694099 -12.375704
1.0540246 3.8647571 -12.331462
1.057344 3.7594447 -12.286942
1.0897012 3.7534149 -11.852956
1.0766488 3.5888298 -12.028018
1.0800782 3.4802527 -11.982021
1.0835323 3.37099 -11.935695
1.0870059 3.2610168 -11.889107
1.0905017 3.1503382 -11.842219
1.0940201 3.0389442 -11.79503
1.0975612 2.9268303 -11.747534
1.1011255 2.813988 -11.69973
1.1047128 2.7004094 -11.651614
1.1083238 2.5860889 -11.603185
1.1119611 2.4710245 -11.554399
1.1156195 2.3551974 -11.50533
1.1193023 2.2386048 -11.455938
1.1312437 2.1367936 -11.295774
1.1312293 2.0110748 -11.295968
1.1312697 1.8854499 -11.295427
1.1313071 1.7598116 -11.294924
1.1346039 1.6388726 -11.250708
1.1384132 1.5178849 -11.199616
1.142251 1.3960841 -11.148141
1.1461148 1.273461 -11.096319
1.1500019 1.1500018 -11.044185
1.1539184 1.0257051 -10.991654
1.1578617 0.9005596 -10.938766
1.161829 0.77455294 -10.885555
1.1658267 0.64768136 -10.831938
1.1698519 0.51993424 -10.77795
1.1739019 0.39130056 -10.72363
1.1779833 0.26177344 -10.66889
1.1820898 0.13134305 -10.613811
1.1862284 5.4372236e-08 -10.558304
1.190396 -0.13226676 -10.502406
1.1945899 -0.2654644 -10.446158
1.1988164 -0.3996059 -10.389468
1.2030733 -0.53469867 -10.332377
1.2073569 -0.67075443 -10.274922
1.2116745 -0.80778342 -10.217012
1.2160232 -0.94579577 -10.158688
1.2203997 -1.0847995 -10.099986
1.2248114 -1.2248112 -10.040816
1.2292517 -1.3658352 -9.9812632
1.2337276 -1.507889 -9.9212294
1.2382363 -1.6509821 -9.8607569
1.2427746 -1.7951186 -9.7998896
1.2473499 -1.940322 -9.7385254
1.2519587 -2.0865982 -9.6767082
1.2565985 -2.2339532 -9.61448
1.2612761 -2.38241 -9.5517416
1.2659887 -2.5319777 -9.488534
1.2707331 -2.6826589 -9.424901
1.275517 -2.8344824 -9.3607388
1.2803332 -2.9874442 -9.2961435
1.2851896 -3.1415744 -9.2310066
1.2900829 -3.2968788 -9.1653748
1.2950101 -3.4533598 -9.0992928
1.2999786 -3.6110523 -9.0326509
1.3049855 -3.7699578 -8.965497
1.3100274 -3.9300821 -8.8978758
1.3151121 -4.0914602 -8.8296776
1.3202366 -4.254096 -8.7609472
1.325397 -4.4179897 -8.6917324
1.3306019 -4.5831852 -8.6219215
1.335844 -4.7496676 -8.5516148
1.3411316 -4.9174824 -8.4806967
1.3464612 -5.0866313 -8.409215
1.3518292 -5.2571144 -8.3372173
1.3572444 -5.4289775 -8.2645884
1.3627028 -5.6022234 -8.1913738
1.3682014 -5.7768507 -8.1176262
1.3737488 -5.9529114 -8.0432234
1.3793455 -6.1304245 -7.9681587
1.3849882 -6.309391 -7.8924785
1.3906771 -6.4898267 -7.8161774
1.3964041 -6.6717095 -7.7393627
1.4021831 -6.8551173 -7.6618552
1.4080055 -7.0400271 -7.5837641
1.4138809 -7.2265029 -7.5049601
1.4198012 -7.4145179 -7.4255557
1.4257758 -7.6041379 -7.3454227
1.4317962 -7.7953348 -7.2646761
2.3633916 9.6899061 2.0603082
1.3703552 5.4814215 -9.9267006
1.1448702 4.464994 -12.648547
1.1483945 4.3638992 -12.606004
1.1519406 4.2621799 -12.563198
1.1555088 4.1598315 -12.520128
1.159099 4.0568466 -12.47679
1.1627116 3.9532185 -12.433182
1.1663467 3.8489444 -12.389301
1.1700048 3.7440155 -12.345145
1.1911767 3.6926477 -12.089578
1.1913177 3.5739532 -12.087875
1.1950849 3.4657474 -12.0424
1.1988879 3.3568861 -11.996494
1.2027152 3.2473309 -11.950296
1.2065668 3.137074 -11.903802
1.2104434 3.0261087 -11.85701
1.2143447 2.9144275 -11.809915
1.2182714 2.8020244 -11.762516
1.2222235 2.6888914 -11.714809
1.2262044 2.5750294 -11.666756
1.2302083 2.4604173 -11.618424
1.2342384 2.3450527 -11.569777
1.2382951 2.2289307 -11.520809
1.2423784 2.1120429 -11.471519
1.2464887 1.9943814 -11.421903
1.2506263 1.8759396 -11.371956
1.2547948 1.7567132 -11.321639
1.2589878 1.6366844 -11.271025
1.263209 1.5158513 -11.220071
1.2781773 1.405995 -11.039387
1.2781972 1.2781971 -11.039147
1.2782402 1.1504163 -11.038628
1.27828 1.022624 -11.038148
1.2807831 0.89654839 -11.007933
1.2851552 0.77109301 -10.955155
1.2895541 0.64477712 -10.902058
1.2939866 0.51759511 -10.848555
1.2984495 0.38953501 -10.794683
1.3029399 0.2605876 -10.740478
1.307465 0.1307465 -10.685855
1.3120215 3.4631142e-08 -10.630852
1.3166065 -0.1316611 -10.575506
1.3212272 -0.26424545 -10.51973
1.3258803 -0.39776394 -10.463561
1.3305628 -0.53222483 -10.407039
1.3352821 -0.66764128 -10.350071
1.3400314 -0.80401874 -10.292743
1.3448182 -0.94137281 -10.234961
1.3496394 -1.0797114 -10.176764
1.3544916 -1.2190427 -10.118194
1.3593824 -1.3593825 -10.059155
1.3643087 -1.5007393 -9.9996891
1.3692671 -1.6431209 -9.9398355
1.3742656 -1.7865452 -9.8794994
1.3793005 -1.9310204 -9.8187227
1.3843687 -2.0765531 -9.7575436
1.3894781 -2.2231648 -9.6958685
1.3946214 -2.3708563 -9.6337824
1.3998069 -2.5196528 -9.571187
1.4050313 -2.6695595 -9.5081244
1.4102905 -2.8205814 -9.4446383
1.4155935 -2.9727464 -9.3806276
1.4209365 -3.1260607 -9.3161316
1.4263159 -3.2805266 -9.2511969
1.4317403 -3.4361763 -9.1857195
1.4372059 -3.5930154 -9.1197414
1.4427094 -3.7510448 -9.0533085
1.4482595 -3.9103007 -8.9863138
1.4538481 -4.0707746 -8.9188528
1.4594843 -4.2325044 -8.8508177
1.4651644 -4.3954935 -8.7822533
1.4708846 -4.5597415 -8.7132053
1.4766538 -4.7252922 -8.6435633
1.4824687 -4.8921461 -8.5733728
1.4883249 -5.0603051 -8.5026817
1.4942322 -5.2298121 -8.4313736
1.5001866 -5.400671 -8.359499
1.506184 -5.5728807 -8.2871037
1.5122341 -5.7464895 -8.2140722
1.518333 -5.9214983 -8.1404505
1.5244766 -6.0979061 -8.0662918
1.5306797 -6.2757874 -7.9914131
1.5369335 -6.4551201 -7.9159241
1.5432385 -6.6359253 -7.8398161
1.5495858 -6.8181767 -7.7631974
1.5559856 -7.0019345 -7.6859455
1.5624431 -7.1872387 -7.6079941
1.5689497 -7.3740644 -7.5294533
1.5755157 -7.5624757 -7.4501944
1.5821319 -7.7524467 -7.3703308
2.2841544 8.5136681 -1.4027301
1.3955926 5.074882 -11.153542
1.2543198 4.447134 -12.703827
1.2581655 4.3463902 -12.661624
1.262035 4.2450266 -12.619162
1.2659283 4.1430383 -12.576438
1.2698457 4.0404186 -12.53345
1.2737874 3.9371612 -12.490194
1.2777536 3.8332608 -12.44667
1.2817447 3.7287116 -12.402873
1.3010743 3.6666641 -12.190757
1.3050524 3.5592334 -12.1471
1.3091339 3.4513535 -12.102312
1.3132824 3.342901 -12.056787
1.3174572 3.2337584 -12.010975
1.3216587 3.1239212 -11.964869
1.3258871 3.0133803 -11.918468
1.3301425 2.9021292 -11.871769
1.3344288 2.7901697 -11.824734
1.3387393 2.6774793 -11.777431
1.3430779 2.5640576 -11.729821
1.3474447 2.4498992 -11.681902
1.3518398 2.3349957 -11.63367
1.3562639 2.2193406 -11.585123
1.3607168 2.1029263 -11.536257
1.3651992 1.9857448 -11.487068
1.3697149 1.8677928 -11.437516
1.3742567 1.7490534 -11.387674
1.3788289 1.6295252 -11.337501
1.3834316 1.5091985 -11.286993
1.3880652 1.3880649 -11.236145
1.3927299 1.2661182 -11.184957
1.397426 1.1433494 -11.133422
1.4021538 1.0197483 -11.081538
1.4069176 0.89531112 -11.029263
1.41171 0.77002364 -10.976672
1.4301658 0.65007561 -10.774145
1.4302185 0.52007967 -10.773565
1.4302676 0.39007306 -10.773028
1.4303129 0.26005632 -10.772531
1.4317057 0.13015494 -10.757246
1.4366689 8.0875026e-08 -10.702782
1.4416704 -0.13106066 -10.647898
1.446703 -0.263037 -10.59267
1.4517746 -0.39593887 -10.537015
1.4568821 -0.52977526 -10.480968
1.4620216 -0.66455561 -10.424569
1.4672015 -0.80029237 -10.367725
1.4724183 -0.936993 -10.310479
1.4776682 -1.0746683 -10.252868
1.4829597 -1.213331 -10.1948
1.4882894 -1.3529905 -10.136314
1.4936533 -1.4936532 -10.077453
1.49906 -1.6353385 -10.018119
1.5045022 -1.7780482 -9.9584007
1.509988 -1.9218031 -9.8982
1.515514 -2.0666099 -9.8375597
1.5210763 -2.2124748 -9.7765207
1.5266839 -2.3594203 -9.7149839
1.5323329 -2.5074542 -9.6529932
1.5380197 -2.6565797 -9.5905886
1.5437531 -2.8068242 -9.5276718
1.5495294 -2.9581923 -9.4642839
1.5553448 -3.1106899 -9.4004679
1.5612084 -3.2643447 -9.3361225
1.5671118 -3.4191537 -9.2713404
1.5730647 -3.5751469 -9.2060156
1.5790629 -3.7323303 -9.140193
1.5851023 -3.8907058 -9.0739174
1.591193 -4.0503092 -9.007081
1.5973306 -4.211144 -8.9397297
1.6035109 -4.3732114 -8.8719082
1.609744 -4.536551 -8.8035069
1.6160258 -4.7011657 -8.7345734
1.6223519 -4.8670554 -8.6651525
1.6287327 -5.034265 -8.5951319
1.6351638 -5.2027946 -8.5245571
1.641641 -5.3726435 -8.4534807
1.6481746 -5.5438595 -8.3817816
1.6547556 -5.7164292 -8.3095646
1.6613942 -5.8903975 -8.2367125
1.6680864 -6.0657682 -8.1632748
1.6748276 -6.2425389 -8.0893011
1.6816338 -6.420784 -8.0146093
1.6884956 -6.6004834 -7.9393101
1.6954085 -6.7816339 -7.8634524
1.702378 -6.9642735 -7.7869697
