# .PCD v0.7 - Point Cloud Data file format
VERSION 0.7
FIELDS x y z
SIZE 4 4 4
TYPE F F F
COUNT 1 1 1
WIDTH 1505
HEIGHT 1
VIEWPOINT 0 0 0 1 0 0 0
POINTS 1505
DATA ascii
-81.083382 22.11367 -240.06697
-81.39373 14.798848 -236.66127
-81.706467 7.4279022 -233.22948
-82.021606 3.5718902e-05 -229.77113
-82.339195 -7.485352 -226.28601
-82.659256 -15.028929 -222.77379
-82.981804 -22.631351 -219.23424
-83.306892 -30.293407 -215.66684
-83.634834 -38.0158 -212.0681
-83.965065 -45.799091 -208.44424
-84.2976 -53.643894 -204.79515
-84.632454 -61.550858 -201.12056
-84.969658 -69.520576 -197.42015
-85.309563 -77.554115 -193.69016
-85.652519 -85.652481 -189.92662
-85.997925 -93.81588 -186.13629
-86.346123 -102.04539 -182.3152
-86.697487 -110.34226 -178.45946
-87.051384 -118.7064 -174.57594
-87.40818 -127.13914 -170.66051
-87.768257 -135.64183 -166.70914
-88.130974 -144.21429 -162.72885
-88.49704 -152.85852 -158.71169
-88.865814 -161.57417 -154.66489
-89.237679 -170.36282 -150.58423
-89.613014 -179.22601 -146.46532
-89.991165 -188.16331 -142.31563
-90.37252 -197.17641 -138.13074
-90.542206 -205.77771 -136.26872
-90.937805 -214.94388 -131.92752
-91.346138 -224.21324 -127.44657
-113.55834 261.18423 240.91888
-106.76236 234.87726 158.88425
-100.73387 211.54118 86.113914
-95.349808 190.69965 21.12252
-90.512077 171.97296 -37.274006
-86.183258 155.12988 -89.527588
-82.211281 139.75917 -137.47362
-78.589584 125.74335 -181.19128
-75.273529 112.9103 -221.21967
-72.225723 101.11606 -258.00992
-70.489685 91.636627 -278.96576
-70.752296 84.902779 -275.79575
-71.016869 78.118591 -272.60211
-71.448608 71.448631 -267.3905
-71.713654 64.542297 -264.1911
-71.980675 57.584553 -260.96796
-72.24968 50.574783 -257.72067
-72.520714 43.512432 -254.44904
-72.793785 36.396912 -251.15282
-73.069183 29.227678 -247.82846
-73.346413 22.003927 -244.48203
-73.625748 14.725148 -241.11011
-73.907219 7.3907533 -237.71249
-74.190849 2.7585049e-05 -234.2887
-74.476677 -7.4476323 -230.83856
-74.764702 -14.952932 -227.36171
-75.05497 -22.516462 -223.85789
-75.347496 -30.138971 -220.32674
-75.642319 -37.821095 -216.76804
-75.939445 -45.563622 -213.18132
-76.23864 -53.367016 -209.56969
-76.539627 -61.231682 -205.93646
-76.843002 -69.158684 -202.27437
-77.149086 -77.149055 -198.57971
-77.457321 -85.203041 -194.85893
-77.768028 -93.321609 -191.1084
-78.081535 -101.50595 -187.32401
-78.397278 -109.75616 -183.5126
-78.715591 -118.07339 -179.67027
-79.036804 -126.45885 -175.79292
-79.360336 -134.91252 -171.88753
-79.686531 -143.43578 -167.95
-80.015724 -152.02988 -163.97618
-80.347343 -160.69467 -159.97328
-80.682037 -169.43227 -155.93312
-81.019211 -178.24228 -151.86308
-81.359215 -187.12616 -147.75893
-81.702408 -196.08575 -143.6162
-82.048187 -205.12045 -139.44228
-82.208633 -213.74242 -137.50551
-82.574364 -222.95076 -133.09077
-100.97369 258.04391 224.43761
-94.999199 232.22029 144.30609
-89.692223 209.28188 73.127289
-84.946815 188.77074 9.4803772
-80.718239 170.40523 -47.234459
-76.854134 153.7083 -99.06105
-73.343376 138.53754 -146.14833
-70.139359 124.69224 -189.12155
-67.20356 112.00594 -228.49736
-64.503433 100.33869 -264.71237
-63.139191 91.201111 -283.00992
-63.373291 84.497742 -279.87006
-63.608921 77.744232 -276.70978
-63.994431 71.104958 -271.53918
-64.230675 64.23069 -268.37057
-64.468674 57.305519 -265.1785
-64.708435 50.328819 -261.96271
-64.949989 43.300034 -258.72287
-65.193359 36.218544 -255.45877
-65.438553 29.08382 -252.17014
-65.6856 21.895229 -248.85663
-65.934525 14.65214 -245.51807
-66.185333 7.3539758 -242.1541
-66.438072 2.1459233e-05 -238.76433
-66.692734 -7.4102693 -235.34871
-66.949364 -14.877613 -231.90671
-67.208221 -22.402733 -228.43489
-67.468834 -29.986116 -224.93941
-67.731483 -37.628609 -221.4167
-67.996185 -45.330742 -217.86653
-68.262199 -53.092785 -214.29858
-68.530304 -60.915768 -210.70268
-68.800781 -68.800766 -207.07489
-69.073151 -76.747917 -203.42186
-69.347679 -84.758255 -199.73984
-69.624657 -92.832848 -196.02487
-69.903595 -100.97186 -192.28368
-70.184776 -109.17631 -188.51233
-70.468498 -117.4475 -184.70699
-70.754257 -125.78529 -180.87437
-71.042336 -134.19107 -177.0105
-71.333054 -142.66609 -173.11139
-71.625877 -151.21019 -169.18396
-71.921394 -159.8253 -165.22034
-72.219078 -168.51114 -161.22775
-72.519241 -177.26923 -157.2019
-72.822189 -186.10115 -153.13861
-73.127396 -195.00636 -149.04515
-73.435165 -203.98654 -144.91722
-73.576805 -212.55518 -143.01756
-73.901115 -221.70334 -138.66772
-88.688057 254.97821 208.34798
-83.499199 229.62282 130.05402
-78.883934 207.07033 60.415226
-74.752159 186.88042 -1.9284881
-71.065575 168.78076 -57.554867
-67.694725 152.31317 -108.41702
-64.629173 137.33702 -154.67259
-61.829243 123.65852 -196.92029
-59.261627 111.11555 -235.66264
-56.898956 99.573219 -271.31256
-55.858047 90.769341 -287.01868
-56.064171 84.096268 -283.90854
-56.271816 77.373749 -280.77536
-56.611423 70.76429 -275.65109
-56.819408 63.921871 -272.51288
-57.028923 57.028934 -269.3515
-57.239998 50.085011 -266.16669
-57.452831 43.089626 -262.9552
-57.667057 36.041931 -259.72281
-57.882889 28.941473 -256.46622
-58.100338 21.787638 -253.18517
-58.319427 14.579887 -249.87932
-58.540176 7.3175468 -246.54852
-58.762604 5.8893726e-05 -243.19237
-58.986725 -7.3733187 -239.81058
-59.212559 -14.803104 -236.40298
-59.44014 -22.290026 -232.96916
-59.669468 -29.834682 -229.5088
-59.900578 -37.437862 -226.02164
-60.133259 -45.099949 -222.51073
-60.36731 -52.821377 -218.97908
-60.603416 -60.603397 -215.41656
-60.841152 -68.446236 -211.82942
-61.080761 -76.350937 -208.21402
-61.322491 -84.318367 -204.5666
-61.56591 -92.348839 -200.89363
-61.811275 -100.44331 -197.19138
-62.058834 -108.60294 -193.45599
-62.308147 -116.82778 -189.69415
-62.559471 -125.11892 -185.90196
-62.813076 -133.47775 -182.07544
-63.068501 -141.9041 -178.22137
-63.326008 -150.39926 -174.33586
-63.585873 -158.96465 -170.41478
-63.847633 -167.59999 -166.4651
-64.111816 -176.30746 -162.47897
-64.37793 -185.08652 -158.46361
-64.646263 -193.93877 -154.41472
-64.917107 -202.86594 -150.32803
-65.040077 -211.3802 -148.4726
-65.324127 -220.46892 -144.18654
-76.690926 251.98445 192.63609
-72.253609 227.08276 116.11734
-68.301689 204.90509 47.968941
-64.759659 185.02762 -13.111274
-61.595455 167.18771 -67.675865
-58.700085 150.94312 -117.60476
-56.064697 136.15714 -163.05045
-53.655575 122.64135 -204.59427
-51.445148 110.23963 -242.7117
-49.409641 98.81929 -277.81281
-48.645515 90.341713 -290.98969
-48.824169 83.698586 -287.90881
-49.004147 77.006516 -284.80527
-49.298985 70.427132 -279.72092
-49.47924 63.616184 -276.61255
-49.660816 56.755241 -273.48141
-49.843727 49.843784 -270.32718
-50.027996 42.881176 -267.1496
-50.213631 35.866898 -263.94846
-50.40065 28.800413 -260.72348
-50.589062 21.68104 -257.4744
-50.778893 14.508276 -254.20094
-50.970146 7.2814846 -250.90279
-51.163036 4.4734057e-05 -247.57658
-51.357204 -7.33672 -244.22821
-51.552853 -14.729339 -240.85439
-51.75 -22.178556 -237.45476
-51.948654 -29.684927 -234.02895
-52.148849 -37.249138 -230.57686
-52.35001 -44.871418 -227.10789
-52.552925 -52.552902 -223.60875
-52.757229 -60.293938 -220.08574
-52.963123 -68.095421 -216.53514
-53.170826 -75.958282 -212.95345
-53.379971 -83.882797 -209.34689
-53.590763 -91.869843 -205.7119
-53.803432 -99.920631 -202.04457
-54.01759 -108.03515 -198.3515
-54.233459 -116.21455 -194.62897
-54.451271 -124.46004 -190.87296
-54.670628 -132.77148 -187.09033
-54.891758 -141.15019 -183.27702
-55.114899 -149.59753 -179.42914
-55.339645 -158.11328 -175.55344
-55.566235 -166.69868 -171.64607
-55.794907 -175.35536 -167.70287
-56.025246 -184.08292 -163.7308
-56.257713 -192.88356 -159.72197
-56.491901 -201.75676 -155.68356
-56.597424 -210.21902 -153.8638
-56.842121 -219.24815 -149.64423
-64.972237 249.06027 177.28891
-61.254086 224.59837 102.48557
-57.938461 202.78465 35.780315
-54.9631 183.21042 -24.079346
-52.302448 165.62444 -77.607552
-49.865822 149.59749 -126.62868
-47.645935 134.99684 -171.28926
-45.615444 121.64121 -212.13965
-43.750942 109.37738 -249.65054
-42.032875 98.076752 -284.21539
-41.500626 89.918045 -294.92346
-41.652325 83.304695 -291.87146
-41.805138 76.642784 -288.79709
-42.055756 70.092949 -283.75504
-42.208794 63.313213 -280.67615
-42.363094 56.484135 -277.57187
-42.518379 49.604813 -274.44772
-42.674812 42.674812 -271.30063
-42.832394 35.693703 -268.13028
-42.99115 28.660795 -264.9364
-43.151081 21.575539 -261.71881
-43.31221 14.437439 -258.47714
-43.474545 7.24579 -255.2112
-43.6381 4.7606598e-05 -251.92072
-43.802895 -7.3004417 -248.60535
-43.968937 -14.656283 -245.26486
-44.136242 -22.068092 -241.89888
-44.304825 -29.536551 -238.50722
-44.474541 -37.062084 -235.09283
-44.645237 -44.645206 -231.65872
-44.817413 -52.286976 -228.19479
-44.990753 -59.987667 -224.70741
-45.165611 -67.748421 -221.18956
-45.341663 -75.569405 -217.64774
-45.519096 -83.451607 -214.07808
-45.69809 -91.396133 -210.47697
-45.878326 -99.40303 -206.85086
-46.05999 -107.4733 -203.19608
-46.243271 -115.60813 -199.50876
-46.427841 -123.80755 -195.79549
-46.613892 -132.07265 -192.05244
-46.801617 -140.40482 -188.2757
-46.990681 -148.80383 -184.47194
-47.181282 -157.27094 -180.63741
-47.373611 -165.80765 -176.76796
-47.567337 -174.41356 -172.87059
-47.762653 -183.09015 -168.94113
-47.959763 -191.83905 -164.97556
-48.158321 -200.65965 -160.98091
-48.246849 -209.06964 -159.19997
-48.453526 -218.04082 -155.0419
-53.522411 246.20312 162.29382
-50.492649 222.16766 89.148827
-47.787525 200.70764 23.84136
-45.357307 181.42928 -34.829243
-43.18161 164.09015 -87.355263
-41.187672 148.27563 -135.4931
-39.369602 133.8567 -179.38525
-37.705387 120.65726 -219.56294
-36.176163 108.52852 -256.48163
-34.766029 97.344894 -290.5253
-34.422436 89.498337 -298.82047
-34.547668 82.914429 -295.79697
-34.673824 76.28244 -292.7514
-34.881065 69.762161 -287.74817
-35.007393 63.013348 -284.69833
-35.134636 56.215443 -281.62637
-35.26281 49.36795 -278.53195
-35.391926 42.470341 -275.41489
-35.521988 35.522018 -272.27487
-35.653008 28.52243 -269.11172
-35.785004 21.471025 -265.92517
-35.918098 14.367274 -262.71185
-36.052067 7.2104316 -259.4776
-36.187035 -1.1181313e-05 -256.21918
-36.323017 -7.2645593 -252.93631
-36.460026 -14.583948 -249.6286
-36.598076 -21.95882 -246.29584
-36.737171 -29.389751 -242.93774
-36.876926 -36.876911 -239.56374
-37.017887 -44.421459 -236.16058
-37.159794 -52.02372 -232.7347
-37.302792 -59.684464 -229.28238
-37.447033 -67.404633 -225.80014
-37.592258 -75.184509 -222.2941
-37.73875 -83.025261 -218.75746
-37.886246 -90.926964 -215.19658
-38.034904 -98.890732 -211.60768
-38.184875 -106.91763 -207.98709
-38.335888 -115.00764 -204.34132
-38.488102 -123.1619 -200.66663
-38.64167 -131.38165 -196.95901
-38.796326 -139.66676 -193.22534
-38.952225 -148.01846 -189.46159
-39.109531 -156.43813 -185.66389
-39.267963 -164.92542 -181.83905
-39.427681 -173.4818 -177.98308
-39.58886 -182.10875 -174.0919
-39.751205 -190.80573 -170.17258
-39.914886 -199.5744 -166.22087
-39.987236 -207.93359 -164.47427
-40.156811 -216.84674 -160.38036
-42.332306 243.41084 147.63885
-39.961643 219.78908 76.097679
-37.842243 198.67183 12.139239
-35.951633 179.75824 -44.915054
-34.228207 162.58401 -96.924019
-32.661411 146.97636 -144.20619
-31.231897 132.73561 -187.34558
-29.92227 119.68912 -226.86711
-28.717955 107.69234 -263.2106
-27.606922 96.624237 -296.73892
-27.410009 89.08255 -302.6813
-27.509268 82.527847 -299.68588
-27.609249 75.925468 -296.66867
-27.773771 69.434464 -291.70377
-27.873888 62.716259 -288.68262
-27.974724 55.949463 -285.63953
-28.076294 49.133541 -282.57437
-28.178604 42.267937 -279.48688
-28.281664 35.352112 -276.37683
-28.385477 28.385508 -273.2439
-28.490059 21.367573 -270.08798
-28.595413 14.297716 -266.90863
-28.701548 7.1753855 -263.70566
-28.808475 2.4560508e-05 -260.47888
-28.916203 -7.2290502 -257.22797
-29.024734 -14.512316 -253.95262
-29.134089 -21.850536 -250.65263
-29.244165 -29.244171 -247.33075
-29.354971 -36.69368 -243.98692
-29.466513 -44.199715 -240.62086
-29.578903 -51.763054 -237.22913
-29.692265 -59.384514 -233.80807
-29.806391 -67.064384 -230.36409
-29.921398 -74.803452 -226.89351
-30.037405 -82.602859 -223.39262
-30.154202 -90.462585 -219.86794
-30.272024 -98.384048 -216.31233
-30.390659 -106.36727 -212.73225
-30.510227 -114.41334 -209.12395
-30.630854 -122.52337 -205.48373
-30.752323 -130.69733 -201.8181
-30.874758 -138.93639 -198.12326
-30.998291 -147.24185 -194.39536
-31.122698 -155.61346 -190.64102
-31.248108 -164.05255 -186.85645
-31.374653 -172.56053 -183.03767
-31.502102 -181.1371 -179.19142
-31.630596 -189.78357 -175.31386
-31.760263 -198.50159 -171.40082
-31.816778 -206.80902 -169.6953
-31.951097 -215.66986 -165.64192
-32.089317 -224.62518 -161.47066
-31.393183 240.68111 133.31258
-29.653603 217.45975 63.31736
-28.096819 196.67775 0.67717344
-26.707066 178.04713 -55.242161
-25.437565 161.10458 -106.32294
-24.283373 145.70027 -152.76405
-23.229372 131.63313 -195.17369
-22.262983 118.73593 -234.0582
-21.373865 106.86937 -269.83365
-20.553036 95.914185 -302.86124
-20.462442 88.670593 -306.50644
-20.536198 82.144814 -303.5387
-20.610489 75.571823 -300.5495
-20.73287 69.109589 -295.62521
-20.807253 62.421806 -292.63232
-20.882172 55.685841 -289.6178
-20.957632 48.901173 -286.58154
-21.03364 42.067287 -283.52322
-21.110199 35.18367 -280.44269
-21.187393 28.249901 -277.33664
-21.265079 21.265106 -274.21078
-21.343338 14.228908 -271.06195
-21.422173 7.1407585 -267.88983
-21.501593 3.1071424e-05 -264.69418
-21.581606 -7.1938267 -261.47479
-21.662214 -14.441456 -258.23132
-21.743429 -21.743404 -254.96352
-21.8251 -29.100126 -251.67732
-21.907307 -36.512157 -248.36958
-21.990135 -43.98027 -245.03676
-22.073673 -51.505238 -241.67548
-22.157768 -59.087334 -238.29182
-22.242506 -66.727509 -234.88222
-22.327974 -74.426567 -231.44318
-22.414022 -82.184746 -227.98091
-22.500734 -90.002945 -224.49185
-22.588203 -97.882187 -220.97241
-22.676273 -105.82256 -217.4288
-22.765114 -113.82555 -213.85402
-22.85457 -121.89103 -210.25459
-22.944733 -130.02013 -206.6268
-23.035696 -138.21413 -202.96675
-23.127295 -146.47284 -199.28105
-23.219624 -154.7975 -195.56593
-23.312784 -163.18947 -191.81749
-23.406607 -171.64842 -188.0424
-23.501184 -180.17575 -184.23683
-23.596622 -188.77296 -180.39673
-23.692745 -197.43953 -176.52901
-23.743856 -205.78009 -174.4725
-23.833876 -214.50488 -170.85037
-23.936052 -223.40311 -166.73918
-21.971188 263.65424 196.22685
-20.696688 238.01192 119.30413
-19.56185 215.18042 50.810684
-18.545078 194.72331 -10.556962
-17.636225 176.36226 -65.411232
-16.805527 159.65256 -115.54822
-16.049564 144.44614 -161.17459
-15.358686 130.54886 -202.87283
-14.724779 117.79826 -241.13251
-14.141173 106.05882 -276.35623
-13.602066 95.214493 -308.8942
-13.578835 88.262444 -310.2963
-13.627553 81.765343 -307.35593
-13.676623 75.221466 -304.39429
-13.757592 68.787994 -299.50739
-13.80672 62.130245 -296.54227
-13.856199 55.424843 -293.55591
-13.906035 48.67115 -290.54807
-13.95623 41.86871 -287.51852
-14.006788 35.016998 -284.46704
-14.057714 28.11545 -281.39334
-14.109013 21.163538 -278.29724
-14.160687 14.160725 -275.17844
-14.212741 7.1063824 -272.03674
-14.265179 1.8251521e-05 -268.8718
-14.318006 -7.1590004 -265.68347
-14.371274 -14.371237 -262.46838
-14.42484 -21.637218 -259.23541
-14.478704 -28.957373 -255.98442
-14.532972 -36.332413 -252.70906
-14.5877 -43.763088 -249.40593
-14.642789 -51.249756 -246.08095
-14.698298 -58.793148 -242.73087
-14.75428 -66.394203 -239.35201
-14.810637 -74.053162 -235.95052
-14.867426 -81.770813 -232.52295
-14.924707 -89.548225 -229.06575
-14.982376 -97.385422 -225.58513
-15.040548 -105.28381 -222.07411
-15.099118 -113.24339 -218.53908
-15.158147 -121.26518 -214.97644
-15.217693 -129.35036 -211.38248
-15.277654 -137.49886 -207.76357
-15.338088 -145.71182 -204.11597
-15.399061 -153.99059 -200.43596
-15.460463 -162.33485 -196.73006
-15.522355 -170.74588 -192.99452
-15.584805 -179.22523 -189.22536
-15.647698 -187.77232 -185.42941
-15.711102 -196.38873 -181.60262
-15.775083 -205.07602 -177.74109
-15.803944 -213.35323 -175.99913
-15.871021 -222.19427 -171.95065
-10.857765 260.58633 180.79672
-10.234789 235.40013 105.59672
-9.6794662 212.94829 38.563454
-9.181304 192.8074 -21.570042
-8.735486 174.70975 -75.385162
-8.3277044 158.22641 -124.60868
-7.9562964 143.21336 -169.44159
-7.6165748 129.4818 -210.44963
-7.3047023 116.87525 -248.09596
-7.0173655 105.26048 -282.78058
-6.7517786 94.52491 -314.83981
-6.7583089 87.85804 -314.05148
-6.782445 81.389374 -311.138
-6.8067541 74.874329 -308.20364
-6.846911 68.469139 -303.35629
-6.8712468 61.841232 -300.4187
-6.8957562 55.166069 -297.46008
-6.9204416 48.443123 -294.48032
-6.9453278 41.671986 -291.47632
-6.9703698 34.851883 -288.45349
-6.9955926 27.982407 -285.40875
-7.0209994 21.063026 -282.34198
-7.0465908 14.093214 -279.25278
-7.0723701 7.0724125 -276.14096
-7.0983381 4.2612079e-05 -273.00632
-7.1244979 -7.1244731 -269.84857
-7.1508508 -14.301682 -266.66748
-7.1773496 -21.531998 -263.46881
-7.2040195 -28.816072 -260.24942
-7.2309141 -36.154575 -257.00296
-7.2579851 -43.547905 -253.73526
-7.2852588 -50.996788 -250.44298
-7.3127646 -58.502113 -247.12273
-7.3404527 -66.064041 -243.78047
-7.3683515 -73.683479 -240.41287
-7.3964896 -81.361351 -237.01627
-7.4248161 -89.097786 -233.59689
-7.453361 -96.893661 -230.15123
-7.4821534 -104.75011 -226.67567
-7.5111423 -112.66711 -223.17648
-7.5403829 -120.64611 -219.64674
-7.5698252 -128.687 -216.0928
-7.5994983 -136.79094 -212.51097
-7.6294327 -144.95918 -208.89754
-7.6595759 -153.19151 -205.25891
-7.6899576 -161.48911 -201.59148
-7.7206106 -169.85341 -197.89136
-7.7514801 -178.28401 -194.16513
-7.7825971 -186.78233 -190.40891
-7.8139949 -195.34985 -186.6189
-7.8456163 -203.98601 -182.80182
-7.8597732 -212.21385 -181.09294
-7.8928018 -220.99841 -177.10605
-2.2254897e-22 257.58917 165.7215
-2.6627113e-22 232.84625 92.19294
-3.5404686e-22 210.76205 26.567619
-4.2555439e-22 190.9288 -32.36861
-1.5903792e-22 173.08789 -85.173882
-3.3973914e-22 156.82556 -133.50871
-1.1469533e-23 142.00092 -177.5723
1.5673076e-22 128.43251 -217.90013
-8.1882045e-23 115.96664 -254.95113
-1.8208616e-22 104.47411 -289.10898
-2.3324923e-22 93.852341 -320.63895
-1.3962747e-22 87.457291 -317.77243
-7.3782905e-23 81.016815 -314.8855
-2.9049973e-22 74.530373 -311.978
-4.868486e-23 68.153427 -307.16699
-2.004103e-22 61.555088 -304.25644
-2.7558993e-22 54.909927 -301.32523
-2.327539e-22 48.217373 -298.37311
-1.9968334e-22 41.476986 -295.39987
-1.5603235e-22 34.68816 -292.4053
-1.7823814e-23 27.850496 -289.38916
-3.997162e-23 20.963375 -286.35126
-1.162526e-23 14.026276 -283.29129
-2.723241e-22 7.0387139 -280.20905
-2.132341e-22 8.1899134e-06 -277.10132
-1.8658964e-22 -7.0902848 -273.97375
-4.5041736e-23 -14.232776 -270.82611
-2.0821659e-22 -21.427845 -267.66129
-4.4412213e-23 -28.676224 -264.46997
-2.5479723e-22 -35.978291 -261.25809
-3.1555211e-22 -43.33477 -258.02222
-2.3212327e-22 -50.746494 -254.75908
-1.9753736e-22 -58.213676 -251.47449
-1.4317727e-22 -65.737152 -248.16513
-2.0175182e-22 -73.317772 -244.82764
-1.2125822e-22 -80.955696 -241.46794
-3.5204265e-22 -88.651817 -238.08272
-1.8042935e-22 -96.407204 -234.66826
-3.1724121e-22 -104.2218 -231.23085
-5.923477e-23 -112.09668 -227.76691
-1.6028757e-23 -120.03293 -224.27289
-1.3603858e-22 -128.03036 -220.75507
-7.1049837e-23 -136.09077 -217.20638
-3.0370064e-22 -144.21375 -213.63332
-3.2705186e-22 -152.40065 -210.03214
-2.2706148e-22 -160.65271 -206.39909
-2.9579815e-22 -168.9696 -202.74069
-2.38081e-22 -177.35265 -199.05319
-3.8898219e-22 -185.80331 -195.33276
-1.9852663e-22 -194.32111 -191.586
-2.3209308e-22 -202.90749 -187.80908
-2.0723586e-22 -211.08578 -186.13625
-2.2553793e-22 -219.81622 -182.20262
10.610777 254.65865 150.98254
10.015091 230.34715 79.076912
9.4827337 208.62013 14.815712
9.0066109 189.13889 -42.657425
8.5747929 171.49588 -94.782516
8.1815052 155.44864 -142.25647
7.8227429 140.8094 -185.56288
7.4941225 127.4001 -225.23091
7.1919985 115.07199 -261.7005
6.9132671 103.69902 -295.34637
6.6734061 93.427704 -324.3002
6.6969385 87.060219 -321.45956
6.7206373 80.64769 -318.59882
6.7445049 74.18959 -315.7178
6.78404 67.840416 -310.94537
6.8079538 61.271614 -308.05881
6.8320127 54.656143 -305.1546
6.8562431 47.99371 -302.22977
6.8806458 41.283878 -299.28412
6.9052229 34.526119 -296.31741
6.929976 27.719902 -293.32944
6.9549065 20.864746 -290.31998
6.9800186 13.960048 -287.28882
7.0053115 7.0053058 -284.23563
7.0307889 1.4443709e-05 -281.16025
7.0564513 -7.0564146 -278.06241
7.0822539 -14.164495 -274.94785
7.1082458 -21.324713 -271.81042
7.1344037 -28.537611 -268.6528
7.1607552 -35.803772 -265.47186
7.1873274 -43.123947 -262.26434
7.2140722 -50.49847 -259.03601
7.2410164 -57.928116 -255.78354
7.2681885 -65.413696 -252.50352
7.2955394 -72.955383 -249.20201
7.3230972 -80.554047 -245.87555
7.3508902 -88.210655 -242.5206
7.3788686 -95.92527 -239.14339
7.4070601 -103.69881 -235.74026
7.4354949 -111.5324 -232.30789
7.4641223 -119.42593 -228.85226
7.4929705 -127.38048 -225.36998
7.5220699 -135.39725 -221.85728
7.5513692 -143.47597 -218.32065
7.580925 -151.61852 -214.75285
7.6106853 -159.82437 -211.16051
7.6406803 -168.09494 -207.53984
7.6709404 -176.43161 -203.88705
7.7014136 -184.83392 -200.20868
7.7321286 -193.30321 -196.50099
7.7631192 -201.84111 -192.76006
7.7766848 -209.97049 -191.12263
7.8087792 -218.64577 -187.24852
20.98295 251.79546 136.58162
19.817484 227.90114 66.239441
18.774672 206.52139 3.3002145
17.843117 187.3528 -52.924145
16.993286 169.93289 -104.21603
16.220661 154.09631 -150.84805
15.515297 139.6377 -193.4205
14.868723 126.38415 -232.44476
14.273831 114.19067 -268.34958
13.724759 102.9357 -301.48904
13.286698 93.006912 -327.92841
13.333383 86.667015 -325.11072
13.380352 80.28215 -322.27585
13.42761 73.851868 -319.42355
13.506095 67.53051 -314.68655
13.55344 60.990505 -311.82904
13.601118 54.404499 -308.95148
13.649132 47.771973 -306.05356
13.697486 41.092461 -303.1351
13.746183 34.365479 -300.19592
13.795231 27.59049 -297.23575
13.844627 20.76697 -294.25433
13.894425 13.89442 -291.24872
13.944537 6.9722862 -288.22424
13.995011 2.1344207e-05 -285.17786
14.045804 -7.0228848 -282.11227
14.096869 -14.096841 -279.03018
14.148356 -21.222544 -275.92267
14.200171 -28.400293 -272.79535
14.252418 -35.631016 -269.64206
14.304999 -42.91497 -266.46841
14.35797 -50.252888 -263.27133
14.411386 -57.645542 -260.04739
14.46515 -65.093147 -256.80252
14.519316 -72.596565 -253.53331
14.57394 -80.156647 -250.23634
14.628925 -87.773521 -246.91774
14.684328 -95.448097 -243.57391
14.740204 -103.18138 -240.20154
14.796453 -110.97341 -236.80652
14.853134 -118.82505 -233.3856
14.910305 -126.73757 -229.93503
14.967863 -134.71077 -226.46104
15.025922 -142.74622 -222.95691
15.084378 -150.84375 -219.4288
15.14329 -159.00453 -215.87311
15.202721 -167.22992 -212.28612
15.262563 -175.51944 -208.67438
15.322877 -183.87454 -205.03401
15.38373 -192.29662 -201.36134
15.445008 -200.78508 -197.66283
15.471562 -208.86604 -196.0602
15.535076 -217.49106 -192.22675
31.124481 248.99591 122.50087
29.413881 225.50647 53.671703
27.881517 204.46449 -7.9858851
26.510975 185.57684 -63.13229
25.259609 168.39743 -113.48328
24.121149 152.76732 -159.29144
23.080885 138.48532 -201.1485
22.126554 125.38384 -239.54767
21.248085 113.32315 -274.89462
20.436707 102.18356 -307.54202
19.840748 92.590179 -331.52151
19.910084 86.277039 -328.73166
19.979904 79.919617 -325.92227
20.097126 73.689468 -321.2056
20.167009 67.223381 -318.39371
20.237381 60.712189 -315.56219
20.308245 54.155323 -312.71082
20.379606 47.552444 -309.83945
20.451471 40.902958 -306.94781
20.523846 34.206432 -304.03571
20.596733 27.462349 -301.10294
20.670141 20.670145 -298.14923
20.744074 13.829391 -295.17441
20.818539 6.9395571 -292.17825
20.893538 -7.8939274e-06 -289.16046
20.968937 -6.9896235 -286.12665
21.044884 -14.029889 -283.07086
21.121307 -21.121294 -279.99576
21.19829 -28.264389 -276.89822
21.275909 -35.459789 -273.77512
21.354023 -42.707996 -270.63199
21.432789 -50.009827 -267.46268
21.512062 -57.365498 -264.27295
21.591925 -64.775757 -261.0596
21.672459 -72.241531 -257.81915
21.753517 -79.762871 -254.55759
21.835186 -87.340698 -251.27151
21.917547 -94.976028 -247.9575
22.000454 -102.66878 -244.62158
22.083992 -110.41991 -241.26035
22.168245 -118.23061 -237.87027
22.253063 -126.10065 -234.45741
22.338531 -134.03117 -231.01839
22.424742 -142.02336 -227.54953
22.511539 -150.07689 -224.05719
22.599092 -158.19363 -220.53424
22.687246 -166.37314 -216.98723
22.776091 -174.6167 -213.41241
22.865717 -182.92572 -209.80611
22.955967 -191.2997 -206.17473
23.046932 -199.74004 -202.51459
23.086004 -207.77403 -200.94249
23.180191 -216.34842 -197.15268
23.276827 -225.00929 -193.26439
41.042976 246.25786 108.72987
38.810715 223.16164 41.365345
36.808743 202.44815 -19.049385
35.0159 183.83353 -73.153259
33.378025 166.89015 -122.58049
31.886528 151.46103 -167.59044
30.522509 137.3513 -208.75333
29.270504 124.39969 -246.53584
28.117168 112.4687 -281.34091
27.051273 101.44228 -313.50711
26.336241 92.176872 -335.08511
26.427866 85.890587 -332.32019
26.520126 79.560425 -329.53595
26.67519 73.356766 -324.85645
26.767529 66.918846 -322.06992
26.860504 60.43615 -319.26407
26.954132 53.908276 -316.43866
27.048414 47.334724 -313.59341
27.143358 40.715034 -310.72824
27.23897 34.048733 -307.84286
27.335348 27.335367 -304.93436
27.432323 20.574251 -302.00797
27.529985 13.765036 -299.06073
27.628345 6.9070969 -296.09247
27.727316 2.3033965e-05 -293.10568
27.826908 -6.9566956 -290.10031
27.92712 -13.963514 -287.07617
28.028055 -21.021015 -284.03012
28.12982 -28.129835 -280.95908
28.232229 -35.29023 -277.86862
28.335485 -42.503212 -274.75256
28.439402 -49.768944 -271.61667
28.544083 -57.088142 -268.45767
28.649635 -64.461655 -265.27228
28.755873 -71.889626 -262.06638
28.862898 -79.372925 -258.83652
28.970827 -86.912476 -255.57941
29.079466 -94.508255 -252.30103
29.188919 -102.16118 -248.99799
29.299305 -109.87238 -245.66676
29.410425 -117.64168 -242.31345
29.522387 -125.47013 -238.93465
29.635315 -133.35889 -235.52676
29.749004 -141.30772 -232.09595
29.863565 -149.31781 -228.63869
29.979124 -157.39038 -225.1514
30.095469 -165.52509 -221.64037
30.212833 -173.7238 -218.09863
30.331001 -181.98599 -214.53255
30.4501 -190.31311 -210.93845
30.57025 -198.70659 -207.31262
30.621117 -206.69254 -205.77751
30.74551 -215.21855 -202.02365
30.872547 -223.82596 -198.18994
50.745716 243.57945 95.258423
48.014137 220.86501 29.312323
45.561615 200.47113 -29.896795
43.362701 182.12337 -82.983223
41.352398 165.40962 -131.51633
39.520229 150.17691 -175.74873
37.843388 136.23622 -216.23129
36.303181 123.43085 -253.41521
34.883438 111.62704 -287.69077
33.570457 100.71141 -319.38901
32.774006 91.767227 -338.61707
32.887516 85.507576 -335.87668
33.001816 79.204376 -333.11728
33.194233 73.027328 -328.47189
33.308617 66.617249 -325.71039
33.423794 60.16283 -322.92975
33.539768 53.663643 -320.12985
33.656551 47.119194 -317.31052
33.774151 40.52898 -314.47137
33.892574 33.892601 -311.61243
34.011833 27.209484 -308.73328
34.131931 20.479176 -305.8338
34.252884 13.701175 -302.91379
34.374691 6.8749614 -299.97302
34.497257 4.3270829e-05 -297.01407
34.620464 -6.9240661 -294.03958
34.744553 -13.897778 -291.04379
34.869656 -20.921791 -288.02353
34.995541 -27.996426 -284.98438
35.122341 -35.122307 -281.92322
35.250183 -42.300201 -278.83685
35.378838 -49.530354 -275.73077
35.508556 -56.813641 -272.59915
35.639107 -64.15036 -269.44736
35.770622 -71.541206 -266.27237
35.903236 -78.987114 -263.07071
36.036709 -86.488083 -259.84839
36.171177 -94.045067 -256.60196
36.306786 -101.65897 -253.32817
36.443283 -109.32984 -250.03282
36.580811 -117.05857 -246.71265
36.719513 -124.84631 -243.36411
36.859135 -132.69284 -239.9933
36.999825 -140.59935 -236.59669
37.141727 -148.56688 -233.17091
37.284588 -156.59525 -229.72195
37.428551 -164.68561 -226.24638
37.573765 -172.83934 -222.74052
37.719978 -181.05586 -219.21071
37.867466 -189.33734 -215.64995
38.015976 -197.68304 -212.06467
38.111088 -205.79985 -209.76842
38.232082 -214.09964 -206.84741
38.388649 -222.65414 -203.0675
63.832062 265.96698 154.35042
60.239658 240.95866 82.076782
57.030064 218.61525 17.504812
54.152588 198.55952 -40.385593
51.555645 180.44478 -92.632065
49.186527 163.95514 -140.295
47.025402 148.9138 -183.7735
45.046356 135.13911 -223.58881
43.227158 122.47695 -260.18823
41.549053 110.79748 -293.94913
39.996498 99.991272 -325.18408
39.154804 91.361229 -342.11774
39.28981 85.127953 -339.40158
39.425751 78.851547 -336.66666
39.65485 72.700569 -332.05756
39.790882 66.318146 -329.32074
39.927853 59.891811 -326.56509
40.065773 53.421066 -323.79044
40.204777 46.905598 -320.99384
40.34462 40.344627 -318.18048
40.485432 33.737888 -315.3475
40.627239 27.084818 -312.49463
40.770035 20.385038 -309.62177
40.913845 13.637975 -306.72855
41.05867 6.8431597 -303.81491
41.204109 4.7989099e-05 -300.88885
41.350582 -6.8917561 -297.94205
41.498241 -13.832745 -294.97137
41.646816 -20.82338 -291.98227
41.796459 -27.864298 -288.97165
41.947327 -34.95607 -285.93646
42.09914 -42.099102 -282.8822
42.25206 -49.294033 -279.80576
42.406239 -56.541641 -276.70389
42.561401 -63.842094 -273.58231
42.71785 -71.196396 -270.43478
42.875305 -78.604675 -267.26706
43.03392 -86.067818 -264.07587
43.193871 -93.586708 -260.85791
43.354858 -101.16135 -257.61908
43.517056 -108.79261 -254.35602
43.680618 -116.48164 -251.06528
43.845264 -124.22824 -247.75285
44.011158 -132.03345 -244.41542
44.178467 -139.89844 -241.04941
44.346893 -147.82295 -237.66093
44.516609 -155.80812 -234.24649
44.68779 -163.85521 -230.8026
44.860134 -171.96381 -227.3354
45.033806 -180.13521 -223.84128
45.208996 -188.37079 -220.31676
45.385387 -196.67001 -216.76796
45.563332 -205.03497 -213.1881
45.641376 -212.99309 -211.61792
45.826466 -221.49454 -207.89429
73.631256 262.96887 139.87405
69.531479 238.39369 69.175896
65.864174 216.41089 5.9353938
62.585915 196.69864 -50.596081
59.598934 178.79686 -102.10464
56.883862 162.52533 -148.92445
54.405586 147.67233 -191.66078
52.134239 134.05949 -230.82874
50.044941 121.53776 -266.85739
48.116493 109.98059 -300.11234
46.331299 99.28138 -330.89691
45.479385 90.958794 -345.58755
45.635506 84.751686 -342.89536
45.792706 78.501823 -340.18457
46.05806 72.376968 -335.60873
46.215351 66.02195 -332.8963
46.373726 59.623402 -330.16525
46.533184 53.180801 -327.41541
46.693748 46.693771 -324.64664
46.855427 40.161797 -321.85864
47.018223 33.584461 -319.0513
47.182156 26.961273 -316.22437
47.347237 20.2917 -313.37769
47.513477 13.57531 -310.51099
47.680725 6.8115339 -307.62683
47.848843 2.0908845e-05 -304.72781
48.018307 -6.8597574 -301.80548
48.188812 -13.768204 -298.86517
48.360538 -20.725925 -295.90393
48.533649 -27.733479 -292.91867
48.707844 -34.791271 -289.91483
48.883297 -41.899925 -286.88931
49.060177 -49.060181 -283.83902
49.238178 -56.272186 -280.7695
49.417477 -63.536713 -277.67764
49.598255 -70.854645 -274.56021
49.780186 -78.225998 -271.42291
49.963638 -85.651901 -268.25946
50.148266 -93.132484 -265.07565
50.334263 -100.66853 -261.86816
50.521824 -108.26105 -258.63382
50.710609 -115.90994 -255.37833
50.90081 -123.61622 -252.09846
51.092628 -131.38104 -248.79068
51.285709 -139.20406 -245.46106
51.480263 -147.08644 -242.10622
51.676476 -155.0294 -238.72264
51.874008 -163.03256 -235.31631
52.073051 -171.09718 -231.88387
52.273819 -179.22452 -228.42177
52.475956 -187.41409 -224.93608
52.679848 -195.66798 -221.42007
52.885136 -203.98553 -217.87994
52.974281 -211.89709 -216.34273
53.187206 -220.34698 -212.67093
83.21199 260.03748 125.72049
78.627563 235.88271 56.5467
74.521896 214.2505 -5.4030051
70.847305 194.83014 -60.848198
67.496368 177.17799 -111.40992
64.448357 161.12091 -157.40094
61.663727 146.45137 -199.41768
59.109772 132.99701 -237.95393
56.758759 120.6124 -273.42801
54.587791 109.17561 -306.18536
52.576778 98.581482 -336.52917
51.748501 90.559891 -349.02698
51.925362 84.378746 -346.35834
52.103436 78.155182 -343.67142
52.404346 72.056015 -339.13095
52.58252 65.728165 -336.44254
52.762077 59.357368 -333.73325
52.942692 52.942719 -331.00793
53.124554 46.484009 -328.26392
53.307663 39.980782 -325.50101
53.492043 33.432545 -322.71893
53.677696 26.838892 -319.9176
53.864651 20.199274 -317.09671
54.052906 13.513259 -314.25613
54.241951 6.780262 -311.40375
54.432495 2.0565411e-05 -308.52863
54.624203 -6.8280125 -305.63593
54.817268 -13.704285 -302.72281
55.011887 -20.629438 -299.78629
55.207706 -27.603825 -296.83157
55.404922 -34.628063 -293.8558
55.603745 -41.70277 -290.85583
55.803806 -48.828304 -287.83716
56.005314 -56.005295 -284.79657
56.208477 -63.234531 -281.73111
56.412922 -70.516121 -278.6463
56.618858 -77.850868 -275.53894
56.826504 -85.239754 -272.40576
57.03548 -92.682632 -269.25262
57.246197 -100.18079 -266.07315
57.458275 -107.73428 -262.87305
57.671932 -115.34386 -259.64923
57.887386 -123.01066 -256.39832
58.104256 -130.73457 -253.12604
58.322746 -138.51653 -249.82916
58.543106 -146.35773 -246.50429
58.764919 -154.25789 -243.15732
58.988422 -162.21815 -239.78496
59.213844 -170.23981 -236.38354
59.440781 -178.32231 -232.95938
59.669468 -186.46707 -229.50877
59.900139 -194.6754 -226.02829
60.132378 -202.94676 -222.524
60.232334 -210.81314 -221.01582
60.47274 -219.21365 -217.38835
92.581482 257.17084 111.87889
87.534019 233.42409 44.180847
83.008469 212.13281 -16.517275
78.953224 192.9968 -70.907364
75.25238 175.58891 -120.54416
71.88324 159.74054 -165.73221
68.802841 145.25046 -207.04735
65.975365 131.95078 -244.97025
63.37133 119.70142 -279.89639
60.96505 108.38235 -312.17014
58.734638 97.891075 -342.08511
57.962864 90.164497 -352.43634
58.160095 84.009048 -349.79102
58.358673 77.811592 -347.12766
58.694786 71.738098 -342.6196
58.893463 65.437195 -339.95493
59.093487 59.093502 -337.27209
59.294876 52.706585 -334.57104
59.497639 46.275974 -331.85147
59.701801 39.801231 -329.11325
59.90736 33.281898 -326.35617
60.114346 26.717501 -323.58002
60.322762 20.10763 -320.78464
60.532433 13.451667 -317.97247
60.74337 6.7492747 -315.1434
60.955574 3.6409576e-05 -312.29724
61.169266 -6.7965479 -309.43112
61.384666 -13.64101 -306.54208
61.601387 -20.53376 -303.63538
61.819645 -27.475378 -300.7081
62.039658 -34.466461 -297.7572
62.261036 -41.507324 -294.78799
62.483994 -48.598606 -291.79761
62.708775 -55.741116 -288.78281
62.934963 -62.934952 -285.74911
63.162781 -70.180878 -282.69348
63.392479 -77.479675 -279.6127
63.623638 -84.831505 -276.51236
63.856705 -92.237442 -273.38641
64.091255 -99.697487 -270.24048
64.327553 -107.21259 -267.07129
64.565811 -114.78362 -263.87564
64.805618 -122.41061 -260.65927
65.047211 -130.09439 -257.41895
65.290848 -137.83623 -254.15126
65.536079 -145.63571 -250.86211
65.783165 -153.49402 -247.5482
66.032349 -161.41238 -244.20601
66.283195 -169.39037 -240.8416
66.53595 -177.42917 -237.45151
66.790894 -185.53023 -234.0322
67.047539 -193.69289 -230.58997
67.306175 -201.9185 -227.12109
67.416252 -209.73943 -225.64468
67.684212 -218.09354 -222.05077
101.74666 254.36665 98.339211
96.256729 231.0162 32.070023
91.328918 210.05652 -27.413977
86.907646 191.19682 -80.783455
82.870506 174.02814 -129.51599
79.191803 158.38364 -173.92186
75.825539 144.06856 -214.5563
72.734047 130.9213 -251.87392
69.884766 118.80412 -286.26773
67.250305 107.6005 -318.06851
64.807045 97.210609 -347.56125
64.123192 89.772499 -355.81607
64.340439 83.642563 -353.19373
64.559151 77.471008 -350.55356
64.929962 71.422981 -346.07755
65.148773 65.148781 -343.43628
65.369064 58.832184 -340.7771
65.590851 52.472717 -338.09991
65.814148 46.069942 -335.40448
66.038971 39.623402 -332.69064
66.265335 33.132694 -329.95816
66.493256 26.597319 -327.20691
66.722748 20.016859 -324.43668
66.953178 13.390645 -321.65518
67.185417 6.7185607 -318.85178
67.41906 3.7287766e-05 -316.03149
67.654556 -6.7654123 -313.18878
67.891472 -13.578274 -310.32895
68.130058 -20.438992 -307.44897
68.370552 -27.348196 -304.54596
68.612526 -34.30624 -301.62509
68.856209 -41.313709 -298.6835
69.101868 -48.371284 -295.71817
69.349052 -55.47921 -292.73441
69.598015 -62.638142 -289.72922
69.848999 -69.848984 -286.69946
70.101562 -77.11171 -283.65079
70.355965 -84.427124 -280.57986
70.612465 -91.796181 -277.48367
70.87059 -99.218819 -274.36777
71.130867 -106.69627 -271.22607
71.392799 -114.22849 -268.06415
71.656677 -121.81633 -264.87888
71.92276 -129.46094 -261.66699
72.190582 -137.16208 -258.43411
72.460396 -144.92079 -255.17715
72.732498 -152.73824 -251.89261
73.006386 -160.61406 -248.58644
73.282349 -168.54938 -245.25533
73.560669 -176.54559 -241.89569
73.840843 -184.6021 -238.51366
74.123161 -192.72018 -235.1058
74.407921 -200.90135 -231.6685
74.527641 -208.6774 -230.22327
74.822083 -216.98404 -226.66908
110.7141 251.62302 85.09166
104.80133 228.65742 20.206577
99.488083 208.0206 -38.09943
94.715454 189.43097 -90.472694
90.354393 172.49477 -138.32967
86.376923 157.049 -181.97726
82.735176 142.90623 -221.94073
79.388084 129.90781 -258.67068
76.301277 117.9202 -292.54437
73.44529 106.82952 -323.88507
70.795616 96.53952 -352.96179
70.230202 89.383896 -359.16656
70.467094 83.279289 -356.56689
70.705597 77.133423 -353.94968
71.110374 71.11039 -349.50775
71.348961 64.862724 -346.88956
71.589157 58.57296 -344.25375
71.830971 52.240749 -341.6001
72.074432 45.865578 -338.9285
72.319542 39.447044 -336.23874
72.566559 32.984798 -333.52802
72.815041 26.478222 -330.80133
73.064743 19.926764 -328.06107
73.316177 13.33022 -325.30197
73.569099 6.6881423 -322.52646
73.824013 2.1793694e-05 -319.72906
74.08046 -6.734571 -316.91492
74.338699 -13.516117 -314.08112
74.598984 -20.345137 -311.22479
74.860855 -27.222115 -308.35114
75.124565 -34.147511 -305.45721
75.390396 -41.121994 -302.54007
75.65786 -48.145897 -299.60501
75.927231 -55.219784 -296.64905
76.198784 -62.344425 -293.66913
76.472023 -69.519997 -290.67062
76.747231 -76.747215 -287.65054
77.024689 -84.026878 -284.60583
77.303894 -91.359108 -281.5419
77.585136 -98.744705 -278.45563
77.868698 -106.18456 -275.34396
78.154068 -113.67864 -272.21234
78.441811 -121.22825 -269.05475
78.731407 -128.83318 -265.87686
79.023148 -136.49452 -262.67532
79.317337 -144.21335 -259.44696
79.613449 -151.98929 -256.19757
79.911774 -159.82353 -252.9238
80.212631 -167.7173 -249.62233
80.51548 -175.67009 -246.29903
80.82061 -183.68315 -242.95053
81.128365 -191.75797 -239.5733
81.438171 -199.89371 -236.17357
81.567078 -207.62527 -234.75906
81.887993 -215.88651 -231.23738
82.214447 -224.22119 -227.655
119.49017 248.93793 72.126762
113.17319 226.34644 8.5829258
107.52258 206.08496 -48.257938
102.38036 187.69737 -99.984612
97.70755 170.9882 -146.98943
93.442314 155.73723 -189.89442
89.53421 141.76253 -229.20689
85.939888 128.90984 -265.36304
82.622726 117.0489 -298.73102
79.552391 106.06985 -329.61627
76.702065 95.877625 -358.2883
76.284561 88.998657 -362.48816
76.540764 82.919182 -359.91089
76.798698 76.798721 -357.31628
77.237167 70.800781 -352.90564
77.495178 64.579323 -350.31021
77.754921 58.316212 -347.69742
78.016411 52.010979 -345.06708
78.279663 45.663177 -342.41891
78.544701 39.272377 -339.75284
78.811539 32.838165 -337.0687
79.080193 26.360067 -334.36621
79.350174 19.837563 -331.65042
79.62175 13.270327 -328.91861
79.89518 6.6579423 -326.16803
80.170769 9.125436e-06 -323.39584
80.447998 -6.70399 -320.60718
80.727417 -13.454541 -317.79642
81.008514 -20.252125 -314.96878
81.291573 -27.097162 -312.1214
81.576897 -33.990349 -309.25128
81.863953 -40.931953 -306.36374
82.153038 -47.922585 -303.45581
82.444443 -54.962925 -300.52444
82.737648 -62.053219 -297.57504
83.032951 -69.194084 -294.60455
83.330643 -76.386406 -291.60999
83.630203 -83.630173 -288.59665
83.931915 -90.926239 -285.56165
84.236099 -98.275406 -282.5018
84.542213 -105.67773 -279.42255
84.850555 -113.13406 -276.32083
85.161453 -120.64535 -273.19348
85.474335 -128.21146 -270.04608
85.789833 -135.83389 -266.87241
86.107361 -143.51222 -263.67838
86.427246 -151.24767 -260.46048
86.749832 -159.04134 -257.21564
87.074516 -166.89281 -253.94954
87.401649 -174.80324 -250.65889
87.731552 -182.77406 -247.34023
88.063652 -190.80455 -243.99959
88.398262 -198.89609 -240.63364
88.536201 -206.58447 -239.24602
88.882469 -214.79929 -235.76294
89.234039 -223.08505 -232.22639
128.08092 246.30945 59.435684
121.37753 224.08162 -2.8081434
115.37392 204.12315 -58.554306
109.90626 185.99525 -109.32391
104.93297 169.50713 -155.50308
100.39066 154.4472 -197.68042
96.225281 140.63698 -236.35776
92.391479 127.92665 -271.95633
88.851746 116.19079 -304.82422
85.57325 105.32095 -335.26657
82.528076 95.224716 -363.54227
82.286949 88.61673 -365.78122
82.562126 82.562134 -363.22607
82.839409 76.467186 -360.6514
83.310577 70.493584 -356.27643
83.587662 64.298233 -353.70355
83.8666 58.061501 -351.11349
84.147408 51.783043 -348.50607
84.430374 45.462528 -345.87866
84.714973 39.099251 -343.23602
85.001495 32.692902 -340.5755
85.289688 26.243004 -337.89944
85.5793 19.749107 -335.21033
85.87088 13.210909 -332.50287
86.164734 6.6280842 -329.77432
86.460327 1.6984884e-05 -327.02957
86.757957 -6.6736679 -324.26599
87.057922 -13.393532 -321.48071
87.35968 -20.159887 -318.67871
87.663834 -26.973499 -315.85455
87.969818 -33.834526 -313.01331
88.277946 -40.74366 -310.15225
88.588539 -47.701511 -307.26828
88.901016 -54.708313 -304.36673
89.215714 -61.764687 -301.44467
89.532951 -68.871475 -298.49902
89.85215 -76.028694 -295.5351
90.173622 -83.237198 -292.55002
90.497719 -90.497719 -289.54065
90.823845 -97.810295 -286.51245
91.152328 -105.17575 -283.46234
91.483513 -112.59506 -280.38721
91.816788 -120.0681 -277.29254
92.152824 -127.59618 -274.1723
92.491005 -135.17917 -271.03207
92.83168 -142.81795 -267.8688
93.175209 -150.51375 -264.67908
93.52095 -158.26617 -261.46869
93.86927 -166.07637 -258.23434
94.22052 -173.94557 -254.97281
94.574081 -181.87323 -251.68982
94.930305 -189.86058 -248.38219
95.289566 -197.90907 -245.0463
95.558136 -205.81752 -242.55244
95.80719 -213.72369 -240.23996
96.18251 -221.95964 -236.75487
136.49214 243.73599 47.009804
129.41931 221.86168 -13.973531
123.07718 202.19827 -68.65654
117.29639 184.32295 -118.49955
112.03472 168.05211 -163.86674
107.22483 153.17838 -205.3385
102.81094 139.52914 -243.39589
98.745743 126.95883 -278.44687
94.990105 115.34514 -310.82867
91.509682 104.58252 -340.83755
88.275017 94.580399 -368.72748
88.238327 88.238342 -369.04382
88.532135 82.20845 -366.51047
88.827919 76.138252 -363.96024
89.331795 70.189308 -359.61572
89.627617 64.019745 -357.06503
89.925415 57.809208 -354.49738
90.225197 51.557293 -351.91266
90.526978 45.263515 -349.31058
90.830795 38.92749 -346.69104
91.13665 32.548805 -344.05389
91.443985 26.126875 -341.40396
91.75312 19.661404 -338.73862
92.064636 13.152098 -336.05264
92.377983 6.598453 -333.35092
92.693466 2.3370458e-05 -330.63077
93.011414 -6.64364 -327.88934
93.331245 -13.333002 -325.13168
93.653282 -20.068546 -322.35501
93.977867 -26.850805 -319.55643
94.30439 -33.680103 -316.74103
94.633507 -40.557182 -313.90332
94.964607 -47.482281 -311.04849
95.298035 -54.456001 -308.17358
95.634148 -61.479073 -305.27567
95.97229 -68.551636 -302.36002
96.312859 -75.674355 -299.42371
96.656158 -82.848122 -296.46359
97.001595 -90.072884 -293.48517
97.34951 -97.34951 -290.48532
97.700272 -104.67885 -287.46109
98.053223 -112.0608 -284.41788
98.408737 -119.49632 -281.35257
98.767174 -126.98637 -278.26199
99.127899 -134.5307 -275.15182
99.491608 -142.13084 -272.0159
99.857643 -149.78644 -268.8598
100.22639 -157.49858 -265.68048
100.59821 -165.26846 -262.47449
100.97246 -173.09563 -259.24765
101.3495 -180.9812 -255.99677
101.72972 -188.92659 -252.71841
102.11244 -196.93111 -249.4185
102.49806 -204.99609 -246.09363
102.6629 -212.65883 -244.67232
103.06196 -220.84702 -241.2316
153.00475 265.20825 101.43566
144.72943 241.21573 34.840862
137.30331 219.68535 -24.919775
130.63597 200.30853 -78.574471
124.55534 182.6812 -127.50759
119.01559 166.62187 -172.088
113.94764 151.93022 -212.87177
109.29327 138.43816 -250.32718
105.00458 126.00552 -284.83994
101.03976 114.51173 -316.7464
97.363129 103.85402 -346.3335
93.944984 93.945038 -373.84073
94.138794 87.862885 -372.28101
94.45092 81.857498 -369.76923
94.765121 75.812126 -367.24069
95.300949 69.88739 -362.92868
95.615181 63.743465 -360.39993
95.931793 57.559097 -357.85202
96.250214 51.333492 -355.28964
96.570747 45.066364 -352.71017
96.893417 38.757404 -350.11343
97.217964 32.405991 -347.5018
97.54406 26.011786 -344.87762
97.872658 19.574564 -342.23318
98.203171 13.093784 -339.57346
98.535919 6.5690947 -336.89575
98.871246 2.0024247e-05 -334.1972
99.208549 -6.6138659 -331.48282
99.548157 -13.273061 -328.74988
99.890419 -19.97805 -325.99548
100.23473 -26.729252 -323.22476
100.58173 -33.527225 -320.43222
100.93083 -40.372303 -317.62296
101.28235 -47.265064 -314.7941
101.63667 -54.206219 -311.94278
101.99313 -61.195866 -309.07416
102.35211 -68.234734 -306.18536
102.71397 -75.323532 -303.27341
103.07804 -82.462379 -300.34354
103.44471 -89.652084 -297.39276
103.81435 -96.893349 -294.41824
104.18627 -104.18624 -291.42517
104.56089 -111.53159 -288.41049
104.93855 -118.93033 -285.37125
105.3186 -126.38229 -282.3129
105.70141 -133.88843 -279.23227
106.08739 -141.4498 -276.12625
106.47581 -149.06612 -273.0004
106.86747 -156.73894 -269.84857
107.26164 -164.46783 -266.67651
107.65873 -172.25395 -263.48096
108.05915 -180.09857 -260.25864
108.46218 -188.00107 -257.01529
108.86823 -195.9628 -253.74765
109.27771 -203.98503 -250.45241
109.45026 -211.60382 -249.06389
109.87397 -219.74788 -245.65413
161.44031 262.34052 88.121529
152.7981 238.74706 22.921076
145.03413 217.55122 -35.653431
138.05536 198.45461 -88.304321
131.6861 181.06842 -136.35654
125.87864 165.21574 -180.17055
120.56132 150.70166 -220.28662
115.67542 137.36461 -257.14783
111.17012 125.06641 -291.13773
107.00226 113.68992 -322.58185
103.13594 103.13596 -351.75101
99.661324 93.432526 -377.9649
99.989265 87.490608 -375.49072
100.31938 81.509506 -373.00021
100.65168 75.488785 -370.49323
101.2193 69.588287 -366.21091
101.55161 63.469788 -363.70383
101.88611 57.310928 -361.18015
102.22283 51.111443 -358.6398
102.56178 44.8708 -356.08264
102.90298 38.588619 -353.50848
103.24582 32.264336 -350.92206
103.59093 25.897762 -348.31827
103.93803 19.488417 -345.69955
104.28749 13.035975 -343.0632
104.63962 6.5400014 -340.40656
104.9938 3.3719298e-05 -337.73447
105.35039 -6.5843835 -335.04419
105.70975 -13.213684 -332.33304
106.07123 -19.888319 -329.6059
106.43519 -26.608791 -326.86005
106.802 -33.375614 -324.09268
107.171 -40.18911 -321.30878
107.54291 -47.050011 -318.50293
107.91705 -53.958508 -315.68021
108.29381 -60.91523 -312.83783
108.67357 -67.920952 -309.97275
109.05564 -74.975739 -307.09027
109.4404 -82.080269 -304.1875
109.82826 -89.23542 -301.26132
110.21851 -96.441154 -298.31717
110.61153 -103.69827 -295.35202
111.00774 -111.00771 -292.36276
111.40643 -118.36935 -289.35486
111.808 -125.78395 -286.32535
112.21284 -133.25275 -283.27097
112.62025 -140.7753 -280.1973
113.03062 -148.35271 -277.10129
113.44439 -155.98602 -273.97964
113.86081 -163.6749 -270.83804
114.28069 -171.42101 -267.67032
114.70327 -179.22383 -264.48212
115.129 -187.08461 -261.27029
115.55831 -195.00458 -258.03143
115.99041 -202.9832 -254.77147
116.171 -210.55994 -253.40898
116.61809 -218.65891 -250.03595
169.69539 259.53412 75.092285
160.70329 236.32838 11.242734
152.65436 215.51208 -45.909664
145.33867 196.63469 -97.855751
138.69208 179.48387 -145.05064
132.62631 163.83252 -188.12138
127.06937 149.49342 -227.57921
121.95936 136.30756 -263.86349
117.24445 124.14119 -297.34232
112.88016 112.88018 -328.33154
108.82945 102.42776 -357.09402
105.44487 93.039597 -381.12677
105.79038 87.121521 -378.67337
106.13816 81.164497 -376.20389
106.48824 75.168205 -373.71811
107.0872 69.291733 -369.46518
107.43726 63.198421 -366.9794
107.78965 57.065121 -364.47736
108.14433 50.891472 -361.95877
108.50137 44.677082 -359.42365
108.86044 38.421364 -356.87408
109.22153 32.123966 -354.31003
109.58469 25.784641 -351.73138
109.95028 19.403006 -349.1355
