# .PCD v0.7 - Point Cloud Data file format
VERSION 0.7
FIELDS x y z
SIZE 4 4 4
TYPE F F F
COUNT 1 1 1
WIDTH 1477
HEIGHT 1
VIEWPOINT 0 0 0 1 0 0 0
POINTS 1477
DATA ascii
-280.39368 186.92911 -108.34147
-280.39368 177.5826 -108.34144
-280.39368 168.23619 -108.34148
-280.39368 158.88972 -108.34144
-280.39368 149.54327 -108.3415
-280.39368 140.19681 -108.34145
-280.39368 130.85039 -108.34149
-280.39368 121.50388 -108.34147
-280.39368 112.15742 -108.34143
-280.39368 102.81101 -108.34147
-280.39368 93.4645 -108.34144
-280.39368 84.118088 -108.34148
-280.39368 74.771629 -108.34145
-280.39368 65.425171 -108.3415
-280.39368 56.078709 -108.34145
-280.39368 46.732292 -108.34149
-280.39368 37.385784 -108.34147
-280.39368 28.039322 -108.34142
-280.39368 18.692909 -108.34146
-280.39368 9.3464022 -108.34145
-280.39368 -9.7192387e-06 -108.34148
-280.39368 -9.3464708 -108.34144
-280.39368 -18.692932 -108.3415
-280.39368 -28.039396 -108.34145
-280.39368 -37.38586 -108.34141
-280.39368 -46.732311 -108.34147
-280.39368 -56.078777 -108.34142
-280.39368 -65.425232 -108.34148
-280.39368 -74.771698 -108.34145
-280.39368 -84.118111 -108.34148
-280.39368 -93.464607 -108.34146
-280.39368 -102.81103 -108.3415
-280.39368 -112.15749 -108.34145
-280.39368 -121.504 -108.34144
-280.39368 -130.85042 -108.34148
-280.39368 -140.19687 -108.34143
-280.39368 -149.54333 -108.34149
-280.39368 -158.88979 -108.34145
-280.39368 -168.23621 -108.34148
-280.39368 -177.58272 -108.34147
-280.39368 -186.92918 -108.34142
-280.39368 -196.2756 -108.34146
-280.39368 -205.6221 -108.34144
-280.39368 -214.96852 -108.34148
-280.39368 -224.315 -108.34145
-280.39368 -233.66141 -108.34148
-280.39368 -243.0079 -108.34145
-280.39368 -252.35432 -108.34149
-280.39368 -261.70081 -108.34145
-280.39368 -271.0473 -108.34143
-280.39368 -280.39371 -108.34147
-280.39368 -289.7402 -108.34145
-280.39368 -299.08661 -108.34147
-280.39368 -308.43311 -108.34145
-280.39368 -317.77951 -108.34148
-280.39368 -327.12598 -108.34145
-280.39368 -336.47247 -108.34142
-280.39368 -345.81891 -108.34146
-280.39368 -355.16537 -108.34142
-280.39368 -364.51184 -108.34148
-280.39368 -373.85831 -108.34144
-280.39368 -383.20471 -108.34148
-280.39368 -392.55118 -108.34144
-280.39252 -401.896 -108.34612
-280.38666 -411.23383 -108.36967
-280.3808 -420.57129 -108.3932
-259.50092 313.19077 -156.40233
-259.52786 304.27402 -156.29015
-259.50092 295.2941 -156.40234
-261.7717 288.8515 -146.95027
-269.42316 288.00403 -115.10161
-269.42316 278.71359 -115.10155
-269.42316 269.42316 -115.10155
-269.42316 260.13266 -115.10159
-269.42316 250.84225 -115.10159
-269.42316 241.5518 -115.1016
-269.42316 232.26134 -115.10161
-269.42316 222.97083 -115.10156
-269.42316 213.6804 -115.10154
-269.42316 204.38995 -115.10156
-269.42316 195.0995 -115.10159
-269.42316 185.80904 -115.10159
-269.42316 176.51862 -115.10159
-269.42316 167.22816 -115.10162
-269.42316 157.93765 -115.10155
-269.42316 148.64723 -115.10155
-269.42316 139.35677 -115.10155
-269.42316 130.06631 -115.10158
-269.42316 120.77586 -115.1016
-269.42316 111.48544 -115.10158
-269.42316 102.19498 -115.1016
-269.42316 92.904533 -115.10162
-269.42316 83.614021 -115.10155
-269.42316 74.323601 -115.10155
-269.42316 65.033142 -115.10156
-269.42316 55.742683 -115.10159
-269.42316 46.452267 -115.10158
-269.42316 37.161808 -115.10159
-269.42316 27.871351 -115.10162
-269.42316 18.580841 -115.10155
-269.42316 9.2904243 -115.10155
-269.42316 -3.3157918e-05 -115.10155
-269.42316 -9.2904902 -115.10157
-269.42316 -18.580948 -115.10159
-269.42316 -27.871368 -115.10159
-269.42316 -37.161831 -115.10161
-269.42316 -46.452332 -115.10154
-269.42316 -55.742752 -115.10153
-269.42316 -65.033211 -115.10155
-269.42316 -74.323669 -115.10157
-269.42316 -83.61412 -115.10159
-269.42316 -92.904533 -115.10158
-269.42316 -102.195 -115.1016
-269.42316 -111.48546 -115.10161
-269.42316 -120.77593 -115.10153
-269.42316 -130.06639 -115.10155
-269.42316 -139.35684 -115.10155
-269.42316 -148.64731 -115.10159
-269.42316 -157.93771 -115.10157
-269.42316 -167.22818 -115.10159
-269.42316 -176.51863 -115.10161
-269.42426 -185.80988 -115.09691
-269.42426 -195.10036 -115.09695
-269.42426 -204.39087 -115.09689
-269.42426 -213.68137 -115.09692
-269.42426 -222.97183 -115.09695
-269.42426 -232.26234 -115.09689
-269.42426 -241.55284 -115.09693
-269.42426 -250.84331 -115.09695
-269.42426 -260.13382 -115.09689
-269.42426 -269.42432 -115.09693
-269.42426 -278.71478 -115.09695
-269.42426 -288.00531 -115.09689
-269.42426 -297.29578 -115.09692
-269.42426 -306.58624 -115.09695
-269.42426 -315.87677 -115.09689
-269.42426 -325.16727 -115.09694
-269.42426 -334.45773 -115.09695
-269.42426 -343.74826 -115.09692
-269.42426 -353.0387 -115.09692
-269.42426 -362.32925 -115.09688
-269.42426 -371.61972 -115.0969
-269.42426 -380.91022 -115.09694
-269.42426 -390.20071 -115.09688
-269.42316 -399.48956 -115.10155
-269.41757 -408.77155 -115.12479
-269.41199 -418.0531 -115.1481
-249.05951 311.32443 -162.8391
-248.25232 301.44925 -166.319
-249.0872 293.56702 -162.71976
-252.5477 288.62595 -147.80122
-258.58438 286.28976 -121.77659
-258.58438 277.05469 -121.77655
-258.58438 267.81949 -121.77654
-258.58438 258.58435 -121.77658
-258.58438 249.3492 -121.77654
-258.58438 240.11404 -121.77659
-258.58438 230.87886 -121.77657
-258.58438 221.64375 -121.7766
-258.58438 212.40857 -121.77657
-258.58438 203.1734 -121.77652
-258.58438 193.93826 -121.77657
-258.58438 184.70306 -121.77655
-258.58438 175.46796 -121.77657
-258.58438 166.23277 -121.77656
-258.58438 156.99767 -121.77658
-258.58438 147.76248 -121.77657
-258.58438 138.52728 -121.77654
-258.58438 129.29218 -121.77657
-258.58438 120.05698 -121.77654
-258.58438 110.82187 -121.77657
-258.58438 101.58669 -121.77655
-258.58438 92.351532 -121.7766
-258.58438 83.116386 -121.77656
-258.58438 73.881233 -121.7766
-258.58438 64.646088 -121.77657
-258.58438 55.410889 -121.77654
-258.58438 46.175743 -121.77659
-258.58438 36.94059 -121.77654
-258.58438 27.705448 -121.7766
-258.58438 18.470291 -121.77654
-258.58438 9.2351503 -121.7766
-258.58438 -6.7262949e-06 -121.77655
-258.58438 -9.235199 -121.77653
-258.58438 -18.470348 -121.77658
-258.58438 -27.705496 -121.77654
-258.58438 -36.940647 -121.77659
-258.58438 -46.175793 -121.77654
-258.58438 -55.410942 -121.7766
-258.58438 -64.646141 -121.77657
-258.58438 -73.881294 -121.77652
-258.58438 -83.116432 -121.77657
-258.58438 -92.351593 -121.77653
-258.58438 -101.58673 -121.77658
-258.58438 -110.82192 -121.77656
-258.58438 -120.05703 -121.77659
-258.58438 -129.29222 -121.77656
-258.58438 -138.52737 -121.77651
-258.58438 -147.76253 -121.77657
-258.58438 -156.99771 -121.77654
-258.58438 -166.23282 -121.77657
-258.58438 -175.46802 -121.77654
-258.58438 -184.70312 -121.77657
-258.58438 -193.93831 -121.77655
-258.58438 -203.17351 -121.77653
-258.58438 -212.40862 -121.77656
-258.58438 -221.6438 -121.77653
-258.58438 -230.87892 -121.77657
-258.58438 -240.11411 -121.77654
-258.58438 -249.34923 -121.77658
-258.58438 -258.58441 -121.77655
-258.58438 -267.81955 -121.7766
-258.58438 -277.05472 -121.77657
-258.58438 -286.28992 -121.77653
-258.58438 -295.52502 -121.77657
-258.58438 -304.76019 -121.77653
-258.58438 -313.99533 -121.77657
-258.58438 -323.23053 -121.77656
-258.58438 -332.46564 -121.77659
-258.58438 -341.70081 -121.77655
-258.58438 -350.93597 -121.77652
-258.58438 -360.17111 -121.77657
-258.58545 -369.40781 -121.77193
-258.58545 -378.64304 -121.77192
-258.58545 -387.87817 -121.77198
-258.58545 -397.11337 -121.77197
-258.57904 -406.33856 -121.79951
-258.57373 -415.56494 -121.82251
-238.7428 309.48135 -169.19543
-237.97452 299.67163 -172.63013
-238.9427 292.04105 -168.30162
-243.5507 288.65262 -147.70039
-247.87386 284.59595 -128.37254
-247.87386 275.41541 -128.37256
-247.87386 266.23483 -128.3726
-247.87386 257.05435 -128.3726
-247.87386 247.87384 -128.37256
-247.87386 238.69336 -128.37259
-247.87386 229.51282 -128.37256
-247.87386 220.33229 -128.37253
-247.87386 211.15181 -128.37256
-247.87386 201.97128 -128.37254
-247.87386 192.79079 -128.37259
-247.87386 183.61026 -128.37254
-247.87386 174.42969 -128.37254
-247.87386 165.24919 -128.37257
-247.87386 156.06868 -128.37256
-247.87386 146.88818 -128.37259
-247.87386 137.70766 -128.37256
-247.87386 128.52718 -128.3726
-247.87386 119.34663 -128.37256
-247.87386 110.16611 -128.37254
-247.87386 100.98563 -128.37257
-247.87386 91.805092 -128.37254
-247.87386 82.624611 -128.37259
-247.87386 73.444077 -128.37254
-247.87386 64.263596 -128.3726
-247.87386 55.083065 -128.37256
-247.87386 45.902531 -128.37253
-247.87386 36.722046 -128.37257
-247.87386 27.541519 -128.37253
-247.87386 18.361036 -128.37259
-247.87386 9.1805019 -128.37254
-247.87386 -6.7708475e-05 -128.37253
-247.87386 -9.1805496 -128.37259
-247.87386 -18.361084 -128.37254
-247.87386 -27.541567 -128.37259
-247.87386 -36.722099 -128.37256
-247.87386 -45.902588 -128.3726
-247.87386 -55.083111 -128.37257
-247.87386 -64.263649 -128.37253
-247.87386 -73.444122 -128.37257
-247.87386 -82.624664 -128.37254
-247.87386 -91.805138 -128.37259
-247.87386 -100.98568 -128.37256
-247.87386 -110.16615 -128.37259
-247.87386 -119.34669 -128.37256
-247.87386 -128.52722 -128.37253
-247.87386 -137.7077 -128.37257
-247.87386 -146.88824 -128.37254
-247.87386 -156.06873 -128.37257
-247.87386 -165.24925 -128.37254
-247.87386 -174.42978 -128.37251
-247.87386 -183.61031 -128.37257
-247.87386 -192.79085 -128.37254
-247.87386 -201.97131 -128.37259
-247.87386 -211.15184 -128.37254
-247.87386 -220.33232 -128.37259
-247.87386 -229.51288 -128.37257
-247.87386 -238.69339 -128.37253
-247.87386 -247.87389 -128.37257
-247.87386 -257.05441 -128.37254
-247.87386 -266.23492 -128.37259
-247.87386 -275.41544 -128.37254
-247.87386 -284.59598 -128.37251
-247.87386 -293.77646 -128.37256
-247.87386 -302.95697 -128.37251
-247.87386 -312.13745 -128.37257
-247.87386 -321.31802 -128.37256
-247.87386 -330.49847 -128.37259
-247.87386 -339.67902 -128.37256
-247.87386 -348.85956 -128.37253
-247.87386 -358.04004 -128.37256
-247.87386 -367.22058 -128.37253
-247.87386 -376.40106 -128.37257
-247.87386 -385.5816 -128.37254
-247.87386 -394.76205 -128.37259
-247.8698 -403.936 -128.39072
-247.86369 -413.10623 -128.41797
-228.54659 307.65884 -175.48106
-228.17596 298.38391 -177.20178
-229.03632 290.69992 -173.20737
-234.55202 288.67941 -147.59953
-237.28838 282.92075 -134.89546
-237.28838 273.79425 -134.89549
-237.28838 264.66776 -134.89546
-237.28838 255.54131 -134.89545
-237.28838 246.41484 -134.89543
-237.28838 237.28836 -134.89543
-237.28838 228.16185 -134.89543
-237.28838 219.03537 -134.89542
-237.28838 209.90895 -134.89549
-237.28838 200.78249 -134.89548
-237.28838 191.65598 -134.89549
-237.28838 182.5295 -134.89548
-237.28838 173.40303 -134.89546
-237.28838 164.27655 -134.89545
-237.28838 155.15004 -134.89546
-237.28838 146.02357 -134.89545
-237.28838 136.89711 -134.89543
-237.28838 127.77063 -134.89542
-237.28838 118.64416 -134.8954
-237.28838 109.51769 -134.89549
-237.28838 100.39123 -134.89549
-237.28838 91.264755 -134.89548
-237.28838 82.138283 -134.89546
-237.28838 73.011772 -134.89548
-237.28838 63.8853 -134.89546
-237.28838 54.758823 -134.89543
-237.28838 45.632351 -134.89542
-237.28838 36.50584 -134.89543
-237.28838 27.37937 -134.89542
-237.28838 18.252949 -134.89549
-237.28838 9.1264782 -134.89548
-237.28838 5.4951724e-06 -134.89546
-237.28838 -9.1265068 -134.89548
-237.28838 -18.252974 -134.89546
-237.28838 -27.379446 -134.89545
-237.28838 -36.50592 -134.89543
-237.28838 -45.632431 -134.89545
-237.28838 -54.7589 -134.89543
-237.28838 -63.885372 -134.89542
-237.28838 -73.011848 -134.8954
-237.28838 -82.138298 -134.89549
-237.28838 -91.264778 -134.89549
-237.28838 -100.39125 -134.89546
-237.28838 -109.51773 -134.89546
-237.28838 -118.6442 -134.89545
-237.28838 -127.7707 -134.89545
-237.28838 -136.89719 -134.89545
-237.28838 -146.02365 -134.89543
-237.28838 -155.15012 -134.89542
-237.28838 -164.27663 -134.89543
-237.28838 -173.40309 -134.89542
-237.28838 -182.52953 -134.89548
-237.28838 -191.65599 -134.89546
-237.28838 -200.7825 -134.89548
-237.28838 -209.90898 -134.89546
-237.28838 -219.03546 -134.89546
-237.28838 -228.16193 -134.89545
-237.28838 -237.28842 -134.89545
-237.28838 -246.41489 -134.89542
-237.28838 -255.54138 -134.89542
-237.28838 -264.66785 -134.8954
-237.28838 -273.79428 -134.89549
-237.28838 -282.92075 -134.89548
-237.28838 -292.04724 -134.89548
-237.28838 -301.17371 -134.89545
-237.28838 -310.3002 -134.89545
-237.28838 -319.42667 -134.89543
-237.28934 -328.5545 -134.89096
-237.28934 -337.681 -134.89096
-237.28934 -346.80753 -134.89096
-237.28934 -355.93402 -134.89098
-237.28934 -365.06052 -134.89098
-237.28934 -374.1871 -134.89091
-237.28934 -383.3136 -134.89091
-237.28934 -392.44009 -134.89093
-237.28546 -401.56006 -134.90891
-237.28064 -410.67807 -134.93134
-237.27486 -419.79398 -134.95824
-218.6412 314.84326 -180.86552
-218.46979 305.85764 -181.69315
-218.6779 297.40192 -180.68825
-219.4481 289.67151 -176.96931
-225.55077 288.70496 -147.50308
-226.82768 281.26633 -141.33757
-226.82768 272.19324 -141.33755
-226.82768 263.12009 -141.33754
-226.82768 254.04701 -141.33759
-226.82768 244.97388 -141.33759
-226.82768 235.90077 -141.33757
-226.82768 226.82767 -141.33755
-226.82768 217.75456 -141.33754
-226.82768 208.68141 -141.33755
-226.82768 199.60831 -141.33752
-226.82768 190.53526 -141.3376
-226.82768 181.46216 -141.33759
-226.82768 172.38902 -141.3376
-226.82768 163.3159 -141.33759
-226.82768 154.24281 -141.33757
-226.82768 145.16971 -141.33755
-226.82768 136.09656 -141.33755
-226.82768 127.02346 -141.33754
-226.82768 117.95036 -141.33754
-226.82768 108.8773 -141.33759
-226.82768 99.804161 -141.3376
-226.82768 90.731064 -141.3376
-226.82768 81.657951 -141.33757
-226.82768 72.584854 -141.33755
-226.82768 63.511715 -141.33757
-226.82768 54.438606 -141.33755
-226.82768 45.365509 -141.33754
-226.82768 36.292408 -141.33752
-226.82768 27.219257 -141.33752
-226.82768 18.146206 -141.3376
-226.82768 9.0731049 -141.33759
-226.82768 -3.6899892e-05 -141.3376
-226.82768 -9.0731392 -141.33757
-226.82768 -18.146238 -141.33757
-226.82768 -27.219347 -141.33755
-226.82768 -36.292488 -141.33755
-226.82768 -45.365593 -141.33754
-226.82768 -54.43869 -141.33752
-226.82768 -63.511745 -141.33759
-226.82768 -72.584885 -141.3376
-226.82768 -81.657997 -141.33759
-226.82768 -90.731102 -141.33757
-226.82768 -99.804199 -141.33755
-226.82768 -108.87734 -141.33757
-226.82768 -117.95045 -141.33755
-226.82768 -127.02354 -141.33754
-226.82768 -136.09665 -141.33752
-226.82768 -145.16974 -141.3376
-226.82768 -154.24284 -141.3376
-226.82768 -163.31595 -141.33759
-226.82768 -172.38905 -141.33757
-226.82768 -181.46219 -141.33757
-226.82768 -190.53529 -141.33755
-226.82768 -199.6084 -141.33754
-226.82768 -208.68152 -141.33754
-226.82768 -217.75461 -141.33752
-226.82768 -226.82776 -141.33752
-226.82768 -235.90079 -141.33759
-226.82768 -244.97394 -141.3376
-226.82768 -254.04703 -141.33757
-226.82768 -263.12015 -141.33757
-226.82768 -272.19324 -141.33755
-226.82768 -281.26636 -141.33754
-226.82768 -290.33951 -141.33755
-226.82768 -299.4126 -141.33752
-226.82768 -308.48572 -141.33752
-226.82768 -317.55878 -141.3376
-226.82768 -326.6319 -141.33759
-226.82768 -335.70502 -141.33759
-226.82768 -344.77811 -141.33757
-226.82768 -353.85123 -141.33755
-226.82768 -362.92435 -141.33755
-226.82768 -371.99747 -141.33755
-226.82768 -381.07059 -141.33754
-226.82768 -390.14368 -141.33751
-226.82492 -399.21188 -141.35088
-226.82033 -408.27664 -141.37303
-226.81575 -417.34106 -141.39519
-208.51108 312.7666 -187.82881
-208.53777 304.11749 -187.69463
-208.51108 295.39069 -187.82881
-210.10385 288.89279 -179.81776
-216.48778 288.65036 -147.70915
-216.48778 279.63004 -147.70917
-216.48778 270.60968 -147.70917
-216.48778 261.58936 -147.70918
-216.48778 252.56903 -147.70914
-216.48778 243.54871 -147.70915
-216.48778 234.5284 -147.70914
-216.48778 225.50809 -147.70921
-216.48778 216.4877 -147.70914
-216.48778 207.46741 -147.70912
-216.48778 198.44708 -147.70914
-216.48778 189.42674 -147.70915
-216.48778 180.40645 -147.70915
-216.48778 171.38612 -147.70915
-216.48778 162.36583 -147.70915
-216.48778 153.34549 -147.70917
-216.48778 144.32515 -147.70918
-216.48778 135.30486 -147.70918
-216.48778 126.28452 -147.70918
-216.48778 117.26419 -147.70921
-216.48778 108.24384 -147.70912
-216.48778 99.223503 -147.70912
-216.48778 90.203171 -147.70915
-216.48778 81.182877 -147.70914
-216.48778 72.162544 -147.70915
-216.48778 63.142246 -147.70914
-216.48778 54.121918 -147.70917
-216.48778 45.101582 -147.70917
-216.48778 36.08128 -147.70915
-216.48778 27.060953 -147.70918
-216.48778 18.040613 -147.70918
-216.48778 9.0203238 -147.70918
-216.48778 -1.523046e-05 -147.7092
-216.48778 -9.02036 -147.70911
-216.48778 -18.040688 -147.70912
-216.48778 -27.061028 -147.70914
-216.48778 -36.081326 -147.70912
-216.48778 -45.101658 -147.70915
-216.48778 -54.121994 -147.70917
-216.48778 -63.142284 -147.70915
-216.48778 -72.162628 -147.70917
-216.48778 -81.182915 -147.70917
-216.48778 -90.203247 -147.70917
-216.48778 -99.223587 -147.70918
-216.48778 -108.24388 -147.70918
-216.48778 -117.26421 -147.70918
-216.48778 -126.2846 -147.70912
-216.48778 -135.30489 -147.70912
-216.48778 -144.32524 -147.70914
-216.48778 -153.34557 -147.70915
-216.48778 -162.36586 -147.70914
-216.48778 -171.3862 -147.70915
-216.48778 -180.40648 -147.70914
-216.48778 -189.42682 -147.70915
-216.48778 -198.44716 -147.70918
-216.48778 -207.46747 -147.70918
-216.48778 -216.48779 -147.70918
-216.48778 -225.50809 -147.70918
-216.48778 -234.52843 -147.7092
-216.48778 -243.5488 -147.70912
-216.48778 -252.56911 -147.70912
-216.48778 -261.58945 -147.70914
-216.48778 -270.60974 -147.70912
-216.48778 -279.63007 -147.70914
-216.48778 -288.65039 -147.70915
-216.48863 -297.67191 -147.7048
-216.48863 -306.69229 -147.70474
-216.48863 -315.71265 -147.70477
-216.48863 -324.73297 -147.70479
-216.48863 -333.75333 -147.7048
-216.48863 -342.77371 -147.70474
-216.48863 -351.79407 -147.70477
-216.48863 -360.81442 -147.7048
-216.48863 -369.83481 -147.70473
-216.48863 -378.85516 -147.70476
-216.48863 -387.87552 -147.70479
-216.48602 -396.89111 -147.71791
-216.48167 -405.90317 -147.73981
-216.47729 -414.91489 -147.76172
-198.66678 310.9567 -193.89758
-198.01637 301.32922 -197.31117
-198.66832 293.68359 -193.8895
-201.09496 288.5275 -181.15384
-206.26826 286.98196 -154.00272
-206.26826 278.01373 -154.00272
-206.26826 269.04556 -154.00273
-206.26826 260.07736 -154.0027
-206.26826 251.10918 -154.00275
-206.26826 242.14099 -154.00273
-206.26826 233.17282 -154.0027
-206.26826 224.20462 -154.00273
-206.26826 215.23647 -154.00275
-206.26826 206.26825 -154.00273
-206.26826 197.30008 -154.00272
-206.26826 188.33185 -154.0027
-206.26826 179.36368 -154.00267
-206.26826 170.39551 -154.00276
-206.26826 161.42734 -154.00273
-206.26826 152.45915 -154.0027
-206.26826 143.49094 -154.0027
-206.26826 134.52277 -154.00267
-206.26826 125.55459 -154.00275
-206.26826 116.58641 -154.00272
-206.26826 107.61819 -154.00272
-206.26826 98.650017 -154.00269
-206.26826 89.681793 -154.00269
-206.26826 80.713669 -154.00275
-206.26826 71.745453 -154.00275
-206.26826 62.777275 -154.00272
-206.26826 53.809097 -154.00269
-206.26826 44.840878 -154.00269
-206.26826 35.872746 -154.00273
-206.26826 26.904526 -154.00273
-206.26826 17.936348 -154.0027
-206.26826 8.9681282 -154.0027
-206.26826 -4.655607e-05 -154.00267
-206.26826 -8.9682102 -154.00276
-206.26826 -17.936392 -154.00273
-206.26826 -26.904566 -154.0027
-206.26826 -35.872787 -154.0027
-206.26826 -44.840969 -154.00267
-206.26826 -53.809135 -154.00275
-206.26826 -62.777309 -154.00272
-206.26826 -71.745537 -154.00272
-206.26826 -80.713715 -154.00269
-206.26826 -89.681923 -154.00269
-206.26826 -98.650063 -154.00275
-206.26826 -107.61823 -154.00272
-206.26826 -116.58645 -154.00272
-206.26826 -125.55463 -154.00269
-206.26826 -134.52286 -154.00269
-206.26826 -143.49097 -154.00273
-206.26826 -152.4592 -154.00273
-206.26826 -161.42737 -154.0027
-206.26826 -170.39558 -154.0027
-206.26826 -179.36377 -154.00267
-206.26826 -188.33194 -154.00275
-206.26826 -197.30011 -154.00272
-206.26826 -206.26833 -154.00272
-206.26826 -215.23651 -154.00269
-206.26826 -224.2047 -154.00267
-206.26826 -233.17287 -154.00275
-206.26826 -242.14105 -154.00273
-206.26826 -251.10924 -154.0027
-206.26826 -260.07742 -154.00269
-206.26826 -269.04562 -154.00267
-206.26826 -278.01376 -154.00273
-206.26826 -286.98199 -154.00273
-206.26826 -295.95016 -154.0027
-206.26826 -304.9184 -154.0027
-206.26826 -313.88657 -154.00267
-206.26826 -322.85471 -154.00273
-206.26826 -331.82291 -154.00272
-206.26826 -340.79108 -154.00269
-206.26826 -349.75931 -154.00269
-206.26826 -358.72748 -154.00267
-206.26826 -367.69565 -154.00273
-206.26826 -376.66385 -154.00272
-206.26826 -385.63205 -154.0027
-206.26746 -394.59866 -154.00702
-206.26251 -403.55707 -154.03304
-206.25838 -412.51682 -154.05467
-206.48482 -421.9473 -152.86623
-188.93651 309.16879 -199.89249
-188.32005 299.60004 -203.27492
-189.05389 292.17419 -199.24832
-192.32016 288.48022 -181.32681
-196.16547 285.33157 -160.22818
-196.16547 276.41495 -160.22823
-196.16547 267.49835 -160.22821
-196.16547 258.58176 -160.22823
-196.16547 249.66512 -160.22824
-196.16547 240.74849 -160.22821
-196.16547 231.83191 -160.22823
-196.16547 222.9153 -160.22821
-196.16547 213.99866 -160.22824
-196.16547 205.08206 -160.22824
-196.16547 196.16545 -160.22821
-196.16547 187.24887 -160.22826
-196.16547 178.33221 -160.22824
-196.16547 169.41559 -160.2282
-196.16547 160.49901 -160.22824
-196.16547 151.5824 -160.2282
-196.16547 142.66573 -160.2282
-196.16547 133.74916 -160.22823
-196.16547 124.83254 -160.2282
-196.16547 115.91597 -160.22824
-196.16547 106.99931 -160.22823
-196.16547 98.08268 -160.22818
-196.16547 89.166107 -160.22823
-196.16547 80.249489 -160.22818
-196.16547 71.33287 -160.22826
-196.16547 62.416252 -160.22821
-196.16547 53.499634 -160.22818
-196.16547 44.583061 -160.22823
-196.16547 35.666401 -160.22821
-196.16547 26.749828 -160.22826
-196.16547 17.833204 -160.22823
-196.16547 8.9165802 -160.22816
-196.16547 -3.4274326e-05 -160.22824
-196.16547 -8.9166508 -160.2282
-196.16547 -17.833227 -160.22824
-196.16547 -26.749844 -160.22821
-196.16547 -35.666508 -160.2282
-196.16547 -44.58308 -160.22824
-196.16547 -53.499702 -160.2282
-196.16547 -62.416279 -160.22824
-196.16547 -71.332939 -160.22823
-196.16547 -80.249565 -160.2282
-196.16547 -89.16613 -160.22823
-196.16547 -98.082756 -160.2282
-196.16547 -106.99937 -160.22826
-196.16547 -115.91599 -160.22823
-196.16547 -124.8326 -160.22818
-196.16547 -133.74918 -160.22823
-196.16547 -142.66585 -160.22821
-196.16547 -151.58241 -160.22826
-196.16547 -160.49904 -160.22823
-196.16547 -169.41565 -160.22818
-196.16547 -178.33228 -160.22824
-196.16547 -187.2489 -160.22821
-196.16547 -196.16553 -160.22816
-196.16547 -205.08211 -160.22823
-196.16547 -213.99872 -160.22818
-196.16547 -222.91533 -160.22824
-196.16547 -231.83194 -160.2282
-196.16547 -240.74858 -160.22818
-196.16547 -249.66518 -160.22823
-196.16624 -258.58282 -160.22397
-196.16624 -267.49945 -160.22394
-196.16624 -276.41611 -160.22392
-196.16624 -285.33279 -160.22391
-196.16624 -294.24945 -160.22389
-196.16624 -303.16605 -160.22395
-196.16624 -312.0827 -160.22394
-196.16624 -320.99936 -160.22392
-196.16624 -329.91602 -160.22391
-196.16624 -338.8327 -160.22389
-196.16624 -347.74927 -160.22395
-196.16624 -356.66595 -160.22394
-196.16624 -365.58261 -160.22392
-196.16624 -374.49927 -160.22391
-196.16624 -383.41589 -160.22388
-196.16547 -392.33099 -160.22821
-196.16156 -401.23959 -160.24963
-196.15765 -410.14792 -160.27101
-196.15298 -419.05414 -160.29672
-179.31679 307.40021 -205.82281
-179.00636 298.34393 -207.60709
-179.64404 290.85223 -203.94162
-183.5941 288.50497 -181.23621
-186.17892 283.70123 -166.37831
-186.17892 274.83554 -166.37828
-186.17892 265.96991 -166.37831
-186.17892 257.10422 -166.3783
-186.17892 248.23853 -166.3783
-186.17892 239.37288 -166.37831
-186.17892 230.5072 -166.3783
-186.17892 221.64156 -166.3783
-186.17892 212.77591 -166.37831
-186.17892 203.91025 -166.3783
-186.17892 195.0446 -166.37833
-186.17892 186.17892 -166.3783
-186.17892 177.31326 -166.37828
-186.17892 168.44756 -166.37828
-186.17892 159.58188 -166.37828
-186.17892 150.71628 -166.37834
-186.17892 141.8506 -166.37831
-186.17892 132.98494 -166.37831
-186.17892 124.11927 -166.3783
-186.17892 115.2536 -166.37827
-186.17892 106.38793 -166.37825
-186.17892 97.522278 -166.37834
-186.17892 88.656609 -166.37833
-186.17892 79.790939 -166.37831
-186.17892 70.925278 -166.3783
-186.17892 62.059608 -166.37828
-186.17892 53.193943 -166.37827
-186.17892 44.328327 -166.37833
-186.17892 35.462654 -166.37831
-186.17892 26.596989 -166.3783
-186.17892 17.731276 -166.3783
-186.17892 8.8656158 -166.37828
-186.17892 -5.0015111e-05 -166.37827
-186.17892 -8.8656759 -166.37833
-186.17892 -17.731342 -166.37831
-186.17892 -26.597004 -166.3783
-186.17892 -35.462673 -166.37828
-186.17892 -44.328339 -166.37827
-186.17892 -53.19405 -166.37827
-186.17892 -62.059666 -166.37834
-186.17892 -70.925339 -166.37833
-186.17892 -79.791008 -166.37831
-186.17892 -88.656662 -166.37828
-186.17892 -97.522331 -166.37827
-186.17892 -106.388 -166.37825
-186.17892 -115.25362 -166.37831
-186.17892 -124.11929 -166.3783
-186.17892 -132.985 -166.37831
-186.17892 -141.85066 -166.3783
-186.17892 -150.71634 -166.37828
-186.17892 -159.58199 -166.37825
-186.17892 -168.4476 -166.37831
-186.17892 -177.31328 -166.3783
-186.17892 -186.17894 -166.37828
-186.17892 -195.04465 -166.37828
-186.17892 -203.91031 -166.37827
-186.17892 -212.77597 -166.37825
-186.17892 -221.6416 -166.37833
-186.17892 -230.50728 -166.37831
-186.17892 -239.37294 -166.3783
-186.17892 -248.23862 -166.37828
-186.17892 -257.10431 -166.37827
-186.17892 -265.96997 -166.37825
-186.17892 -274.8356 -166.37833
-186.17892 -283.70123 -166.3783
-186.17892 -292.56693 -166.3783
-186.17892 -301.43262 -166.37828
-186.17892 -310.29825 -166.37827
-186.17892 -319.16394 -166.37825
-186.17892 -328.02954 -166.37831
-186.17892 -336.89523 -166.3783
-186.17892 -345.76093 -166.3783
-186.17892 -354.62656 -166.37827
-186.17892 -363.49225 -166.37827
-186.17892 -372.35794 -166.37825
-186.17892 -381.22354 -166.37831
-186.17892 -390.08923 -166.3783
-186.17525 -398.94699 -166.39948
-186.17157 -407.80444 -166.42061
-186.16788 -416.66147 -166.44179
-169.8696 314.2587 -211.3049
-169.8065 305.6517 -211.68565
-169.91209 297.34613 -211.04834
-170.47449 289.80661 -207.65402
-174.86722 288.53091 -181.14154
-176.30518 282.08826 -172.46268
-176.30518 273.27301 -172.46268
-176.30518 264.45776 -172.46266
-176.30518 255.6425 -172.46269
-176.30518 246.82722 -172.46271
-176.30518 238.01198 -172.46268
-176.30518 229.19669 -172.46266
-176.30518 220.38141 -172.46266
-176.30518 211.56618 -172.46265
-176.30518 202.75092 -172.46266
-176.30518 193.93568 -172.46266
-176.30518 185.12041 -172.46266
-176.30518 176.30513 -172.46268
-176.30518 167.4899 -172.46268
-176.30518 158.67462 -172.46268
-176.30518 149.85941 -172.46268
-176.30518 141.04413 -172.46268
-176.30518 132.22885 -172.46269
-176.30518 123.41362 -172.46268
-176.30518 114.59835 -172.46269
-176.30518 105.78307 -172.46271
-176.30518 96.967842 -172.46269
-176.30518 88.152565 -172.46271
-176.30518 79.337341 -172.46269
-176.30518 70.522064 -172.46269
-176.30518 61.706795 -172.46272
-176.30518 52.89156 -172.46269
-176.30518 44.07629 -172.46271
-176.30518 35.260963 -172.46265
-176.30518 26.445732 -172.46263
-176.30518 17.630461 -172.46263
-176.30518 8.8152313 -172.46263
-176.30518 -4.6340389e-05 -172.46263
-176.30518 -8.8153162 -172.46266
-176.30518 -17.630554 -172.46263
-176.30518 -26.445818 -172.46265
-176.30518 -35.261093 -172.46266
-176.30518 -44.076324 -172.46265
-176.30518 -52.891594 -172.46266
-176.30518 -61.706833 -172.46265
-176.30518 -70.522102 -172.46266
-176.30518 -79.337379 -172.46268
-176.30518 -88.152611 -172.46266
-176.30518 -96.967873 -172.46268
-176.30518 -105.78316 -172.46269
-176.30518 -114.59838 -172.46268
-176.30518 -123.41366 -172.46269
-176.30518 -132.22888 -172.46268
-176.30518 -141.04416 -172.46269
-176.30518 -149.85944 -172.46271
-176.30518 -158.67467 -172.46269
-176.30518 -167.48994 -172.46271
-176.30518 -176.30518 -172.46269
-176.30518 -185.12044 -172.46269
-176.30518 -193.93568 -172.46269
-176.30518 -202.75098 -172.46271
-176.30518 -211.56621 -172.46271
-176.30588 -220.38235 -172.45851
-176.30588 -229.19769 -172.45845
-176.30588 -238.01297 -172.45847
-176.30588 -246.82826 -172.45848
-176.30588 -255.64352 -172.4585
-176.30588 -264.4588 -172.45851
-176.30588 -273.27417 -172.45847
-176.30588 -282.08945 -172.45848
-176.30588 -290.90472 -172.4585
-176.30588 -299.71997 -172.4585
-176.30588 -308.53534 -172.45845
-176.30588 -317.35059 -172.45845
-176.30588 -326.16589 -172.45848
-176.30588 -334.98117 -172.4585
-176.30588 -343.79648 -172.45853
-176.30588 -352.61179 -172.45845
-176.30588 -361.42709 -172.45848
-176.30588 -370.24234 -172.45848
-176.30588 -379.05765 -172.45851
-176.30588 -387.87296 -172.45844
-176.3024 -396.68045 -172.47939
-176.29893 -405.48758 -172.50035
-176.29547 -414.2944 -172.52122
-160.4044 312.36646 -217.4783
-160.42857 303.96991 -217.32469
-160.40381 295.48065 -217.48218
-161.4471 288.90533 -210.85385
-166.13878 288.55679 -181.0468
-166.54372 280.49463 -178.47414
-166.54372 271.72916 -178.47412
-166.54372 262.96375 -178.47414
-166.54372 254.19829 -178.47414
-166.54372 245.43283 -178.47414
-166.54372 236.66736 -178.47414
-166.54372 227.90187 -178.47412
-166.54372 219.13641 -178.47412
-166.54372 210.37099 -178.47409
-166.54372 201.60551 -178.47409
-166.54372 192.84006 -178.47411
-166.54372 184.0746 -178.47412
-166.54372 175.30911 -178.47409
-166.54372 166.54367 -178.47415
-166.54372 157.77821 -178.47409
-166.54372 149.01277 -178.47412
-166.54372 140.2473 -178.47411
-166.54372 131.48186 -178.47414
-166.54372 122.71637 -178.47412
-166.54372 113.95097 -178.47414
-166.54372 105.18548 -178.47409
-166.54372 96.420036 -178.47415
-166.54372 87.654549 -178.47412
-166.54372 78.889069 -178.47409
-166.54372 70.123619 -178.47414
-166.54372 61.358173 -178.47408
-166.54372 52.592739 -178.47412
-166.54372 43.827244 -178.47409
-166.54372 35.06181 -178.47414
-166.54372 26.29632 -178.47411
-166.54372 17.530926 -178.47414
-166.54372 8.7654343 -178.47411
-166.54372 -6.2504114e-08 -178.47415
-166.54372 -8.7654905 -178.47412
-166.54372 -17.530933 -178.47415
-166.54372 -26.296415 -178.47414
-166.54372 -35.061867 -178.47408
-166.54372 -43.827293 -178.47412
-166.54372 -52.592793 -178.47409
-166.54372 -61.358238 -178.47414
-166.54372 -70.123718 -178.47411
-166.54372 -78.88916 -178.47415
-166.54372 -87.65461 -178.47409
-166.54372 -96.420052 -178.47414
-166.54372 -105.18553 -178.47411
-166.54372 -113.95097 -178.47417
-166.54372 -122.71645 -178.47412
-166.54372 -131.48192 -178.47408
-166.54372 -140.24734 -178.47411
-166.54372 -149.01283 -178.47409
-166.54372 -157.77827 -178.47414
-166.54372 -166.54376 -178.47411
-166.54372 -175.3092 -178.47415
-166.54372 -184.07466 -178.47411
-166.54372 -192.8401 -178.47414
-166.54372 -201.60556 -178.47409
-166.54372 -210.37102 -178.47415
-166.54372 -219.13647 -178.47411
-166.54372 -227.90198 -178.47408
-166.54372 -236.66742 -178.47412
-166.54372 -245.43289 -178.47408
-166.54372 -254.1983 -178.47412
-166.54372 -262.96381 -178.47409
-166.54372 -271.72922 -178.47412
-166.54372 -280.49472 -178.47409
-166.54372 -289.26016 -178.47415
-166.54372 -298.02563 -178.47411
-166.54372 -306.79105 -178.47414
-166.54372 -315.55655 -178.47411
-166.54372 -324.32202 -178.47406
-166.54372 -333.08746 -178.47412
-166.54372 -341.85294 -178.47408
-166.54372 -350.61838 -178.47412
-166.54372 -359.38385 -178.47409
-166.54372 -368.14926 -178.47412
-166.54372 -376.91473 -178.47409
-166.54372 -385.68021 -178.47414
-166.54111 -394.43945 -178.49071
-166.53784 -403.19693 -178.51135
-166.53459 -411.95401 -178.5321
-166.53133 -420.71075 -178.55276
-151.10742 310.60968 -223.20972
-150.617 301.23398 -226.49849
-151.10742 293.81998 -223.20972
-152.69739 288.42838 -212.54709
-156.89131 287.63403 -184.42213
-156.89131 278.91788 -184.42212
-156.89131 270.20166 -184.42215
-156.89131 261.48547 -184.42213
-156.89131 252.7693 -184.4221
-156.89131 244.05309 -184.42212
-156.89131 235.33691 -184.42212
-156.89131 226.62077 -184.42213
-156.89131 217.90456 -184.42215
-156.89131 209.18837 -184.42212
-156.89131 200.4722 -184.42212
-156.89131 191.756 -184.42213
-156.89131 183.03983 -184.4221
-156.89131 174.32365 -184.4221
-156.89131 165.60745 -184.42215
-156.89131 156.89128 -184.42213
-156.89131 148.17511 -184.42212
-156.89131 139.45889 -184.42212
-156.89131 130.74272 -184.42212
-156.89131 122.02654 -184.4221
-156.89131 113.31033 -184.42212
-156.89131 104.59415 -184.42209
-156.89131 95.877991 -184.42209
-156.89131 87.161774 -184.42209
-156.89131 78.445648 -184.42216
-156.89131 69.729469 -184.42215
-156.89131 61.01326 -184.42216
-156.89131 52.297081 -184.42215
-156.89131 43.580917 -184.42213
-156.89131 34.864697 -184.42213
-156.89131 26.148518 -184.42212
-156.89131 17.432348 -184.42212
-156.89131 8.7161312 -184.42212
-156.89131 -3.8781156e-05 -184.42212
-156.89131 -8.716217 -184.42209
-156.89131 -17.432425 -184.4221
-156.89131 -26.148603 -184.42209
-156.89131 -34.864773 -184.42209
-156.89131 -43.58094 -184.42216
-156.89131 -52.297112 -184.42216
-156.89131 -61.01329 -184.42213
-156.89131 -69.7295 -184.42215
-156.89131 -78.445679 -184.42213
-156.89131 -87.16185 -184.42212
-156.89131 -95.878059 -184.42213
-156.89131 -104.59424 -184.42212
-156.89131 -113.31041 -184.4221
-156.89131 -122.02663 -184.42212
-156.89131 -130.7428 -184.4221
-156.89131 -139.45897 -184.42209
-156.89131 -148.17519 -184.4221
-156.89131 -156.89136 -184.42209
-156.89131 -165.60748 -184.42215
-156.89131 -174.3237 -184.42216
-156.89131 -183.03987 -184.42215
-156.89191 -191.75682 -184.41798
-156.89191 -200.47304 -184.41798
-156.89191 -209.18924 -184.418
-156.89191 -217.90549 -184.41803
-156.89191 -226.6217 -184.41803
-156.89191 -235.33791 -184.41805
-156.89191 -244.05411 -184.41805
-156.89191 -252.77031 -184.41805
-156.89191 -261.48657 -184.41798
-156.89191 -270.20279 -184.41798
-156.89191 -278.91901 -184.418
-156.89191 -287.63522 -184.41801
-156.89191 -296.35144 -184.41801
-156.89191 -305.06763 -184.41801
-156.89191 -313.78384 -184.41803
-156.89191 -322.50006 -184.41805
-156.89191 -331.21628 -184.41806
-156.89191 -339.93256 -184.41798
-156.89191 -348.64877 -184.418
-156.89191 -357.36496 -184.41801
-156.89191 -366.08118 -184.418
-156.89191 -374.79736 -184.41801
-156.89191 -383.51358 -184.41801
-156.89008 -392.22522 -184.43033
-156.88702 -400.93356 -184.45079
-156.88336 -409.63992 -184.47533
-156.88031 -418.34756 -184.49577
-141.91496 308.87369 -228.87321
-141.44748 299.5358 -232.19255
-141.9742 292.2998 -228.45253
-144.15852 288.31702 -212.94244
-147.34738 286.02722 -190.29958
-147.34738 277.35974 -190.29958
-147.34738 268.69226 -190.29958
-147.34738 260.02478 -190.29959
-147.34738 251.35728 -190.29956
-147.34738 242.6898 -190.29956
-147.34738 234.02228 -190.29959
-147.34738 225.3548 -190.29959
-147.34738 216.6873 -190.29958
-147.34738 208.01982 -190.29958
-147.34738 199.35234 -190.29958
-147.34738 190.68481 -190.29961
-147.34738 182.01733 -190.29961
-147.34738 173.34984 -190.29959
-147.34738 164.68236 -190.29958
-147.34738 156.01485 -190.29955
-147.34738 147.34734 -190.29959
-147.34738 138.67984 -190.29956
-147.34738 130.01237 -190.29959
-147.34738 121.34486 -190.29955
-147.34738 112.67741 -190.29959
-147.34738 104.0099 -190.29955
-147.34738 95.3424 -190.29961
-147.34738 86.674881 -190.29956
-147.34738 78.007423 -190.29959
-147.34738 69.339912 -190.29955
-147.34738 60.672455 -190.29959
-147.34738 52.004902 -190.29956
-147.34738 43.337444 -190.29961
-147.34738 34.66993 -190.29956
-147.34738 26.002474 -190.29959
-147.34738 17.334969 -190.29956
-147.34738 8.6675024 -190.29959
-147.34738 -4.1874056e-05 -190.29958
-147.34738 -8.6675072 -190.29961
-147.34738 -17.335012 -190.29956
-147.34738 -26.002478 -190.29959
-147.34738 -34.669983 -190.29956
-147.34738 -43.337479 -190.29962
-147.34738 -52.004993 -190.29956
-147.34738 -60.672451 -190.29961
-147.34738 -69.339966 -190.29956
-147.34738 -78.007423 -190.29961
-147.34738 -86.674988 -190.29958
-147.34738 -95.342499 -190.29955
-147.34738 -104.00996 -190.29958
-147.34738 -112.67747 -190.29953
-147.34738 -121.34492 -190.29958
-147.34738 -130.01244 -190.29953
-147.34738 -138.67993 -190.29959
-147.34738 -147.34744 -190.29955
-147.34738 -156.01491 -190.29958
-147.34738 -164.68242 -190.29953
-147.34738 -173.34988 -190.29958
-147.34738 -182.0174 -190.29953
-147.34738 -190.68489 -190.29959
-147.34738 -199.35239 -190.29953
-147.34738 -208.01985 -190.29958
-147.34738 -216.68738 -190.29955
-147.34738 -225.35484 -190.29959
-147.34738 -234.02235 -190.29953
-147.34738 -242.68982 -190.29958
-147.34738 -251.35735 -190.29955
-147.34738 -260.02481 -190.29959
-147.34738 -268.69235 -190.29955
-147.34738 -277.35977 -190.29958
-147.34738 -286.02734 -190.29956
-147.34738 -294.69479 -190.29959
-147.34738 -303.3623 -190.29955
-147.34738 -312.02979 -190.29959
-147.34738 -320.69727 -190.29955
-147.34738 -329.36478 -190.29961
-147.34738 -338.03226 -190.29955
-147.34738 -346.69974 -190.29959
-147.34738 -355.36728 -190.29956
-147.34795 -364.03616 -190.2955
-147.34795 -372.7037 -190.29549
-147.34795 -381.37119 -190.29553
-147.34624 -390.03421 -190.30763
-147.34338 -398.69394 -190.32787
-147.34055 -407.35327 -190.34816
-147.33713 -416.01074 -190.37242
-133.17107 316.28125 -231.8605
-132.82417 307.15588 -234.47752
-132.57611 298.29623 -236.34901
-133.02823 290.99927 -232.93797
-135.69043 288.34216 -212.85333
-137.90897 284.43723 -196.11569
-137.90897 275.8179 -196.11575
-137.90897 267.19858 -196.11575
-137.90897 258.57925 -196.11574
-137.90897 249.95995 -196.11571
-137.90897 241.34065 -196.11574
-137.90897 232.72136 -196.11575
-137.90897 224.10204 -196.11572
-137.90897 215.48271 -196.11571
-137.90897 206.86342 -196.11574
-137.90897 198.24411 -196.11574
-137.90897 189.62479 -196.11572
-137.90897 181.00549 -196.11572
-137.90897 172.3862 -196.11575
-137.90897 163.76688 -196.11574
-137.90897 155.14755 -196.11572
-137.90897 146.52824 -196.11571
-137.90897 137.90892 -196.11569
-137.90897 129.28966 -196.11577
-137.90897 120.67034 -196.11575
-137.90897 112.05103 -196.11574
-137.90897 103.43172 -196.11574
-137.90897 94.812393 -196.11572
-137.90897 86.193085 -196.11571
-137.90897 77.573769 -196.11569
-137.90897 68.954453 -196.11569
-137.90897 60.335186 -196.11575
-137.90897 51.715874 -196.11575
-137.90897 43.09655 -196.11572
-137.90897 34.477196 -196.11574
-137.90897 25.857882 -196.11574
-137.90897 17.238571 -196.11572
-137.90897 8.619257 -196.11572
-137.90897 -6.6721834e-05 -196.11569
-137.90897 -8.6193342 -196.11577
-137.90897 -17.238649 -196.11575
-137.90897 -25.857958 -196.11575
-137.90897 -34.47728 -196.11574
-137.90897 -43.096588 -196.11574
-137.90897 -51.715904 -196.11571
-137.90897 -60.335228 -196.11571
-137.90897 -68.954536 -196.11569
-137.90897 -77.573799 -196.11575
-137.90897 -86.193123 -196.11575
-137.90897 -94.812431 -196.11574
-137.90897 -103.43176 -196.11574
-137.90897 -112.05106 -196.11572
-137.90897 -120.67037 -196.11571
-137.90897 -129.2897 -196.11569
-137.90897 -137.90901 -196.11568
-137.90897 -146.52827 -196.11575
-137.9095 -155.14822 -196.11172
-137.9095 -163.76758 -196.11174
-137.9095 -172.3869 -196.11174
-137.9095 -181.00624 -196.11174
-137.9095 -189.62558 -196.11174
-137.9095 -198.24492 -196.11174
-137.9095 -206.86426 -196.11174
-137.9095 -215.48361 -196.11176
-137.9095 -224.10294 -196.11176
-137.9095 -232.72234 -196.11168
-137.9095 -241.34169 -196.11169
-137.9095 -249.96103 -196.11169
-137.9095 -258.58035 -196.11169
-137.9095 -267.19971 -196.11169
-137.9095 -275.81903 -196.11169
-137.9095 -284.43839 -196.11171
-137.9095 -293.05774 -196.11171
-137.9095 -301.67706 -196.11171
-137.9095 -310.29642 -196.11171
-137.9095 -318.91574 -196.11172
-137.9095 -327.53506 -196.11172
-137.9095 -336.15442 -196.11172
-137.9095 -344.77374 -196.11172
-137.9095 -353.39313 -196.11174
-137.9095 -362.01245 -196.11174
-137.9095 -370.63181 -196.11176
-137.9095 -379.25113 -196.11174
-137.90845 -387.86749 -196.11975
-137.90579 -396.47916 -196.13974
-137.90314 -405.09048 -196.15976
-137.90048 -413.70145 -196.17978
-123.85587 313.76819 -239.84349
-123.83396 305.45706 -240.01978
-123.87458 297.29898 -239.69287
-124.25885 289.93732 -236.60052
-127.22086 288.36725 -212.76418
-128.57541 282.86584 -201.86362
-128.57541 274.29416 -201.86365
-128.57541 265.72244 -201.86362
-128.57541 257.15076 -201.86362
-128.57541 248.57907 -201.86365
-128.57541 240.00742 -201.86362
-128.57541 231.4357 -201.86359
-128.57541 222.86401 -201.86362
-128.57541 214.29231 -201.86362
-128.57541 205.7206 -201.86359
-128.57541 197.14891 -201.86362
-128.57541 188.57722 -201.86362
-128.57541 180.00552 -201.86362
-128.57541 171.43384 -201.86365
-128.57541 162.86212 -201.86362
-128.57541 154.29047 -201.86359
-128.57541 145.71878 -201.86362
-128.57541 137.14709 -201.86365
-128.57541 128.57536 -201.86359
-128.57541 120.00368 -201.86362
-128.57541 111.43201 -201.86366
-128.57541 102.86028 -201.8636
-128.57541 94.288589 -201.86363
-128.57541 85.716911 -201.86366
-128.57541 77.145218 -201.86359
-128.57541 68.573532 -201.8636
-128.57541 60.001862 -201.86365
-128.57541 51.43013 -201.86359
-128.57541 42.858444 -201.86362
-128.57541 34.286758 -201.86365
-128.57541 25.715031 -201.86359
-128.57541 17.143345 -201.86362
-128.57541 8.5716724 -201.86366
-128.57541 -6.25596e-05 -201.8636
-128.57541 -8.5717039 -201.8636
-128.57541 -17.143383 -201.86363
-128.57541 -25.715113 -201.86357
-128.57541 -34.286804 -201.8636
-128.57541 -42.858479 -201.86365
-128.57541 -51.430206 -201.86359
-128.57541 -60.001884 -201.86362
-128.57541 -68.573578 -201.86365
-128.57541 -77.145309 -201.86359
-128.57541 -85.71698 -201.86362
-128.57541 -94.28862 -201.86363
-128.57541 -102.86037 -201.86357
-128.57541 -111.43204 -201.8636
-128.57541 -120.00372 -201.86363
-128.57541 -128.57545 -201.86357
-128.57541 -137.14714 -201.86362
-128.57541 -145.71881 -201.86365
-128.57541 -154.29054 -201.86359
-128.57541 -162.86223 -201.86362
-128.57541 -171.43388 -201.86363
-128.57541 -180.00563 -201.86359
-128.57541 -188.5773 -201.8636
-128.57541 -197.14896 -201.86363
-128.57541 -205.7207 -201.86359
-128.57541 -214.29236 -201.8636
-128.57541 -222.86406 -201.86363
-128.57541 -231.43579 -201.86359
-128.57541 -240.00743 -201.86359
-128.57541 -248.57913 -201.86363
-128.57541 -257.15088 -201.86359
-128.57541 -265.72253 -201.8636
-128.57541 -274.29419 -201.86362
-128.57541 -282.86594 -201.86357
-128.57541 -291.43759 -201.86359
-128.57541 -300.00931 -201.86363
-128.57541 -308.58102 -201.86359
-128.57541 -317.15268 -201.86359
-128.5759 -325.72565 -201.85966
-128.5759 -334.29736 -201.85962
-128.5759 -342.86908 -201.85966
-128.5759 -351.44083 -201.85962
-128.5759 -360.01254 -201.85966
-128.5759 -368.58426 -201.8596
-128.5759 -377.15598 -201.85966
-128.57541 -385.72623 -201.86366
-128.57245 -394.28888 -201.88736
-128.56999 -402.85269 -201.90715
-128.56754 -411.41614 -201.92694
-128.56508 -419.97925 -201.94676
-114.94307 311.98828 -245.49747
-114.96286 303.83041 -245.32671
-114.94263 295.5668 -245.50107
-115.58816 288.97037 -239.93533
-118.74935 288.39124 -212.67892
-119.34393 281.3107 -207.55223
-119.34393 272.78613 -207.55229
-119.34393 264.26157 -207.55229
-119.34393 255.73697 -207.55228
-119.34393 247.21243 -207.55226
-119.34393 238.68784 -207.55228
-119.34393 230.16328 -207.55228
-119.34393 221.63875 -207.55226
-119.34393 213.11415 -207.55228
-119.34393 204.5896 -207.55226
-119.34393 196.065 -207.55226
-119.34393 187.54045 -207.55225
-119.34393 179.01587 -207.55226
-119.34393 170.49132 -207.55225
-119.34393 161.96674 -207.55226
-119.34393 153.44218 -207.55226
-119.34393 144.91759 -207.55226
-119.34393 136.39307 -207.55229
-119.34393 127.86851 -207.55228
-119.34393 119.34389 -207.55225
-119.34393 110.81937 -207.55226
-119.34393 102.29475 -207.55225
-119.34393 93.770226 -207.55228
-119.34393 85.245605 -207.55223
-119.34393 76.721085 -207.55226
-119.34393 68.196472 -207.55225
-119.34393 59.67194 -207.55226
-119.34393 51.147415 -207.55229
-119.34393 42.622803 -207.55226
-119.34393 34.098274 -207.55229
-119.34393 25.573654 -207.55226
-119.34393 17.049133 -207.55228
-119.34393 8.5245199 -207.55226
-119.34393 -6.6331554e-06 -207.55229
-119.34393 -8.5246286 -207.55225
-119.34393 -17.049149 -207.55228
-119.34393 -25.573717 -207.55223
-119.34393 -34.098297 -207.55228
-119.34393 -42.622864 -207.55222
-119.34393 -51.147438 -207.55228
-119.34393 -59.672012 -207.55222
-119.34393 -68.196571 -207.55226
-119.34393 -76.721153 -207.55222
-119.34393 -85.245712 -207.55228
-119.34393 -93.770233 -207.55229
-119.34393 -102.29486 -207.55226
-119.34393 -110.81938 -207.55229
-119.34439 -119.34444 -207.54836
-119.34439 -127.86906 -207.54832
-119.34439 -136.39362 -207.54837
-119.34439 -144.91824 -207.54836
-119.34439 -153.44286 -207.54831
-119.34439 -161.96742 -207.54837
-119.34439 -170.49202 -207.54834
-119.34439 -179.01666 -207.54831
-119.34439 -187.54123 -207.54837
-119.34439 -196.06583 -207.54832
-119.34439 -204.59041 -207.54839
-119.34439 -213.11502 -207.54837
-119.34439 -221.63962 -207.54832
-119.34439 -230.1642 -207.54837
-119.34439 -238.68883 -207.54836
-119.34439 -247.21344 -207.54832
-119.34439 -255.73799 -207.54837
-119.34439 -264.2626 -207.54834
-119.34439 -272.78723 -207.54832
-119.34439 -281.3118 -207.54837
-119.34439 -289.8364 -207.54834
-119.34439 -298.36102 -207.54831
-119.34439 -306.88562 -207.54837
-119.34439 -315.41022 -207.54832
-119.34439 -323.93481 -207.54829
-119.34439 -332.45941 -207.54836
-119.34439 -340.98404 -207.54832
-119.34439 -349.50858 -207.54837
-119.34439 -358.0332 -207.54834
-119.34439 -366.55786 -207.54834
-119.34439 -375.0824 -207.54837
-119.34439 -383.60703 -207.54836
-119.34212 -392.12418 -207.56789
-119.33939 -400.63943 -207.59143
-119.33712 -409.15591 -207.61099
-119.33485 -417.67203 -207.63057
-106.14898 310.28165 -250.91887
-105.81041 301.15271 -254.06262
-106.14898 293.95105 -250.91885
-107.13526 288.44104 -241.76088
-110.21384 288.25156 -213.1748
-110.21384 279.77356 -213.17484
-110.21384 271.29562 -213.17484
-110.21384 262.81763 -213.17484
-110.21384 254.33963 -213.17485
-110.21384 245.86165 -213.1748
-110.21384 237.38365 -213.17482
-110.21384 228.90567 -213.17485
-110.21384 220.42766 -213.17485
-110.21384 211.94971 -213.17485
-110.21384 203.47168 -213.17482
-110.21384 194.99368 -213.17484
-110.21384 186.51575 -213.17484
-110.21384 178.03773 -213.17484
-110.21384 169.55971 -213.1748
-110.21384 161.08176 -213.1748
-110.21384 152.60378 -213.17484
-110.21384 144.12576 -213.17484
-110.21384 135.64781 -213.17484
-110.21384 127.1698 -213.17482
-110.21384 118.69183 -213.17487
-110.21384 110.2138 -213.17484
-110.21384 101.73582 -213.17479
-110.21384 93.257851 -213.17485
-110.21384 84.779839 -213.17484
-110.21384 76.301903 -213.17485
-110.21384 67.823883 -213.17482
-110.21384 59.345867 -213.1748
-110.21384 50.867931 -213.17484
-110.21384 42.389908 -213.1748
-110.21384 33.911942 -213.17487
-110.21384 25.433918 -213.17485
-110.21384 16.955942 -213.1748
-110.21384 8.4779663 -213.17485
-110.21384 -5.6664747e-05 -213.17484
-110.21384 -8.4780264 -213.17479
-110.21384 -16.956001 -213.17484
-110.21384 -25.434031 -213.1748
-110.21384 -33.911945 -213.17484
-110.21384 -42.389969 -213.17482
-110.21384 -50.867985 -213.1748
-110.21384 -59.345921 -213.17482
-110.21384 -67.823944 -213.17479
-110.21384 -76.30191 -213.17487
-110.21384 -84.77993 -213.17484
-110.21384 -93.257919 -213.17477
-110.21384 -101.73589 -213.17484
-110.21384 -110.21391 -213.17482
-110.21384 -118.69183 -213.17485
-110.21384 -127.16986 -213.17482
-110.21384 -135.64787 -213.1748
-110.21384 -144.12581 -213.17484
-110.21384 -152.60384 -213.1748
-110.21384 -161.0818 -213.17487
-110.21384 -169.5598 -213.17484
-110.21384 -178.0378 -213.17479
-110.21384 -186.51576 -213.17485
-110.21384 -194.99376 -213.1748
