# .PCD v0.7 - Point Cloud Data file format
VERSION 0.7
FIELDS x y z
SIZE 4 4 4
TYPE F F F
COUNT 1 1 1
WIDTH 1495
HEIGHT 1
VIEWPOINT 0 0 0 1 0 0 0
POINTS 1495
DATA ascii
-66.415382 -59.773834 -328.14691
-66.415169 -66.415154 -328.14951
-66.415169 -73.056679 -328.14951
-66.415169 -79.698174 -328.14951
-66.415169 -86.339699 -328.14951
-66.415169 -92.981239 -328.14951
-66.415169 -99.622726 -328.14951
-66.415169 -106.26423 -328.14951
-66.415169 -112.90577 -328.14951
-66.415169 -119.54731 -328.14948
-66.415169 -126.18877 -328.14954
-66.415169 -132.83029 -328.14951
-66.102081 -138.81433 -331.92877
-66.102081 -145.42458 -331.92874
-66.102081 -152.03477 -331.92877
-58.592316 182.28723 -343.99393
-58.592316 175.77696 -343.99396
-58.592316 169.26672 -343.99396
-58.868999 163.52504 -340.28299
-58.868999 156.98404 -340.28299
-58.868999 150.44304 -340.28296
-58.868999 143.90201 -340.28299
-58.868999 137.36101 -340.28299
-58.868999 130.82001 -340.28296
-58.868999 124.27901 -340.28296
-58.868813 117.73766 -340.28549
-58.868813 111.19667 -340.28549
-58.868813 104.65568 -340.28552
-58.868813 98.114716 -340.28549
-58.868813 91.573738 -340.28549
-58.868813 85.032738 -340.28549
-58.868813 78.491768 -340.28546
-58.868813 71.950806 -340.28552
-58.868813 65.409805 -340.28552
-58.868813 58.868855 -340.28552
-58.868813 52.327858 -340.28549
-58.868813 45.786858 -340.28549
-58.868813 39.245914 -340.28549
-58.868813 32.704914 -340.28549
-58.868813 26.163948 -340.28552
-58.868813 19.622976 -340.28549
-58.868813 13.081977 -340.28549
-58.868813 6.5409946 -340.28552
-58.868813 3.4724497e-05 -340.28549
-58.868813 -6.5409479 -340.28549
-58.868813 -13.081946 -340.28549
-58.868813 -19.622906 -340.28546
-58.868813 -26.163887 -340.28552
-58.868813 -32.704884 -340.28552
-58.868813 -39.245827 -340.28549
-58.868813 -45.786827 -340.28549
-58.868813 -52.327827 -340.28549
-58.868813 -58.868797 -340.28549
-58.868813 -65.40976 -340.28549
-58.868813 -71.950745 -340.28552
-58.868813 -78.49173 -340.28549
-58.868813 -85.032715 -340.28549
-58.868813 -91.573692 -340.28552
-58.868813 -98.114677 -340.28549
-58.868813 -104.65566 -340.28549
-58.868813 -111.19662 -340.28549
-58.868813 -117.73761 -340.28549
-58.868813 -124.27859 -340.28546
-58.868813 -130.81953 -340.28552
-58.592316 -136.71538 -343.99396
-58.592316 -143.22565 -343.99396
-58.592316 -149.73592 -343.99396
-51.306271 185.98528 -355.69968
-51.306271 179.57195 -355.69971
-51.306271 173.15866 -355.69968
-51.306271 166.74541 -355.69971
-51.54752 161.08601 -352.05951
-51.54752 154.64258 -352.05954
-51.54752 148.19911 -352.05954
-51.54752 141.75571 -352.05954
-51.54752 135.31226 -352.05957
-51.54752 128.86882 -352.05954
-51.54752 122.42539 -352.05957
-51.54752 115.98196 -352.05954
-51.54752 109.53851 -352.05954
-51.54752 103.09503 -352.05954
-51.54752 96.651634 -352.05954
-51.54752 90.20816 -352.05954
-51.54752 83.764755 -352.05954
-51.54752 77.321281 -352.05951
-51.54752 70.877846 -352.05954
-51.54752 64.434433 -352.05954
-51.54752 57.990978 -352.05957
-51.54752 51.547558 -352.05954
-51.54752 45.104084 -352.05954
-51.54752 38.660683 -352.05957
-51.54752 32.217224 -352.05954
-51.54752 25.773766 -352.05954
-51.54752 19.330332 -352.05951
-51.54752 12.886891 -352.05957
-51.54752 6.4434705 -352.05951
-51.54752 1.3276542e-05 -352.05954
-51.54752 -6.4434209 -352.05951
-51.54752 -12.886862 -352.05954
-51.547356 -19.330235 -352.06201
-51.547356 -25.773651 -352.06201
-51.547356 -32.217087 -352.06198
-51.547356 -38.660488 -352.06198
-51.547356 -45.103893 -352.06198
-51.547356 -51.547321 -352.06201
-51.547356 -57.990768 -352.06198
-51.547356 -64.434189 -352.06198
-51.547356 -70.877586 -352.06198
-51.547356 -77.321022 -352.06198
-51.547356 -83.76442 -352.06201
-51.547356 -90.20784 -352.06195
-51.547356 -96.651268 -352.06198
-51.547356 -103.09469 -352.06198
-51.547356 -109.53811 -352.06201
-51.547356 -115.98151 -352.06201
-51.547356 -122.42496 -352.06198
-51.547356 -128.86838 -352.06198
-51.306271 -134.67897 -355.69968
-51.306271 -141.09222 -355.69968
-51.306271 -147.50551 -355.69968
-51.306271 -153.91881 -355.69968
-44.234097 183.25557 -367.06183
-44.234097 176.93642 -367.06183
-44.234097 170.61728 -367.06183
-44.441227 165.06746 -363.48996
-44.441227 158.71869 -363.48993
-44.441227 152.36993 -363.48999
-44.441227 146.02124 -363.48999
-44.441227 139.67245 -363.48996
-44.441227 133.3237 -363.48999
-44.441227 126.97496 -363.48996
-44.441227 120.62622 -363.48999
-44.441227 114.27747 -363.49002
-44.441227 107.92873 -363.48996
-44.441227 101.57998 -363.48999
-44.441227 95.231201 -363.48996
-44.441227 88.8825 -363.48999
-44.441227 82.53373 -363.48999
-44.441227 76.185005 -363.48996
-44.441227 69.836243 -363.48996
-44.441227 63.487476 -363.48999
-44.441227 57.13876 -363.48996
-44.441227 50.790009 -363.48999
-44.441227 44.441223 -363.48996
-44.441227 38.092522 -363.48996
-44.441227 31.743738 -363.48996
-44.441227 25.394999 -363.48999
-44.441227 19.046286 -363.48999
-44.441227 12.697501 -363.48996
-44.441227 6.3488011 -363.48996
-44.441227 1.7035822e-05 -363.48996
-44.441227 -6.3487353 -363.48999
-44.441227 -12.697435 -363.48999
-44.441227 -19.046219 -363.48996
-44.441227 -25.394958 -363.48999
-44.441227 -31.743704 -363.48996
-44.441227 -38.092457 -363.48999
-44.441227 -44.441216 -363.48996
-44.441227 -50.78994 -363.48996
-44.441227 -57.13871 -363.48999
-44.441227 -63.487453 -363.48996
-44.441227 -69.836197 -363.48996
-44.441227 -76.184952 -363.48996
-44.441227 -82.533707 -363.48996
-44.441227 -88.882416 -363.48996
-44.441227 -95.231186 -363.48996
-44.441227 -101.57993 -363.48996
-44.441227 -107.92869 -363.48996
-44.441227 -114.27741 -363.48996
-44.441227 -120.62617 -363.48999
-44.441227 -126.97492 -363.48996
-44.441227 -133.32367 -363.48999
-44.234097 -139.02144 -367.0618
-44.234097 -145.34059 -367.0618
-44.234097 -151.65976 -367.0618
-37.366516 186.83261 -378.09528
-37.366516 180.60484 -378.09528
-37.366516 174.37711 -378.09528
-37.366516 168.14934 -378.09528
-37.540897 162.67723 -374.58701
-37.540897 156.42043 -374.58701
-37.540897 150.1636 -374.58698
-37.540897 143.90681 -374.58701
-37.540897 137.64995 -374.58698
-37.540897 131.39314 -374.58698
-37.540897 125.13635 -374.58701
-37.540897 118.87953 -374.58698
-37.540897 112.62273 -374.58698
-37.540897 106.36587 -374.58698
-37.540897 100.10908 -374.58701
-37.540897 93.852257 -374.58698
-37.540897 87.595451 -374.58698
-37.540897 81.338631 -374.58704
-37.540897 75.08181 -374.58701
-37.540897 68.825005 -374.58701
-37.540897 62.568184 -374.58698
-37.540897 56.311394 -374.58698
-37.540897 50.054531 -374.58698
-37.540897 43.797726 -374.58698
-37.540897 37.540936 -374.58701
-37.540897 31.284111 -374.58698
-37.540783 25.027216 -374.58932
-37.540783 18.770393 -374.58929
-37.540783 12.513625 -374.58929
-37.540783 6.2568345 -374.58929
-37.540783 2.8138769e-05 -374.58929
-37.540783 -6.2567625 -374.58932
-37.540783 -12.513585 -374.58929
-37.540783 -18.770391 -374.58929
-37.540783 -25.027185 -374.58929
-37.540783 -31.283949 -374.58929
-37.540783 -37.540768 -374.58932
-37.540783 -43.797565 -374.58926
-37.540783 -50.054356 -374.58929
-37.540783 -56.311161 -374.58929
-37.540783 -62.56794 -374.58932
-37.540783 -68.824745 -374.58932
-37.540783 -75.081566 -374.58929
-37.540783 -81.338333 -374.58929
-37.540783 -87.595139 -374.58929
-37.540783 -93.851929 -374.58932
-37.540783 -100.10873 -374.58932
-37.540783 -106.36553 -374.58926
-37.540783 -112.62232 -374.58929
-37.540783 -118.87913 -374.58929
-37.540783 -125.1359 -374.58929
-37.540783 -131.3927 -374.58929
-37.366516 -137.01053 -378.09528
-37.366516 -143.2383 -378.09525
-37.366516 -149.46603 -378.09528
-39.364727 -164.01967 -337.89438
-39.364727 -170.58047 -337.89435
-39.364727 -177.14124 -337.89438
-39.364727 -183.70203 -337.89441
-39.364727 -190.26283 -337.89435
-39.364601 -196.82301 -337.89691
-39.364601 -203.38374 -337.89691
-39.364601 -209.9445 -337.89694
-39.364601 -216.50529 -337.89688
-39.364601 -223.06606 -337.89691
-39.364601 -229.62682 -337.89694
-30.694685 184.16812 -388.81628
-30.694685 178.02917 -388.81628
-30.694685 171.89026 -388.81631
-30.694685 165.75131 -388.81628
-30.837456 160.3548 -385.36951
-30.837456 154.18732 -385.36948
-30.837456 148.01979 -385.36948
-30.837456 141.85233 -385.36951
-30.837456 135.68483 -385.36948
-30.837456 129.51735 -385.36945
-30.837456 123.34985 -385.36951
-30.837456 117.18236 -385.36948
-30.837456 111.01488 -385.36948
-30.837456 104.84737 -385.36951
-30.837456 98.679878 -385.36948
-30.837456 92.512405 -385.36948
-30.837456 86.344879 -385.36948
-30.837456 80.177399 -385.36948
-30.837456 74.009926 -385.36948
-30.837456 67.842438 -385.36945
-30.837456 61.674923 -385.36948
-30.837456 55.507446 -385.36948
-30.837456 49.339958 -385.36948
-30.837456 43.172455 -385.36948
-30.837456 37.004982 -385.36948
-30.837456 30.83749 -385.36945
-30.837456 24.669977 -385.36948
-30.837456 18.502502 -385.36948
-30.837456 12.335011 -385.36945
-30.837456 6.1674972 -385.36948
-30.837456 2.2422806e-05 -385.36948
-30.837456 -6.1674685 -385.36948
-30.837456 -12.334944 -385.36948
-30.837456 -18.502457 -385.36948
-30.837456 -24.669949 -385.36948
-30.837456 -30.837437 -385.36948
-30.837456 -37.00491 -385.36948
-30.837456 -43.172428 -385.36948
-30.837456 -49.339931 -385.36945
-30.837456 -55.507389 -385.36948
-30.837456 -61.674892 -385.36948
-30.837456 -67.8424 -385.36945
-30.837456 -74.009857 -385.36948
-30.837456 -80.177376 -385.36948
-30.837456 -86.344864 -385.36945
-30.837456 -92.512352 -385.36948
-30.837456 -98.67984 -385.36948
-30.837456 -104.84736 -385.36945
-30.837362 -111.01448 -385.3717
-30.837362 -117.18195 -385.3717
-30.837362 -123.34944 -385.3717
-30.837362 -129.51691 -385.37173
-30.694685 -135.05659 -388.81628
-30.694685 -141.19556 -388.81628
-30.694685 -147.33446 -388.81631
-30.694685 -153.47342 -388.81628
-32.338722 -168.16133 -349.12564
-32.338722 -174.62912 -349.12561
-32.338722 -181.09685 -349.12564
-32.338722 -187.56459 -349.12564
-32.338722 -194.03233 -349.12567
-32.338623 -200.49945 -349.12811
-32.338623 -206.96716 -349.12811
-32.338623 -213.43488 -349.12811
-32.338623 -219.90259 -349.12811
-32.338623 -226.37038 -349.12808
-32.338623 -232.83809 -349.12808
-24.210545 181.57912 -399.23367
-24.210545 175.52646 -399.23367
-24.210545 169.47386 -399.23367
-24.322796 164.17891 -395.84622
-24.322796 158.09819 -395.84625
-24.322796 152.0175 -395.84622
-24.322796 145.93677 -395.84622
-24.322796 139.85609 -395.84622
-24.322796 133.77538 -395.84622
-24.322796 127.69472 -395.84625
-24.322796 121.614 -395.84625
-24.322796 115.5333 -395.84622
-24.322796 109.45259 -395.84625
-24.322796 103.37191 -395.84625
-24.322796 97.291229 -395.84625
-24.322796 91.210503 -395.84622
-24.322796 85.129822 -395.84622
-24.322796 79.049103 -395.84622
-24.322725 72.96817 -395.84839
-24.322725 66.887505 -395.84842
-24.322725 60.806828 -395.84842
-24.322725 54.726147 -395.84839
-24.322725 48.645466 -395.84839
-24.322725 42.564789 -395.84839
-24.322725 36.484123 -395.84842
-24.322725 30.403446 -395.84839
-24.322725 24.322727 -395.84842
-24.322725 18.242048 -395.84842
-24.322725 12.161368 -395.84839
-24.322725 6.0806894 -395.84839
-24.322725 2.6288155e-05 -395.84842
-24.322725 -6.0806532 -395.84842
-24.322725 -12.161332 -395.84839
-24.322725 -18.242012 -395.84839
-24.322725 -24.322716 -395.84839
-24.322725 -30.403397 -395.84839
-24.322725 -36.484058 -395.84842
-24.322725 -42.564751 -395.84842
-24.322725 -48.645432 -395.84842
-24.322725 -54.726109 -395.84839
-24.322725 -60.806789 -395.84839
-24.322725 -66.887466 -395.84842
-24.322725 -72.968155 -395.84842
-24.322725 -79.04882 -395.84842
-24.322725 -85.129517 -395.84842
-24.322725 -91.210182 -395.84839
-24.322725 -97.290901 -395.84842
-24.322725 -103.37155 -395.84842
-24.322725 -109.45224 -395.84842
-24.322725 -115.53291 -395.84842
-24.322725 -121.6136 -395.84842
-24.322725 -127.69429 -395.84842
-24.322725 -133.77496 -395.84839
-24.210545 -139.21062 -399.23367
-24.210545 -145.26328 -399.23364
-24.210545 -151.3159 -399.23367
-25.509218 -165.80988 -360.04282
-25.509218 -172.18719 -360.04282
-25.509218 -178.56451 -360.04279
-25.509218 -184.94185 -360.04276
-25.509218 -191.31909 -360.04282
-25.509218 -197.69643 -360.04279
-25.509218 -204.07375 -360.04279
-25.509138 -210.45036 -360.04523
-25.509138 -216.82767 -360.0452
-25.509138 -223.20491 -360.04523
-25.509138 -229.58224 -360.0452
-17.906187 185.03064 -409.36224
-17.906187 179.06187 -409.36218
-17.906187 173.09314 -409.36221
-17.906187 167.12445 -409.36221
-17.988894 161.90005 -406.03433
-17.988894 155.90378 -406.03433
-17.988894 149.90747 -406.03436
-17.988894 143.91116 -406.03433
-17.988894 137.91487 -406.03436
-17.988894 131.91856 -406.03433
-17.988894 125.92226 -406.03436
-17.988894 119.92596 -406.03433
-17.988894 113.92967 -406.03436
-17.988894 107.93338 -406.03436
-17.988894 101.93707 -406.03433
-17.988894 95.940788 -406.03436
-17.988894 89.944466 -406.03436
-17.988894 83.948174 -406.03436
-17.988894 77.951904 -406.0343
-17.988894 71.955612 -406.03433
-17.988894 65.95932 -406.03436
-17.988894 59.963009 -406.03433
-17.988894 53.966717 -406.03433
-17.988894 47.970409 -406.03433
-17.988894 41.974117 -406.03433
-17.988894 35.977806 -406.03433
-17.988894 29.981512 -406.03433
-17.988894 23.985222 -406.03436
-17.988894 17.988913 -406.03433
-17.988894 11.992619 -406.03433
-17.988894 5.9963083 -406.03433
-17.988894 1.7611977e-05 -406.03436
-17.988894 -5.9962921 -406.03433
-17.988894 -11.992586 -406.03433
-17.988894 -17.988863 -406.03436
-17.988894 -23.985186 -406.03436
-17.988894 -29.981455 -406.03433
-17.988894 -35.977776 -406.03433
-17.988894 -41.974056 -406.03436
-17.988894 -47.970364 -406.03433
-17.988894 -53.96666 -406.03433
-17.988894 -59.962948 -406.03436
-17.98884 -65.959038 -406.03647
-17.98884 -71.955338 -406.03644
-17.98884 -77.951645 -406.03644
-17.98884 -83.947906 -406.03647
-17.98884 -89.944191 -406.03647
-17.98884 -95.940483 -406.03644
-17.98884 -101.93675 -406.03647
-17.98884 -107.93303 -406.03644
-17.98884 -113.9293 -406.03647
-17.98884 -119.92558 -406.03647
-17.98884 -125.9219 -406.03644
-17.98884 -131.91814 -406.03647
-17.906187 -137.28076 -409.36221
-17.906187 -143.24948 -409.36218
-17.906187 -149.21823 -409.36221
-17.906187 -155.18695 -409.36221
-18.868074 -169.81265 -370.65884
-18.868074 -176.10199 -370.65887
-18.868074 -182.39137 -370.65881
-18.868074 -188.68074 -370.65881
-18.868074 -194.97012 -370.65884
-18.868074 -201.25943 -370.65881
-18.868074 -207.54881 -370.65884
-18.868015 -213.83746 -370.66122
-18.868015 -220.12682 -370.66122
-18.868015 -226.41617 -370.66119
-18.868015 -232.70551 -370.66119
-11.774232 182.50058 -419.21375
-11.774232 176.61349 -419.21378
-11.774232 170.72639 -419.21378
-11.793834 165.11374 -418.03067
-11.82845 159.6841 -415.94141
-11.82845 153.76988 -415.94147
-11.82845 147.85565 -415.94144
-11.82845 141.94142 -415.94144
-11.82845 136.02718 -415.94144
-11.82845 130.11298 -415.94147
-11.82845 124.19874 -415.94144
-11.82845 118.28453 -415.94144
-11.828416 112.36996 -415.94348
-11.828416 106.45577 -415.94351
-11.828416 100.54157 -415.94351
-11.828416 94.627357 -415.94348
-11.828416 88.713135 -415.94351
-11.828416 82.798943 -415.94351
-11.828416 76.884727 -415.94348
-11.828416 70.970528 -415.94348
-11.828416 65.056305 -415.94351
-11.828416 59.14209 -415.94348
-11.828416 53.227894 -415.94348
-11.828416 47.313709 -415.94348
-11.828416 41.399456 -415.94348
-11.828416 35.48526 -415.94348
-11.828416 29.571062 -415.94351
-11.828416 23.656864 -415.94351
-11.828416 17.742611 -415.94348
-11.828416 11.828428 -415.94351
-11.828416 5.9142299 -415.94351
-11.828416 1.5430671e-05 -415.94348
-11.828416 -5.9141669 -415.94348
-11.828416 -11.828379 -415.94348
-11.828416 -17.742619 -415.94348
-11.828416 -23.656801 -415.94351
-11.828416 -29.571012 -415.94351
-11.828416 -35.485241 -415.94348
-11.828416 -41.399437 -415.94351
-11.828416 -47.313648 -415.94351
-11.828416 -53.227829 -415.94351
-11.828416 -59.142044 -415.94348
-11.828416 -65.056267 -415.94351
-11.828416 -70.970467 -415.94348
-11.828416 -76.884682 -415.94345
-11.828416 -82.798889 -415.94348
-11.828416 -88.713089 -415.94348
-11.828416 -94.627327 -415.94348
-11.828416 -100.54151 -415.94348
-11.828416 -106.45573 -415.94351
-11.828416 -112.36995 -415.94348
-11.828416 -118.28413 -415.94348
-11.828416 -124.19833 -415.94348
-11.828416 -130.11253 -415.94351
-11.774232 -135.40366 -419.21375
-11.774232 -141.29074 -419.21378
-11.774232 -147.17787 -419.21381
-11.774232 -153.065 -419.21378
-12.407608 -167.50272 -380.98608
-12.407608 -173.70648 -380.98608
-12.407608 -179.91031 -380.98608
-12.407608 -186.11411 -380.98611
-12.407608 -192.31792 -380.98605
-12.407608 -198.52174 -380.98605
-12.407608 -204.72551 -380.98611
-12.407608 -210.92931 -380.98611
-12.407571 -217.13248 -380.98837
-12.407571 -223.33629 -380.98834
-12.407571 -229.54004 -380.9884
-12.407571 -235.74384 -380.98837
-5.8077044 185.84656 -428.79953
-5.8077044 180.03888 -428.79953
-5.8077044 174.23117 -428.79959
-5.8077044 168.42348 -428.79956
-5.8343515 163.36188 -425.58301
-5.8343515 157.52753 -425.58298
-5.8343515 151.69318 -425.58301
-5.8343515 145.85883 -425.58301
-5.8343515 140.02446 -425.58301
-5.8343515 134.19011 -425.58301
-5.8343515 128.35576 -425.58298
-5.8343515 122.52141 -425.58298
-5.8343515 116.68706 -425.58301
-5.8343515 110.85268 -425.58298
-5.8343515 105.01833 -425.58298
-5.8343515 99.184013 -425.58298
-5.8343515 93.349648 -425.58298
-5.8343515 87.515289 -425.58298
-5.8343515 81.680923 -425.58295
-5.8343515 75.846596 -425.58304
-5.8343515 70.012268 -425.58298
-5.8343515 64.17791 -425.58301
-5.8343515 58.343544 -425.58298
-5.8343515 52.509182 -425.58301
-5.8343515 46.674835 -425.58301
-5.8343515 40.840496 -425.58298
-5.8343515 35.006149 -425.58298
-5.8343515 29.171787 -425.58301
-5.8343515 23.337421 -425.58298
-5.8343515 17.503061 -425.58301
-5.8343515 11.668722 -425.58298
-5.8343515 5.834374 -425.58298
-5.8343515 2.5580521e-05 -425.58298
-5.8343515 -5.834352 -425.58298
-5.8343515 -11.668687 -425.58298
-5.8343349 -17.502991 -425.58499
-5.8343349 -23.337326 -425.58499
-5.8343349 -29.171677 -425.58496
-5.8343349 -35.005997 -425.58499
-5.8343349 -40.840321 -425.58499
-5.8343349 -46.674656 -425.58499
-5.8343349 -52.508972 -425.58502
-5.8343349 -58.343349 -425.58499
-5.8343349 -64.177689 -425.58499
-5.8343349 -70.012024 -425.58499
-5.8343349 -75.846313 -425.58502
-5.8343349 -81.680664 -425.58499
-5.8343349 -87.514999 -425.58499
-5.8343349 -93.349335 -425.58499
-5.8343349 -99.183655 -425.58502
-5.8343349 -105.01801 -425.58499
-5.8343349 -110.85234 -425.58499
-5.8343349 -116.68669 -425.58496
-5.8343349 -122.521 -425.58502
-5.8343349 -128.35535 -425.58499
-5.8343349 -134.18968 -425.58499
-5.8077044 -139.38489 -428.79956
-5.8077044 -145.1926 -428.79953
-5.8077044 -151.00031 -428.79956
-6.1205468 -165.25475 -391.03613
-6.1205468 -171.37531 -391.03613
-6.1205468 -177.49585 -391.03613
-6.1205468 -183.61641 -391.03613
-6.1205468 -189.73694 -391.03616
-6.1205468 -195.85748 -391.0361
-6.1205468 -201.97804 -391.03613
-6.1205468 -208.09859 -391.0361
-6.1205468 -214.21913 -391.03613
-6.1205292 -220.33904 -391.03833
-6.1205292 -226.45955 -391.03833
-6.1205292 -232.58008 -391.03836
7.9207188e-23 185.50398 -430.09183
-2.303953e-22 179.707 -430.09186
-2.0123647e-22 173.91 -430.09186
1.6668366e-22 168.11298 -430.09183
-4.9059828e-23 162.30635 -430.13342
-6.1889559e-23 156.50967 -430.13348
-3.2471383e-23 150.71301 -430.13342
-4.5301114e-23 144.91638 -430.13345
-2.6988908e-22 139.11972 -430.13348
-2.8712669e-23 133.32306 -430.13345
-4.15424e-23 127.52644 -430.13345
-1.2124224e-23 121.72977 -430.13342
-2.3671219e-22 115.93311 -430.13345
-1.6659733e-23 110.13646 -430.13345
-1.1424463e-22 104.33982 -430.13345
-1.0595041e-22 98.543129 -430.13345
-2.2465926e-22 92.746506 -430.13348
-8.9361961e-23 86.949837 -430.13345
-1.0219169e-22 81.153175 -430.13348
-7.2773517e-23 75.356522 -430.13342
-1.9148237e-22 69.559883 -430.13345
-5.6185072e-23 63.763191 -430.13345
-6.9014803e-23 57.966553 -430.13345
6.6282491e-23 52.169899 -430.13342
-5.2426358e-23 46.373276 -430.13342
-2.7701433e-22 40.576599 -430.13348
-3.5837913e-23 34.779945 -430.13342
-1.5454676e-22 28.983309 -430.13345
-1.4625254e-22 23.186632 -430.13345
-1.3795832e-22 17.38998 -430.13345
-2.3784977e-23 11.593341 -430.13345
-1.4249383e-22 5.7966785 -430.13348
-1.1307565e-22 1.0622215e-05 -430.13345
-2.317845e-22 -5.7966385 -430.13348
9.3919129e-24 -11.593293 -430.13342
-1.0931694e-22 -17.389942 -430.13345
2.5980358e-23 -23.186598 -430.13342
-1.9860761e-22 -28.983246 -430.13345
-1.9031339e-22 -34.779911 -430.13345
-7.6140047e-23 -40.576565 -430.13345
-6.7845824e-23 -46.37323 -430.13345
-1.8655467e-22 -52.169849 -430.13345
-1.571365e-22 -57.966534 -430.13342
-2.7584535e-22 -63.76318 -430.13345
-3.945542e-22 -69.559807 -430.13348
-4.7498666e-23 -75.356483 -430.13345
-1.6620751e-22 -81.153137 -430.13348
-3.0910221e-23 -86.949791 -430.13342
-1.4961907e-22 -92.746437 -430.13345
-1.2020089e-22 -98.543091 -430.13342
-2.3890974e-22 -104.33974 -430.13345
-1.0361245e-22 -110.13642 -430.13342
-2.223213e-22 -115.93307 -430.13345
-2.2688397e-24 -121.72974 -430.13345
-2.4486853e-22 -127.526 -430.13544
-2.4816075e-23 -133.32265 -430.13544
-2.3545203e-22 -139.12793 -430.09186
2.658898e-23 -144.92497 -430.09183
-1.5601043e-22 -150.72197 -430.09183
-3.6715455e-23 -163.06587 -400.82214
-1.3949025e-22 -169.10535 -400.82214
-9.3828504e-24 -175.14482 -400.82214
-1.7565918e-22 -181.18431 -400.82217
-8.7929365e-23 -187.22377 -400.82214
-1.4832658e-22 -193.26323 -400.82214
-1.240983e-22 -199.30273 -400.82214
-2.2687309e-22 -205.34219 -400.82217
-9.6765692e-23 -211.38168 -400.82214
-9.0358779e-24 -217.42117 -400.82211
-6.9433088e-23 -223.46062 -400.82214
-4.520481e-23 -229.50011 -400.82214
4.2525005e-23 -235.53963 -400.82211
5.8269124 186.46123 -426.48102
5.8269124 180.63429 -426.48099
5.8269124 174.8074 -426.48099
5.8269124 168.98048 -426.48099
5.826581 163.14429 -426.52103
5.826581 157.3177 -426.52103
5.826581 151.4911 -426.52103
5.826581 145.66452 -426.52103
5.826581 139.83795 -426.52103
5.826581 134.01138 -426.52103
5.826581 128.18481 -426.52103
5.826581 122.3582 -426.52106
5.826581 116.53163 -426.52106
5.8265638 110.70474 -426.52301
5.8265638 104.87817 -426.52301
5.8265638 99.051628 -426.52304
5.8265638 93.225044 -426.52304
5.8265638 87.398453 -426.52301
5.8265638 81.571899 -426.52304
5.8265638 75.745338 -426.52304
5.8265638 69.918793 -426.52301
5.8265638 64.092247 -426.52304
5.8265638 58.265663 -426.52301
5.8265638 52.439098 -426.52304
5.8265638 46.612549 -426.52307
5.8265638 40.785969 -426.52304
5.8265638 34.959385 -426.52301
5.8265638 29.132837 -426.52304
5.8265638 23.306273 -426.52304
5.8265638 17.479717 -426.52301
5.8265638 11.653168 -426.52304
5.8265638 5.8265867 -426.52301
5.8265638 2.1507174e-05 -426.52304
5.8265638 -5.8265438 -426.52304
5.8265638 -11.653109 -426.52304
5.8265638 -17.479691 -426.52301
5.8265638 -23.306227 -426.52304
5.8265638 -29.132792 -426.52304
5.8265638 -34.959373 -426.52304
5.8265638 -40.785923 -426.52307
5.8265638 -46.612492 -426.52304
5.8265638 -52.439041 -426.52304
5.8265638 -58.265621 -426.52304
5.8265638 -64.092171 -426.52304
5.8265638 -69.91877 -426.52301
5.8265638 -75.745316 -426.52301
5.8265638 -81.571869 -426.52301
5.8265638 -87.398453 -426.52304
5.8265638 -93.225014 -426.52301
5.8265638 -99.051582 -426.52304
5.8265638 -104.87813 -426.52304
5.8265638 -110.7047 -426.52301
5.8265638 -116.53127 -426.52304
5.8265638 -122.35783 -426.52301
5.8265638 -128.18439 -426.52301
5.8265638 -134.01096 -426.52304
5.8269124 -139.84589 -426.48099
5.8269124 -145.67278 -426.48102
5.8269124 -151.49969 -426.48099
5.9878097 -161.67085 -407.05896
5.9878097 -167.65866 -407.05896
5.9878097 -173.64644 -407.05899
5.9878097 -179.63426 -407.05896
5.9878097 -185.62207 -407.05896
5.9878097 -191.60989 -407.05896
5.9878097 -197.5977 -407.05896
5.9878097 -203.58549 -407.05896
5.9878097 -209.5733 -407.05896
5.9878097 -215.56113 -407.05896
5.9878097 -221.54893 -407.05896
5.9878097 -227.53674 -407.05899
5.9878097 -233.52457 -407.05893
11.714272 181.57123 -422.8327
11.714272 175.7141 -422.8327
11.714272 169.85696 -422.8327
11.713601 163.99045 -422.87317
11.713601 158.13362 -422.87314
11.713601 152.27686 -422.87314
11.713601 146.42004 -422.87314
11.713601 140.56322 -422.87311
11.713601 134.70644 -422.87314
11.713601 128.84962 -422.87314
11.713601 122.99285 -422.87314
11.713601 117.13603 -422.87311
11.713601 111.27923 -422.87311
11.713601 105.42243 -422.87314
11.713601 99.56562 -422.87317
11.713601 93.708824 -422.87314
11.713601 87.852028 -422.87311
11.713601 81.995247 -422.87314
11.713601 76.138443 -422.87314
11.713601 70.281631 -422.87314
11.713601 64.424805 -422.87314
11.713601 58.568039 -422.87311
11.713601 52.711246 -422.87314
11.713569 46.854275 -422.87515
11.713569 40.99752 -422.87515
11.713569 35.140713 -422.87515
11.713569 29.28396 -422.87515
11.713569 23.427153 -422.87518
11.713569 17.570368 -422.87512
11.713569 11.713591 -422.87518
11.713569 5.8568058 -422.87515
11.713569 1.3508354e-05 -422.87518
11.713569 -5.8567557 -422.87515
11.713569 -11.713551 -422.87515
11.713569 -17.570316 -422.87515
11.713569 -23.427113 -422.87515
11.713569 -29.283878 -422.87518
11.713569 -35.14069 -422.87515
11.713569 -40.997486 -422.87515
11.713569 -46.854237 -422.87515
11.713569 -52.711033 -422.87515
11.713569 -58.567814 -422.87518
11.713569 -64.424606 -422.87518
11.713569 -70.281395 -422.87512
11.713569 -76.138176 -422.87515
11.713569 -81.994965 -422.87515
11.713569 -87.851746 -422.87518
11.713569 -93.708519 -422.87515
11.713569 -99.565292 -422.87518
11.713569 -105.42209 -422.87518
11.713569 -111.2789 -422.87515
11.713569 -117.13566 -422.87515
11.713569 -122.99245 -422.87515
11.713569 -128.84923 -422.87518
11.713569 -134.70602 -422.87515
11.714272 -140.57124 -422.8327
11.714272 -146.42838 -422.83264
11.714272 -152.28551 -422.8327
12.037725 -162.50928 -403.31052
12.037725 -168.52811 -403.31052
12.037725 -174.547 -403.31052
12.037725 -180.56587 -403.31052
12.037725 -186.58475 -403.31055
12.037725 -192.60359 -403.31052
12.037725 -198.62245 -403.31052
12.037725 -204.64131 -403.31055
12.037725 -210.66017 -403.31052
12.037725 -216.67905 -403.31052
12.037725 -222.69788 -403.31052
12.037725 -228.71678 -403.31049
12.037725 -234.73564 -403.31052
17.663023 182.51796 -419.14633
17.663023 176.63026 -419.1463
17.663023 170.74257 -419.14636
17.662008 164.84543 -419.18723
17.662008 158.9581 -419.18716
17.662008 153.07076 -419.18723
17.662008 147.18343 -419.18719
17.662008 141.29608 -419.18723
17.662008 135.40875 -419.18719
17.662008 129.52142 -419.18723
17.662008 123.63409 -419.18719
17.662008 117.74673 -419.18719
17.662008 111.8594 -419.18723
17.662008 105.97206 -419.18719
17.662008 100.08472 -419.18723
17.662008 94.197395 -419.18719
17.662008 88.310059 -419.18723
17.662008 82.422729 -419.18719
17.662008 76.535385 -419.18726
17.662008 70.648056 -419.18719
17.662008 64.760704 -419.18723
17.662008 58.87339 -419.18719
17.662008 52.986034 -419.18723
17.662008 47.098724 -419.18719
17.662008 41.211372 -419.18723
17.662008 35.324028 -419.18719
17.662008 29.436693 -419.18723
17.662008 23.549364 -419.18719
17.662008 17.662027 -419.18723
17.662008 11.774698 -419.18719
17.662008 5.8873615 -419.18723
17.662008 3.2457505e-05 -419.18719
17.662008 -5.8873038 -419.18723
17.662008 -11.774659 -419.18719
17.661957 -17.661938 -419.18924
17.661957 -23.549248 -419.18927
17.661957 -29.43659 -419.18924
17.661957 -35.323902 -419.18924
17.661957 -41.211212 -419.18924
17.661957 -47.098522 -419.18927
17.661957 -52.985867 -419.18924
17.661957 -58.87315 -419.18924
17.661957 -64.760498 -419.18927
17.661957 -70.64782 -419.18921
17.661957 -76.535156 -419.18924
17.661957 -82.42244 -419.18927
17.661957 -88.309761 -419.18927
17.661957 -94.19709 -419.18924
17.661957 -100.08442 -419.18924
17.661957 -105.9717 -419.18924
17.661957 -111.85907 -419.18924
17.661957 -117.74635 -419.18924
17.661957 -123.63371 -419.18927
17.661957 -129.521 -419.18927
17.661957 -135.40833 -419.18924
17.663023 -141.30417 -419.1463
17.663023 -147.19183 -419.14633
17.663023 -153.07953 -419.14633
18.150719 -163.35643 -399.52301
18.150719 -169.40669 -399.52298
18.150719 -175.45694 -399.52301
18.150719 -181.50717 -399.52298
18.150719 -187.55742 -399.52301
18.150719 -193.60767 -399.52298
18.150719 -199.65788 -399.52301
18.150719 -205.70815 -399.52298
18.150719 -211.75839 -399.52301
18.150719 -217.80859 -399.52301
18.150719 -223.85884 -399.52298
18.150719 -229.90909 -399.52301
23.674065 183.47403 -415.4234
23.674065 177.5555 -415.4234
23.674065 171.63698 -415.4234
23.672764 165.70937 -415.46268
23.672764 159.79118 -415.46265
23.672764 153.87302 -415.46265
23.672764 147.9548 -415.46265
23.672764 142.03662 -415.46265
23.672764 136.11842 -415.46268
23.672764 130.20024 -415.46265
23.672764 124.28202 -415.46265
23.672764 118.36386 -415.46265
23.672764 112.44567 -415.46265
23.672764 106.52747 -415.46268
23.672764 100.60929 -415.46265
23.672764 94.691071 -415.46265
23.672764 88.772911 -415.46265
23.672764 82.854683 -415.46265
23.672764 76.936516 -415.46268
23.672764 71.018341 -415.46265
23.672764 65.100128 -415.46268
23.672764 59.181953 -415.46265
23.672764 53.263729 -415.46265
23.672764 47.34557 -415.46265
23.672764 41.427383 -415.46265
23.672764 35.509186 -415.46268
23.672764 29.591 -415.46265
23.672764 23.67277 -415.46262
23.672764 17.754583 -415.46262
23.672764 11.836387 -415.46265
23.672764 5.9181991 -415.46262
23.672764 2.8182771e-05 -415.46262
23.672764 -5.9181848 -415.46262
23.672764 -11.836369 -415.46265
23.672764 -17.754557 -415.46262
23.672764 -23.672756 -415.46262
23.672764 -29.59094 -415.46265
23.672764 -35.50914 -415.46262
23.672764 -41.427322 -415.46265
23.672764 -47.345512 -415.46262
23.672764 -53.263725 -415.46262
23.672764 -59.181896 -415.46265
23.672764 -65.100082 -415.46262
23.672764 -71.01828 -415.46265
23.672764 -76.936462 -415.46262
23.672764 -82.854683 -415.46262
23.672695 -88.772583 -415.46469
23.672695 -94.690773 -415.46466
23.672695 -100.60895 -415.46472
23.672695 -106.52714 -415.46472
23.672695 -112.44528 -415.46469
23.672695 -118.36347 -415.46469
23.672695 -124.28164 -415.46469
23.672695 -130.1998 -415.46472
23.672695 -136.11798 -415.46472
23.674065 -142.04437 -415.42337
23.674065 -147.96291 -415.4234
23.674065 -153.88141 -415.4234
24.327782 -164.21252 -395.69577
24.327782 -170.29443 -395.69577
24.327782 -176.37642 -395.69577
24.327782 -182.45834 -395.6958
24.327782 -188.54027 -395.69577
24.327782 -194.62221 -395.6958
24.327782 -200.70418 -395.69574
24.327782 -206.78612 -395.69577
24.327782 -212.86807 -395.69577
24.327782 -218.95001 -395.69577
24.327782 -225.03197 -395.69577
24.327782 -231.11391 -395.6958
29.748503 184.44072 -411.65918
29.748503 178.49103 -411.65921
29.748503 172.54131 -411.65915
29.748503 166.59163 -411.65918
29.746946 160.63354 -411.69675
29.746859 154.68369 -411.69879
29.746859 148.7343 -411.69882
29.746859 142.78497 -411.69882
29.746859 136.83559 -411.69882
29.746859 130.88618 -411.69885
29.746859 124.93684 -411.69882
29.746859 118.98746 -411.69885
29.746859 113.03806 -411.69882
29.746859 107.08872 -411.69882
29.746859 101.13934 -411.69885
29.746859 95.18998 -411.69882
29.746859 89.240608 -411.69882
29.746859 83.291222 -411.69885
29.746859 77.341888 -411.69885
29.746859 71.392471 -411.69882
29.746859 65.4431 -411.69885
29.746859 59.493732 -411.69879
29.746859 53.544361 -411.69882
29.746859 47.59499 -411.69885
29.746859 41.645611 -411.69882
29.746859 35.696239 -411.69885
29.746859 29.746891 -411.69882
29.746859 23.79752 -411.69885
29.746859 17.848116 -411.69882
29.746859 11.898783 -411.69882
29.746859 5.9493985 -411.69885
29.746859 -5.4037082e-06 -411.69882
29.746859 -5.949338 -411.69882
29.746859 -11.898742 -411.69882
29.746859 -17.848101 -411.69882
29.746859 -23.797462 -411.69882
29.746859 -29.74682 -411.69882
29.746859 -35.696224 -411.69882
29.746859 -41.645584 -411.69882
29.746859 -47.594929 -411.69885
29.746859 -53.544334 -411.69882
29.746859 -59.493706 -411.69885
29.746859 -65.443069 -411.69882
29.746859 -71.392426 -411.69882
29.746859 -77.34182 -411.69882
29.746859 -83.291191 -411.69885
29.746859 -89.240532 -411.69885
29.746859 -95.189934 -411.69882
29.746859 -101.13931 -411.69885
29.746859 -107.08868 -411.69882
29.746859 -113.03803 -411.69882
29.746859 -118.98742 -411.69882
29.746859 -124.93679 -411.69885
29.746859 -130.88615 -411.69882
29.748503 -136.84309 -411.65915
29.748503 -142.7928 -411.65918
29.748503 -148.74249 -411.65915
29.748503 -154.69218 -411.65918
30.569925 -165.07756 -391.82825
30.569925 -171.19156 -391.82825
30.569925 -177.30554 -391.82825
30.569925 -183.41954 -391.82822
30.569925 -189.53352 -391.82822
30.569925 -195.64751 -391.82822
30.569925 -201.76151 -391.82822
30.569925 -207.87546 -391.82825
30.569925 -213.98946 -391.82825
30.569925 -220.10344 -391.82825
30.569925 -226.21744 -391.82822
30.569925 -232.33142 -391.82822
35.887287 185.41769 -407.85507
35.887287 179.43645 -407.85507
35.887287 173.45522 -407.85504
35.887287 167.47404 -407.85507
35.885399 161.48434 -407.89304
35.885399 155.50342 -407.89307
35.885399 149.52254 -407.89304
35.885399 143.54163 -407.89304
35.885399 137.56071 -407.89304
35.885399 131.57983 -407.89304
35.885399 125.59892 -407.89304
35.885399 119.61805 -407.89307
35.885399 113.63713 -407.89307
35.885399 107.65621 -407.89307
35.885399 101.67533 -407.89304
35.885399 95.694412 -407.89307
35.885292 89.713234 -407.89514
35.885292 83.732384 -407.89517
35.885292 77.751503 -407.89514
35.885292 71.770622 -407.89514
35.885292 65.789703 -407.89514
35.885292 59.808842 -407.89514
35.885292 53.827965 -407.89514
35.885292 47.847099 -407.89514
35.885292 41.86618 -407.89514
35.885292 35.885319 -407.89517
35.885292 29.904427 -407.89514
35.885292 23.923546 -407.89514
35.885292 17.942684 -407.89514
35.885292 11.961765 -407.89514
35.885292 5.9809017 -407.89517
35.885292 2.2386652e-05 -407.89514
35.885292 -5.9808569 -407.89514
35.885292 -11.96176 -407.89517
35.885292 -17.942623 -407.89517
35.885292 -23.923502 -407.89514
35.885292 -29.904394 -407.89514
35.885292 -35.885273 -407.89514
35.885292 -41.86618 -407.89514
35.885292 -47.847027 -407.89517
35.885292 -53.82793 -407.89517
35.885292 -59.8088 -407.89514
35.885292 -65.789688 -407.89514
35.885292 -71.770584 -407.89511
35.885292 -77.751442 -407.89517
35.885292 -83.732338 -407.89517
35.885292 -89.713226 -407.89514
35.885292 -95.694092 -407.89511
35.885292 -101.67501 -407.89514
35.885292 -107.65585 -407.89517
35.885292 -113.63674 -407.89514
35.885292 -119.61763 -407.89514
35.885292 -125.59853 -407.89514
35.885292 -131.57942 -407.89511
35.887287 -137.56792 -407.85504
35.887287 -143.54912 -407.85507
35.887287 -149.53033 -407.85507
36.878185 -159.80544 -387.91971
36.878185 -165.95181 -387.91971
36.878185 -172.09818 -387.91974
36.878185 -178.24454 -387.91971
36.878185 -184.39093 -387.91971
36.878185 -190.53726 -387.91971
36.878185 -196.68365 -387.91971
36.878185 -202.83 -387.91971
36.878185 -208.97639 -387.91968
36.878185 -215.12273 -387.91977
36.878185 -221.26909 -387.91974
36.878185 -227.41545 -387.91971
36.878185 -233.56183 -387.91971
42.091328 186.40446 -404.01257
42.091328 180.39142 -404.0126
42.091328 174.37839 -404.01257
42.091328 168.36531 -404.01257
42.089226 162.34419 -404.0488
42.089226 156.33144 -404.04883
42.089226 150.31868 -404.04886
42.089226 144.30592 -404.04886
42.089226 138.29321 -404.04886
42.089226 132.28043 -404.04883
42.089226 126.26768 -404.04883
42.089226 120.25495 -404.0488
42.089226 114.2422 -404.04883
42.089226 108.22945 -404.04886
42.089226 102.21672 -404.04883
42.089226 96.203972 -404.04883
42.089226 90.191208 -404.04883
42.089226 84.178497 -404.04883
42.089226 78.165718 -404.0488
42.089226 72.152969 -404.04883
42.089226 66.140213 -404.04883
42.089226 60.127491 -404.0488
42.089226 54.114738 -404.04883
42.089226 48.101974 -404.04883
42.089226 42.089264 -404.04883
42.089226 36.076511 -404.04883
42.089226 30.063747 -404.04883
42.089104 24.05094 -404.05093
42.089104 18.038189 -404.05096
42.089104 12.025478 -404.05096
42.089104 6.0127831 -404.05096
42.089104 1.415624e-06 -404.05093
42.089104 -6.0127096 -404.05093
42.089104 -12.02542 -404.05093
42.089104 -18.03817 -404.05096
42.089104 -24.050898 -404.05093
42.089104 -30.063633 -404.05093
42.089104 -36.07637 -404.05096
42.089104 -42.089081 -404.05096
42.089104 -48.101807 -404.05096
42.089104 -54.114544 -404.05093
42.089104 -60.127254 -404.05093
42.089104 -66.139992 -404.05093
42.089104 -72.152733 -404.05096
42.089104 -78.165466 -404.05096
42.089104 -84.178192 -404.05093
42.089104 -90.190933 -404.05096
42.089104 -96.203644 -404.05096
42.089104 -102.21635 -404.05093
42.089104 -108.22909 -404.05096
42.089104 -114.24184 -404.05093
42.089104 -120.25455 -404.05093
42.089104 -126.26729 -404.05096
42.089104 -132.28003 -404.05096
42.091328 -138.30008 -404.01257
42.091328 -144.3131 -404.01257
42.091328 -150.32617 -404.01257
43.25362 -160.65627 -383.9696
43.25362 -166.83537 -383.96957
43.25362 -173.01443 -383.9696
43.25362 -179.19354 -383.96957
43.25362 -185.37263 -383.96957
43.25362 -191.5517 -383.96957
43.25362 -197.73082 -383.96957
43.25362 -203.90991 -383.96957
43.25362 -210.08896 -383.9696
43.25362 -216.26805 -383.9696
43.25362 -222.44716 -383.96957
43.25362 -228.62627 -383.96957
43.25362 -234.80533 -383.96964
48.3619 181.35713 -400.12683
48.3619 175.3119 -400.12683
48.3619 169.26663 -400.12683
48.359467 163.21324 -400.16345
48.359467 157.1683 -400.16348
48.359467 151.12338 -400.16348
48.359467 145.07843 -400.16348
48.359467 139.03351 -400.16348
48.359467 132.98857 -400.16345
48.359467 126.94362 -400.16345
48.359467 120.8987 -400.16345
48.359467 114.85374 -400.16345
48.359467 108.80883 -400.16345
48.359467 102.76391 -400.16345
48.359467 96.718964 -400.16348
48.359467 90.674049 -400.16348
48.359467 84.629097 -400.16348
48.359467 78.584167 -400.16345
48.359467 72.5392 -400.16348
48.359467 66.494286 -400.16345
48.359467 60.449371 -400.16345
48.359467 54.404419 -400.16345
48.359467 48.359493 -400.16345
48.359467 42.314522 -400.16345
48.359467 36.269642 -400.16348
48.359467 30.22471 -400.16345
48.359467 24.179745 -400.16345
48.359467 18.13483 -400.16345
48.359467 12.089878 -400.16345
48.359467 6.0449634 -400.16345
48.359467 3.6286197e-05 -400.16345
48.359467 -6.0449166 -400.16345
48.359467 -12.089848 -400.16342
48.359467 -18.134787 -400.16342
48.359467 -24.179712 -400.16345
48.359467 -30.224638 -400.16345
48.359467 -36.269577 -400.16345
48.359325 -42.314407 -400.16562
48.359325 -48.359322 -400.16562
48.359325 -54.404232 -400.16562
48.359325 -60.449135 -400.16562
48.359325 -66.494064 -400.16562
48.359325 -72.538971 -400.16562
48.359325 -78.58387 -400.16562
48.359325 -84.628822 -400.16562
48.359325 -90.673714 -400.16562
48.359325 -96.718636 -400.16562
48.359325 -102.76356 -400.16559
48.359325 -108.80845 -400.16562
48.359325 -114.85338 -400.16562
48.359325 -120.89829 -400.16559
48.359325 -126.94321 -400.16565
48.359325 -132.98811 -400.16562
48.3619 -139.04045 -400.12683
48.3619 -145.08568 -400.12686
48.3619 -151.13091 -400.12683
49.6973 -161.5162 -379.97717
49.6973 -167.72839 -379.97717
49.6973 -173.94052 -379.97717
49.6973 -180.15269 -379.97717
49.6973 -186.36485 -379.97717
49.6973 -192.57703 -379.97714
49.6973 -198.78922 -379.97714
49.6973 -205.00133 -379.9772
49.6973 -211.2135 -379.97717
49.6973 -217.42566 -379.97717
49.6973 -223.63783 -379.97717
49.6973 -229.84999 -379.97714
54.699974 182.33327 -396.19928
54.699974 176.25546 -396.19925
54.699974 170.17772 -396.19922
54.697208 164.09164 -396.23627
54.697208 158.01419 -396.2363
54.697208 151.93671 -396.23627
54.697208 145.85924 -396.2363
54.697208 139.7818 -396.23627
54.697208 133.70433 -396.23627
54.697208 127.62685 -396.23627
54.697208 121.54939 -396.23627
54.697208 115.4719 -396.23627
54.697208 109.39442 -396.23627
54.697208 103.31699 -396.23624
54.697208 97.23951 -396.23624
54.697208 91.162041 -396.23627
54.697208 85.084564 -396.23624
54.697208 79.007111 -396.2363
54.697208 72.929611 -396.23627
54.697208 66.852165 -396.2363
54.697208 60.774704 -396.23624
54.697208 54.69725 -396.23627
54.697208 48.619778 -396.23627
54.697208 42.542305 -396.2363
54.697208 36.464821 -396.23627
54.697208 30.387363 -396.2363
54.697208 24.309877 -396.23627
54.697208 18.232445 -396.23627
54.697208 12.154972 -396.23627
54.697208 6.0774856 -396.23627
54.697208 1.4991137e-05 -396.23627
54.697208 -6.0774584 -396.23627
54.697208 -12.154929 -396.23627
54.697208 -18.232416 -396.23627
54.697208 -24.30986 -396.23627
54.697208 -30.38732 -396.23624
54.697208 -36.46479 -396.23627
54.697208 -42.542263 -396.23627
54.697208 -48.619736 -396.23627
54.697208 -54.697193 -396.23624
54.697208 -60.774635 -396.2363
54.697208 -66.85215 -396.23627
54.697208 -72.929565 -396.23627
54.697208 -79.007065 -396.2363
54.697208 -85.084526 -396.2363
54.697208 -91.161972 -396.23627
54.697208 -97.239487 -396.23624
54.697208 -103.31693 -396.23627
54.697048 -109.39407 -396.23843
54.697048 -115.47153 -396.23843
54.697048 -121.54898 -396.23843
54.697048 -127.6264 -396.23846
54.697048 -133.70389 -396.23843
54.699974 -139.78882 -396.19925
54.699974 -145.86656 -396.19925
54.699974 -151.94437 -396.19922
56.210335 -162.38539 -375.9418
56.210335 -168.63098 -375.9418
56.210335 -174.87659 -375.9418
56.210335 -181.12219 -375.94177
56.210335 -187.36777 -375.94177
56.210335 -193.61337 -375.94177
56.210335 -199.85895 -375.94177
56.210335 -206.10454 -375.94177
56.210335 -212.35014 -375.94177
56.210335 -218.59572 -375.94177
56.210335 -224.84134 -375.94177
56.210335 -231.08691 -375.94177
61.106636 183.31993 -392.22916
61.106636 177.20927 -392.22916
61.106636 171.0986 -392.22916
61.103718 164.98007 -392.2644
61.103718 158.86971 -392.26437
61.103718 152.75931 -392.26437
61.103718 146.64896 -392.26437
61.103718 140.53859 -392.26434
61.103539 134.4278 -392.26657
61.103539 128.31746 -392.26657
61.103539 122.20712 -392.26657
61.103539 116.09675 -392.26654
61.103539 109.98641 -392.26657
61.103539 103.87603 -392.2666
61.103539 97.765663 -392.26657
61.103539 91.655327 -392.2666
61.103539 85.544968 -392.26657
61.103539 79.434616 -392.26657
61.103539 73.324272 -392.2666
61.103539 67.213913 -392.26657
61.103539 61.10358 -392.26657
61.103539 54.993221 -392.26654
61.103539 48.882835 -392.26657
61.103539 42.772491 -392.2666
61.103539 36.662128 -392.26657
61.103539 30.551781 -392.26657
61.103539 24.441452 -392.2666
61.103539 18.331076 -392.26657
61.103539 12.220729 -392.26657
61.103539 6.1103826 -392.26657
61.103539 3.6005156e-05 -392.26657
61.103539 -6.1103334 -392.2666
61.103539 -12.220709 -392.26657
61.103539 -18.331055 -392.26657
61.103539 -24.441385 -392.2666
61.103539 -30.551748 -392.26657
61.103539 -36.662109 -392.26657
61.103539 -42.772472 -392.26654
61.103539 -48.882812 -392.26657
61.103539 -54.993172 -392.26657
61.103539 -61.103508 -392.26657
61.103539 -67.213867 -392.26657
61.103539 -73.324211 -392.2666
61.103539 -79.434586 -392.26657
61.103539 -85.544945 -392.26657
61.103539 -91.655296 -392.26654
61.103539 -97.76564 -392.26657
61.103539 -103.876 -392.26657
61.103539 -109.98637 -392.26657
61.103539 -116.09669 -392.26657
61.103539 -122.20705 -392.26657
61.103539 -128.31741 -392.26657
61.103539 -134.42776 -392.26657
61.106636 -140.54526 -392.22916
61.106636 -146.6559 -392.22916
61.106636 -152.76656 -392.22916
62.793846 -163.26399 -371.86273
62.793846 -169.54338 -371.86276
62.793846 -175.82277 -371.86273
62.793846 -182.10211 -371.86276
62.793846 -188.38153 -371.8627
62.793846 -194.6609 -371.86273
62.793846 -200.94028 -371.86276
62.793846 -207.21967 -371.8627
62.793846 -213.49905 -371.86273
62.793846 -219.77844 -371.86279
62.793846 -226.05785 -371.86273
62.793846 -232.3372 -371.86276
67.582817 184.3168 -388.21811
67.582817 178.17288 -388.21805
67.582817 172.02899 -388.21808
67.579773 165.87767 -388.25146
67.579773 159.73402 -388.25146
67.579773 153.59044 -388.25143
67.579773 147.44682 -388.25146
67.579773 141.30318 -388.25146
67.579773 135.15959 -388.25143
67.579773 129.01596 -388.25146
67.579773 122.87235 -388.2515
67.579773 116.72874 -388.25146
67.579773 110.58511 -388.25146
67.579773 104.44151 -388.2515
67.579773 98.297897 -388.25146
67.579773 92.154266 -388.25146
67.579773 86.010628 -388.25143
67.579773 79.86705 -388.25146
67.579773 73.723419 -388.25146
67.579575 67.57962 -388.25369
67.579575 61.435974 -388.25369
67.579575 55.292397 -388.25369
67.579575 49.148808 -388.25369
67.579575 43.00523 -388.25369
67.579575 36.861584 -388.25366
67.579575 30.718008 -388.25369
67.579575 24.574417 -388.25366
67.579575 18.430803 -388.25369
67.579575 12.287211 -388.25369
67.579575 6.1436357 -388.25369
67.579575 2.1699334e-06 -388.25369
67.579575 -6.1435733 -388.25369
67.579575 -12.287165 -388.25369
67.579575 -18.43074 -388.25369
67.579575 -24.574387 -388.25366
67.579575 -30.717962 -388.25369
67.579575 -36.86158 -388.25369
67.579575 -43.005154 -388.25369
67.579575 -49.148758 -388.25369
67.579575 -55.292347 -388.25372
67.579575 -61.435955 -388.25366
67.579575 -67.579559 -388.25369
67.579575 -73.723152 -388.25369
67.579575 -79.866753 -388.25372
67.579575 -86.010361 -388.25366
67.579575 -92.153931 -388.25369
67.579575 -98.297554 -388.25369
67.579575 -104.44112 -388.25369
67.579575 -110.58474 -388.25369
67.579575 -116.72832 -388.25372
67.579575 -122.87193 -388.25366
67.579575 -129.01553 -388.25369
67.579575 -135.15912 -388.25369
67.582817 -141.30951 -388.21805
67.582817 -147.45341 -388.21808
67.582817 -153.59731 -388.21808
69.448982 -164.15211 -367.73929
69.448982 -170.46568 -367.73932
69.448982 -176.77924 -367.73929
69.448982 -183.09277 -367.73929
69.448982 -189.40634 -367.73929
69.448982 -195.71988 -367.73926
69.448982 -202.03343 -367.73929
69.448982 -208.34692 -367.73932
69.448982 -214.66048 -367.73935
69.448982 -220.97401 -367.73932
69.448982 -227.28758 -367.73932
69.448982 -233.6011 -367.73932
74.130043 185.32513 -384.16089
74.130043 179.14761 -384.16092
74.130043 172.97011 -384.16089
74.130043 166.79262 -384.16089
74.126686 160.60783 -384.19467
74.126686 154.43065 -384.19464
74.126686 148.2534 -384.19464
74.126686 142.07617 -384.19464
74.126686 135.89894 -384.19464
74.126686 129.72174 -384.19467
74.126686 123.54449 -384.19464
74.126686 117.36726 -384.19464
74.126686 111.19004 -384.19464
74.126686 105.01283 -384.19467
74.126686 98.835602 -384.19467
74.126686 92.658394 -384.19464
74.126686 86.481163 -384.19464
74.126686 80.30394 -384.19464
74.126686 74.126724 -384.19467
74.126686 67.949478 -384.19464
74.126686 61.772247 -384.19464
74.126686 55.595028 -384.19464
74.126686 49.417816 -384.19467
74.126686 43.240582 -384.19467
74.126686 37.063347 -384.19464
74.126686 30.886156 -384.19464
74.126686 24.708925 -384.19464
74.126686 18.53171 -384.19467
74.126686 12.354475 -384.19464
74.126686 6.1772442 -384.19464
74.126465 4.0049617e-05 -384.19693
74.126465 -6.1771522 -384.1969
74.126465 -12.354383 -384.1969
74.126465 -18.531614 -384.1969
74.126465 -24.708792 -384.19693
74.126465 -30.885996 -384.1969
74.126465 -37.063202 -384.1969
74.126465 -43.240391 -384.1969
74.126465 -49.41761 -384.1969
74.126465 -55.59483 -384.1969
74.126465 -61.77203 -384.19693
74.126465 -67.949219 -384.1969
74.126465 -74.126457 -384.1969
74.126465 -80.303642 -384.19693
74.126465 -86.48085 -384.1969
74.126465 -92.658051 -384.1969
74.126465 -98.835243 -384.1969
74.126465 -105.01245 -384.1969
74.126465 -111.18965 -384.1969
74.126465 -117.36687 -384.19693
74.126465 -123.54408 -384.1969
74.126465 -129.7213 -384.1969
74.126465 -135.8985 -384.1969
74.130043 -142.08253 -384.16089
74.130043 -148.26007 -384.16089
74.130043 -154.43758 -384.16092
76.176933 -165.04997 -363.57077
76.176933 -171.3981 -363.57074
76.176933 -177.74614 -363.5708
76.176933 -184.09422 -363.57077
76.176933 -190.44232 -363.57074
76.176933 -196.79041 -363.57071
76.176933 -203.13844 -363.57077
76.176933 -209.48657 -363.57077
76.176933 -215.83463 -363.57074
76.176933 -222.18268 -363.57077
76.176933 -228.53078 -363.57077
76.176933 -234.87888 -363.57074
80.74929 186.34457 -380.05911
80.74929 180.13306 -380.05908
80.74929 173.92157 -380.05908
80.74929 167.71007 -380.05908
80.745621 161.49124 -380.09323
