# .PCD v0.7 - Point Cloud Data file format
VERSION 0.7
FIELDS x y z
SIZE 4 4 4
TYPE F F F
COUNT 1 1 1
WIDTH 1521
HEIGHT 1
VIEWPOINT 0 0 0 1 0 0 0
POINTS 1521
DATA ascii
1.2569251e-22 -193.22108 -176.3837
4.1956505e-22 -202.00391 -176.38365
3.0067763e-22 -210.78667 -176.38367
1.8443068e-22 -219.56943 -176.3837
4.6242784e-22 -228.35225 -176.38365
3.5941581e-22 -237.13498 -176.38365
2.4052836e-22 -245.91774 -176.38368
5.2778349e-22 -254.70058 -176.38364
4.13525e-22 -263.48334 -176.38365
2.9926654e-22 -272.26608 -176.38367
1.8401587e-22 -281.04883 -176.3837
4.6961862e-22 -289.83167 -176.38365
3.5536015e-22 -298.61444 -176.38367
2.3911727e-22 -307.39719 -176.3837
5.3298982e-22 -316.17999 -176.38362
4.1542263e-22 -324.96277 -176.38367
2.9785545e-22 -333.74551 -176.38368
5.8379029e-22 -342.52832 -176.38362
4.7284055e-22 -351.3111 -176.38365
3.4071824e-22 -360.09384 -176.38367
2.3770618e-22 -368.87659 -176.3837
5.3157876e-22 -377.65942 -176.38365
8.1819056e-23 -386.4422 -176.38367
-3.4427884e-23 -395.22495 -176.38368
2.4356927e-22 -404.00775 -176.38362
3.3131196e-22 -412.78244 -176.40442
8.637886 310.96387 -193.87341
8.6140738 301.49258 -196.74779
8.6382866 293.70169 -193.82521
8.7385864 288.37335 -181.71782
8.8280754 282.49841 -170.91556
8.8280754 273.67032 -170.91553
8.8280754 264.84225 -170.91554
8.8280754 256.01419 -170.91556
8.8280754 247.18611 -170.91551
8.8280754 238.35802 -170.91554
8.8280754 229.52994 -170.91557
8.8280754 220.70186 -170.91551
8.8280754 211.87378 -170.91554
8.8280754 203.04575 -170.91554
8.8280754 194.21762 -170.91554
8.8280754 185.38956 -170.91548
8.8280754 176.56148 -170.91551
8.8280754 167.73343 -170.91551
8.8280754 158.90533 -170.91553
8.8280754 150.07726 -170.91556
8.8280754 141.24921 -170.91556
8.8280754 132.42107 -170.9155
8.8280754 123.59303 -170.9155
8.8280754 114.76495 -170.91553
8.8280754 105.9369 -170.91553
8.8280754 97.10881 -170.91554
8.8280754 88.280731 -170.91557
8.8280754 79.452637 -170.9155
8.8280754 70.62455 -170.91551
8.8280754 61.796505 -170.91551
8.8280754 52.968422 -170.91554
8.8280754 44.140381 -170.91554
8.8280754 35.312286 -170.91556
8.8280754 26.484205 -170.91559
8.8280754 17.656115 -170.91551
8.8280754 8.8280191 -170.91553
8.8280754 -2.2852846e-05 -170.91553
8.8280754 -8.828104 -170.91556
8.8280754 -17.656147 -170.91556
8.8280754 -26.484236 -170.91557
8.8280754 -35.312325 -170.9155
8.8280754 -44.140419 -170.91551
8.8280754 -52.968498 -170.91553
8.8280754 -61.796539 -170.91553
8.8280754 -70.624634 -170.91557
8.8280754 -79.452682 -170.91556
8.8280754 -88.280815 -170.91551
8.8280754 -97.108856 -170.9155
8.8280754 -105.93694 -170.91553
8.8280754 -114.76503 -170.91554
8.8280754 -123.59307 -170.91554
8.8280754 -132.42116 -170.91557
8.8280754 -141.24925 -170.91548
8.8280754 -150.07733 -170.91551
8.8280754 -158.90538 -170.91551
8.8280754 -167.73347 -170.91554
8.8280754 -176.56155 -170.91556
8.8280754 -185.3896 -170.91556
8.8280754 -194.21771 -170.91548
8.8280754 -203.04576 -170.9155
8.8280754 -211.87386 -170.91553
8.8280754 -220.70193 -170.91554
8.8280754 -229.53 -170.91556
8.8280754 -238.35805 -170.91556
8.8280754 -247.18617 -170.91548
8.8280754 -256.01422 -170.9155
8.8280754 -264.84232 -170.91551
8.8280754 -273.67038 -170.91553
8.8280754 -282.49844 -170.91554
8.8280754 -291.32651 -170.91556
8.8280754 -300.15463 -170.9155
8.8280754 -308.9827 -170.91551
8.8280754 -317.81076 -170.91551
8.8280754 -326.63882 -170.91553
8.8280754 -335.46689 -170.91554
8.8280754 -344.29495 -170.91556
8.8280754 -353.12308 -170.91548
8.8280754 -361.95114 -170.9155
8.8280754 -370.77924 -170.91551
8.8280754 -379.6073 -170.91553
8.8280754 -388.43533 -170.91553
8.8280754 -397.2634 -170.91554
8.8280754 -406.09155 -170.9155
8.8278675 -414.90979 -170.94072
17.365351 312.57632 -188.4669
17.37114 303.9949 -188.11748
17.365419 295.21207 -188.46283
17.49225 288.6221 -180.80783
17.752119 284.03391 -165.12337
17.74762 275.0881 -165.39494
17.74762 266.21426 -165.39494
17.74762 257.34045 -165.39493
17.74762 248.46664 -165.3949
17.74762 239.59285 -165.39496
17.74762 230.71904 -165.39493
17.74762 221.8452 -165.39494
17.74762 212.97141 -165.39493
17.74762 204.09761 -165.39493
17.74762 195.22377 -165.39493
17.74762 186.34999 -165.39496
17.74762 177.47621 -165.39497
17.74762 168.60234 -165.39493
17.74762 159.72858 -165.39496
17.74762 150.85475 -165.3949
17.74762 141.98093 -165.39496
17.74762 133.1071 -165.3949
17.74762 124.23328 -165.39494
17.74762 115.35951 -165.39497
17.74762 106.48569 -165.39491
17.74762 97.611877 -165.39496
17.74762 88.738052 -165.3949
17.74762 79.864273 -165.39491
17.74762 70.990463 -165.39497
17.74762 62.116634 -165.39491
17.74762 53.242863 -165.39494
17.74762 44.368992 -165.39491
17.74762 35.495216 -165.39493
17.74762 26.621401 -165.39497
17.74762 17.747578 -165.39491
17.74762 8.8738031 -165.39494
17.74762 -5.9595881e-05 -165.39491
17.74762 -8.8738337 -165.39494
17.74762 -17.74761 -165.39496
17.74762 -26.621475 -165.39493
17.74762 -35.495255 -165.39496
17.74762 -44.369076 -165.3949
17.74762 -53.242893 -165.39494
17.74762 -62.116665 -165.39496
17.74762 -70.99054 -165.39494
17.74762 -79.864311 -165.39496
17.74762 -88.738136 -165.3949
17.74762 -97.611946 -165.39494
17.74762 -106.48573 -165.39497
17.74762 -115.35955 -165.39491
17.74762 -124.23336 -165.39496
17.74762 -133.10719 -165.3949
17.74762 -141.98097 -165.39493
17.74762 -150.85478 -165.39497
17.74762 -159.72859 -165.39491
17.74762 -168.60242 -165.39497
17.74762 -177.47624 -165.39491
17.74762 -186.35002 -165.39493
17.74762 -195.22386 -165.39488
17.74762 -204.09766 -165.39493
17.74762 -212.97147 -165.39496
17.74762 -221.84528 -165.3949
17.74762 -230.71909 -165.39494
17.74762 -239.59293 -165.3949
17.74762 -248.46672 -165.39493
17.74762 -257.34048 -165.39496
17.74762 -266.21436 -165.39491
17.74762 -275.08813 -165.39494
17.74762 -283.96198 -165.39491
17.74762 -292.83575 -165.39493
17.74762 -301.70956 -165.39497
17.74762 -310.5834 -165.39493
17.74762 -319.45718 -165.39494
17.74762 -328.33102 -165.3949
17.74762 -337.2048 -165.39493
17.74762 -346.07858 -165.39496
17.74762 -354.95242 -165.3949
17.74762 -363.8262 -165.39494
17.74762 -372.70007 -165.3949
17.74762 -381.57385 -165.39493
17.74762 -390.44763 -165.39496
17.74762 -399.32147 -165.39491
17.74762 -408.19528 -165.39494
17.747198 -417.05917 -165.42039
26.191957 314.30347 -182.67558
26.183796 305.47763 -183.004
26.183895 296.75079 -182.99989
26.310581 289.41638 -177.90257
27.048229 288.5144 -148.22182
26.760166 276.5217 -159.81253
26.760166 267.60165 -159.81255
26.760166 258.68161 -159.81256
26.760166 249.76154 -159.81259
26.760166 240.84149 -159.81259
26.760166 231.92143 -159.81256
26.760166 223.00139 -159.81256
26.760166 214.0813 -159.81258
26.760166 205.16124 -159.81256
26.760166 196.24123 -159.81259
26.760166 187.32115 -159.81255
26.760166 178.40112 -159.81256
26.760166 169.481 -159.81255
26.760166 160.56099 -159.81258
26.760166 151.64091 -159.81253
26.760166 142.72089 -159.81255
26.760166 133.80083 -159.81261
26.760166 124.88074 -159.81256
26.760166 115.96072 -159.81259
26.760166 107.04064 -159.81253
26.760166 98.120621 -159.81258
26.760166 89.200508 -159.81255
26.760166 80.280479 -159.81258
26.760166 71.360405 -159.81252
26.760166 62.440384 -159.81256
26.760166 53.520267 -159.81253
26.760166 44.600239 -159.81255
26.760166 35.680222 -159.81259
26.760166 26.760147 -159.81253
26.760166 17.840078 -159.81259
26.760166 8.9200001 -159.81253
26.760166 -1.5872014e-05 -159.81258
26.760166 -8.9200945 -159.81252
26.760166 -17.84012 -159.81256
26.760166 -26.760237 -159.81253
26.760166 -35.680256 -159.81256
26.760166 -44.600281 -159.81259
26.760166 -53.520355 -159.81253
26.760166 -62.440418 -159.81259
26.760166 -71.360497 -159.81255
26.760166 -80.280525 -159.81258
26.760166 -89.2006 -159.81253
26.760166 -98.120613 -159.81255
26.760166 -107.04073 -159.81252
26.760166 -115.96075 -159.81256
26.760166 -124.88078 -159.81259
26.760166 -133.80086 -159.81253
26.760166 -142.72093 -159.81259
26.760166 -151.64101 -159.81255
26.760166 -160.56102 -159.81256
26.760166 -169.48109 -159.81252
26.760166 -178.40112 -159.81255
26.760166 -187.32124 -159.81253
26.760166 -196.24126 -159.81256
26.760166 -205.16129 -159.81259
26.760166 -214.08138 -159.81255
26.760166 -223.00139 -159.81258
26.760166 -231.92151 -159.81255
26.760166 -240.84152 -159.81258
26.760166 -249.76158 -159.81252
26.760166 -258.68164 -159.81258
26.760166 -267.60172 -159.81252
26.760166 -276.52176 -159.81255
26.760166 -285.44183 -159.81252
26.760166 -294.36188 -159.81255
26.760166 -303.28189 -159.81258
26.760166 -312.202 -159.81253
26.760166 -321.12204 -159.81258
26.760166 -330.04208 -159.81252
26.760166 -338.96213 -159.81256
26.760166 -347.88223 -159.81252
26.760166 -356.80228 -159.81256
26.760166 -365.72232 -159.8125
26.760166 -374.6424 -159.81256
26.760166 -383.56241 -159.81258
26.760166 -392.48248 -159.81253
26.760166 -401.40253 -159.81258
26.760061 -410.32098 -159.81683
26.801678 -419.89297 -158.14238
35.185032 316.66528 -174.75623
35.094784 307.07938 -177.47971
35.062107 298.02786 -178.46585
35.192219 290.33575 -174.53941
36.064598 288.51675 -148.21307
35.867146 277.97034 -154.17168
35.867146 269.00357 -154.17168
35.867146 260.03677 -154.17169
35.867146 251.06999 -154.17174
35.867146 242.10321 -154.17166
35.867146 233.13641 -154.17169
35.867146 224.16962 -154.17171
35.867146 215.20288 -154.17171
35.867146 206.23607 -154.17172
35.867146 197.26923 -154.17166
35.867146 188.30249 -154.17166
35.867146 179.33568 -154.17168
35.867146 170.3689 -154.17169
35.867146 161.40215 -154.17169
35.867146 152.43535 -154.17171
35.867146 143.46857 -154.17174
35.867146 134.50175 -154.17165
35.867146 125.53496 -154.17166
35.867146 116.56817 -154.17169
35.867146 107.60142 -154.17168
35.867146 98.634628 -154.17171
35.867146 89.667831 -154.17172
35.867146 80.701073 -154.17171
35.867146 71.734238 -154.17166
35.867146 62.767441 -154.17168
35.867146 53.800686 -154.17166
35.867146 44.833897 -154.17169
35.867146 35.8671 -154.17171
35.867146 26.900352 -154.17171
35.867146 17.933556 -154.17172
35.867146 8.9667616 -154.17174
35.867146 -3.3606506e-05 -154.17165
35.867146 -8.9668341 -154.17168
35.867146 -17.933624 -154.17169
35.867146 -26.900373 -154.17168
35.867146 -35.867168 -154.17171
35.867146 -44.833965 -154.17172
35.867146 -53.800713 -154.17171
35.867146 -62.767563 -154.17165
35.867146 -71.734306 -154.17165
35.867146 -80.701103 -154.17166
35.867146 -89.6679 -154.17169
35.867146 -98.634644 -154.17168
35.867146 -107.60144 -154.17171
35.867146 -116.56824 -154.17172
35.867146 -125.53503 -154.17163
35.867146 -134.50183 -154.17165
35.867146 -143.46863 -154.17168
35.867146 -152.43536 -154.17166
35.867146 -161.40218 -154.17169
35.867146 -170.36896 -154.17171
35.867146 -179.33571 -154.17171
35.867146 -188.30255 -154.17165
35.867146 -197.26935 -154.17166
35.867146 -206.23613 -154.17166
35.867146 -215.2029 -154.17168
35.867146 -224.16969 -154.17169
35.867146 -233.13646 -154.17171
35.867146 -242.10323 -154.17171
35.867146 -251.07008 -154.17165
35.867146 -260.03687 -154.17166
35.867146 -269.00363 -154.17166
35.867146 -277.97043 -154.17168
35.867146 -286.93719 -154.17169
35.867146 -295.90396 -154.17169
35.867146 -304.87076 -154.17172
35.867146 -313.83759 -154.17165
35.867146 -322.80435 -154.17165
35.867146 -331.77115 -154.17168
35.867146 -340.73792 -154.17168
35.867146 -349.70468 -154.17168
35.867146 -358.67148 -154.17171
35.867146 -367.63824 -154.17171
35.867146 -376.60507 -154.17163
35.867146 -385.57187 -154.17166
35.867146 -394.53864 -154.17166
35.867146 -403.5054 -154.17168
35.866714 -412.46725 -154.18468
44.099545 308.69678 -171.90137
43.987511 299.11502 -174.60612
44.151165 291.39764 -170.65517
45.081108 288.51904 -148.20432
45.069862 279.43314 -148.4758
45.069862 270.41916 -148.4758
45.069862 261.40518 -148.47577
45.069862 252.39124 -148.4758
45.069862 243.37726 -148.47577
45.069862 234.36324 -148.47578
45.069862 225.34929 -148.4758
45.069862 216.33534 -148.47583
45.069862 207.32133 -148.47577
45.069862 198.30739 -148.47578
45.069862 189.29344 -148.47581
45.069862 180.2794 -148.47577
45.069862 171.26546 -148.47578
45.069862 162.25151 -148.47581
45.069862 153.2375 -148.47575
45.069862 144.22356 -148.47577
45.069862 135.20961 -148.4758
45.069862 126.19556 -148.47577
45.069862 117.18162 -148.4758
45.069862 108.16766 -148.4758
45.069862 99.153671 -148.47575
45.069862 90.139717 -148.47578
45.069862 81.125732 -148.47583
45.069862 72.111725 -148.47575
45.069862 63.097778 -148.47578
45.069862 54.083836 -148.47581
45.069862 45.069828 -148.47574
45.069862 36.055882 -148.47577
45.069862 27.041893 -148.47581
45.069862 18.027887 -148.47575
45.069862 9.0139418 -148.47577
45.069862 -3.3395331e-06 -148.4758
45.069862 -9.0140076 -148.47574
45.069862 -18.027952 -148.47577
45.069862 -27.041945 -148.47581
45.069862 -36.055943 -148.47575
45.069862 -45.069893 -148.47577
45.069862 -54.083843 -148.4758
45.069862 -63.097847 -148.47574
45.069862 -72.111824 -148.47578
45.069862 -81.125778 -148.4758
45.069862 -90.139786 -148.47574
45.069862 -99.153725 -148.47577
45.069862 -108.16768 -148.47578
45.069862 -117.18168 -148.47574
45.069862 -126.19566 -148.47577
45.069862 -135.20961 -148.4758
45.069862 -144.22362 -148.47574
45.069862 -153.23756 -148.47575
45.069862 -162.25151 -148.47578
45.069862 -171.26555 -148.47575
45.069862 -180.27951 -148.47577
45.069862 -189.29346 -148.47578
45.069862 -198.30745 -148.47574
45.069862 -207.32141 -148.47575
45.069862 -216.33537 -148.4758
45.069862 -225.34937 -148.47572
45.069862 -234.36333 -148.47575
45.069862 -243.3773 -148.4758
45.069862 -252.39128 -148.47572
45.069862 -261.40524 -148.47575
45.069862 -270.41919 -148.47578
45.069862 -279.43317 -148.47581
45.069862 -288.44717 -148.47575
45.069862 -297.46112 -148.47578
45.069862 -306.4751 -148.47581
45.069862 -315.48911 -148.47577
45.069862 -324.50305 -148.47578
45.069862 -333.51697 -148.4758
45.069862 -342.53104 -148.47577
45.069862 -351.54495 -148.47578
45.069862 -360.5589 -148.4758
45.069862 -369.57294 -148.47575
45.069862 -378.58688 -148.47578
45.069862 -387.60086 -148.47581
45.069862 -396.61484 -148.47575
45.069862 -405.62878 -148.47577
45.069321 -414.63779 -148.48888
53.199875 310.33252 -166.25972
53.022774 300.46237 -169.82268
53.212509 292.66876 -166.00551
54.097549 288.52026 -148.19989
54.370171 280.91254 -142.71515
54.370171 271.85083 -142.71515
54.370171 262.78915 -142.71521
54.370171 253.72745 -142.71519
54.370171 244.66577 -142.71519
54.370171 235.60408 -142.71518
54.370171 226.54231 -142.71516
54.370171 217.48065 -142.71518
54.370171 208.41899 -142.71523
54.370171 199.35727 -142.71518
54.370171 190.29561 -142.71519
54.370171 181.23384 -142.71518
54.370171 172.17218 -142.71521
54.370171 163.11046 -142.71515
54.370171 154.0488 -142.71519
54.370171 144.98709 -142.71515
54.370171 135.92542 -142.71518
54.370171 126.86372 -142.71523
54.370171 117.80199 -142.71518
54.370171 108.74033 -142.71521
54.370171 99.678619 -142.71516
54.370171 90.616951 -142.71519
54.370171 81.555191 -142.71516
54.370171 72.493538 -142.71521
54.370171 63.43182 -142.71515
54.370171 54.370152 -142.71518
54.370171 45.308483 -142.71521
54.370171 36.246765 -142.71516
54.370171 27.185064 -142.71523
54.370171 18.12335 -142.71518
54.370171 9.0616827 -142.71519
54.370171 -3.2450756e-05 -142.71515
54.370171 -9.0617018 -142.71519
54.370171 -18.123455 -142.71516
54.370171 -27.185118 -142.71519
54.370171 -36.246841 -142.71515
54.370171 -45.308502 -142.71518
54.370171 -54.370171 -142.71521
54.370171 -63.431885 -142.71515
54.370171 -72.493584 -142.71521
54.370171 -81.555298 -142.71516
54.370171 -90.616966 -142.71519
54.370171 -99.678688 -142.71515
54.370171 -108.74036 -142.71518
54.370171 -117.80211 -142.71515
54.370171 -126.86377 -142.71518
54.370171 -135.92543 -142.71521
54.370171 -144.98715 -142.71516
54.370171 -154.04881 -142.71519
54.370171 -163.11053 -142.71515
54.370171 -172.17224 -142.71521
54.370171 -181.23396 -142.71516
54.370171 -190.29562 -142.71519
54.370171 -199.35735 -142.71513
54.370171 -208.41904 -142.71519
54.370171 -217.48068 -142.71521
54.370171 -226.5424 -142.71516
54.370171 -235.60408 -142.71521
54.370171 -244.66582 -142.71516
54.370171 -253.72746 -142.71519
54.370171 -262.78922 -142.71516
54.370171 -271.85086 -142.71518
54.370171 -280.91263 -142.71516
54.370171 -289.97427 -142.71518
54.370171 -299.03601 -142.71513
54.370171 -308.09769 -142.71518
54.370171 -317.15933 -142.71519
54.370171 -326.22107 -142.71516
54.370171 -335.28275 -142.71519
54.370171 -344.34445 -142.71515
54.370171 -353.4061 -142.71518
54.370171 -362.46786 -142.71515
54.370171 -371.52951 -142.71518
54.370171 -380.59125 -142.71513
54.370171 -389.65292 -142.71518
54.370171 -398.7146 -142.71521
54.370171 -407.77634 -142.71516
54.369289 -416.83127 -142.73285
62.396915 311.98459 -160.56221
62.298767 302.59402 -162.25478
62.397167 294.15805 -160.55798
63.114315 288.52255 -148.19116
63.769478 282.40762 -136.89325
63.769478 273.29773 -136.89328
63.769478 264.18781 -136.89326
63.769478 255.0779 -136.89325
63.769478 245.96796 -136.89323
63.769478 236.85802 -136.89328
63.769478 227.74812 -136.89331
63.769478 218.63817 -136.89323
63.769478 209.52826 -136.89326
63.769478 200.41837 -136.89328
63.769478 191.30841 -136.89323
63.769478 182.19847 -136.89328
63.769478 173.08856 -136.89331
63.769478 163.97862 -136.89325
63.769478 154.86873 -136.89328
63.769478 145.75882 -136.8933
63.769478 136.64886 -136.89323
63.769478 127.53893 -136.89328
63.769478 118.42898 -136.89323
63.769478 109.31908 -136.89325
63.769478 100.20918 -136.89328
63.769478 91.099228 -136.89322
63.769478 81.989273 -136.89326
63.769478 72.879372 -136.89328
63.769478 63.769424 -136.89323
63.769478 54.659527 -136.89325
63.769478 45.549625 -136.89328
63.769478 36.439678 -136.89322
63.769478 27.329737 -136.89328
63.769478 18.21983 -136.8933
63.769478 9.1098795 -136.89323
63.769478 -1.6661765e-05 -136.89326
63.769478 -9.1099186 -136.8933
63.769478 -18.219912 -136.89325
63.769478 -27.329815 -136.89328
63.769478 -36.439709 -136.8933
63.769478 -45.549664 -136.89323
63.769478 -54.659569 -136.89326
63.769478 -63.76947 -136.8933
63.769478 -72.879456 -136.89325
63.769478 -81.989357 -136.89328
63.769478 -91.099312 -136.89322
63.769478 -100.20921 -136.89325
63.769478 -109.31911 -136.89326
63.769478 -118.42907 -136.89322
63.769478 -127.53901 -136.89326
63.769478 -136.6489 -136.89328
63.769478 -145.75885 -136.89322
63.769478 -154.86876 -136.89325
63.769478 -163.97865 -136.89328
63.769478 -173.08865 -136.89323
63.769478 -182.19855 -136.89326
63.769478 -191.30846 -136.8933
63.769478 -200.41841 -136.89323
63.769478 -209.52831 -136.89325
63.769478 -218.63821 -136.89328
63.769478 -227.74817 -136.89323
63.769478 -236.85809 -136.89326
63.769478 -245.968 -136.8933
63.769478 -255.07796 -136.89323
63.769478 -264.18787 -136.89328
63.769478 -273.29779 -136.8933
63.769478 -282.40775 -136.89325
63.769478 -291.51764 -136.89326
63.769478 -300.62753 -136.8933
63.769478 -309.73749 -136.89323
63.769478 -318.84741 -136.89328
63.769478 -327.95737 -136.89322
63.769478 -337.06729 -136.89325
63.769478 -346.17719 -136.89328
63.769478 -355.28714 -136.89322
63.769478 -364.39703 -136.89323
63.769478 -373.50696 -136.89328
63.769478 -382.61691 -136.89322
63.769478 -391.72684 -136.89326
63.769478 -400.83676 -136.8933
63.769478 -409.94669 -136.89322
63.86322 -419.67261 -135.27676
71.697853 313.67807 -154.72154
71.692398 304.69263 -154.80379
71.692688 295.7323 -154.79944
72.200089 288.80029 -147.14339
73.284653 283.97806 -130.77852
73.269081 274.759 -131.01355
73.269081 265.6004 -131.01353
73.269081 256.44174 -131.0136
73.269081 247.28308 -131.01352
73.269081 238.12448 -131.0136
73.269081 228.96587 -131.01358
73.269081 219.80722 -131.01358
73.269081 210.64856 -131.01357
73.269081 201.48994 -131.01353
73.269081 192.3313 -131.01353
73.269081 183.17264 -131.01353
73.269081 174.01407 -131.0136
73.269081 164.85541 -131.01358
73.269081 155.69676 -131.01358
73.269081 146.53815 -131.01357
73.269081 137.37949 -131.01355
73.269081 128.22083 -131.01355
73.269081 119.06222 -131.01353
73.269081 109.90356 -131.01352
73.269081 100.74496 -131.0136
73.269081 91.586342 -131.01358
73.269081 82.427689 -131.01358
73.269081 73.269035 -131.01358
73.269081 64.110413 -131.01353
73.269081 54.951759 -131.01355
73.269081 45.793106 -131.01355
73.269081 36.634544 -131.0136
73.269081 27.475885 -131.0136
73.269081 18.31727 -131.01357
73.269081 9.158617 -131.01357
73.269081 -3.7870814e-05 -131.01357
73.269081 -9.1586571 -131.01353
73.269081 -18.31731 -131.01353
73.269081 -27.475967 -131.01352
73.269081 -36.634537 -131.01358
73.269081 -45.793182 -131.01358
73.269081 -54.951839 -131.01358
73.269081 -64.110458 -131.01355
73.269081 -73.269104 -131.01355
73.269081 -82.427765 -131.01353
73.269081 -91.58638 -131.01352
73.269081 -100.74499 -131.0136
73.269081 -109.90364 -131.0136
73.269081 -119.06226 -131.01357
73.269081 -128.22092 -131.01357
73.269081 -137.37958 -131.01357
73.269081 -146.53819 -131.01353
73.269081 -155.69684 -131.01353
73.269081 -164.85545 -131.0135
73.269081 -174.01405 -131.01358
73.269081 -183.17271 -131.01358
73.269081 -192.33133 -131.01355
73.269081 -201.48999 -131.01355
73.269081 -210.64862 -131.01353
73.269081 -219.80728 -131.01353
73.269081 -228.96591 -131.01352
73.269081 -238.12451 -131.0136
73.269081 -247.28314 -131.01358
73.269081 -256.4418 -131.01358
73.269081 -265.60043 -131.01357
73.269081 -274.75906 -131.01355
73.269081 -283.91772 -131.01355
73.269081 -293.07632 -131.01352
73.269081 -302.23502 -131.01352
73.269081 -311.39359 -131.0136
73.269081 -320.55222 -131.01357
73.269081 -329.71085 -131.01357
73.269081 -338.86951 -131.01355
73.269081 -348.02814 -131.01353
73.269081 -357.1868 -131.01353
73.269081 -366.34543 -131.01352
73.269081 -375.50403 -131.0136
73.269081 -384.66266 -131.01358
73.269081 -393.82132 -131.01357
73.269081 -402.97995 -131.01357
73.269081 -412.13861 -131.01355
81.208412 315.81049 -147.36708
81.087906 306.33206 -148.98332
81.152527 297.55923 -148.11671
81.463989 289.64972 -143.9393
83.129425 286.33469 -121.60195
82.871147 276.23715 -125.06608
82.871147 267.02921 -125.06609
82.871147 257.82132 -125.0661
82.871147 248.61339 -125.06604
82.871147 239.4055 -125.06609
82.871147 230.19762 -125.06612
82.871147 220.9897 -125.06608
82.871147 211.78181 -125.0661
82.871147 202.57388 -125.06606
82.871147 193.36601 -125.0661
82.871147 184.15807 -125.06605
82.871147 174.9502 -125.06609
82.871147 165.74226 -125.06604
82.871147 156.53439 -125.06608
82.871147 147.32642 -125.06606
82.871147 138.11853 -125.06609
82.871147 128.91066 -125.06613
82.871147 119.70273 -125.06608
82.871147 110.49485 -125.06612
82.871147 101.28692 -125.06607
82.871147 92.079041 -125.06611
82.871147 82.871109 -125.06606
82.871147 73.663231 -125.06609
82.871147 64.455307 -125.06606
82.871147 55.247417 -125.06608
82.871147 46.039494 -125.06604
82.871147 36.831612 -125.06608
82.871147 27.623684 -125.06603
82.871147 18.415802 -125.06606
82.871147 9.2078829 -125.06612
82.871147 -4.5219804e-05 -125.06608
82.871147 -9.2079248 -125.06612
82.871147 -18.415855 -125.06607
82.871147 -27.623735 -125.06611
82.871147 -36.831669 -125.06606
82.871147 -46.039543 -125.06609
82.871147 -55.247475 -125.06604
82.871147 -64.455353 -125.06608
82.871147 -73.663277 -125.06603
82.871147 -82.871162 -125.06607
82.871147 -92.079041 -125.0661
82.871147 -101.28698 -125.06606
82.871147 -110.49485 -125.06609
82.871147 -119.70281 -125.06607
82.871147 -128.91071 -125.06611
82.871147 -138.11862 -125.06606
82.871147 -147.32651 -125.0661
82.871147 -156.53444 -125.06606
82.871147 -165.74231 -125.06609
82.871147 -174.95026 -125.06604
82.871147 -184.15813 -125.06608
82.871147 -193.36606 -125.06603
82.871147 -202.57394 -125.06607
82.871147 -211.78181 -125.0661
82.871147 -220.98976 -125.06606
82.871147 -230.19763 -125.0661
82.871147 -239.40559 -125.06606
82.871147 -248.61346 -125.06609
82.871147 -257.82138 -125.06605
82.871147 -267.02927 -125.06608
82.871147 -276.23718 -125.06603
82.871147 -285.4451 -125.06608
82.871147 -294.65305 -125.06605
82.871147 -303.8609 -125.06608
82.871147 -313.06879 -125.06611
82.871147 -322.2767 -125.06606
82.871147 -331.48459 -125.06609
82.871147 -340.69254 -125.06606
82.871147 -349.90042 -125.06609
82.871147 -359.10837 -125.06606
82.871147 -368.31622 -125.06609
82.871147 -377.52417 -125.06604
82.871147 -386.73203 -125.06608
82.871147 -395.93997 -125.06604
82.871147 -405.14786 -125.06607
82.871147 -414.35577 -125.06602
90.585442 307.99042 -143.09554
90.457436 298.50952 -144.64069
90.816765 290.61362 -140.30321
93.121162 288.67557 -112.48672
92.577087 277.73123 -119.05426
92.577087 268.47357 -119.05428
92.577087 259.21582 -119.05431
92.577087 249.95811 -119.05431
92.577087 240.70045 -119.05428
92.577087 231.44272 -119.05428
92.577087 222.18501 -119.05427
92.577087 212.92729 -119.05428
92.577087 203.66959 -119.05428
92.577087 194.41188 -119.05428
92.577087 185.15414 -119.05427
92.577087 175.89644 -119.05427
91.885704 165.39427 -127.39999
92.577087 157.38101 -119.05428
92.577087 148.12331 -119.05428
92.577087 138.86559 -119.05426
92.577087 129.60788 -119.05426
92.577087 120.3502 -119.05424
92.577087 111.09249 -119.05424
92.577087 101.83478 -119.05424
92.577087 92.577057 -119.05423
92.577087 83.319344 -119.05423
91.908318 73.526604 -127.12698
92.176407 64.523468 -123.89091
92.577087 55.546211 -119.05424
92.577087 46.288494 -119.05423
92.577087 37.030777 -119.05423
92.577087 27.773064 -119.05423
92.577087 18.515352 -119.05423
92.577087 9.257638 -119.05423
92.577087 1.3426554e-05 -119.05428
92.577087 -9.2577009 -119.05428
92.577087 -18.515409 -119.05428
92.577087 -27.773127 -119.05428
92.577087 -37.030834 -119.05428
92.577087 -46.288555 -119.05428
92.577087 -55.546268 -119.05428
92.577087 -64.803978 -119.05427
92.577087 -74.061691 -119.05428
92.577087 -83.319405 -119.05427
92.577087 -92.577126 -119.05428
92.577087 -101.83484 -119.05428
92.577087 -111.09251 -119.05424
92.577087 -120.35022 -119.05424
92.577087 -129.60794 -119.05424
92.577087 -138.86565 -119.05424
92.577087 -148.12335 -119.05424
92.577087 -157.38107 -119.05424
92.577087 -166.63879 -119.05424
92.577087 -175.8965 -119.05424
92.577087 -185.15422 -119.05424
92.577087 -194.41193 -119.05424
92.577087 -203.66965 -119.05423
92.577087 -212.92737 -119.05424
92.577087 -222.18504 -119.05422
92.577087 -231.44275 -119.05421
92.577087 -240.70049 -119.05422
92.577087 -249.95821 -119.05422
92.577087 -259.21591 -119.05421
92.577087 -268.4736 -119.0542
92.577087 -277.73126 -119.05429
92.577087 -286.98898 -119.05429
92.577087 -296.24667 -119.05428
92.577087 -305.50439 -119.05428
92.577087 -314.76215 -119.05429
92.577087 -324.01981 -119.05426
92.577087 -333.27753 -119.05426
92.577087 -342.53525 -119.05427
92.577087 -351.79294 -119.05425
92.577087 -361.05066 -119.05426
92.577087 -370.30838 -119.05427
92.577087 -379.56607 -119.05425
92.577087 -388.82379 -119.05424
92.577087 -398.08151 -119.05424
92.577087 -407.33923 -119.05425
92.576317 -416.59344 -119.06351
100.18596 309.66568 -137.14809
99.896011 299.68802 -140.32985
100.28421 291.73587 -136.0699
102.43413 288.67801 -112.47736
102.38816 279.24042 -112.98172
102.38816 269.93246 -112.9817
102.38816 260.62445 -112.98172
102.38816 251.31638 -112.98167
102.38816 242.00836 -112.9817
102.38816 232.70035 -112.98173
102.38816 223.39236 -112.98173
102.38816 214.08435 -112.98175
102.38816 204.77629 -112.9817
102.38816 195.46831 -112.9817
102.38816 186.16029 -112.98172
102.38816 176.85228 -112.98174
102.38816 167.54425 -112.98167
102.38816 158.23622 -112.98169
102.38816 148.92821 -112.98172
100.26258 136.72166 -136.30721
100.16805 127.48657 -137.3447
100.15339 118.36308 -137.50549
100.22059 109.33156 -136.76807
100.4301 100.43008 -134.46902
102.38816 93.080139 -112.98174
102.38816 83.772079 -112.98169
102.38816 74.464096 -112.98169
102.38816 65.156082 -112.98171
102.38816 55.848068 -112.98174
102.38816 46.540039 -112.98167
102.38816 37.232025 -112.98169
102.38816 27.924006 -112.98171
102.38816 18.61603 -112.98172
102.38816 9.3080139 -112.98174
102.38816 -5.1861065e-05 -112.98169
102.38816 -9.308033 -112.98169
102.38816 -18.616051 -112.98172
102.38816 -27.924068 -112.98174
102.38816 -37.232094 -112.98166
102.38816 -46.540108 -112.98169
102.38816 -55.848125 -112.98172
102.38816 -65.156143 -112.98174
102.38816 -74.464119 -112.98174
102.38816 -83.772186 -112.98168
102.38816 -93.080208 -112.98172
102.38816 -102.38818 -112.98171
102.38816 -111.6962 -112.98174
102.38816 -121.00426 -112.98168
102.38816 -130.31224 -112.98169
102.38816 -139.62025 -112.98171
102.38816 -148.92827 -112.98174
102.38816 -158.23625 -112.98174
102.38816 -167.54431 -112.98169
102.38816 -176.85233 -112.9817
102.38816 -186.16031 -112.98171
102.38816 -195.46832 -112.98174
102.38816 -204.7764 -112.98168
102.38816 -214.08437 -112.98168
102.38816 -223.39238 -112.98171
102.38816 -232.70039 -112.98174
102.38816 -242.00845 -112.98167
102.38816 -251.31644 -112.98168
102.38816 -260.62448 -112.98172
102.38816 -269.93246 -112.98172
102.38816 -279.24048 -112.98174
102.38816 -288.54852 -112.98168
102.38816 -297.85651 -112.98169
102.38816 -307.16455 -112.98173
102.38816 -316.47253 -112.98174
102.38816 -325.78058 -112.98167
102.38816 -335.08859 -112.98169
102.38816 -344.39658 -112.9817
102.38816 -353.70459 -112.98172
102.38816 -363.0126 -112.98174
102.38816 -372.32065 -112.98168
102.38816 -381.62863 -112.98169
102.38816 -390.93668 -112.98172
102.38816 -400.24466 -112.98174
102.38816 -409.55273 -112.98167
102.53555 -419.46365 -111.36433
109.89193 311.36041 -131.13106
109.55876 301.28665 -134.48244
109.9099 293.09305 -130.95032
111.74725 288.68039 -112.46803
112.30692 280.7673 -106.83808
112.30692 271.40833 -106.83808
112.30692 262.0495 -106.83812
112.30692 252.6906 -106.83807
112.30692 243.33162 -106.83809
112.30692 233.97275 -106.83813
112.30692 224.61385 -106.83808
112.30692 215.25493 -106.83807
112.30692 205.89604 -106.83813
112.30692 196.53711 -106.83812
112.30692 187.17818 -106.83809
112.30692 177.81924 -106.83807
112.30692 168.46036 -106.83813
112.30692 159.10144 -106.8381
112.30692 149.74255 -106.83807
112.30692 140.38367 -106.83812
112.30692 131.02473 -106.83811
112.30692 121.6658 -106.83809
112.30692 112.30687 -106.83806
112.30692 102.94799 -106.83813
112.30692 93.589058 -106.8381
112.30692 84.230179 -106.83807
112.30692 74.871292 -106.83812
112.30692 65.51236 -106.8381
112.30692 56.153431 -106.83808
112.30692 46.794498 -106.83806
112.30692 37.435619 -106.83812
112.30692 28.076687 -106.8381
112.30692 18.717758 -106.83807
112.30692 9.3589172 -106.83811
112.30692 -1.1027559e-05 -106.83809
112.30692 -9.358943 -106.83807
112.30692 -18.717819 -106.83813
112.30692 -28.076756 -106.83811
112.30692 -37.435688 -106.83809
112.30692 -46.794613 -106.83807
112.30692 -56.153458 -106.8381
112.30692 -65.512383 -106.83808
112.30692 -74.871315 -106.83807
112.30692 -84.230202 -106.83813
112.30692 -93.589134 -106.8381
112.30692 -102.94806 -106.83809
112.30692 -112.30698 -106.83806
112.30692 -121.66588 -106.83813
112.30692 -131.02477 -106.83808
112.30692 -140.3837 -106.83806
112.30692 -149.74257 -106.83812
112.30692 -159.1015 -106.8381
112.30692 -168.46043 -106.83807
112.30692 -177.81931 -106.83813
112.30692 -187.17825 -106.83812
112.30692 -196.53717 -106.8381
112.30692 -205.89606 -106.83805
112.30692 -215.25496 -106.83812
112.30692 -224.61388 -106.83809
112.30692 -233.97281 -106.83807
112.30692 -243.33168 -106.83813
112.30692 -252.6906 -106.8381
112.30692 -262.04953 -106.83808
112.30692 -271.40845 -106.83805
112.30692 -280.76733 -106.83812
112.30692 -290.12625 -106.83808
112.30692 -299.4852 -106.83807
112.30692 -308.84406 -106.83812
112.30692 -318.203 -106.8381
112.30692 -327.56192 -106.83807
112.30692 -336.92084 -106.83804
112.30692 -346.27972 -106.83811
112.30692 -355.63864 -106.83809
112.30692 -364.99756 -106.83806
112.30692 -374.35641 -106.83811
112.30692 -383.71536 -106.8381
112.30692 -393.07428 -106.83807
112.30692 -402.43317 -106.83813
112.30692 -411.79208 -106.8381
119.70425 313.0726 -125.05237
119.783 304.06451 -124.32104
119.70473 294.65781 -125.0478
121.04141 288.63718 -112.63622
125.14959 288.80673 -74.490005
125.14959 279.17981 -74.490005
125.14959 269.55292 -74.490013
125.14959 259.92603 -74.490005
125.14959 250.29913 -74.490013
125.14959 240.67223 -74.490013
125.14959 231.04535 -74.490013
125.14959 221.41844 -74.490013
125.14959 211.79156 -74.490021
125.14959 202.16466 -74.490028
125.14959 192.53781 -74.490005
125.14959 182.9109 -74.490005
125.14959 173.28401 -74.490005
125.14959 163.65712 -74.490005
125.14959 154.03023 -74.490013
125.14959 144.40332 -74.490013
125.14959 134.77643 -74.490013
125.14959 125.14954 -74.490021
125.14959 115.52264 -74.490021
125.14959 105.89575 -74.490028
125.14959 96.268898 -74.490005
125.14959 86.641998 -74.490005
125.14959 77.015106 -74.490005
125.14959 67.388206 -74.490005
125.14959 57.761318 -74.490013
125.14959 48.134422 -74.490013
125.14959 38.507526 -74.490021
125.14959 28.88063 -74.490021
125.14959 19.253738 -74.490028
125.14959 9.6268415 -74.490028
125.14959 -1.336642e-05 -74.490005
125.14959 -9.6269073 -74.490005
125.14959 -19.253803 -74.490005
125.14959 -28.880699 -74.490013
125.14851 -38.507256 -74.499969
125.14581 -48.13306 -74.52494
125.14527 -57.759373 -74.530006
125.14527 -67.385971 -74.529938
125.14527 -77.01252 -74.529953
125.14527 -86.639069 -74.529968
125.14527 -96.265617 -74.529984
125.14527 -105.89217 -74.529999
125.14527 -115.51877 -74.52993
125.14527 -125.14531 -74.529938
125.14527 -134.77187 -74.529953
125.14527 -144.39841 -74.529976
125.14527 -154.02496 -74.529991
125.14527 -163.65155 -74.529915
125.14527 -173.27811 -74.52993
125.14527 -182.90466 -74.529945
125.14527 -192.5312 -74.529968
125.14527 -202.15776 -74.529984
125.14527 -211.78435 -74.529907
125.14527 -221.4109 -74.529922
125.14527 -231.03746 -74.529938
125.14527 -240.66405 -74.529984
125.14527 -250.29057 -74.529984
125.14527 -259.91711 -74.529991
125.14527 -269.5437 -74.529922
125.14527 -279.17026 -74.529938
125.14527 -288.79681 -74.529961
125.14527 -298.42337 -74.529976
125.14527 -308.04996 -74.530006
125.14527 -317.67651 -74.529922
125.14527 -327.30307 -74.529945
125.14527 -336.92963 -74.529953
125.14527 -346.55618 -74.529976
125.14527 -356.18274 -74.529991
125.14527 -365.80933 -74.529922
125.14527 -375.43588 -74.529938
125.14527 -385.06244 -74.529961
125.14527 -394.689 -74.529984
125.14527 -404.31552 -74.529968
125.1442 -413.93857 -74.539909
129.68991 314.96118 -118.3473
129.62506 305.54477 -118.90646
129.6256 296.28708 -118.90182
130.51175 288.99023 -111.26132
134.79326 288.84271 -74.3452
135.52124 280.72253 -68.06855
135.52124 271.04251 -68.068512
135.52124 261.36237 -68.068443
135.52124 251.68228 -68.068451
135.52124 242.0022 -68.068466
135.52124 232.3221 -68.068466
135.52124 222.64201 -68.068481
135.52124 212.96193 -68.068497
135.52124 203.28183 -68.068512
135.52124 193.60175 -68.068512
135.52124 183.92165 -68.06852
135.52124 174.24161 -68.068512
135.52124 164.56151 -68.068512
135.52124 154.88142 -68.068527
135.52124 145.20132 -68.068542
135.52124 135.52118 -68.068466
135.52124 125.84109 -68.068481
135.52124 116.16101 -68.068497
135.52124 106.48096 -68.068474
135.52124 96.800865 -68.068481
135.52124 87.120773 -68.068497
135.52124 77.440681 -68.068504
135.52124 67.760597 -68.06852
135.52124 58.080502 -68.068527
135.52124 48.400414 -68.068542
135.52124 38.720364 -68.06852
135.52124 29.04027 -68.068527
135.52124 19.360128 -68.068459
135.52124 9.6800385 -68.068466
135.52124 -5.1876581e-05 -68.068481
135.52124 -9.6801424 -68.068489
135.52124 -19.360191 -68.068474
135.51949 -29.039909 -68.083618
135.51656 -38.719021 -68.108887
135.51656 -48.398766 -68.10891
135.51656 -58.078556 -68.108849
135.51656 -67.758301 -68.108871
135.51656 -77.438042 -68.108894
135.51656 -87.11779 -68.108917
135.51656 -96.797585 -68.108856
135.51656 -106.47733 -68.108879
135.51656 -116.15707 -68.108902
135.51656 -125.83682 -68.108925
135.51656 -135.51662 -68.108864
135.51656 -145.19637 -68.108887
135.51656 -154.8761 -68.108902
135.51656 -164.5558 -68.10891
135.51656 -174.2356 -68.108841
135.51656 -183.91534 -68.108864
135.51656 -193.59509 -68.108894
135.51656 -203.27483 -68.10891
135.51656 -212.95464 -68.108856
135.51656 -222.63437 -68.108871
135.51656 -232.31412 -68.108894
135.51656 -241.99387 -68.108925
135.51656 -251.67366 -68.108856
135.51656 -261.35339 -68.108864
135.51656 -271.03314 -68.108894
135.51656 -280.71289 -68.108917
135.51656 -290.39267 -68.108864
135.51656 -300.07239 -68.108871
135.51656 -309.75214 -68.108894
135.51656 -319.43188 -68.10891
135.51656 -329.11166 -68.108856
135.51656 -338.79141 -68.108871
135.51656 -348.47116 -68.108902
135.51656 -358.15091 -68.10891
135.51656 -367.83069 -68.108849
135.51656 -377.51044 -68.108887
135.51656 -387.19016 -68.108894
135.51656 -396.86993 -68.10891
135.51656 -406.54968 -68.108841
135.5148 -416.22403 -68.124031
139.6562 307.24356 -112.69226
139.65794 297.93692 -112.67823
140.2735 289.89856 -107.72464
144.42198 288.84396 -74.340263
146.00752 282.28125 -61.580734
146.00752 272.54736 -61.580669
146.00752 262.81351 -61.580704
146.00752 253.07965 -61.580723
146.00752 243.3459 -61.580688
146.00752 233.61205 -61.580723
146.00752 223.8782 -61.580746
146.00752 214.1443 -61.580688
146.00752 204.41051 -61.580692
146.00752 194.67665 -61.580711
146.00752 184.94284 -61.580723
146.00752 175.209 -61.580738
146.00752 165.47519 -61.58075
146.00752 155.7413 -61.580688
146.00752 146.00749 -61.580685
146.00752 136.27365 -61.580711
146.00752 126.53984 -61.580711
146.00752 116.80599 -61.580738
146.00752 107.07219 -61.580738
146.00752 97.338341 -61.580765
146.00752 87.604485 -61.580681
146.00752 77.870636 -61.580708
146.00752 68.136833 -61.580708
146.00752 58.402988 -61.580734
146.00752 48.669182 -61.580734
146.00752 38.935333 -61.580757
146.00752 29.201479 -61.580677
146.00752 19.46763 -61.5807
146.00752 9.7338266 -61.580704
146.00752 -2.0823505e-05 -61.58073
146.00752 -9.7338257 -61.580727
146.00562 -19.467413 -61.596066
146.00372 -29.200747 -61.611359
146.00372 -38.934338 -61.611343
146.00372 -48.667927 -61.611324
146.00372 -58.401524 -61.611305
146.00372 -68.135063 -61.61137
146.00372 -77.868652 -61.611351
146.00372 -87.602249 -61.611328
146.00372 -97.335838 -61.611309
146.00372 -107.06943 -61.61129
146.00372 -116.80297 -61.611351
146.00372 -126.53656 -61.611332
146.00372 -136.27019 -61.611336
146.00372 -146.00378 -61.611317
146.00372 -155.73732 -61.611378
146.00372 -165.47093 -61.611366
146.00372 -175.20451 -61.611347
146.00372 -184.93811 -61.611328
146.00372 -194.67165 -61.611389
146.00372 -204.40524 -61.61137
146.00372 -214.13882 -61.611351
146.00372 -223.87242 -61.611332
146.00372 -233.60602 -61.611309
146.00372 -243.33955 -61.611378
146.00372 -253.07314 -61.611355
146.00372 -262.80673 -61.611332
146.00372 -272.54031 -61.611317
146.00372 -282.27386 -61.611378
146.00372 -292.00745 -61.611355
146.00372 -301.74106 -61.61134
146.00372 -311.47464 -61.611317
146.00372 -321.20822 -61.611298
146.00372 -330.94177 -61.611362
146.00372 -340.67535 -61.61134
146.00372 -350.40897 -61.611317
146.00372 -360.14255 -61.611298
146.00372 -369.87607 -61.611362
146.00372 -379.60968 -61.611343
146.00372 -389.34326 -61.611328
146.00372 -399.07687 -61.611317
146.00372 -408.81049 -61.611298
146.00055 -418.53494 -61.636826
149.80014 308.9628 -106.40379
149.49092 298.98178 -108.73672
150.14774 290.91125 -103.78136
154.05144 288.84647 -74.330231
156.61159 283.85849 -55.015385
156.61159 274.07025 -55.015354
156.61159 264.28207 -55.015316
156.61159 254.49384 -55.015285
156.61159 244.70555 -55.015305
156.61159 234.91737 -55.01535
156.61159 225.12917 -55.015312
156.61159 215.34091 -55.015305
156.61159 205.55266 -55.015301
156.61159 195.7645 -55.015339
156.61159 185.97624 -55.015335
156.61159 176.18799 -55.015324
156.61159 166.39978 -55.015293
156.61159 156.61159 -55.015373
156.61159 146.82336 -55.015331
156.61159 137.03511 -55.015327
156.61159 127.24689 -55.015293
156.61159 117.45869 -55.015366
156.61159 107.67044 -55.015362
156.61159 97.882225 -55.01532
156.61159 88.093971 -55.015312
156.61159 78.305756 -55.015278
156.61159 68.517555 -55.015354
156.61159 58.729343 -55.01532
156.61159 48.94109 -55.015312
156.61159 39.152836 -55.015305
156.61159 29.364672 -55.015347
156.61159 19.576418 -55.015339
156.61159 9.7882051 -55.015305
156.61159 -4.8270918e-05 -55.015297
156.60886 -9.7880802 -55.035934
156.60748 -19.575958 -55.04631
156.60748 -29.363958 -55.046257
156.60748 -39.151909 -55.046288
156.60748 -48.939854 -55.046314
156.60748 -58.727852 -55.046261
156.60748 -68.5158 -55.046288
156.60748 -78.303749 -55.046318
156.60748 -88.091743 -55.046265
156.60748 -97.879692 -55.046291
156.60748 -107.66764 -55.046322
156.60748 -117.45564 -55.046268
156.60748 -127.24359 -55.046295
156.60748 -137.03154 -55.046326
156.60748 -146.81953 -55.046272
156.60748 -156.60748 -55.046303
156.60748 -166.39549 -55.046249
156.60748 -176.18344 -55.046276
156.60748 -185.97139 -55.046303
156.60748 -195.75938 -55.046249
156.60748 -205.54733 -55.046276
156.60748 -215.33533 -55.046329
156.60748 -225.12332 -55.04628
156.60748 -234.91127 -55.046307
156.60748 -244.69922 -55.046333
156.60748 -254.48721 -55.046284
156.60748 -264.27515 -55.046303
156.60748 -274.06314 -55.046246
156.60748 -283.8511 -55.046276
156.60748 -293.63907 -55.046326
156.60748 -303.42706 -55.046268
156.60748 -313.21503 -55.046295
156.60748 -323.00296 -55.046322
156.60748 -332.79095 -55.046272
156.60748 -342.57892 -55.046295
156.60748 -352.36685 -55.046329
156.60748 -362.15488 -55.046272
156.60748 -371.94281 -55.046307
156.60748 -381.73077 -55.046326
156.60748 -391.51877 -55.046284
156.60748 -401.3067 -55.046307
156.60748 -411.0947 -55.046261
156.70058 -421.13287 -54.343849
160.05756 310.69995 -100.04932
159.55334 300.33575 -103.62949
160.19017 292.11151 -99.107681
163.68105 288.84888 -74.320267
167.33482 285.45352 -48.376133
167.33482 275.61029 -48.376102
167.33482 265.76703 -48.37619
167.33482 255.92381 -48.37616
167.33482 246.0806 -48.376125
167.33482 236.23743 -48.376175
167.33482 226.3942 -48.376137
167.33482 216.5509 -48.376152
167.33482 206.70773 -48.376198
167.33482 196.8645 -48.376156
167.33482 187.02124 -48.376156
167.33482 177.17802 -48.376122
167.33482 167.33481 -48.376179
167.33482 157.49159 -48.376152
167.33482 147.64833 -48.376137
167.33482 137.80515 -48.37619
167.33482 127.96189 -48.376175
167.33482 118.11867 -48.376148
167.33482 108.27545 -48.37611
167.33482 98.432236 -48.376183
167.33482 88.589012 -48.376144
167.33482 78.74575 -48.376133
167.33482 68.90258 -48.376183
167.33482 59.059319 -48.376171
167.33482 49.216095 -48.376133
167.33482 39.372833 -48.376125
167.33482 29.529665 -48.376171
167.33482 19.686441 -48.376137
167.33482 9.8431807 -48.376125
167.33115 -9.2410155e-06 -48.402275
167.33041 -9.8429737 -48.407501
167.33041 -19.685982 -48.407448
167.33041 -29.528936 -48.407475
167.33041 -39.371895 -48.407501
167.33041 -49.214863 -48.407421
167.33041 -59.057819 -48.407448
167.33041 -68.900772 -48.407475
167.33041 -78.743729 -48.407501
167.33041 -88.586739 -48.407448
167.33041 -98.429695 -48.407475
167.33041 -108.27266 -48.407505
167.33041 -118.11562 -48.407421
167.33041 -127.95857 -48.407448
167.33041 -137.80153 -48.407478
167.33041 -147.64449 -48.407501
167.33041 -157.4875 -48.407448
167.33041 -167.33046 -48.407478
167.33041 -177.17342 -48.407501
167.33041 -187.01639 -48.407425
167.33041 -196.85933 -48.407448
167.33041 -206.7023 -48.407478
167.33041 -216.54524 -48.407497
167.33041 -226.38826 -48.407448
167.33041 -236.23122 -48.407482
167.33041 -246.07417 -48.407501
167.33041 -255.91714 -48.407429
167.33041 -265.76013 -48.407463
167.33041 -275.60306 -48.407475
167.33041 -285.44601 -48.407509
167.33041 -295.28903 -48.407452
167.33041 -305.13196 -48.407471
167.33041 -314.97491 -48.407497
167.33041 -324.81793 -48.407433
167.33041 -334.66086 -48.407452
167.33041 -344.50381 -48.407486
167.33041 -354.34677 -48.407505
167.33041 -364.18976 -48.407448
167.33041 -374.03275 -48.407482
167.33041 -383.87567 -48.407486
167.33041 -393.71866 -48.407429
167.33041 -403.56165 -48.407463
167.32968 -413.40277 -48.412693
170.4317 312.45807 -93.618195
169.9856 302.19662 -96.609848
170.45259 293.55719 -93.478134
173.31084 288.85138 -74.310249
178.17926 287.0665 -41.661957
178.17926 277.16769 -41.661926
178.17926 267.26886 -41.661953
178.17926 257.36996 -41.661972
178.17926 247.47118 -41.661938
178.17926 237.57231 -41.661961
178.17926 227.67343 -41.661983
178.17926 217.77466 -41.661961
178.17926 207.87578 -41.66198
178.17926 197.97694 -41.661968
178.17926 188.07812 -41.661968
178.17926 178.17924 -41.661987
178.17926 168.28041 -41.661987
178.17926 158.38158 -41.661976
178.17926 148.48267 -41.661919
178.17926 138.58383 -41.661911
178.17926 128.685 -41.661911
178.17926 118.78613 -41.661934
178.17926 108.88729 -41.661926
178.17926 98.988457 -41.661922
178.17926 89.089592 -41.661945
178.17926 79.190758 -41.661942
178.17926 69.291924 -41.661934
178.17926 59.393055 -41.661957
178.17926 49.494221 -41.661953
178.17926 39.59539 -41.661949
178.17926 29.696518 -41.661968
178.17847 19.7976 -41.667213
178.17453 9.8985643 -41.693653
178.17453 -1.1597252e-05 -41.693607
178.17453 -9.8986273 -41.693584
178.17453 -19.797195 -41.693642
178.17453 -29.69577 -41.693592
178.17453 -39.594337 -41.693649
178.17453 -49.492958 -41.693626
178.17453 -59.391571 -41.693604
178.17453 -69.2901 -41.693638
178.17453 -79.188713 -41.693611
178.17453 -89.087334 -41.693588
178.17453 -98.985855 -41.693623
178.17453 -108.88448 -41.6936
178.17453 -118.78304 -41.693657
178.17453 -128.68163 -41.693611
178.17453 -138.58025 -41.693588
178.17453 -148.47879 -41.693642
178.17453 -158.37738 -41.693592
178.17453 -168.27594 -41.693653
178.17453 -178.17456 -41.693634
178.17453 -188.07318 -41.693604
178.17453 -197.97169 -41.693642
178.17453 -207.87033 -41.693619
178.17453 -217.76895 -41.693596
178.17453 -227.66747 -41.693623
178.17453 -237.56609 -41.6936
178.17453 -247.46465 -41.693661
178.17453 -257.36322 -41.693611
178.17453 -267.26184 -41.693584
178.17453 -277.1604 -41.693645
178.17453 -287.05899 -41.693607
178.17453 -296.95761 -41.693565
178.17453 -306.85617 -41.693626
178.17453 -316.75476 -41.693592
178.17453 -326.65329 -41.693638
178.17453 -336.55191 -41.693607
178.17453 -346.45053 -41.693573
178.17453 -356.34909 -41.693634
178.17453 -366.24768 -41.693604
178.17453 -376.14621 -41.693645
178.17453 -386.04483 -41.693615
178.17453 -395.94345 -41.693584
178.17453 -405.84201 -41.693642
178.17296 -415.73691 -41.704201
180.94545 314.27362 -86.977051
180.92314 304.71265 -87.118752
180.92392 295.19159 -87.113869
182.86928 288.74097 -74.754616
189.14694 288.69794 -34.871433
189.14694 278.7428 -34.871433
189.14694 268.78775 -34.871387
189.14694 258.83261 -34.871399
189.14694 248.87749 -34.871399
189.14694 238.92241 -34.871479
189.14694 228.96735 -34.871437
189.14694 219.01222 -34.871441
189.14694 209.0571 -34.871441
189.14694 199.10201 -34.871418
189.14694 189.1469 -34.871403
189.14694 179.19177 -34.871403
189.14694 169.23672 -34.871464
189.14694 159.28165 -34.871441
189.14694 149.32651 -34.871445
189.14694 139.37141 -34.871422
189.14694 129.41629 -34.871429
189.14694 119.46119 -34.871399
189.14694 109.5061 -34.87138
189.14694 99.55101 -34.871468
189.14694 89.595917 -34.871441
189.14694 79.640785 -34.871445
189.14694 69.685692 -34.871422
189.14694 59.730564 -34.871426
189.14694 49.775471 -34.871407
189.14694 39.820377 -34.87138
189.14525 29.865049 -34.882126
189.14273 19.909765 -34.898148
189.14273 9.9548454 -34.898132
189.14273 -3.3067008e-05 -34.89809
189.14273 -9.9549026 -34.898155
189.14273 -19.909781 -34.898117
189.14273 -29.8647 -34.898098
189.14273 -39.819527 -34.89814
189.14273 -49.774448 -34.898125
189.14273 -59.729328 -34.898083
189.14273 -69.684189 -34.898148
189.14273 -79.639069 -34.898102
189.14273 -89.593994 -34.89809
189.14273 -99.54882 -34.898129
189.14273 -109.50374 -34.898113
189.14273 -119.45856 -34.898155
189.14273 -129.41348 -34.89814
189.14273 -139.36836 -34.898094
189.14273 -149.32323 -34.898159
189.14273 -159.27811 -34.898125
189.14273 -169.23303 -34.898109
