# .PCD v0.7 - Point Cloud Data file format
VERSION 0.7
FIELDS x y z
SIZE 4 4 4
TYPE F F F
COUNT 1 1 1
WIDTH 1478
HEIGHT 1
VIEWPOINT 0 0 0 1 0 0 0
POINTS 1478
DATA ascii
-134.78687 52.41708 -332.65778
-135.31284 45.104225 -329.13058
-135.84291 37.734131 -325.57587
-136.37715 30.306005 -321.99307
-136.91608 22.819338 -318.37894
-137.45882 15.273152 -314.73923
-138.00587 7.6669846 -311.07062
-138.5573 -2.8949124e-05 -307.37262
-139.11365 -7.7285557 -303.64175
-139.67398 -15.519341 -299.88406
-140.23885 -23.373177 -296.09598
-140.8083 -31.290771 -292.27713
-141.3824 -39.272911 -288.42709
-141.9612 -47.320415 -284.54562
-142.54475 -55.434074 -280.6322
-143.13263 -63.614559 -276.68979
-143.72588 -71.862953 -272.71146
-144.32407 -80.180054 -268.69989
-144.92726 -88.566696 -264.65482
-145.53549 -97.023705 -260.57578
-146.14888 -105.55199 -256.46237
-146.76744 -114.15247 -252.31421
-147.39128 -122.82608 -248.13069
-148.02043 -131.57375 -243.9115
-148.65443 -140.39587 -239.65982
-149.29445 -149.29448 -235.36778
-149.93999 -158.27003 -231.03867
-150.59113 -167.3235 -226.672
-151.24796 -176.45599 -222.26718
-151.91055 -185.66846 -217.82382
-152.57896 -194.96204 -213.34135
-153.25328 -204.33777 -208.81917
-153.933 -213.79585 -204.26093
-154.61938 -223.33914 -199.65796
-155.3119 -232.96788 -195.01384
-156.01065 -242.68324 -190.32793
-156.71571 -252.48647 -185.59962
-157.42719 -262.37866 -180.82838
-158.14516 -272.36115 -176.01366
-158.86969 -282.43503 -171.15479
-159.60089 -292.60168 -166.25124
-160.33821 -302.86111 -161.30655
-161.08304 -313.21707 -156.31171
-161.83481 -323.66965 -151.2702
-162.59363 -334.22031 -146.18144
-163.35959 -344.8703 -141.04474
-164.13281 -355.62112 -135.85944
-164.91339 -366.47427 -130.62474
-165.70143 -377.43109 -125.34004
-166.49634 -388.49152 -120.00924
-167.29962 -399.66025 -114.6224
-168.11067 -410.93729 -109.1833
-168.92966 -422.3241 -103.69122
-169.75662 -433.82254 -98.145317
-170.59175 -445.43402 -92.544937
-171.43512 -457.16034 -86.889114
-172.28688 -469.00323 -81.177048
-200.09785 364.88434 184.26189
-173.14256 305.54562 -7.1375847
-152.20694 259.64709 -155.7937
-135.78806 223.65089 -272.37814
-122.56654 194.66444 -366.25912
-113.54523 173.65739 -430.3161
-113.39041 166.75055 -431.41541
-113.73985 160.57387 -428.93414
-114.02145 154.26427 -426.93466
-114.6875 148.41911 -422.20526
-120.14816 148.41829 -383.43118
-120.59056 141.8712 -380.28983
-121.03624 135.27577 -377.12527
-121.48521 128.63135 -373.93723
-121.93793 121.93787 -370.72266
-122.39363 115.19395 -367.48688
-122.85275 108.39944 -364.22681
-123.31574 101.55412 -360.93933
-123.78182 94.65667 -357.62985
-124.25144 87.706894 -354.29529
-124.72464 80.704178 -350.9353
-125.20186 73.648148 -347.54669
-125.68234 66.537689 -344.13498
-126.16651 59.372433 -340.69702
-126.65443 52.151791 -337.23248
-127.14658 44.875225 -333.73798
-127.64213 37.541759 -330.2193
-128.14156 30.150927 -326.67303
-128.6449 22.701988 -323.09894
-129.15265 15.194378 -319.49356
-129.66354 7.6272511 -315.86584
-130.17896 -3.3374283e-05 -312.20618
-130.69847 -7.688168 -308.51727
-131.22215 -15.43791 -304.79883
-131.75005 -23.25005 -301.05045
-132.2822 -31.12528 -297.27179
-132.81868 -39.064365 -293.46249
-133.35951 -47.068108 -289.62219
-133.90479 -55.137283 -285.75052
-134.45404 -63.272537 -281.85031
-135.00832 -71.475067 -277.91464
-135.56717 -79.745453 -273.94641
-136.13069 -88.084625 -269.94519
-136.6989 -96.493401 -265.91055
-137.27185 -104.97263 -261.84204
-137.84967 -113.52325 -257.73941
-138.43233 -122.14623 -253.60197
-139.01996 -130.84236 -249.42944
-139.61209 -139.61211 -245.22502
-140.20981 -148.45744 -240.98093
-140.81265 -157.37888 -236.70027
-141.4207 -166.37733 -232.38272
-142.03403 -175.45387 -228.02771
-142.65269 -184.60941 -223.63477
-143.27678 -193.84511 -219.20338
-143.90636 -203.16194 -214.73303
-144.54092 -212.56024 -210.22717
-145.18169 -222.04262 -205.67738
-145.82814 -231.60942 -201.08716
-146.48038 -241.26183 -196.45586
-147.13849 -251.00093 -191.78293
-147.80252 -260.828 -187.06778
-148.4726 -270.74417 -182.30989
-149.14874 -280.75064 -177.50873
-149.8311 -290.84863 -172.66362
-150.51912 -301.0383 -167.77815
-151.21411 -311.32321 -162.84334
-151.91553 -321.70355 -157.86278
-152.6235 -332.1806 -152.83582
-153.33809 -342.75577 -147.76176
-154.05942 -353.43045 -142.63997
-154.78754 -364.20602 -137.46973
-155.5226 -375.08389 -132.25044
-156.26402 -386.06409 -126.98584
-157.01318 -397.15106 -121.66625
-157.76959 -408.34485 -116.29544
-158.53329 -419.647 -110.87256
-159.30443 -431.05908 -105.39698
-160.08313 -442.58276 -99.867813
-160.86946 -454.21967 -94.284386
-161.66356 -465.97144 -88.645782
-183.21823 354.98529 145.71622
-158.80675 297.76263 -38.454193
-140.03586 253.81496 -180.06958
-125.23334 219.15831 -291.746
-113.19846 191.02235 -382.54214
-106.42004 172.93256 -433.6813
-106.47505 166.36722 -433.26633
-107.02563 160.53839 -429.11258
-107.1853 154.07887 -427.90787
-107.74911 148.15498 -423.6543
-112.54066 147.70959 -387.50488
-112.95306 141.19128 -384.39349
-113.3685 134.62505 -381.25925
-113.787 128.01035 -378.1019
-114.20898 121.347 -374.91837
-114.63372 114.63367 -371.7139
-115.06164 107.87027 -368.4855
-115.49276 101.05613 -365.23294
-115.9275 94.191086 -361.95306
-116.36515 87.273834 -358.65128
-116.80611 80.304199 -355.32443
-117.25043 73.281494 -351.97229
-117.69854 66.205414 -348.59164
-118.14969 59.074821 -345.18802
-118.60432 51.889355 -341.75812
-119.06244 44.64838 -338.30182
-119.52412 37.351265 -334.81863
-119.9894 29.997305 -331.30838
-120.45833 22.585878 -327.77066
-120.93092 15.116329 -324.2052
-121.40683 7.5878763 -320.61475
-121.88691 -8.9420437e-06 -316.9928
-122.3708 -7.6481905 -313.3421
-122.85855 -15.357362 -309.66229
-123.35021 -23.128201 -305.95303
-123.84582 -30.961504 -302.21399
-124.34542 -38.857964 -298.44476
-124.84908 -46.818459 -294.64496
-125.35683 -54.843636 -290.8143
-125.86829 -62.934158 -286.95569
-126.38437 -71.091248 -283.0621
-126.90472 -79.315437 -279.13644
-127.42935 -87.607704 -275.17828
-127.95836 -95.968796 -271.18726
-128.49176 -104.3996 -267.16306
-129.02963 -112.90096 -263.1051
-129.57204 -121.47382 -259.01303
-130.119 -130.11906 -254.88641
-130.67015 -138.83708 -250.72841
-131.22646 -147.62979 -246.53142
-131.78752 -156.49774 -242.29848
-132.35339 -165.44176 -238.0293
-132.92416 -174.46297 -233.72322
-133.49986 -183.56235 -229.37984
-134.08058 -192.74091 -224.99864
-134.66637 -201.99962 -220.57921
-135.25679 -211.33875 -216.12489
-135.85292 -220.76105 -211.62732
-136.45435 -230.26675 -207.09004
-137.0611 -239.85693 -202.51245
-137.67328 -249.53287 -197.89388
-138.29095 -259.29559 -193.23384
-138.9142 -269.1463 -188.53183
-139.54309 -279.08621 -183.78726
-140.17769 -289.11649 -178.99959
-140.81754 -299.23727 -174.1723
-141.46381 -309.45212 -169.29649
-142.11604 -319.76111 -164.37579
-142.77432 -330.16568 -159.40941
-143.43874 -340.66699 -154.3969
-144.10934 -351.2666 -149.33746
-144.78627 -361.9657 -144.23055
-145.46957 -372.76581 -139.07536
-146.15877 -383.66675 -133.87587
-146.8551 -394.67313 -128.62225
-147.55814 -405.78491 -123.31834
-148.26791 -417.00354 -117.96346
-148.98457 -428.33066 -112.55679
-149.70818 -439.76779 -107.0976
-150.43884 -451.31659 -101.58508
-151.17668 -462.97861 -96.018524
-167.01421 345.16266 107.46797
-145.18314 290.36624 -68.214928
-128.39954 248.23909 -203.27885
-115.09431 214.84267 -310.3511
-104.14801 187.46638 -398.44006
-99.534477 172.5264 -435.56696
-99.692436 166.15405 -434.29578
-99.938499 159.90158 -432.31564
-100.24374 153.70705 -429.85913
-101.31475 148.59491 -421.24045
-105.00513 147.00714 -391.54248
-105.38841 140.51787 -388.45801
-105.77418 133.98061 -385.35364
-106.16277 127.3953 -382.2265
-106.55424 120.76143 -379.07629
-106.94893 114.07885 -375.89999
-107.34622 107.34621 -372.70285
-107.74648 100.56336 -369.48184
-108.15007 93.730034 -366.23398
-108.55636 86.845085 -362.96448
-108.96571 79.908134 -359.67029
-109.37814 72.918739 -356.35123
-109.79337 65.875999 -353.00977
-110.21211 58.779747 -349.63998
-110.63406 51.629189 -346.24435
-111.05925 44.423676 -342.82266
-111.48773 37.162552 -339.37454
-111.91953 29.845184 -335.89972
-112.35469 22.470907 -332.39789
-112.79324 15.03905 -328.86868
-113.23484 7.5489497 -325.31497
-113.68031 -1.5106575e-05 -321.73013
-114.12927 -7.6086321 -318.11703
-114.58183 -15.27762 -314.47525
-115.03796 -23.007616 -310.8045
-115.49776 -30.799406 -307.10437
-115.96124 -38.653759 -303.37463
-116.42845 -46.571415 -299.61475
-116.89944 -54.553104 -295.82443
-117.37386 -62.599426 -292.00671
-117.85255 -70.711548 -288.15448
-118.33516 -78.890099 -284.27075
-118.82174 -87.135994 -280.35501
-119.31233 -95.449913 -276.40698
-119.80701 -103.83278 -272.42624
-120.30579 -112.28542 -268.41235
-120.80875 -120.80881 -264.36484
-121.31593 -129.4037 -260.28336
-121.82693 -138.07056 -256.17111
-122.34272 -146.81129 -252.02039
-122.86289 -155.62636 -247.83437
-123.3875 -164.51669 -243.61266
-123.9166 -173.48326 -239.35471
-124.45027 -182.52713 -235.06003
-124.98855 -191.64917 -230.72829
-125.53152 -200.85046 -226.35889
-126.07874 -210.13129 -221.95515
-126.63124 -219.49414 -217.50906
-127.18859 -228.93947 -213.0238
-127.75088 -238.46835 -208.49879
-128.31815 -248.08179 -203.93378
-128.89049 -257.78104 -199.32793
-129.46796 -267.56717 -194.68079
-130.05063 -277.44138 -189.99184
-130.63857 -287.40491 -185.2605
-131.23134 -297.4577 -180.49036
-131.83002 -307.60336 -175.67258
-132.43417 -317.84207 -170.8105
-133.04391 -328.17502 -165.90379
-133.65929 -338.60355 -160.95166
-134.28038 -349.129 -155.95351
-134.90727 -359.75275 -150.90866
-135.54005 -370.47617 -145.81644
-136.17824 -381.29907 -140.68076
-136.82301 -392.22598 -135.49199
-137.47394 -403.2569 -130.25378
-138.13107 -414.39322 -124.96558
-138.79451 -425.63657 -119.62654
-139.46437 -436.9884 -114.23595
-140.14072 -448.45035 -108.79311
-140.82367 -460.02402 -103.2972
-151.54866 335.57199 70.123009
-132.21938 283.32718 -96.537796
-117.26305 242.90199 -225.49408
-105.20872 210.4174 -329.42886
-95.422272 184.02863 -413.80945
-92.810333 172.36203 -436.33011
-93.011787 166.09244 -434.59314
-93.068085 159.54527 -434.1077
-93.499748 153.6067 -430.38577
-97.189751 152.72672 -398.56992
-97.541245 146.31186 -395.53925
-97.895599 139.85078 -392.48398
-98.25222 133.34229 -389.40906
-98.611458 126.78613 -386.31168
-98.973328 120.18187 -383.19159
-99.337868 113.52895 -380.04849
-99.705093 106.82687 -376.88214
-100.07506 100.07503 -373.69229
-100.44777 93.272911 -370.47867
-100.82327 86.419922 -367.24103
-101.20159 79.515495 -363.9791
-101.58275 72.559067 -360.69263
-101.96647 65.54985 -357.38416
-102.35342 58.487656 -354.0477
-102.74335 51.371632 -350.68582
-103.13622 44.201229 -347.29822
-103.53214 36.975754 -343.88464
-103.93109 29.694599 -340.44473
-104.33314 22.357056 -336.97824
-104.73831 14.962579 -333.48474
-105.14629 7.5104141 -329.96707
-105.55781 -2.9524828e-05 -326.41891
-105.97256 -7.5694995 -322.84283
-106.39059 -15.198689 -319.23849
-106.81193 -22.888296 -315.60559
-107.23663 -30.639069 -311.94388
-107.6647 -38.451736 -308.25287
-108.09621 -46.326984 -304.53229
-108.5312 -54.265648 -300.78177
-108.96932 -62.268208 -297.00427
-109.41138 -70.335938 -293.19278
-109.85703 -78.469315 -289.35025
-110.30633 -86.669289 -285.47629
-110.75932 -94.9366 -281.5705
-111.21603 -103.27209 -277.63254
-111.67654 -111.67656 -273.66199
-112.14089 -120.15098 -269.65839
-112.6087 -128.69566 -265.62485
-113.08083 -137.31247 -261.55396
-113.55695 -146.00182 -257.44882
-114.03709 -154.76465 -253.30894
-114.5213 -163.6019 -249.13394
-115.00966 -172.51453 -244.92328
-115.50219 -181.50349 -240.67657
-115.99895 -190.56976 -236.39337
-116.50001 -199.71432 -232.07317
-117.00498 -208.93752 -227.71922
-117.51479 -218.24179 -223.32356
-118.02905 -227.62752 -218.88945
-118.54784 -237.0957 -214.4164
-119.07121 -246.64755 -209.90378
-119.59923 -256.28409 -205.35112
-120.13194 -266.00647 -200.75798
-120.66942 -275.81586 -196.12373
-121.21173 -285.71338 -191.44783
-121.75847 -295.69916 -186.73376
-122.31063 -305.77658 -181.97285
-122.86784 -315.94589 -177.16855
-123.43014 -326.20825 -172.32031
-123.9976 -336.56494 -167.42749
-124.57031 -347.01733 -162.48944
-125.14834 -357.56671 -157.5056
-125.73177 -368.21445 -152.47525
-126.32012 -378.96048 -147.40218
-126.91455 -389.80899 -142.27702
-127.51459 -400.76016 -137.10336
-128.12033 -411.81534 -131.8806
-128.73184 -422.97614 -126.60789
-129.34924 -434.24387 -121.28471
-129.97258 -445.62033 -115.9101
-130.60196 -457.10687 -110.48349
-159.00624 391.39993 239.88385
-136.91998 326.5015 34.803318
-119.86977 276.62256 -123.51535
-106.59574 237.79045 -246.77054
-95.957092 206.67679 -345.55508
-87.27935 181.27246 -426.13165
-86.216484 172.43295 -436.00085
-86.41037 166.17377 -434.20059
-86.401909 159.5112 -434.27908
-86.837509 153.63557 -430.23438
-89.824303 152.01033 -402.50064
-90.147629 145.62305 -399.49841
-90.473297 139.18967 -396.47449
-90.801315 132.70958 -393.42868
-91.131447 126.18196 -390.36331
-91.464264 119.60711 -387.27286
-91.799522 112.98401 -384.15985
-92.137253 106.31217 -381.0239
-92.477478 99.591095 -377.86472
-92.820221 92.820168 -374.68219
-93.16552 85.998932 -371.47601
-93.513397 79.126701 -368.24582
-93.863876 72.202942 -364.99146
-94.21669 65.226883 -361.71542
-94.572472 58.198444 -358.41183
-94.930954 51.116661 -355.08319
-95.29216 43.980957 -351.72922
-95.656128 36.790764 -348.34961
-96.022888 29.545488 -344.94409
-96.392471 22.244406 -341.51236
-96.764908 14.886915 -338.05411
-97.139908 7.4722867 -334.57205
-97.518158 -1.0745578e-05 -331.05984
-97.899368 -7.5307608 -327.5202
-98.283554 -15.120573 -323.95273
-98.670784 -22.770235 -320.35721
-99.061073 -30.48036 -316.73322
-99.45446 -38.251759 -313.08044
-99.850983 -46.085102 -309.39856
-100.25068 -53.981144 -305.68723
-100.65324 -61.940498 -301.94916
-101.05939 -69.964218 -298.17783
-101.46886 -78.052986 -294.37595
-101.88164 -86.20755 -290.54303
-102.2978 -94.428726 -286.67889
-102.71736 -102.71736 -282.78299
-103.14038 -111.0743 -278.85501
-103.5669 -119.5003 -274.89459
-103.9966 -127.99587 -270.90466
-104.43025 -136.56267 -266.87808
-104.86753 -145.2012 -262.81769
-105.30849 -153.91243 -258.72318
-105.75317 -162.69724 -254.59413
-106.20162 -171.5565 -250.43004
-106.6539 -180.49127 -246.23047
-107.11004 -189.50243 -241.995
-107.57011 -198.59097 -237.72319
-108.03373 -207.7572 -233.41818
-108.50177 -217.0036 -229.07214
-108.9739 -226.33041 -224.68837
-109.45014 -235.7388 -220.26613
-109.93056 -245.22975 -215.80522
-110.41524 -254.80443 -211.3049
-110.90419 -264.46387 -206.76471
-111.39748 -274.20923 -202.18419
-111.89521 -284.04172 -197.56264
-112.39695 -293.96127 -192.90376
-112.90366 -303.97144 -188.19875
-113.41496 -314.0722 -183.45116
-113.9309 -324.26489 -178.66039
-114.45156 -334.55078 -173.82578
-114.977 -344.93103 -168.94682
-115.50729 -355.40707 -164.02284
-116.0425 -365.98022 -159.05325
-116.58221 -376.6503 -154.04169
-117.12745 -387.42163 -148.97894
-117.67781 -398.29416 -143.86862
-118.23338 -409.26938 -138.71005
-118.7942 -420.34872 -133.50256
-119.36037 -431.53363 -128.24542
-119.93196 -442.82574 -122.93786
-120.50906 -454.22647 -117.5793
-142.49722 379.99252 196.85284
-123.06131 317.90833 1.3426672
-108.09114 270.22781 -149.2457
-96.226723 232.54788 -268.59253
-86.947594 202.87767 -361.93329
-79.997902 179.99522 -431.84183
-79.715401 172.71666 -434.6835
-79.878586 166.41371 -433.04202
-79.914673 159.8293 -432.67899
-80.288635 153.88651 -428.91724
-82.535995 151.31595 -406.31055
-82.894295 145.06499 -402.70636
-83.2668 138.77797 -398.95917
-83.42337 132.08698 -397.38422
-83.722374 125.58356 -394.37646
-84.026688 119.03777 -391.31534
-84.333214 112.44426 -388.2319
-84.641991 105.80245 -385.12589
-84.953033 99.111855 -381.99704
-85.266365 92.371872 -378.84512
-85.582024 85.582008 -375.66989
-85.900024 78.741684 -372.47101
-86.220398 71.850304 -369.24829
-86.542892 64.907166 -366.00424
-86.868095 57.912033 -362.73297
-87.19574 50.864174 -359.4371
-87.525879 43.762901 -356.11621
-87.858513 36.607674 -352.77014
-88.193695 29.397846 -349.3985
-88.531441 22.132828 -346.00107
-88.87178 14.811938 -342.57745
-89.214455 7.4345164 -339.1304
-89.560081 -4.3894233e-06 -335.65372
-89.908394 -7.4923844 -332.14996
-90.25943 -15.043276 -328.61884
-90.613213 -22.65333 -325.06
-90.96978 -30.323292 -321.47324
-91.329163 -38.053875 -317.85806
-91.691399 -45.845703 -314.21426
-92.056526 -53.699665 -310.54141
-92.424248 -61.616203 -306.84244
-92.795242 -69.596451 -303.1105
-93.169228 -77.641075 -299.34845
-93.546234 -85.750786 -295.55603
-93.926308 -93.926338 -291.73282
-94.309486 -102.16866 -287.87833
-94.695801 -110.47844 -283.99237
-95.085297 -118.85664 -280.07437
-95.477669 -127.30356 -276.12744
-95.873627 -135.82098 -272.14435
-96.272888 -144.40935 -268.12805
-96.675491 -153.06955 -264.07825
-97.081474 -161.80249 -259.99429
-97.490883 -170.60905 -255.87601
-97.903755 -179.49026 -251.72275
-98.320145 -188.44698 -247.53426
-98.740089 -197.48022 -243.30995
-99.163269 -206.59019 -239.05309
-99.590462 -215.77933 -234.75592
-100.02135 -225.04808 -230.42142
-100.45598 -234.39732 -226.04936
-100.89441 -243.82822 -221.63911
-101.33668 -253.34172 -217.19023
-101.78284 -262.93909 -212.70213
-102.23296 -272.62128 -208.17439
-102.68707 -282.38943 -203.6064
-103.14484 -292.24374 -199.0016
-103.6071 -302.18744 -194.35153
-104.07352 -312.22064 -189.65965
-104.54417 -322.34457 -184.92534
-105.0191 -332.56052 -180.14793
-105.49836 -342.86969 -175.32704
-105.982 -353.27341 -170.46182
-106.47012 -363.77292 -165.55186
-106.96231 -374.36813 -160.60077
-107.45951 -385.06329 -155.59929
-107.96136 -395.85831 -150.55118
-108.46791 -406.7547 -145.45561
-108.97924 -417.75378 -140.31203
-109.49541 -428.85706 -135.11977
-110.01649 -440.06601 -129.87807
-110.54256 -451.38214 -124.58624
-127.05872 369.62537 157.74542
-109.91294 309.75458 -30.407169
-96.844391 264.12103 -173.81744
-86.424896 227.84743 -288.15781
-78.148941 198.92453 -378.97565
-73.314392 179.95348 -432.02853
-73.244453 173.12325 -432.79605
-73.389275 166.79379 -431.20682
-73.638374 160.66554 -428.47324
-73.835831 154.38397 -426.30646
-75.296478 150.59293 -410.27777
-75.564507 144.25949 -407.33646
-75.834457 137.88081 -404.37411
-76.106339 131.45639 -401.39053
-76.379944 124.98534 -398.38809
-76.655281 118.46722 -395.36661
-77.278297 112.40475 -388.52985
-77.301323 105.41087 -388.27716
-77.500656 98.637177 -386.08978
-77.785126 91.927856 -382.96802
-78.071701 85.169106 -379.82327
-78.36039 78.360374 -376.65524
-78.65123 71.501106 -373.46375
-78.943977 64.590492 -370.25119
-79.239166 57.628468 -367.01184
-79.536568 50.614143 -363.7482
-79.83622 43.54702 -360.45996
-80.13813 36.426388 -357.14688
-80.442345 29.251709 -353.80862
-80.748863 22.022369 -350.44489
-81.057732 14.737752 -347.05548
-81.368706 7.3971543 -343.64294
-81.682343 -4.3097061e-05 -340.2012
-81.998405 -7.4544001 -336.73279
-82.316925 -14.966729 -333.2374
-82.637932 -22.537651 -329.71484
-82.961449 -30.167854 -326.16461
-83.287514 -37.857986 -322.58649
-83.61615 -45.608871 -318.98016
-83.947388 -53.421085 -315.34525
-84.280968 -61.295296 -311.68457
-84.617516 -69.232529 -307.99158
-84.956741 -77.233467 -304.26883
-85.298714 -85.298729 -300.51627
-85.64344 -93.429245 -296.73322
-85.990974 -101.62574 -292.91953
-86.341331 -109.889 -289.07483
-86.694557 -118.21988 -285.19864
-87.050377 -126.61875 -281.29398
-87.409447 -135.08737 -277.35367
-87.771484 -143.62608 -273.3808
-88.136536 -152.23589 -269.37482
-88.504631 -160.91753 -265.33542
-88.875816 -169.67204 -261.26212
-89.25013 -178.50031 -257.15454
-89.627617 -187.40326 -253.01212
-90.008301 -196.38177 -248.83461
-90.391907 -205.43617 -244.62508
-90.779129 -214.56889 -240.37582
-91.169678 -223.78017 -236.08997
-91.563606 -233.07104 -231.76712
-91.960953 -242.44254 -227.40678
-92.361763 -251.89575 -223.00839
-92.766083 -261.4317 -218.57158
-93.173958 -271.05154 -214.09567
-93.585083 -280.75528 -209.58409
-94.000206 -290.54614 -205.02864
-94.419037 -300.42426 -200.43259
-94.841606 -310.39075 -195.79536
-95.267975 -320.4469 -191.11652
-95.698204 -330.59381 -186.3954
-96.132324 -340.83286 -181.63138
-96.570412 -351.16516 -176.82401
-97.012505 -361.59213 -171.97256
-97.458282 -372.11346 -167.08075
-97.908562 -382.73349 -162.13956
-98.363022 -393.45212 -157.15247
-98.821724 -404.27072 -152.1188
-99.284714 -415.19067 -147.03804
-99.752075 -426.21341 -141.90941
-100.22385 -437.34045 -136.73228
-100.70011 -448.57327 -131.50589
-112.1824 358.98358 117.60272
-97.422577 302.00998 -60.563972
-86.012764 258.0383 -198.2926
-77.061272 223.47766 -306.34674
-69.721756 195.22087 -394.94257
-66.77459 180.29134 -430.51794
-66.81382 173.71588 -430.04437
-66.912392 167.28096 -428.85452
-67.068626 160.96468 -426.96863
-67.607567 155.49736 -420.46301
-68.235153 150.11729 -412.88736
-68.396385 143.6324 -410.94116
-68.621155 137.24231 -408.22787
-68.866035 130.84544 -405.27194
-69.112671 124.40281 -402.29483
-69.361076 117.91378 -399.2963
-69.611275 111.37801 -396.27612
-69.863068 104.79456 -393.23676
-70.116905 98.163605 -390.17261
-70.372597 91.484352 -387.08615
-70.638626 84.766304 -383.87494
-71.1381 78.251892 -377.84567
-71.203896 71.203888 -377.05151
-71.418839 64.276932 -374.45697
-71.684586 57.347637 -371.24899
-71.952324 50.366589 -368.01718
-72.222069 43.333206 -364.76108
-72.493843 36.246902 -361.48047
-72.767662 29.107044 -358.17508
-73.043571 21.913019 -354.84464
-73.321579 14.664291 -351.48883
-73.601456 7.3600903 -348.11035
-73.883728 -2.0517758e-05 -344.70297
-74.168182 -7.4168301 -341.26938
-74.454826 -14.890997 -337.80923
-74.743698 -22.423134 -334.3223
-75.034821 -30.013977 -330.80814
-75.328217 -37.664162 -327.26654
-75.623924 -45.374382 -323.69708
-75.921951 -53.14537 -320.09955
-76.222084 -60.977699 -316.47659
-76.524857 -68.872398 -312.82178
-76.830048 -76.83007 -309.13782
-77.13768 -84.851501 -305.42435
-77.447784 -92.93737 -301.68103
-77.760399 -101.08851 -297.90756
-78.075546 -109.30582 -294.10336
-78.39325 -117.58991 -290.26828
-78.71328 -125.9413 -286.40518
-79.036209 -134.36159 -282.50708
-79.361801 -142.85126 -278.57687
-79.690086 -151.41122 -274.61407
-80.021103 -160.04225 -270.61841
-80.354874 -168.74529 -266.58939
-80.691444 -177.52121 -262.52661
-81.030846 -186.37097 -258.42972
-81.373116 -195.2955 -254.29814
-81.717987 -204.29501 -250.13509
-82.066101 -213.37192 -245.93301
-82.417191 -222.52649 -241.69501
-82.771294 -231.7597 -237.42056
-83.128456 -241.07257 -233.10927
-83.488716 -250.46619 -228.76057
-83.852112 -259.94162 -224.37401
-84.218689 -269.49979 -219.94913
-84.58815 -279.14093 -215.4892
-84.961205 -288.8681 -210.9861
-85.337555 -298.68149 -206.44312
-85.717262 -308.58218 -201.85965
-86.100357 -318.57135 -197.23521
-86.4869 -328.65027 -192.56931
-86.876923 -338.82007 -187.86131
-87.270477 -349.08191 -183.1107
-87.667618 -359.43729 -178.31679
-88.068039 -369.8858 -173.4832
-88.472488 -380.43173 -168.60115
-88.880669 -391.07498 -163.67397
-89.292633 -401.81686 -158.70114
-89.708427 -412.65884 -153.68195
-90.128128 -423.60217 -148.61584
-90.551758 -434.64847 -143.50211
-90.979401 -445.7991 -138.34001
-114.83048 421.0451 303.58209
-98.138695 348.93753 79.706833
-85.541565 294.64316 -89.24968
-75.860977 252.86987 -219.08858
-67.950287 218.95088 -325.18903
-61.701031 191.95874 -409.00601
-60.329979 180.9899 -427.39496
-60.408058 174.51212 -426.34775
-60.357605 167.66002 -427.02435
-60.606503 161.61732 -423.6861
-62.275169 159.14763 -401.30545
-62.108864 151.82167 -403.53595
-62.109055 144.9211 -403.53339
-62.108864 138.01967 -403.53595
-62.108486 131.11787 -403.54108
-62.117474 124.23492 -403.42047
-62.213299 117.51401 -402.13522
-62.371288 110.88229 -400.01627
-62.581898 104.30314 -397.19147
-62.808212 97.70163 -394.15613
-63.036171 91.052216 -391.09866
-63.265587 84.35408 -388.02167
-63.49688 77.607262 -384.91946
-63.729874 70.810974 -381.79449
-63.964588 63.964554 -378.64651
-64.200211 57.066856 -375.48624
-64.465385 50.139709 -371.9296
-64.841423 43.227589 -366.88602
-64.942917 36.079357 -365.52481
-65.168549 28.963758 -362.4986
-65.414413 21.80475 -359.2009
-65.662148 14.591559 -355.87827
-65.911545 7.3234563 -352.53326
-66.163071 -5.3299897e-05 -349.15979
-66.416512 -7.3796206 -345.7605
-66.671906 -14.816032 -342.33505
-66.929276 -22.309776 -338.88318
-67.188637 -29.861662 -335.40454
-67.45002 -37.472256 -331.89886
-67.71344 -45.142334 -328.36578
-67.97892 -52.872555 -324.80496
-68.246269 -60.663403 -321.21924
-68.515961 -68.515991 -317.60214
-68.787788 -76.430893 -313.95624
-69.061783 -84.40889 -310.28131
-69.337967 -92.450684 -306.57706
-69.616371 -100.55702 -302.84296
-69.897026 -108.72874 -299.07883
-70.179947 -116.96664 -295.28421
-70.46492 -125.271 -291.46207
-70.752472 -133.64357 -287.60541
-71.042366 -142.08479 -283.7171
-71.334656 -150.59541 -279.79688
-71.629364 -159.17636 -275.84427
-71.926506 -167.82854 -271.85883
-72.226135 -176.55283 -267.84012
-72.528259 -185.35002 -263.7879
-72.832932 -194.22121 -259.70151
-73.139908 -203.16644 -255.58432
-73.449753 -212.18823 -251.4286
-73.76223 -221.2867 -247.23759
-74.077377 -230.46297 -243.01076
-74.395226 -239.71799 -238.74763
-74.715813 -249.05276 -234.44774
-75.039177 -258.46835 -230.1107
-75.365356 -267.96576 -225.7359
-75.694099 -277.54504 -221.32677
-76.026009 -287.20938 -216.87511
-76.36084 -296.95886 -212.38422
-76.698639 -306.79459 -207.85367
-77.039429 -316.71765 -203.28279
-77.38327 -326.72937 -198.67114
-77.730186 -336.83084 -194.01807
-78.080231 -347.02335 -189.32318
-78.433441 -357.30795 -184.58585
-78.789566 -367.68463 -179.80951
-79.149239 -378.1575 -174.98544
-79.512207 -388.72638 -170.11713
-79.878525 -399.39267 -165.20396
-80.24823 -410.15768 -160.24532
-80.621376 -421.02277 -155.24063
-80.998009 -431.98944 -150.18906
-81.378181 -443.05899 -145.09016
-99.047684 408.57175 257.95563
-84.859215 339.4368 43.868107
-74.183662 287.46167 -117.21346
-65.869537 247.01077 -242.66389
-59.306667 214.98665 -341.69006
-54.33659 190.17802 -416.68271
-53.949631 182.08 -422.52145
-54.014992 175.54866 -421.53531
-53.948658 168.58952 -422.53616
-54.172363 162.51706 -419.16071
-55.925678 160.78629 -392.70523
-55.922363 153.78648 -392.75522
-55.922539 146.79665 -392.75259
-55.92271 139.80675 -392.74997
-55.92271 132.81641 -392.74994
-55.922539 125.82568 -392.75256
-55.922192 118.83462 -392.75784
-55.922016 111.844 -392.76047
-55.921669 104.85311 -392.76575
-55.921318 97.862274 -392.77103
-55.933186 90.891418 -392.59198
-56.03215 84.048187 -391.09866
-56.184784 77.254044 -388.79568
-56.379536 70.474411 -385.85703
-56.586006 63.659214 -382.74167
-56.79417 56.79417 -379.60068
-57.003876 49.878349 -376.43649
-57.215134 42.911339 -373.24881
-57.427963 35.892448 -370.03748
-57.642384 28.82115 -366.80215
-57.856731 21.69623 -363.5679
-58.112595 14.528105 -359.70724
-58.381943 7.2977209 -355.64304
-58.51918 -5.4200918e-05 -353.57227
-58.742229 -7.3428259 -350.20676
-58.96698 -14.741772 -346.81549
-59.193462 -22.197605 -343.39819
-59.421684 -29.710873 -339.95456
-59.65168 -37.282322 -336.48422
-59.883457 -44.912613 -332.98694
-60.117046 -52.60247 -329.46234
-60.352261 -60.352268 -325.91324
-60.589527 -68.163269 -322.33313
-60.828671 -76.035896 -318.72479
-61.069698 -83.970863 -315.08792
-61.312656 -91.968987 -311.42203
-61.557549 -100.03109 -307.72681
-61.804409 -108.15776 -304.00204
-62.053249 -116.34991 -300.24725
-62.303894 -124.60783 -296.46533
-62.556782 -132.93321 -292.64954
-62.811737 -141.32643 -288.80258
-63.068779 -149.78836 -284.92413
-63.32793 -158.31989 -281.01379
-63.589222 -166.92174 -277.07126
-63.85268 -175.59492 -273.09598
-64.118332 -184.34023 -269.08768
-64.3862 -193.15862 -265.04584
-64.656082 -202.05029 -260.9736
-64.928467 -211.01756 -256.86359
-65.203163 -220.06071 -252.7188
-65.480194 -229.18071 -248.53873
-65.759583 -238.37849 -244.32303
-66.041374 -247.65518 -240.07115
-66.325584 -257.01166 -235.78275
-66.612251 -266.44904 -231.45726
-66.901161 -275.96732 -227.09796
-67.192841 -285.56964 -222.69685
-67.487076 -295.25601 -218.25722
-67.78389 -305.02753 -213.77859
-68.083336 -314.8855 -209.26033
-68.385437 -324.83084 -204.702
-68.690231 -334.86493 -200.10303
-68.997749 -344.9888 -195.46289
-69.308037 -355.20377 -190.78099
-69.620857 -365.50952 -186.06091
-69.936783 -375.91025 -181.2939
-70.2556 -386.40582 -176.48341
-70.577332 -396.99753 -171.62886
-70.902023 -407.68665 -166.72969
-71.229713 -418.47458 -161.7852
-71.560448 -429.3627 -156.79477
-71.894264 -440.35245 -151.75778
-83.998184 395.99139 211.9384
-72.261726 330.33929 9.5502005
-63.382645 280.69458 -143.56395
-56.488285 242.09261 -262.45297
-50.870449 210.74899 -359.32898
-47.751957 191.0078 -413.1055
-47.600937 183.60358 -415.70978
-47.663139 177.03448 -414.63708
-47.744251 170.51514 -413.23837
-47.860664 164.09369 -411.2309
-49.573635 162.88477 -381.69183
-49.573792 155.80333 -381.68912
-49.573792 148.72131 -381.68909
-49.573948 141.63983 -381.6864
-49.574104 134.55827 -381.68372
-49.574104 127.47625 -381.68372
-49.574261 120.39458 -381.68103
-49.573948 113.31187 -381.6864
-49.573635 106.22919 -381.69183
-49.573479 99.146935 -381.69449
-49.573166 92.064423 -381.69992
-49.572849 84.981995 -381.70532
-49.572693 77.899933 -381.70804
-49.572384 70.817642 -381.71344
-49.572224 63.735687 -381.71613
-49.585861 56.669525 -381.48099
-49.685139 49.685127 -379.76898
-49.829899 42.711338 -377.27271
-50.007214 35.719433 -374.21503
-50.193024 28.681721 -371.01086
-50.380219 21.591482 -367.78284
-50.56881 14.448192 -364.53055
-50.758663 7.251215 -361.25674
-50.950108 -3.3549837e-05 -357.95535
-51.142174 -7.3060346 -354.64337
-51.335011 -14.667201 -351.31793
-51.753426 -22.180079 -344.10257
-51.783676 -29.590712 -343.58102
-51.931995 -37.094307 -341.02335
-52.132759 -44.685246 -337.56131
-52.335079 -52.335106 -334.07239
-52.538799 -60.04438 -330.55936
-52.744289 -67.81411 -327.01575
-52.951397 -75.644897 -323.44434
-53.160137 -83.537415 -319.84479
-53.370529 -91.492378 -316.21677
-53.582588 -99.510529 -312.55991
-53.796341 -107.59273 -308.87381
-54.011806 -115.73961 -305.15823
-54.228821 -123.95165 -301.41599
-54.447769 -132.23033 -297.64032
-54.668503 -140.57616 -293.83401
-54.891026 -148.98993 -289.99673
-55.115364 -157.47252 -286.12808
-55.341549 -166.02466 -282.22766
-55.569595 -174.64737 -278.29507
-55.799534 -183.34134 -274.33005
-56.031384 -192.1076 -270.332
-56.264957 -200.9463 -266.30405
-56.500698 -209.85979 -262.23886
-56.738419 -218.84822 -258.13956
-56.978149 -227.91261 -254.00554
-57.219913 -237.05397 -249.83641
-57.463741 -246.27321 -245.63182
-57.709652 -255.57137 -241.39119
-57.957676 -264.94946 -237.11411
-58.20763 -274.40744 -232.80385
-58.459969 -283.94846 -228.4525
-58.714497 -293.57257 -224.06326
-58.971252 -303.28076 -219.63565
-59.23027 -313.07431 -215.16916
-59.491566 -322.95428 -210.66315
-59.75518 -332.92175 -206.11734
-60.021145 -342.978 -201.53096
-60.289486 -353.12415 -196.90367
-60.559998 -363.36002 -192.23877
-60.833187 -373.68964 -187.52779
-61.108852 -384.11282 -182.77409
-61.387032 -394.63092 -177.97717
-61.667747 -405.24527 -173.13629
-61.95105 -415.95703 -168.25101
-62.236961 -426.76773 -163.32059
-62.525528 -437.67868 -158.34448
-69.84742 384.1608 168.66299
-60.352749 321.88135 -22.355
-53.122509 274.46628 -167.81616
-47.383617 236.91806 -283.27383
-42.795368 206.84427 -375.58218
-41.276867 192.62534 -406.13214
-41.249256 185.62163 -406.68759
-41.099434 178.0975 -409.70181
-41.275852 171.9827 -406.15253
-43.090855 172.36339 -369.63748
-43.056351 165.04932 -370.33163
-43.056351 157.87326 -370.33163
-43.056488 150.69769 -370.32889
-43.056488 143.52164 -370.32889
-43.056625 136.34593 -370.32611
-43.056625 129.16988 -370.32611
-43.056763 121.99414 -370.32336
-43.0569 114.81837 -370.32056
-43.0569 107.6422 -370.32056
-43.056625 100.46545 -370.32614
-43.056351 93.288742 -370.33167
-43.056213 86.112404 -370.33441
-43.055939 78.935883 -370.34
-43.055798 71.759613 -370.34277
-43.055523 64.583244 -370.3483
-43.055248 57.406956 -370.35388
-43.055107 50.230953 -370.35663
-43.054832 43.054802 -370.36215
-43.054699 35.87888 -370.36493
-43.05442 28.702925 -370.37051
-43.070282 21.535124 -370.05136
-43.166401 14.388779 -368.11758
-43.298069 7.2163277 -365.46866
-43.458195 -1.0208125e-05 -362.24713
-43.621922 -7.2703276 -358.95325
-43.786743 -14.595624 -355.6373
-43.952957 -21.976494 -352.29333
-44.120438 -29.413637 -348.92389
-44.289055 -36.9076 -345.53159
-44.457787 -44.45779 -342.13693
-44.631516 -52.070122 -338.64175
-44.948784 -59.931755 -332.25879
-45.00386 -67.505798 -331.15079
-45.154724 -75.257904 -328.11563
-45.331814 -83.108353 -324.55292
-45.510296 -91.020615 -320.96207
-45.690193 -98.995422 -317.3429
-45.871513 -107.03354 -313.69498
-46.054283 -115.13571 -310.01797
-46.238354 -123.30231 -306.3147
-46.424057 -131.53488 -302.57855
-46.611263 -139.83385 -298.81229
-46.799984 -148.2 -295.0155
-46.990242 -156.63417 -291.18787
-47.182053 -165.13721 -287.32895
-47.375435 -173.70996 -283.43842
-47.570408 -182.35327 -279.51584
-47.766991 -191.06799 -275.56085
-47.965034 -199.85435 -271.57657
-48.164902 -208.71461 -267.55551
-48.366444 -217.64903 -263.50089
-48.569675 -226.65852 -259.41211
-48.774624 -235.74406 -255.28889
-48.981308 -244.90657 -251.13069
-49.189751 -254.14709 -246.9371
-49.399979 -263.46655 -242.70773
-49.611828 -272.86508 -238.44565
-49.825684 -282.34558 -234.14319
-50.041393 -291.90817 -229.80347
-50.258976 -301.55389 -225.42603
-50.478462 -311.28387 -221.0103
-50.699875 -321.09918 -216.55592
-50.923229 -331.00107 -212.06219
-51.148567 -340.99054 -207.52875
-51.375912 -351.06873 -202.95503
-51.605087 -361.23566 -198.34442
-51.836506 -371.49503 -193.68851
-52.070026 -381.84686 -188.99057
-52.305649 -392.29242 -184.25014
-52.543411 -402.83289 -179.46671
-52.783356 -413.46964 -174.63945
-53.025494 -424.20398 -169.76801
-53.269863 -435.03726 -164.85164
-66.55426 452.56897 370.20352
-56.498558 372.89053 127.43733
-49.032162 313.80582 -52.817398
-43.234604 268.0545 -192.78288
-38.692463 232.15474 -302.43988
-35.272049 204.57785 -385.01599
-34.83746 195.08975 -395.50787
-34.838543 188.12811 -395.48172
-34.646431 180.16139 -400.11972
-34.873463 174.36728 -394.63864
-36.363281 174.54375 -358.67123
-36.363403 167.27162 -358.6684
-36.363403 159.99895 -358.66833
-36.363522 152.72676 -358.6655
-36.363636 145.45453 -358.66269
-36.363636 138.18182 -358.66266
-36.363758 130.90948 -358.65979
-36.363758 123.63673 -358.65979
-36.363873 116.36437 -358.65695
-36.363991 109.09195 -358.65408
-36.363991 101.81915 -358.65411
-36.363991 94.546356 -358.65411
-36.363758 87.272987 -358.65982
-36.363636 79.999969 -358.66266
-36.363403 72.726791 -358.66837
-36.363167 65.453682 -358.67407
-36.363049 58.180851 -358.67688
-36.362812 50.907902 -358.68259
-36.362694 43.635216 -358.68546
-36.362457 36.362446 -358.69116
-36.362225 29.089756 -358.69687
-36.362103 21.817247 -358.69971
-36.36187 14.544681 -358.70541
-36.361629 7.2722917 -358.71109
-36.361515 -5.1008636e-05 -358.71396
-36.361279 -7.2722592 -358.71967
-36.383831 -14.553568 -358.17508
-36.466976 -21.880219 -356.16779
-36.585598 -29.268484 -353.30411
-36.724724 -36.724773 -349.94525
-36.865036 -44.238083 -346.55786
-37.006424 -51.809013 -343.14447
-37.148899 -59.438263 -339.7048
-37.292599 -67.126694 -336.2355
-37.436291 -74.872612 -332.76654
-37.580967 -82.6782 -329.27365
-37.74202 -90.580864 -325.38559
-37.960976 -98.698563 -320.09955
-38.033405 -106.49355 -318.35089
-38.179359 -114.53809 -314.82724
-38.331161 -122.65977 -311.16241
-38.484306 -130.84666 -307.46524
-38.63868 -139.09924 -303.73831
-38.794296 -147.41838 -299.98135
-38.951172 -155.8047 -296.19406
-39.109322 -164.25916 -292.37604
-39.268761 -172.78261 -288.52679
-39.429504 -181.37579 -284.64609
-39.591568 -190.03952 -280.73355
-39.754829 -198.77422 -276.79199
-39.91959 -207.58189 -272.81445
-40.085716 -216.46294 -268.80374
-40.253231 -225.41814 -264.75958
-40.422153 -234.4485 -260.68146
-40.592499 -243.55502 -256.56897
-40.764286 -252.7386 -252.42163
-40.937534 -262.00024 -248.23907
-41.11211 -271.33994 -244.02443
-41.288334 -280.76068 -239.77
-41.466072 -290.26254 -235.47894
-41.645351 -299.84659 -231.1508
-41.826183 -309.51382 -226.78506
-42.008598 -319.26535 -222.3813
-42.192608 -329.10239 -217.93887
-42.378235 -339.02594 -213.45741
-42.565506 -349.03714 -208.93639
-42.754272 -359.13589 -204.3791
-42.944885 -369.32608 -199.77722
-43.137211 -379.60748 -195.13414
-43.331261 -389.98141 -190.4493
-43.527069 -400.4491 -185.72208
-43.724655 -411.01178 -180.95204
-43.924038 -421.67081 -176.13843
-44.125252 -432.42752 -171.28069
-51.593124 438.5416 320.40173
-43.955414 362.63214 89.913521
-38.215446 305.72354 -83.30545
-33.827854 262.16583 -215.71275
-30.343897 227.57922 -320.85046
-28.384676 205.78885 -379.97519
-28.251438 197.76006 -383.99591
-28.296934 191.00424 -382.62305
-28.257051 183.67081 -383.82654
-28.537516 178.35947 -375.36282
-29.487759 176.92651 -346.68671
-29.487759 169.5546 -346.68671
-29.487854 162.18315 -346.68375
-29.487854 154.8112 -346.68378
-29.487953 147.43973 -346.68085
-29.487953 140.06775 -346.68088
-29.48805 132.69621 -346.67792
-29.488146 125.3246 -346.67496
-29.488146 117.95259 -346.67499
-29.488245 110.58087 -346.67203
-29.488245 103.20885 -346.67206
-29.48834 95.837097 -346.66916
-29.488438 88.465286 -346.66623
-29.48834 81.092918 -346.66916
-29.488146 73.720322 -346.67499
-29.48805 66.348106 -346.67792
-29.487854 58.97567 -346.68378
-29.487663 51.603371 -346.68964
-29.487564 44.231331 -346.69257
-29.487371 36.85918 -346.69843
-29.487272 29.487263 -346.70132
-29.48708 22.115278 -346.70718
-29.486885 14.743403 -346.71301
-29.48679 7.3716807 -346.71597
-29.486593 -3.0294454e-05 -346.7218
-29.486498 -7.3716588 -346.72476
-29.486303 -14.743176 -346.73062
-29.486111 -22.114582 -346.73648
-29.486012 -29.486046 -346.73944
-29.485819 -36.857307 -346.74524
-29.48572 -44.228592 -346.7482
-29.512522 -51.64695 -345.93945
-29.583151 -59.166336 -343.80801
-29.684566 -66.790291 -340.74747
-29.799162 -74.497955 -337.28931
-29.914644 -82.265312 -333.80426
-30.031025 -90.093124 -330.29211
-30.148212 -97.981743 -326.75568
-30.266218 -105.93183 -323.19455
-30.38443 -113.94162 -319.62729
-30.503569 -122.01431 -316.03189
-30.642597 -130.23103 -311.83643
-30.788925 -138.5502 -307.42053
-30.87261 -146.64494 -304.89511
-30.996794 -154.98401 -301.14752
-31.121981 -163.39041 -297.36969
-31.248182 -171.86502 -293.56122
-31.375414 -180.40869 -289.72162
-31.503685 -189.02213 -285.85074
-31.632895 -197.70564 -281.95145
-31.763285 -206.46141 -278.01657
-31.894753 -215.2896 -274.04922
-32.027313 -224.19124 -270.04877
-32.160984 -233.16714 -266.01505
-32.295769 -242.21828 -261.94748
-32.431694 -251.34566 -257.84561
-32.568764 -260.55011 -253.70915
-32.706879 -269.83179 -249.54112
-32.846294 -279.19351 -245.33401
-32.986897 -288.63538 -241.09082
-33.128712 -298.15845 -236.81117
-33.271751 -307.76376 -232.49458
-33.416035 -317.45233 -228.14056
-33.561569 -327.22534 -223.7486
-33.708382 -337.08383 -219.31821
-33.85648 -347.02896 -214.84883
-34.00576 -357.06052 -210.34399
-34.15649 -367.18228 -205.79529
-34.308563 -377.39423 -201.20609
-34.461994 -387.69748 -196.57581
-34.616806 -398.09332 -191.90395
-34.773014 -408.58298 -187.18997
-34.930641 -419.16772 -182.43323
-35.089699 -429.84891 -177.63309
-37.455418 424.49478 270.53119
-32.019886 352.21875 51.822109
-27.967386 298.31873 -111.23793
-24.825428 256.52939 -237.66045
-22.318054 223.18054 -338.54935
-21.49176 207.75363 -371.79684
-21.482555 200.50381 -372.16721
-21.371288 192.34154 -376.64432
-21.491005 186.25531 -371.82724
-22.423409 186.86171 -334.31027
-22.421839 179.37468 -334.37347
-22.421839 171.90073 -334.37344
-22.421913 164.42732 -334.37045
-22.421988 156.95387 -334.36743
-22.421988 149.47989 -334.36743
-22.422062 142.00638 -334.36444
-22.422062 134.53235 -334.36444
-22.422136 127.05877 -334.36145
-22.422213 119.58514 -334.3584
-22.422213 112.11105 -334.35843
-22.422287 104.63729 -334.35538
-22.422287 97.163208 -334.35541
-22.422361 89.689423 -334.35242
-22.422361 82.215309 -334.35239
-22.422438 74.741409 -334.3494
-22.422361 67.267082 -334.35239
-22.422213 59.792538 -334.35843
-22.422136 52.318287 -334.36145
-22.421988 44.843937 -334.36743
-22.421913 37.369801 -334.37042
-22.421762 29.895649 -334.37646
-22.421614 22.421589 -334.38245
-22.421539 14.947685 -334.38547
-22.421389 7.4737506 -334.39148
-22.421314 -4.0030653e-05 -334.39456
-22.421165 -7.4737577 -334.40054
-22.421015 -14.947405 -334.40656
-22.42094 -22.420979 -334.40958
-22.420792 -29.894407 -334.41556
-22.420641 -37.367752 -334.4216
-22.420567 -44.84119 -334.42459
-22.420416 -52.314301 -334.43063
-22.420343 -59.787609 -334.43365
-22.420193 -67.260635 -334.43967
-22.420042 -74.733505 -334.44565
-22.41997 -82.206551 -334.4487
-22.447147 -89.788643 -333.35504
-22.505245 -97.522743 -331.01743
-22.584568 -105.39471 -327.82559
-22.673018 -113.36514 -324.26675
-22.762085 -121.39781 -320.68301
-22.851931 -129.49426 -317.06787
-22.942568 -137.65543 -313.42087
-23.033136 -145.8766 -309.77664
-23.124424 -154.16287 -306.10352
-23.216438 -162.51511 -302.40112
-23.406267 -171.64598 -294.76306
-23.427153 -179.60817 -293.92276
-23.50194 -188.01555 -290.91351
-23.597818 -196.64851 -287.05573
-23.694565 -205.35295 -283.16287
-23.792109 -214.12898 -279.23807
-23.890455 -222.97765 -275.28079
-23.989622 -231.89972 -271.29071
-24.089615 -240.89619 -267.2673
-24.190445 -249.96796 -263.21024
-24.292122 -259.11603 -259.11902
-24.394569 -268.3403 -254.99684
-24.497972 -277.64377 -250.83617
-24.602259 -287.02637 -246.64015
-24.707436 -296.48926 -242.40814
-24.813513 -306.03339 -238.13982
-24.920507 -315.65982 -233.8347
-25.028429 -325.36963 -229.49234
-25.137287 -335.16391 -225.11217
-25.247099 -345.04373 -220.69371
-25.357777 -355.00894 -216.24037
-25.469526 -365.06326 -211.74385
-25.582268 -375.20663 -207.20758
-25.696009 -385.44016 -202.63101
-25.810768 -395.76511 -198.0135
-25.926554 -406.18271 -193.35461
-26.043383 -416.69418 -188.65367
-26.16127 -427.30081 -183.91025
-24.17988 411.05801 222.82643
-20.770714 342.7168 17.064926
-18.20401 291.26413 -137.84933
-16.20195 251.1302 -258.6843
-14.70464 220.5696 -349.05493
-14.522779 210.58028 -360.03122
-14.523251 203.3255 -360.00281
-14.475303 195.41653 -362.89673
-14.560533 189.28688 -357.75269
-15.157629 189.47035 -321.71466
-15.157629 181.89153 -321.71469
-15.157681 174.31329 -321.71158
-15.157681 166.73445 -321.71161
-15.157731 159.15614 -321.70847
-15.157784 151.5778 -321.70535
-15.157784 143.99892 -321.70538
-15.157835 136.42047 -321.7023
-15.157835 128.84157 -321.7023
-15.157887 121.26305 -321.69919
-15.157887 113.68408 -321.69919
-15.157937 106.10552 -321.69611
-15.157989 98.526917 -321.69302
-15.157989 90.947876 -321.69299
-15.158039 83.369217 -321.68991
-15.158039 75.790184 -321.68991
-15.158091 68.211403 -321.6868
-15.158143 60.632557 -321.68372
-15.158039 53.05312 -321.68988
-15.157989 45.47393 -321.69302
-15.157887 37.894676 -321.69922
-15.157784 30.315514 -321.70538
-15.157731 22.736557 -321.7085
-15.157629 15.157629 -321.71466
-15.157578 7.5787654 -321.71777
-15.157476 -5.1966123e-05 -321.72394
-15.157372 -7.5787463 -321.73013
-15.157322 -15.157361 -321.73325
-15.15722 -22.735867 -321.73938
-15.157118 -30.31427 -321.74561
-15.157065 -37.89267 -321.74872
-15.156962 -45.470901 -321.75491
-15.156912 -53.04921 -321.758
-15.15681 -60.627289 -321.76416
-15.156706 -68.205208 -321.77036
-15.156655 -75.783302 -321.77347
-15.156553 -83.361046 -321.77966
-15.156502 -90.939064 -321.78275
-15.1564 -98.516632 -321.78894
-15.156297 -106.09413 -321.79507
-15.156245 -113.67188 -321.79822
-15.156912 -121.25531 -321.758
-15.179247 -129.02362 -320.40997
-15.221527 -136.9938 -317.85806
-15.27669 -145.1286 -314.52866
-15.337398 -153.37399 -310.86472
-15.39859 -161.68524 -307.17145
-15.460324 -170.0636 -303.44543
-15.522233 -178.50575 -299.7088
-15.584424 -187.01312 -295.95535
-15.647115 -195.58897 -292.1716
-15.710643 -204.23837 -288.33737
-15.822871 -213.60878 -281.56384
-15.847605 -221.8665 -280.07098
-15.906618 -230.64601 -276.50922
-15.972559 -239.58842 -272.52933
-16.039049 -248.6053 -268.51627
-16.106096 -257.6976 -264.46964
-16.173647 -266.86517 -260.39264
-16.241825 -276.11105 -256.27768
-16.310581 -285.43521 -252.12788
-16.379921 -294.83862 -247.94281
-16.449854 -304.32236 -243.72198
-16.520388 -313.88736 -239.465
-16.591526 -323.53482 -235.1713
-16.66328 -333.26569 -230.84048
-16.735661 -343.08105 -226.47211
-16.808607 -352.9808 -222.06934
-16.882257 -362.9686 -217.62419
-16.956554 -373.04425 -213.13994
-17.031507 -383.20898 -208.61609
-17.107128 -393.46396 -204.05202
-17.183424 -403.81046 -199.44724
-17.260401 -414.24966 -194.80115
-17.338072 -424.78278 -190.11336
-11.721751 398.53952 178.38211
-10.1125 333.71252 -15.871782
-8.8917351 284.53549 -163.23111
-7.9339881 245.9536 -278.84146
-7.3975458 221.92636 -343.59579
-7.3650088 213.58521 -347.52332
-7.3526096 205.87306 -349.02002
-7.3666072 198.89838 -347.33038
-7.6951694 200.07437 -307.6694
-7.6866684 192.1667 -308.69559
-7.6866946 184.48064 -308.69241
-7.6866946 176.79396 -308.69241
-7.6867208 169.10785 -308.68921
-7.6867208 161.42114 -308.68921
-7.686748 153.73492 -308.686
-7.686748 146.04817 -308.68604
-7.6867743 138.36189 -308.68283
-7.6868005 130.67557 -308.67966
-7.6868005 122.98876 -308.67969
-7.6868267 115.30238 -308.67648
-7.6868267 107.61555 -308.67648
-7.6868529 99.929062 -308.67331
-7.6868792 92.242508 -308.6701
-7.6868792 84.555649 -308.67017
-7.6869054 76.869019 -308.6669
-7.6869054 69.182137 -308.66693
-7.6869316 61.495434 -308.66376
-7.6869316 53.808479 -308.66373
-7.6869588 46.121704 -308.66055
-7.6869054 38.434502 -308.6669
-7.6868792 30.747501 -308.6701
-7.6868267 23.06045 -308.67651
-7.6868005 15.373582 -308.67966
-7.686748 7.686728 -308.686
-7.6866946 -3.5899906e-05 -308.69244
-7.6866684 -7.686686 -308.69556
-7.6866159 -15.373246 -308.70197
-7.686563 -23.059702 -308.70831
-7.6865363 -30.746202 -308.71149
-7.6864839 -38.432468 -308.71783
-7.6864572 -46.118759 -308.72107
-7.6864047 -53.804901 -308.72739
-7.6863523 -61.490826 -308.7338
-7.6863251 -69.176956 -308.73694
-7.6862726 -76.862747 -308.74338
-7.6862464 -84.548714 -308.74652
-7.6861939 -92.234344 -308.75287
-7.6861415 -99.919853 -308.75925
-7.6861143 -107.60564 -308.76239
-7.6860619 -115.29097 -308.7688
-7.6860094 -122.97616 -308.77518
-7.6859832 -130.66174 -308.77832
-7.6859303 -138.34677 -308.78473
-7.6859035 -146.0322 -308.7879
-7.6858506 -153.71707 -308.79422
-7.6867208 -161.42117 -308.68921
-7.7001147 -169.40256 -307.07245
-7.7223825 -177.61481 -304.38458
-7.7517986 -186.04318 -300.83362
-7.7830634 -194.57658 -297.05975
-7.8145528 -203.17841 -293.25861
-7.8463254 -211.85081 -289.42328
-7.8781085 -220.58707 -285.5867
-7.9101505 -229.39444 -281.71887
-7.9424539 -238.27365 -277.81955
-7.9782028 -247.32434 -273.50424
-8.0238895 -256.76453 -267.98929
-8.0426121 -265.40622 -265.7294
-8.0763292 -274.59521 -261.65936
-8.1103296 -283.86157 -257.55508
-8.144618 -293.20627 -253.41617
-8.1791973 -302.63034 -249.24207
-8.2140713 -312.13477 -245.03233
-8.2492447 -321.72058 -240.78661
-8.2847204 -331.38885 -236.5043
-8.3205013 -341.14062 -232.18506
-8.3565636 -350.97568 -227.83212
-8.3929701 -360.89771 -223.43747
-8.4296951 -370.90662 -219.00436
-8.4667425 -381.00348 -214.53221
-8.504118 -391.18945 -210.02069
-8.5418243 -401.46576 -205.46912
-8.5798664 -411.83365 -200.87698
-8.6182489 -422.29428 -196.2438
4.1828384e-23 386.76111 136.56476
2.9510787e-22 325.16925 -47.122063
3.4686222e-22 278.11182 -187.46268
3.3033956e-22 240.9861 -298.18436
3.1299931e-22 224.2191 -334.37048
2.0458402e-22 216.67792 -334.65027
2.3118088e-22 207.94691 -340.07938
1.4567613e-22 201.88745 -333.96701
2.6955036e-22 202.73851 -295.30063
4.1681845e-22 194.94087 -295.30066
3.6930262e-22 187.14389 -295.29733
9.3054234e-23 179.34622 -295.29736
2.7842059e-22 171.54915 -295.29407
1.461496e-22 163.75203 -295.2908
4.4154471e-22 155.95432 -295.2908
1.3976338e-22 148.15714 -295.28751
1.1752114e-22 140.35938 -295.28751
