# .PCD v0.7 - Point Cloud Data file format
VERSION 0.7
FIELDS x y z
SIZE 4 4 4
TYPE F F F
COUNT 1 1 1
WIDTH 1527
HEIGHT 1
VIEWPOINT 0 0 0 1 0 0 0
POINTS 1527
DATA ascii
4.9461732 4.592875 -5.1449256
4.9461732 4.4162269 -5.1449261
4.9461732 4.2395773 -5.1449261
4.9461732 4.0629287 -5.1449256
4.5580325 3.5813117 -6.8182387
4.5580325 3.4185245 -6.8182392
4.9461732 3.5329812 -5.1449261
4.9461732 3.3563316 -5.1449261
4.9461732 3.1796832 -5.1449261
4.9461732 3.0030336 -5.1449261
4.9461732 2.8263848 -5.1449256
4.9461732 2.6497355 -5.1449261
4.9461732 2.4730873 -5.1449261
4.9461732 2.2964375 -5.1449261
4.9461732 2.1197889 -5.1449256
4.8989878 1.9246023 -5.3483472
4.8863678 1.7451311 -5.4027534
4.8742595 1.566727 -5.4549518
4.8621264 1.3891786 -5.5072618
4.8502231 1.2125561 -5.5585771
4.8326883 1.0355759 -5.6341696
4.8328748 0.86301386 -5.6333675
4.8330607 0.6904372 -5.6325655
4.8331623 0.51783931 -5.6321278
4.8331623 0.3452262 -5.6321278
4.8331623 0.17261328 -5.6321282
4.8331623 3.4597264e-07 -5.6321282
4.8597302 -0.17356172 -5.5175896
4.8623314 -0.34730956 -5.5063763
4.8331113 -0.51783335 -5.6323471
4.8329425 -0.69042021 -5.6330752
4.832756 -0.86299253 -5.6338773
4.8327055 -1.0355797 -5.6340966
4.8326883 -1.2081723 -5.6341701
4.8326883 -1.3807677 -5.6341705
4.8326883 -1.553364 -5.6341691
4.8495584 -1.7319856 -5.5614409
4.8614926 -1.9098719 -5.5099931
4.8733482 -2.0885773 -5.4588823
4.8853478 -2.2681971 -5.4071512
4.8975978 -2.4487989 -5.3543382
4.9458899 -2.6495838 -5.1461473
4.9458899 -2.8262227 -5.1461482
4.9459076 -3.0028722 -5.1460714
4.9459076 -3.1795115 -5.1460724
4.9459076 -3.3561516 -5.1460714
4.9459076 -3.5327907 -5.1460724
4.9459076 -3.7094309 -5.1460714
4.9459076 -3.8860698 -5.1460724
4.9459076 -4.0627098 -5.1460714
4.5860367 -3.9308889 -6.6975093
4.5580325 -4.0696716 -6.8182392
4.9459076 -4.592628 -5.1460719
4.9459076 -4.769268 -5.1460714
4.9459076 -4.9459071 -5.1460724
4.9459076 -5.1225476 -5.1460714
4.9459076 -5.2991862 -5.1460724
4.9459076 -5.4758263 -5.146071
4.9047999 -5.6054859 -5.3232899
4.889534 -5.7626653 -5.3891025
4.8787546 -5.9242024 -5.4355745
4.8679366 -6.0849214 -5.4822121
4.857235 -6.2450161 -5.5283475
4.8465972 -6.4044309 -5.5742092
4.8326716 -6.5586267 -5.6342416
4.8326378 -6.731174 -5.6343894
4.8326039 -6.9037204 -5.6345334
4.8326378 -7.0763621 -5.6343889
4.8326545 -7.2489829 -5.634315
4.8326545 -7.421577 -5.634315
4.8326545 -7.5941715 -5.6343155
5.0190554 8.1343327 -5.5768485
5.0193372 7.9617081 -5.5756764
5.0193372 7.7886271 -5.5756755
5.0193901 7.6156268 -5.5754552
5.019443 7.4426231 -5.5752363
5.0714869 7.3449125 -5.3586073
5.0365362 7.1206207 -5.5040879
5.0354543 6.9454546 -5.5085902
5.0354719 6.7718425 -5.5085163
5.0354896 6.5982289 -5.5084429
5.0354896 6.4245901 -5.5084424
5.0354719 6.2509313 -5.5085163
5.0354719 6.0772939 -5.5085168
5.0467196 5.9168434 -5.4617
5.0578384 5.7554717 -5.4154177
5.0690961 5.5934854 -5.3685575
5.0804944 5.4308739 -5.3211126
5.0919261 5.2675099 -5.27353
5.1037555 5.1037555 -5.2242918
5.1537242 4.9760108 -5.0162988
5.1537242 4.798295 -5.0162983
5.1537242 4.6205807 -5.0162988
5.1537242 4.4428654 -5.0162988
5.1537242 4.265152 -5.0162988
5.1537242 4.0874367 -5.0162983
4.7563639 3.6082764 -6.6702881
4.7568855 3.4446411 -6.6681156
5.1537242 3.5542929 -5.0162988
5.1537242 3.3765779 -5.0162983
5.1537242 3.1988642 -5.0162983
5.1537242 3.0211487 -5.0162978
5.1537242 2.8434341 -5.0162983
5.1537242 2.665719 -5.0162983
5.1537242 2.4880054 -5.0162983
5.1537242 2.3102901 -5.0162983
5.1537242 2.1325755 -5.0162988
5.1058688 1.9367088 -5.2154937
5.0921073 1.7558993 -5.2727757
5.0794663 1.576386 -5.3253937
5.0667076 1.3977127 -5.3784986
5.0542278 1.2199864 -5.4304457
5.0354719 1.0418222 -5.5085154
5.0356669 0.86821902 -5.5077043
5.0358801 0.69460338 -5.5068188
5.0359507 0.52096003 -5.5065236
5.0359507 0.34730655 -5.5065236
5.0359507 0.17365381 -5.5065231
5.0359507 -1.9554177e-07 -5.5065227
5.0640707 -0.17462344 -5.3894763
5.0662055 -0.34939322 -5.3805919
5.0358973 -0.52095532 -5.5067449
5.0357203 -0.69458216 -5.5074821
5.0355253 -0.86819375 -5.5082946
5.0354896 -1.0418251 -5.5084434
5.0354896 -1.2154633 -5.5084419
5.0354719 -1.3890959 -5.5085168
5.0354719 -1.5627321 -5.5085163
5.0538349 -1.7427021 -5.4320812
5.0663486 -1.921718 -5.3799939
5.0787625 -2.101557 -5.328321
5.0913644 -2.2823358 -5.2758689
5.1050854 -2.464524 -5.2187557
5.1534457 -2.6655755 -5.0174575
5.1534457 -2.8432803 -5.0174584
5.1534457 -3.0209856 -5.017457
5.1534457 -3.1986904 -5.0174575
5.1534457 -3.376395 -5.017458
5.1534457 -3.554101 -5.017457
5.1534457 -3.7318056 -5.0174575
5.1534457 -3.9095104 -5.0174584
5.1534457 -4.0872164 -5.017457
4.7547345 -3.9349527 -6.6770678
4.7568855 -4.1007628 -6.6681156
5.1534648 -4.6203475 -5.0173802
5.1534648 -4.7980528 -5.0173812
5.1534648 -4.975759 -5.0173807
5.1534648 -5.1534638 -5.0173812
5.1534648 -5.3311701 -5.0173807
5.1534648 -5.5088754 -5.0173817
5.1044841 -5.6325336 -5.2212586
5.0924335 -5.794838 -5.2714171
5.0811086 -5.9571619 -5.3185573
5.069797 -6.118721 -5.3656397
5.0585899 -6.2796292 -5.4122901
5.0474854 -6.4398952 -5.4585109
5.0354543 -6.5981812 -5.5085907
5.035419 -6.7717705 -5.508738
5.0354009 -6.9453807 -5.508811
5.0354362 -7.1190653 -5.5086646
5.0354543 -7.2927265 -5.5085902
5.0354543 -7.466363 -5.5085902
5.0354543 -7.6399999 -5.5085907
5.2234907 8.1834688 -5.4506493
5.2239151 8.010004 -5.4489417
5.2239151 7.8358727 -5.4489417
5.2239332 7.6617689 -5.4488673
5.2240071 7.4877434 -5.4485717
5.246366 7.3449125 -5.3586073
5.2698736 7.2021613 -5.2640181
5.2407165 6.9876218 -5.3813376
5.2407351 6.8129559 -5.3812637
5.2407532 6.638288 -5.3811884
5.2407351 6.463573 -5.3812637
5.2407351 6.2888827 -5.3812633
5.2407165 6.1141691 -5.3813386
5.2451568 5.9445109 -5.363471
5.2617211 5.7878933 -5.2968211
5.2734427 5.6250057 -5.2496576
5.2853675 5.4615469 -5.2016764
5.297327 5.297327 -5.1535535
5.3093414 5.1323643 -5.1052127
5.3637948 5.0062084 -4.8861089
5.3637948 4.827415 -4.8861098
5.3637948 4.648622 -4.8861094
5.3637948 4.4698291 -4.8861089
5.3637948 4.2910357 -4.8861103
5.3637948 4.1122427 -4.8861098
5.3637948 3.9334495 -4.8861094
4.9636083 3.4745259 -6.496335
5.0575743 3.371716 -6.1182456
5.3638144 3.3970828 -4.8860316
5.3638144 3.2182889 -4.8860316
5.3638144 3.0394948 -4.8860321
5.3638144 2.8607008 -4.8860321
5.3638144 2.6819077 -4.8860316
5.3638144 2.5031137 -4.8860316
5.3638144 2.3243198 -4.8860316
5.3638144 2.1455257 -4.8860316
5.3175659 1.9497743 -5.0721197
5.3003826 1.7667943 -5.1412587
5.2872186 1.5861655 -5.1942286
5.2738185 1.4063517 -5.2481451
5.2607484 1.2275085 -5.3007355
5.2407165 1.0481435 -5.3813376
5.2409205 0.87348723 -5.3805156
5.2411437 0.69881982 -5.3796196
5.241199 0.52412003 -5.3793955
5.241199 0.34941372 -5.379396
5.241199 0.17470695 -5.3793955
5.241199 1.8530604e-07 -5.3793955
5.2709255 -0.17569736 -5.2597861
5.2722397 -0.35148296 -5.2544961
5.2411437 -0.52411449 -5.3796191
5.2409582 -0.6987946 -5.3803658
5.2407532 -0.87345934 -5.3811879
5.2407532 -1.0481507 -5.3811884
5.2407351 -1.222838 -5.3812637
5.2407351 -1.3975285 -5.3812637
5.2407165 -1.572215 -5.3813381
5.2606735 -1.7535573 -5.3010373
5.2737622 -1.9337128 -5.2483711
5.2867651 -2.1147058 -5.1960516
5.2999649 -2.2966506 -5.14294
5.3175278 -2.4815128 -5.0722733
5.3635221 -2.681761 -4.8872042
5.3635221 -2.8605447 -4.8872056
5.3635221 -3.0393293 -4.8872046
5.3635221 -3.2181127 -4.8872056
5.3635221 -3.3968973 -4.8872051
5.3635221 -3.5756819 -4.8872042
5.3635221 -3.7544656 -4.8872051
5.3635221 -3.9332502 -4.8872046
5.3635221 -4.1120338 -4.8872056
4.9636083 -3.9708865 -6.496335
4.9636083 -4.1363401 -6.496335
5.3635221 -4.6483855 -4.8872051
5.3635221 -4.8271704 -4.8872042
5.3635221 -5.0059538 -4.8872051
5.3635221 -5.1847386 -4.8872046
5.3635221 -5.3635216 -4.8872056
5.3635221 -5.5423064 -4.8872046
5.3094177 -5.6633782 -5.1049056
5.2976122 -5.827374 -5.1524076
5.2857451 -5.9905105 -5.2001567
5.2739129 -6.1528978 -5.247766
5.2622075 -6.3146491 -5.2948627
5.2474823 -6.4718943 -5.354115
5.2406979 -6.6382174 -5.381412
5.2406607 -6.8128595 -5.3815613
5.2406607 -6.9875474 -5.3815622
5.2406979 -7.1622872 -5.3814135
5.2406979 -7.3369765 -5.381413
5.2406979 -7.5116673 -5.381413
5.2691045 -7.7280197 -5.2671142
5.4309506 8.0588293 -5.3208127
5.4309893 7.8836942 -5.320662
5.4309893 7.7085013 -5.3206615
5.4310665 7.5334153 -5.3203616
5.4311051 7.3582721 -5.3202119
5.5551543 7.3471403 -4.8371754
5.4485831 7.0304298 -5.2521524
5.4484863 6.854548 -5.2525315
5.4485059 6.6788135 -5.2524552
5.4485059 6.5030551 -5.2524557
5.4484863 6.3272738 -5.2525315
5.4484863 6.1515169 -5.2525311
5.4484863 5.9757586 -5.2525315
5.4678946 5.8206625 -5.1769567
5.4801049 5.6568828 -5.1294098
5.492568 5.492568 -5.0808821
5.5050869 5.3275042 -5.0321336
5.5176239 5.1616483 -4.9833174
5.5764298 5.0367751 -4.7543311
5.5764298 4.8568907 -4.7543306
5.5764503 4.6770234 -4.754252
5.5764503 4.497138 -4.7542515
5.5764503 4.3172522 -4.7542515
5.5764503 4.1373672 -4.754252
5.5764503 3.9574816 -4.754252
5.1739497 3.5049331 -6.3215475
5.2222862 3.3692172 -6.1333294
5.5764503 3.417825 -4.754252
5.5764503 3.2379394 -4.7542515
5.5764503 3.0580537 -4.7542515
5.5764503 2.8781681 -4.7542515
5.5764503 2.698283 -4.754252
5.5764503 2.5183971 -4.7542515
5.5764503 2.3385115 -4.7542515
5.5764503 2.1586263 -4.754252
5.5327592 1.9632374 -4.9243803
5.5112591 1.7778252 -5.0081015
5.4975643 1.5960674 -5.0614252
5.4834857 1.4150934 -5.1162462
5.4698119 1.2351187 -5.1694918
5.4487967 1.0546062 -5.2513208
5.4487 0.87882215 -5.2516994
5.4489136 0.70308566 -5.2508678
5.4489522 0.52731776 -5.2507157
5.4489522 0.35154477 -5.2507162
5.4489522 0.17577274 -5.2507157
5.4489522 -4.7711484e-07 -5.2507157
5.4803214 -0.17678463 -5.1285682
5.4804587 -0.35357845 -5.1280327
5.448894 -0.52731258 -5.2509432
5.4487 -0.70305806 -5.2516999
5.4485059 -0.87879062 -5.2524557
5.4485059 -1.0545493 -5.2524548
5.4485059 -1.2303072 -5.2524557
5.4484863 -1.4060612 -5.2525311
5.4484863 -1.5818181 -5.2525311
5.4700856 -1.7645435 -5.1684237
5.4837809 -1.9458585 -5.1150966
5.4973869 -2.128021 -5.0621171
5.511199 -2.3111472 -5.0083337
5.5386319 -2.501318 -4.9015126
5.5761456 -2.6981351 -4.7554388
5.5761456 -2.8780107 -4.7554388
5.5761456 -3.0578854 -4.7554402
5.5761456 -3.2377613 -4.7554402
5.5761456 -3.4176373 -4.7554402
5.5761456 -3.597513 -4.7554402
5.5761657 -3.7774019 -4.7553611
5.5761657 -3.9572783 -4.7553611
5.2638574 -3.905442 -5.971457
5.1739497 -4.0056381 -6.3215475
5.1857781 -4.1820784 -6.2754889
5.5761657 -4.6767845 -4.7553601
5.5761657 -4.8566608 -4.7553601
5.5761657 -5.0365367 -4.7553601
5.5761657 -5.216413 -4.7553606
5.5761657 -5.3962893 -4.7553606
5.5761657 -5.5761657 -4.7553606
5.5174446 -5.6954269 -4.984014
5.5051069 -5.8602743 -5.0320573
5.4926858 -6.0242367 -5.080421
5.4803214 -6.1874595 -5.1285686
5.4680905 -6.35004 -5.1761956
5.4494767 -6.5042138 -5.2486739
5.4484472 -6.6787419 -5.2526832
5.4484086 -6.8544488 -5.2528338
5.4484472 -7.0302539 -5.2526827
5.4484668 -7.2060366 -5.2526064
5.4484668 -7.381793 -5.2526069
5.4484668 -7.5575504 -5.2526073
5.6404457 8.10814 -5.1914153
5.6406069 7.9321046 -5.1908059
5.6406069 7.7558341 -5.1908064
5.6406469 7.5796199 -5.1906543
5.6407275 7.4034548 -5.1903501
5.7343531 7.3471403 -4.8371754
5.6590123 7.0737658 -5.121376
5.6587892 6.8966494 -5.1222177
5.6588097 6.7198372 -5.1221418
5.6588097 6.5429993 -5.1221409
5.6588097 6.3661609 -5.1221409
5.6588097 6.1893239 -5.1221414
5.6587892 6.012464 -5.1222177
5.6764159 5.8538041 -5.0557275
5.6891851 5.6891851 -5.0075603
5.7021351 5.5239439 -4.9587088
5.7152066 5.358006 -4.9094009
5.7283173 5.1912875 -4.8599448
5.771831 5.0503516 -4.6958022
5.7916994 4.8867464 -4.6208534
5.7916994 4.7057557 -4.6208534
5.7916994 4.524766 -4.6208529
5.7916994 4.3437757 -4.6208534
5.7916994 4.1627851 -4.6208534
5.7916994 3.9817936 -4.6208525
5.4141417 3.5530305 -6.0450802
5.4084454 3.3802783 -6.0665669
5.6165376 3.3348193 -5.2816005
5.7916994 3.2578313 -4.6208529
5.7916994 3.0768406 -4.6208529
5.7916994 2.8958502 -4.6208534
5.7916994 2.714859 -4.6208529
5.7916994 2.5338683 -4.6208529
5.7916994 2.3528776 -4.6208529
5.7916994 2.1718874 -4.6208534
5.7916994 1.9908966 -4.6208534
5.7247849 1.7889949 -4.87327
5.7105536 1.6060933 -4.9269533
5.6957965 1.4239497 -4.9826193
5.6815047 1.2428297 -5.0365324
5.6597638 1.0612061 -5.1185427
5.6590123 0.88422114 -5.1213756
5.659236 0.7074039 -5.120533
5.659256 0.53055537 -5.1204567
5.659256 0.35370344 -5.1204572
5.659256 0.17685279 -5.1204576
5.659256 -1.261231e-07 -5.1204567
5.6923447 -0.17788644 -4.9956384
5.6911545 -0.35569707 -5.0001302
5.6591954 -0.53054971 -5.1206861
5.6589923 -0.7073741 -5.1214528
5.6588302 -0.88419276 -5.1220646
5.6588097 -1.0610263 -5.1221409
5.6588097 -1.237865 -5.1221409
5.6588097 -1.4147027 -5.1221404
5.6598244 -1.5918255 -5.1183128
5.6821384 -1.7756683 -5.0341396
5.696454 -1.958156 -4.9801383
5.7106771 -2.1415036 -4.9264865
5.7251167 -2.3258286 -4.8720164
5.7914019 -2.5337386 -4.6219745
5.7914019 -2.7147195 -4.6219764
5.7914019 -2.8957007 -4.6219754
5.7914019 -3.0766823 -4.6219749
5.7914019 -3.2576637 -4.6219745
5.7914019 -3.4386444 -4.6219759
5.7914019 -3.619626 -4.6219754
5.7914019 -3.8006074 -4.6219749
5.6164174 -3.8612866 -5.2820535
5.4231462 -3.8978858 -6.0111127
5.4141417 -4.0606065 -6.0450792
5.7914019 -4.5245333 -4.6219754
5.7914019 -4.7055144 -4.6219745
5.7914019 -4.8864951 -4.6219759
5.7914019 -5.0674763 -4.6219754
5.7914019 -5.2484579 -4.6219749
5.7914019 -5.4294395 -4.6219745
5.7591505 -5.5791779 -4.7436323
5.727839 -5.7278395 -4.8617482
5.7149372 -5.8935289 -4.9104161
5.7019501 -6.0583215 -4.9594078
5.6890616 -6.2224112 -5.0080242
5.6762934 -6.3858299 -5.0561891
5.6587892 -6.5429754 -5.1222167
5.6587491 -6.7197647 -5.1223702
5.6587286 -6.8965759 -5.1224475
5.6587691 -7.0734615 -5.1222949
5.6587691 -7.2502985 -5.1222939
5.6587691 -7.427134 -5.1222944
5.6587691 -7.603971 -5.1222935
5.852499 8.1580296 -5.0605011
5.8528147 7.9811106 -5.0593476
5.8528147 7.8037529 -5.0593472
5.8528357 7.6264224 -5.0592694
5.8529196 7.4491711 -5.0589614
5.9135513 7.3471403 -4.8371754
5.872561 7.1182556 -4.9871159
5.8717132 6.9392977 -4.9902158
5.8717346 6.7613916 -4.9901381
5.8717346 6.5834608 -4.9901385
5.8717132 6.4055052 -4.9902167
5.8717132 6.2275753 -4.9902163
5.8717132 6.049644 -4.9902163
5.8873467 5.8873467 -4.9330311
5.9006443 5.721838 -4.884388
5.9141102 5.5556803 -4.8351316
5.9277463 5.3888597 -4.7852545
5.9414225 5.2212505 -4.7352262
5.9658594 5.0619421 -4.6458402
6.0096097 4.9169536 -4.4858046
6.0096097 4.7348442 -4.4858046
6.0096097 4.5527349 -4.4858055
6.0096097 4.370625 -4.485805
6.0096097 4.1885157 -4.485805
6.0096097 4.0064063 -4.4858055
6.0096097 3.8242967 -4.4858046
5.7229676 3.4684656 -5.5343127
6.0096097 3.460079 -4.485805
6.0096316 3.2779813 -4.4857235
6.0096316 3.0958705 -4.4857235
6.0096316 2.9137611 -4.485724
6.0096316 2.7316513 -4.4857235
6.0096316 2.5495405 -4.4857235
6.0096316 2.3674314 -4.4857235
6.0096316 2.1853209 -4.485724
6.0096316 2.0032108 -4.4857235
5.9410324 1.8003129 -4.7366552
5.9262347 1.6162455 -4.7907815
5.9108243 1.4329267 -4.8471527
5.8958559 1.2506365 -4.9019036
5.8735571 1.0679189 -4.9834719
5.8719254 0.88968593 -4.9894404
5.8721581 0.71177626 -4.9885883
5.8721581 0.53383231 -4.9885879
5.8721581 0.35588911 -4.9885888
5.8721581 0.17794411 -4.9885893
5.8721581 1.2046905e-07 -4.9885883
5.9070268 -0.17900015 -4.861043
5.9044123 -0.35784355 -4.8706055
5.8720946 -0.53382617 -4.988822
5.8718619 -0.71174085 -4.9896731
5.8717346 -0.88965738 -4.9901381
5.8717346 -1.0675881 -4.990139
5.8717346 -1.2455198 -4.9901385
5.8717132 -1.4234452 -4.9902158
5.873239 -1.6017929 -4.9846344
5.896903 -1.7869399 -4.8980746
5.9118333 -1.9706109 -4.8434615
5.9266882 -2.1551592 -4.7891226
5.9417701 -2.3406968 -4.7339578
6.0092993 -2.5493999 -4.4869413
6.0092993 -2.7314997 -4.4869409
6.0092993 -2.9135995 -4.4869409
6.0093212 -3.0957115 -4.4868603
6.0093212 -3.2778115 -4.4868603
6.0093212 -3.4599125 -4.4868603
6.0093212 -3.6420126 -4.4868598
6.0093212 -3.8241134 -4.4868603
5.9064908 -3.9376605 -4.8630037
5.7229676 -3.9887354 -5.5343122
5.7155514 -4.156765 -5.5614405
6.0093212 -4.5525165 -4.4868603
6.0093212 -4.7346168 -4.4868603
6.0093212 -4.9167171 -4.4868603
6.0093212 -5.0988183 -4.4868603
6.0093212 -5.2809186 -4.4868603
6.0093212 -5.4630194 -4.4868598
5.960484 -5.5992432 -4.6655002
5.9406199 -5.760601 -4.7381616
5.9271631 -5.9271626 -4.7873864
5.9136162 -6.0928164 -4.8369393
5.9001956 -6.2577834 -4.8860312
5.8868566 -6.4220252 -4.934824
5.8716922 -6.5834126 -4.9902935
5.8716497 -6.7612939 -4.990448
5.8716497 -6.9392228 -4.990448
5.8716922 -7.1172023 -4.990293
5.8716922 -7.2951322 -4.9902935
5.8716922 -7.4730625 -4.9902945
5.8719888 -7.6513791 -4.9892087
6.0671992 8.2085648 -4.9278889
6.0676603 8.0307283 -4.9262519
6.0676603 7.8522668 -4.9262519
6.0676603 7.6738062 -4.9262519
6.0677481 7.4954543 -4.9259396
6.0927505 7.3471403 -4.8371754
6.1202149 7.2002521 -4.7396693
6.087265 6.982451 -4.8566499
6.0872869 6.8034382 -4.8565717
6.0872869 6.6244011 -4.8565717
6.0872869 6.445363 -4.8565717
6.0872869 6.2663255 -4.8565712
6.087265 6.087265 -4.8566499
6.1006861 5.9212542 -4.8090005
6.1145453 5.7548666 -4.7597938
6.1285357 5.5877833 -4.7101259
6.1427469 5.4200721 -4.6596708
6.1570253 5.2515802 -4.6089807
6.1742554 5.084681 -4.5478072
6.2302303 4.9475365 -4.3490767
6.2302303 4.7642946 -4.3490772
6.2302303 4.5810523 -4.3490763
6.2302303 4.3978095 -4.3490772
6.2302537 4.2145839 -4.3489947
6.2302537 4.0313406 -4.3489947
6.2302537 3.848098 -4.3489943
6.2302537 3.6648555 -4.3489957
6.2302537 3.4816132 -4.3489947
6.2302537 3.2983696 -4.3489947
6.2302537 3.1151266 -4.3489947
6.2302537 2.9318843 -4.3489943
6.2302537 2.7486415 -4.3489952
6.2302537 2.5653994 -4.3489952
6.2302537 2.3821561 -4.3489947
6.2302537 2.1989126 -4.3489947
6.2302537 2.015671 -4.3489952
6.1600103 1.8117685 -4.5983801
6.1446605 1.626528 -4.6528769
6.1285806 1.4420184 -4.7099667
6.1128964 1.2585368 -4.7656503
6.0915771 1.0749846 -4.8413401
6.0874858 0.89521927 -4.8558664
6.0877066 0.71620059 -4.8550801
6.0877066 0.5371511 -4.8550816
6.0877066 0.35810056 -4.8550806
6.0877066 0.17905028 -4.8550806
6.0877066 -2.3541538e-07 -4.8550801
6.1244173 -0.18013008 -4.7247491
6.1202593 -0.36001462 -4.7395105
6.0876408 -0.53714532 -4.8553157
6.0873976 -0.71616453 -4.8561783
6.0873089 -0.89519238 -4.856492
6.0872869 -1.0742272 -4.8565712
6.0872869 -1.2532651 -4.8565707
6.0872869 -1.4323022 -4.8565722
6.0928388 -1.6128099 -4.8368607
6.1143894 -1.7983502 -4.7603474
6.1299696 -1.9832258 -4.7050343
6.1454716 -2.1689892 -4.6499991
6.1612101 -2.3557572 -4.5941205
6.2299294 -2.5652657 -4.3501453
6.2299294 -2.7484994 -4.3501449
6.2299294 -2.931731 -4.3501449
6.2299294 -3.1149647 -4.3501444
6.2299294 -3.2981982 -4.3501458
6.2299294 -3.4814312 -4.3501444
6.2299294 -3.664664 -4.3501453
6.2299294 -3.8478978 -4.3501449
6.2299294 -4.0311303 -4.3501458
6.2299294 -4.2143645 -4.3501449
6.2299528 -4.397613 -4.3500638
6.2299528 -4.5808473 -4.3500633
6.2299528 -4.764082 -4.3500628
6.2299528 -4.9473162 -4.3500624
6.2299528 -5.1305494 -4.3500633
6.2299528 -5.3137836 -4.3500628
6.2299528 -5.4970179 -4.3500624
6.1710739 -5.6265669 -4.5591021
6.1558719 -5.7937627 -4.6130719
6.1418247 -5.9611821 -4.6629457
6.1276846 -6.1276841 -4.7131481
6.1137209 -6.2935371 -4.7627225
6.0991993 -6.4579749 -4.8142796
6.0872431 -6.6243525 -4.856729
6.0871987 -6.8033395 -4.8568859
6.0872431 -6.9824257 -4.8567286
6.0872431 -7.1614614 -4.8567286
6.0872431 -7.3404989 -4.8567276
6.0872431 -7.5195355 -4.8567286
6.1259613 -7.7475381 -4.7192674
6.2851944 8.080965 -4.791492
6.2851944 7.9013882 -4.791492
6.2851944 7.7218113 -4.7914925
6.2852407 7.5422883 -4.7913346
6.2853093 7.3627906 -4.7910976
6.4307957 7.3494811 -4.2893319
6.3055601 7.0261965 -4.7212539
6.3055601 6.8460374 -4.7212534
6.3055601 6.6658783 -4.7212534
6.3055601 6.4857197 -4.7212539
6.3055372 6.3055372 -4.7213326
6.3055372 6.1253796 -4.721333
6.310286 5.9496989 -4.7049561
6.3309541 5.7883005 -4.6336737
6.3454533 5.6202588 -4.5836673
6.3602538 5.4516463 -4.5326233
6.3751235 5.2822442 -4.4813395
6.3902516 5.1122012 -4.429163
6.4536371 4.9785209 -4.2105546
6.4536371 4.7941303 -4.2105546
6.4536371 4.6097407 -4.2105546
6.4536371 4.4253516 -4.2105546
6.4536371 4.240962 -4.2105546
6.4536371 4.056572 -4.2105541
6.4536371 3.8721828 -4.2105541
6.4536371 3.6877933 -4.2105541
6.4536371 3.5034029 -4.2105546
6.4536371 3.3190134 -4.2105546
6.4536371 3.1346238 -4.2105541
6.4536371 2.9502344 -4.2105546
6.4536371 2.7658448 -4.2105541
6.4536371 2.5814552 -4.2105541
6.4536371 2.3970649 -4.2105546
6.4536371 2.2126753 -4.2105541
6.4536371 2.028286 -4.2105546
6.3817935 1.8233694 -4.4583344
6.3658834 1.6369419 -4.5132079
6.3491178 1.4512277 -4.5710297
6.3327188 1.2665437 -4.6275859
6.3124323 1.0821315 -4.6975536
6.3057446 0.90082085 -4.7206182
6.3059521 0.72068036 -4.7199039
6.3059745 0.54051262 -4.7198238
6.3059745 0.36034173 -4.7198243
6.3059745 0.18017042 -4.7198224
6.3059745 3.6279178e-07 -4.7198229
6.3445435 -0.18127201 -4.5868044
6.3387189 -0.36221302 -4.6068931
6.3058825 -0.5405041 -4.7201409
6.3056293 -0.72064364 -4.721015
6.3055601 -0.90079403 -4.7212539
6.3055601 -1.080954 -4.7212529
6.3055372 -1.2611073 -4.7213321
6.3055372 -1.4412659 -4.721333
6.3171215 -1.6244023 -4.6813793
6.3346715 -1.8099055 -4.6208529
6.3509164 -1.9960026 -4.5648255
6.3670807 -2.1829989 -4.5090775
6.3834929 -2.371012 -4.4524736
6.4533238 -2.5813293 -4.211637
6.4533238 -2.7657096 -4.2116361
6.4533238 -2.9500906 -4.2116361
6.4533238 -3.1344712 -4.2116351
6.4533238 -3.3188512 -4.2116365
6.4533238 -3.5032322 -4.2116361
6.4533238 -3.6876132 -4.2116361
6.4533238 -3.8719943 -4.2116356
6.4533238 -4.0563741 -4.211637
6.4533238 -4.2407551 -4.2116365
6.4533238 -4.4251361 -4.2116361
6.4533238 -4.6095171 -4.2116356
6.4533238 -4.7938981 -4.2116351
6.4533238 -4.9782782 -4.2116365
6.4533238 -5.1626587 -4.2116361
6.4533238 -5.3470397 -4.2116356
6.4533238 -5.5314207 -4.2116351
6.3882651 -5.6581774 -4.4360151
6.3736167 -5.8273067 -4.4865355
6.3589411 -5.995574 -4.5371475
6.3442407 -6.1629772 -4.5878491
6.3297005 -6.3297 -4.6379986
6.307703 -6.4879236 -4.7138619
6.3054914 -6.6658049 -4.7214928
6.3054681 -6.8459368 -4.7215714
6.3055143 -7.0261436 -4.7214127
6.3055143 -7.2063017 -4.7214131
6.3055143 -7.3864589 -4.7214127
6.3055143 -7.5666165 -4.7214131
6.5053244 8.1316566 -4.6555152
6.5054674 7.9511266 -4.6550355
6.5054674 7.7704206 -4.6550355
6.5054913 7.5897403 -4.6549563
6.5055866 7.4091396 -4.6546364
6.6145325 7.3494811 -4.2893319
6.5267038 7.0705962 -4.5838289
6.5265603 6.8891468 -4.5843115
6.5265603 6.7078538 -4.5843105
6.5265603 6.5265603 -4.5843115
6.5265603 6.3452668 -4.584311
6.526536 6.1639509 -4.5843916
6.526536 5.9826579 -4.5843911
6.5498672 5.8221049 -4.5061607
6.5649557 5.6531568 -4.4555674
6.5803337 5.4836111 -4.4040046
6.5957832 5.3132706 -4.3521996
6.6113062 5.1421275 -4.3001509
6.6798348 5.0098767 -4.0703702
6.6798348 4.8243246 -4.0703702
6.6798348 4.6387739 -4.0703702
6.6798348 4.4532237 -4.0703702
6.6798348 4.2676721 -4.0703702
6.6798348 4.0821214 -4.0703702
6.6798348 3.8965709 -4.0703702
6.6798348 3.711019 -4.0703702
6.6798348 3.5254686 -4.0703702
6.6798348 3.3399179 -4.0703702
6.6798348 3.154366 -4.0703702
6.6798348 2.9688158 -4.0703702
6.6798596 2.7832751 -4.0702858
6.6798596 2.597723 -4.0702853
6.6798596 2.4121714 -4.0702853
6.6798596 2.2266192 -4.0702848
6.6798596 2.0410683 -4.0702868
6.6064348 1.8351213 -4.3164835
6.5898833 1.647471 -4.3719835
6.5724897 1.4605532 -4.430306
6.555357 1.2746531 -4.4877524
6.5362191 1.0893698 -4.5519238
6.526752 0.90649408 -4.5836678
6.526968 0.72521889 -4.5829439
6.526968 0.54391474 -4.5829439
6.526968 0.36260891 -4.5829425
6.526968 0.18130478 -4.5829425
6.526968 6.5292497e-08 -4.582943
6.5675058 -0.1824301 -4.4470172
6.559886 -0.36443824 -4.4725661
6.5268722 -0.54390585 -4.5832648
6.5266085 -0.72517854 -4.5841503
6.5265841 -0.9064706 -4.5842295
6.5265603 -1.0877607 -4.5843105
6.5265603 -1.2690531 -4.584311
6.526536 -1.4503413 -4.5843906
6.5408664 -1.6352165 -4.5363398
6.5578022 -1.8216125 -4.4795523
6.574729 -2.0089447 -4.4227962
6.5915713 -2.1971912 -4.366322
6.6086731 -2.3864641 -4.3089805
6.6795082 -2.5975859 -4.071465
6.6795082 -2.7831273 -4.0714655
6.6795082 -2.9686708 -4.0714655
6.6795082 -3.1542122 -4.071466
6.6795082 -3.3397546 -4.071465
6.6795082 -3.5252955 -4.0714655
6.6795082 -3.7108371 -4.071466
6.679533 -3.8963935 -4.0713816
6.679533 -4.0819368 -4.0713811
6.679533 -4.2674799 -4.0713806
6.679533 -4.453022 -4.0713816
6.679533 -4.6385651 -4.0713806
6.679533 -4.8241067 -4.0713816
6.679533 -5.0096498 -4.0713811
6.679533 -5.1951919 -4.071382
6.679533 -5.3807349 -4.0713816
6.679533 -5.566278 -4.0713806
6.6091404 -5.6912041 -4.3074131
6.5938973 -5.8612413 -4.3585248
6.5786023 -6.030385 -4.4098096
6.5633054 -6.1986771 -4.4611006
6.5481763 -6.3662825 -4.5118303
6.526536 -6.526536 -4.5843916
6.5264883 -6.7077794 -4.5845528
6.5264883 -6.889071 -4.5845523
6.5265121 -7.0703883 -4.5844707
6.5265121 -7.2516809 -4.5844712
6.5265121 -7.4329724 -4.5844707
6.5265121 -7.614265 -4.5844712
6.7282085 8.1829567 -4.5179014
6.7285314 8.0014982 -4.5168509
6.7285314 7.8196449 -4.51685
6.7285314 7.6377926 -4.5168505
6.7286305 7.4560509 -4.5165257
6.798245 7.3494544 -4.2894139
6.7508354 7.1157455 -4.4440842
6.750361 6.9328027 -4.4456325
6.7503858 6.7503858 -4.4455514
6.7503858 6.5679431 -4.4455509
6.750361 6.3854771 -4.4456325
6.750361 6.2030344 -4.4456325
6.7503362 6.0205703 -4.4457145
6.7713771 5.8563266 -4.3770671
6.7870684 5.6864624 -4.3258762
6.8029838 5.5159326 -4.273952
6.8190765 5.3446817 -4.2214503
6.8352203 5.1725988 -4.1687841
6.9088993 5.0416298 -3.9284091
6.9088993 4.8549032 -3.9284091
6.9088993 4.6681752 -3.9284093
6.9088993 4.4814491 -3.9284093
6.9088993 4.2947206 -3.9284086
6.9088993 4.1079941 -3.9284084
6.9089255 3.9212818 -3.9283233
6.9089255 3.7345545 -3.9283237
6.9089255 3.5478263 -3.9283233
6.9089255 3.3610985 -3.9283235
6.9089255 3.1743712 -3.928324
6.9089255 2.987644 -3.9283228
6.9089255 2.8009162 -3.928323
6.9089255 2.6141887 -3.9283237
6.9089255 2.4274611 -3.928324
6.9089255 2.2407324 -3.9283226
6.9089255 2.0540049 -3.928323
6.8340168 1.847032 -4.1727095
6.8167586 1.6581305 -4.229013
6.7987766 1.4700049 -4.2876782
6.7808638 1.2828658 -4.346117
6.762569 1.0966331 -4.4058032
6.7505608 0.91223776 -4.4449811
6.7507606 0.72981232 -4.4443288
6.7507606 0.54735893 -4.4443278
6.7507606 0.36490613 -4.4443293
6.7507606 0.1824529 -4.4443283
6.7507606 7.9770211e-07 -4.4443293
6.7933345 -0.18360415 -4.3054328
6.7837877 -0.36669046 -4.3365784
6.7506609 -0.54735106 -4.4446549
6.7503858 -0.7297709 -4.4455509
6.7503858 -0.91221434 -4.4455514
6.7503858 -1.0946571 -4.4455514
6.750361 -1.2770951 -4.4456329
6.750361 -1.4595369 -4.4456325
6.7662053 -1.6458343 -4.3939409
6.7838635 -1.8334775 -4.3363304
6.8014627 -2.0220563 -4.2789154
6.8189998 -2.2115669 -4.2217007
6.8368073 -2.4021208 -4.1636043
6.9085851 -2.6140587 -3.9294326
6.9085851 -2.8007779 -3.9294329
6.9085851 -2.9874961 -3.9294322
6.9085851 -3.1742148 -3.9294324
6.9085851 -3.3609343 -3.9294324
6.9085851 -3.5476522 -3.9294319
6.9085851 -3.7343695 -3.9294336
6.9085851 -3.9210885 -3.9294333
6.9085851 -4.1078072 -3.9294331
6.9085851 -4.2945256 -3.9294329
6.9085851 -4.4812446 -3.9294329
6.9085851 -4.667963 -3.9294326
6.9085851 -4.8546815 -3.9294324
6.9085851 -5.0414004 -3.9294324
6.9085851 -5.2281189 -3.9294322
6.9085851 -5.4148374 -3.9294319
6.8752151 -5.5744987 -4.0383015
6.8326092 -5.724618 -4.1773005
6.8167586 -5.895575 -4.229013
6.8008032 -6.0655818 -4.281065
6.7849231 -6.2347941 -4.3328753
6.7691922 -6.4032893 -4.3841972
6.7503362 -6.5678945 -4.445713
6.7502856 -6.7502851 -4.4458776
6.7503362 -6.9327769 -4.4457135
6.7503362 -7.1152186 -4.445713
6.7503362 -7.2976608 -4.445713
6.7503362 -7.4801016 -4.4457145
6.7561092 -7.6690974 -4.426878
6.9544392 8.0525093 -4.3769031
6.9544392 7.8694978 -4.3769021
6.9544392 7.6864853 -4.3769031
6.9544911 7.5035295 -4.3767385
6.9819808 7.3494544 -4.2894139
7.0136766 7.1982465 -4.1887302
6.9770422 6.9770422 -4.3051023
6.9770422 6.7934365 -4.3051033
6.9770422 6.6098294 -4.3051033
6.9770422 6.4262228 -4.3051028
6.9770164 6.2425942 -4.3051853
6.9770164 6.0589876 -4.3051848
6.995481 5.8909316 -4.2465291
7.0117869 5.7201424 -4.1947317
7.0282745 5.5486388 -4.1423564
7.0449991 5.3764472 -4.0892305
7.0617766 5.2034149 -4.0359349
7.1116204 5.0529938 -3.8776023
7.1409135 4.8858886 -3.7845504
7.1409135 4.6979694 -3.78455
7.1409135 4.5100513 -3.7845504
7.1409135 4.3221321 -3.78455
7.1409135 4.1342134 -3.7845502
7.1409135 3.9462948 -3.78455
7.1409135 3.7583761 -3.7845502
7.1409135 3.5704572 -3.78455
7.1409135 3.3825386 -3.7845502
7.1409135 3.1946194 -3.7845497
7.1409135 3.0067012 -3.7845502
7.1409135 2.8187826 -3.7845504
7.1409135 2.630863 -3.784549
7.1409135 2.4429445 -3.7845497
7.1409135 2.2550254 -3.7845509
7.1409135 2.0671067 -3.7845511
7.0645452 1.8590906 -4.0271411
7.0465884 1.6689286 -4.0841808
7.0279846 1.4795755 -4.1432772
7.0092697 1.2911819 -4.2027297
6.9909401 1.1038324 -4.2609529
6.9772243 0.91805559 -4.3045249
6.9774055 0.73446375 -4.303947
6.9774055 0.55084741 -4.303947
6.9774055 0.36723194 -4.3039479
6.9774055 0.18361637 -4.303947
6.9774055 -1.1678254e-07 -4.3039465
7.0220599 -0.18479052 -4.1621003
7.0105019 -0.36897403 -4.1988144
6.9773021 -0.5508396 -4.3042769
6.9770679 -0.73442805 -4.3050199
6.9770422 -0.91803139 -4.3051033
6.9770422 -1.1016386 -4.3051019
6.9770422 -1.2852445 -4.3051023
6.9770164 -1.4688458 -4.3051848
6.9945149 -1.656595 -4.249599
7.0128627 -1.8454899 -4.1913152
7.0311751 -2.0353403 -4.133142
7.0494246 -2.2261345 -4.0751719
7.0679555 -2.4179847 -4.0163074
7.1405597 -2.6307318 -3.7856743
7.1405597 -2.8186419 -3.7856743
7.1405597 -3.006551 -3.7856741
7.1405864 -3.1944723 -3.7855868
7.1405864 -3.3823836 -3.7855878
7.1405864 -3.5702934 -3.7855878
7.1405864 -3.7582033 -3.785588
7.1405864 -3.9461145 -3.7855864
7.1405864 -4.1340246 -3.7855864
7.1405864 -4.3219342 -3.7855866
7.1405864 -4.5098448 -3.7855871
7.1405864 -4.6977549 -3.7855871
7.1405864 -4.8856645 -3.7855873
7.1405864 -5.0735745 -3.7855873
7.1405864 -5.2614851 -3.7855878
7.1405864 -5.4493947 -3.785588
7.0839858 -5.5926204 -3.9653854
7.0587177 -5.7584276 -4.0456524
7.0422459 -5.9303126 -4.0979753
7.02564 -6.1012135 -4.1507268
7.0091386 -6.2713342 -4.2031455
6.9930015 -6.4409223 -4.2544069
6.9769897 -6.6097803 -4.3052673
6.976964 -6.7933598 -4.3053503
6.9769897 -6.9769902 -4.3052669
6.9769897 -7.1605954 -4.3052669
6.9769897 -7.3442001 -4.3052688
6.9769897 -7.5278044 -4.3052683
7.0312281 -7.771358 -4.1329751
7.1832461 8.1041746 -4.2351599
7.1832461 7.9199896 -4.2351599
7.1832461 7.7358031 -4.2351599
7.1832728 7.5516467 -4.2350764
7.1833262 7.3675141 -4.2349114
7.3519154 7.3519154 -3.7131042
7.2066078 7.0218239 -4.1628518
7.206635 6.8370647 -4.1627684
7.206635 6.6522784 -4.1627684
7.2066078 6.4674683 -4.1628518
7.2066078 6.2826834 -4.1628518
7.2066078 6.097899 -4.1628523
7.2221131 5.925837 -4.1148601
7.2392111 5.7542453 -4.0619397
7.2562528 5.5817332 -4.009192
7.273623 5.4085917 -3.9554298
7.291049 5.2345996 -3.9014943
7.3199902 5.0676861 -3.8119164
7.3758798 4.9172535 -3.6389303
7.3758798 4.7281284 -3.6389308
7.3758798 4.5390038 -3.6389308
7.3758798 4.3498778 -3.6389306
7.3758798 4.1607533 -3.6389308
7.3758798 3.9716277 -3.6389313
7.3758798 3.7825029 -3.6389308
7.3758798 3.5933776 -3.6389301
7.3758798 3.4042523 -3.6389306
7.3758798 3.2151277 -3.6389306
7.3758798 3.0260022 -3.6389313
7.3758798 2.8368776 -3.6389313
7.3758798 2.647752 -3.6389318
7.3759079 2.4586365 -3.6388438
7.3759079 2.26951 -3.6388428
7.3759079 2.0803847 -3.6388433
7.2981033 1.871309 -3.8796585
7.2794595 1.679875 -3.9373655
7.2601972 1.4892713 -3.9969835
7.2406826 1.2996091 -4.0573845
7.2223029 1.1111243 -4.1142731
7.2067966 0.92394906 -4.1622667
7.2069588 0.73917544 -4.1617661
7.2069588 0.55438113 -4.1617646
7.2069588 0.36958811 -4.1617656
7.2069588 0.18479396 -4.1617641
7.2069588 1.6542558e-08 -4.1617656
7.2537899 -0.18599518 -4.0168152
7.2405739 -0.37131134 -4.0577226
7.206851 -0.55437309 -4.1620994
7.206635 -0.73914176 -4.1627688
7.206635 -0.92392749 -4.1627674
7.2066078 -1.1087081 -4.1628523
7.2066078 -1.2934937 -4.1628509
7.2066078 -1.4782783 -4.1628513
7.2258034 -1.6674922 -4.1034393
7.2448831 -1.8576626 -4.044385
7.2639265 -2.0487998 -3.9854431
7.2829046 -2.2408934 -3.9267023
7.302177 -2.4340587 -3.8670521
7.3755403 -2.6476297 -3.6399813
7.3755403 -2.8367457 -3.639981
7.3755403 -3.0258627 -3.639981
7.3755403 -3.2149787 -3.6399808
7.3755403 -3.4040959 -3.639981
7.3755403 -3.5932119 -3.6399808
7.3755403 -3.7823284 -3.6399806
7.3755403 -3.9714451 -3.6399808
7.3755403 -4.1605616 -3.6399808
7.3755403 -4.349678 -3.6399806
7.3755403 -4.5387945 -3.6399806
7.3755689 -4.7279282 -3.6398942
7.3755689 -4.9170456 -3.6398945
7.3755689 -5.1061635 -3.6398928
7.3755689 -5.2952805 -3.6398931
7.3755689 -5.4843974 -3.6398935
7.306282 -5.6202164 -3.8543468
7.2875133 -5.7926383 -3.9124391
7.2703786 -5.9654393 -3.9654703
7.2531066 -6.1372437 -4.0189319
7.2359972 -6.3083048 -4.071887
7.2132292 -6.4734111 -4.1423573
7.2065539 -6.652204 -4.1630177
7.2065539 -6.8369865 -4.1630192
7.2065811 -7.0217962 -4.1629357
7.2065811 -7.2065806 -4.1629362
7.2065811 -7.3913655 -4.1629343
7.2065811 -7.5761495 -4.1629343
7.4148688 8.1563559 -4.0920072
7.4150081 7.9711347 -4.0915856
7.4150081 7.7857594 -4.0915856
7.4150081 7.6003842 -4.0915856
7.4150915 7.415092 -4.0913339
7.5404258 7.3519154 -3.7131042
7.4392238 7.0672631 -4.0185084
7.4391675 6.8812304 -4.0186791
7.4391675 6.6952515 -4.0186777
7.4391675 6.5092721 -4.0186777
7.4391398 6.3232694 -4.0187626
7.4391398 6.1372895 -4.0187631
7.4440241 5.9552197 -4.0040226
7.4693346 5.7887349 -3.9276412
7.4869957 5.6152468 -3.8743436
7.5049977 5.441123 -3.8200185
7.5231147 5.2661805 -3.7653456
7.5438285 5.0920844 -3.702836
7.6138821 4.9490237 -3.4914291
7.6138821 4.7586765 -3.4914303
7.6138821 4.5683298 -3.49143
7.6138821 4.3779831 -3.4914293
7.6138821 4.1876354 -3.4914296
7.6138821 3.9972887 -3.4914298
7.6138821 3.806941 -3.49143
7.6138821 3.6165941 -3.4914293
7.6139121 3.4262598 -3.4913406
7.6139121 3.2359118 -3.4913406
7.6139121 3.0455651 -3.4913404
7.6139121 2.8552175 -3.4913406
7.6139121 2.6648695 -3.4913406
7.6139121 2.4745219 -3.4913409
7.6139121 2.284174 -3.4913406
7.6139121 2.0938263 -3.4913409
7.5347519 1.8836887 -3.7302268
7.5153761 1.69096 -3.7886992
7.4954734 1.4990944 -3.8487611
7.4751368 1.3081492 -3.9101315
7.4559531 1.1183928 -3.9680226
7.4393358 0.92991722 -4.0181704
7.439476 0.7439481 -4.0177464
7.439476 0.55796129 -4.0177464
7.439476 0.37197444 -4.0177464
7.439476 0.18598755 -4.0177464
7.439476 -1.4390091e-07 -4.0177469
7.4885592 -0.18721375 -3.8696265
7.473608 -0.3736802 -3.9147458
7.4393358 -0.5579502 -4.0181708
7.4391956 -0.74391967 -4.0185928
7.4391675 -0.92989618 -4.0186787
7.4391675 -1.1158744 -4.0186782
7.4391398 -1.3018489 -4.0187626
7.4391398 -1.4878281 -4.0187631
7.4601545 -1.6785355 -3.9553437
7.4800119 -1.8700036 -3.8954182
7.4997764 -2.0624378 -3.8357761
7.5195017 -2.2558503 -3.7762489
7.540628 -2.4507034 -3.7124956
7.6135592 -2.664746 -3.4924042
7.6135592 -2.8550839 -3.4924059
7.6135592 -3.0454235 -3.4924057
7.6135592 -3.2357626 -3.4924054
7.6135592 -3.4261017 -3.4924052
7.6135592 -3.6164412 -3.4924052
7.6135592 -3.8067799 -3.4924047
7.6135592 -3.9971189 -3.4924045
7.6135592 -4.1874571 -3.4924059
7.6135592 -4.3777962 -3.4924057
7.6135592 -4.5681353 -3.4924054
7.6135592 -4.7584748 -3.4924054
7.6135592 -4.9488134 -3.4924047
7.6135592 -5.1391525 -3.4924045
7.6135592 -5.3294921 -3.4924045
7.6135592 -5.5198307 -3.492404
7.5368824 -5.6526618 -3.7237973
7.519043 -5.8272591 -3.7776325
7.5012016 -6.0009623 -3.8314719
7.4833035 -6.1737251 -3.8854861
7.4655471 -6.3457155 -3.9390705
7.4391398 -6.5092463 -4.0187635
7.4390836 -6.6951756 -4.0189314
7.4391117 -6.8811784 -4.018847
7.4391117 -7.0671563 -4.0188465
7.4391117 -7.2531333 -4.0188479
7.4391117 -7.4391112 -4.0188475
7.4391117 -7.6250892 -4.018847
7.6494646 8.2091818 -3.9470825
7.6497827 8.0229435 -3.9461451
7.6497827 7.8363628 -3.9461453
7.6497827 7.6497822 -3.946146
7.6498408 7.4632597 -3.9459755
7.7289362 7.3519154 -3.7131042
7.6749573 7.1133747 -3.8720279
7.6747532 6.9259973 -3.8726294
7.6747532 6.7388077 -3.8726292
7.6747241 6.5515947 -3.8727145
7.6747241 6.3644052 -3.8727143
7.6747241 6.1772175 -3.872714
7.674695 5.9900055 -3.8727999
7.7022338 5.8236408 -3.7917221
7.7205849 5.649209 -3.7376931
7.7391715 5.4740486 -3.6829696
7.7579679 5.2981243 -3.6276312
7.776825 5.1213241 -3.5721126
7.8549805 4.9812074 -3.3420105
7.8549805 4.7896228 -3.3420107
7.8549805 4.5980372 -3.3420095
7.855011 4.4064698 -3.3419209
7.855011 4.2148838 -3.3419206
7.855011 4.0232987 -3.3419206
7.855011 3.831713 -3.3419204
7.855011 3.6401269 -3.3419209
7.855011 3.4485419 -3.3419201
7.855011 3.2569556 -3.3419197
7.855011 3.0653706 -3.3419213
7.855011 2.8737855 -3.3419206
7.855011 2.6821992 -3.3419201
7.855011 2.4906127 -3.3419197
7.855011 2.2990279 -3.3419213
7.855011 2.1074426 -3.3419206
7.7745523 1.8962317 -3.5788021
7.7544274 1.7021915 -3.6380551
7.7338734 1.5090485 -3.6985686
7.7127514 1.3168113 -3.7607551
7.6926222 1.1257502 -3.820019
7.6748991 0.93596333 -3.8722005
7.6750154 0.7487821 -3.8718569
7.6750154 0.5615862 -3.871856
7.6750154 0.37439147 -3.8718567
7.6750154 0.18719569 -3.8718579
7.6750154 -2.7364368e-07 -3.8718567
7.7263966 -0.18844895 -3.7205808
7.7096052 -0.37607861 -3.7700193
7.67487 -0.56157553 -3.8722858
7.6747532 -0.74875659 -3.8726287
7.6747532 -0.93594563 -3.8726285
7.6747241 -1.12313 -3.8727148
7.6747241 -1.3103192 -3.8727143
7.674695 -1.4975016 -3.8727994
7.6976299 -1.6897242 -3.8052745
7.718257 -1.8825014 -3.7445467
7.7387867 -2.0762606 -3.6841025
7.7592778 -2.271008 -3.6237745
7.7847295 -2.4683282 -3.5488408
7.8546453 -2.6820734 -3.3429987
7.8546453 -2.873651 -3.342998
7.8546453 -3.0652268 -3.3429987
7.8546453 -3.2568042 -3.342998
7.8546453 -3.44838 -3.3429987
7.8546453 -3.6399579 -3.3429985
7.8546453 -3.8315337 -3.342999
7.8546753 -4.0231266 -3.3429084
7.8546753 -4.214704 -3.3429077
7.8546753 -4.406281 -3.3429091
7.8546753 -4.5978584 -3.3429086
7.8546753 -4.7894363 -3.3429081
7.8546753 -4.9810143 -3.3429077
7.8546753 -5.1725907 -3.3429089
7.8546753 -5.3641686 -3.3429084
7.8546753 -5.5557466 -3.3429079
7.7718635 -5.6867285 -3.5867212
7.7533569 -5.8622942 -3.6412072
7.7348204 -6.0369329 -3.6957815
7.7162538 -6.2106433 -3.7504437
7.697865 -6.3835955 -3.8045847
7.674695 -6.5515695 -3.8727996
7.6746659 -6.7387309 -3.8728864
7.674695 -6.9259448 -3.8727999
7.674695 -7.1131315 -3.8728004
7.674695 -7.3003197 -3.8727994
7.674695 -7.4875064 -3.8728004
7.7132516 -7.7132516 -3.7592835
7.8876295 8.0754299 -3.7988031
7.8876295 7.88763 -3.7988021
7.8876295 7.6998281 -3.7988024
7.8876591 7.5120573 -3.7987154
7.9174476 7.3519154 -3.7131042
7.9536252 7.1961374 -3.6091256
7.913394 6.971323 -3.7247534
7.913394 6.7829094 -3.7247529
7.913394 6.5944953 -3.7247539
7.9133639 6.4060569 -3.7248404
7.9133639 6.2176433 -3.7248402
7.9133639 6.0292301 -3.7248404
7.9379888 5.8589916 -3.6540666
7.956986 5.6835618 -3.5994658
7.9761977 5.5073748 -3.5442514
7.9956875 5.3304586 -3.488236
8.0152416 5.1526556 -3.4320366
8.099267 5.0138326 -3.1905437
8.099267 4.820992 -3.1905441
8.099267 4.6281528 -3.1905439
8.099267 4.4353127 -3.1905441
8.099267 4.2424731 -3.1905434
8.099267 4.049633 -3.1905439
8.099267 3.8567944 -3.1905444
8.099267 3.6639538 -3.1905439
8.099267 3.4711151 -3.1905446
8.099267 3.2782741 -3.1905437
8.099267 3.0854354 -3.1905441
8.099267 2.8925955 -3.1905432
8.099267 2.6997559 -3.1905444
8.099267 2.5069163 -3.1905432
8.099267 2.3140764 -3.1905441
8.099267 2.1212368 -3.1905432
8.0175991 1.9089532 -3.4252605
7.9966755 1.7135739 -3.4853983
7.975461 1.519135 -3.5463696
7.9535341 1.3255893 -3.6093895
7.9324255 1.1332036 -3.6700542
7.9135752 0.9420923 -3.7242324
7.9136357 0.75367945 -3.7240586
7.9136357 0.56525946 -3.7240582
7.9136357 0.37683946 -3.7240577
7.9136357 0.18841946 -3.7240572
7.9136357 7.1515018e-07 -3.7240589
7.9674234 -0.1897002 -3.5694695
7.9476438 -0.37845972 -3.6263165
7.9134846 -0.56524849 -3.7244935
7.913394 -0.75365639 -3.7247541
7.913394 -0.94207072 -3.7247527
7.913394 -1.1304849 -3.7247536
7.9133639 -1.3188931 -3.7248406
7.9133639 -1.5073074 -3.7248392
7.9383235 -1.7010695 -3.6531041
7.9597073 -1.8951689 -3.5916443
7.9810228 -2.0902684 -3.5303829
8.0022984 -2.28637 -3.4692383
8.0377598 -2.4878788 -3.3673162
8.098918 -2.6996388 -3.1915448
8.098918 -2.8924711 -3.1915438
8.098918 -3.0853024 -3.1915448
8.098918 -3.2781334 -3.1915457
8.098918 -3.4709647 -3.1915441
8.098918 -3.6637957 -3.1915448
8.098918 -3.8566279 -3.1915441
8.098918 -4.049459 -3.1915448
8.098918 -4.24229 -3.1915455
8.098918 -4.435122 -3.1915445
8.098918 -4.6279526 -3.191545
8.098918 -4.820785 -3.1915441
8.098918 -5.0136161 -3.191545
8.098918 -5.2064481 -3.1915438
8.0989494 -5.3992996 -3.191453
8.0690403 -5.5714808 -3.2774146
8.0096931 -5.7212095 -3.4479818
7.9905057 -5.8977542 -3.5031297
7.9712558 -6.0733376 -3.5584548
7.9519768 -6.2479811 -3.6138649
7.9330029 -6.4219546 -3.6683962
7.9133339 -6.5944448 -3.7249272
7.9133339 -6.7828574 -3.7249272
7.9133339 -6.9712701 -3.7249272
7.9133339 -7.1596823 -3.7249269
7.9133339 -7.3480949 -3.7249269
7.9133339 -7.5365081 -3.7249272
8.1286087 8.1286077 -3.6495194
8.1286087 7.9395709 -3.6495197
8.1286087 7.7505345 -3.6495183
8.1286087 7.5614967 -3.6495185
8.1286707 7.3725162 -3.6493437
8.3222075 7.3545089 -3.106045
8.155179 7.0172482 -3.5749295
8.1552105 6.8276172 -3.5748425
8.155179 6.6379361 -3.57493
8.155179 6.4482813 -3.5749302
8.155179 6.2586255 -3.5749297
8.1551476 6.0689478 -3.5750184
8.1765919 5.8947525 -3.5148184
8.1962805 5.7183356 -3.4595485
8.2161274 5.5411096 -3.4038339
8.2363262 5.3631902 -3.3471298
8.2566252 5.1843934 -3.2901473
8.3467407 5.0468664 -3.0371723
8.3467407 4.8527565 -3.0371723
8.3467407 4.6586456 -3.0371723
8.3467407 4.4645357 -3.0371718
8.3467407 4.2704253 -3.0371726
8.3467407 4.0763164 -3.037173
8.3467407 3.8822048 -3.0371721
8.3467407 3.6880951 -3.0371721
8.3467407 3.4939849 -3.037173
8.3467407 3.2998745 -3.0371716
8.3467407 3.1057639 -3.0371723
8.3467731 2.9116664 -3.0370808
8.3467731 2.7175548 -3.0370798
8.3467731 2.5234435 -3.037081
8.3467731 2.3293321 -3.03708
8.3467731 2.1352217 -3.037081
8.2640896 1.9218817 -3.269192
8.2422161 1.7251152 -3.330595
8.2202997 1.5293587 -3.3921218
8.1975479 1.3344841 -3.4559906
8.1754255 1.1407577 -3.5180926
8.1553669 0.94829828 -3.5744019
8.1554298 0.75864393 -3.5742247
8.1554298 0.56898373 -3.5742249
8.1554298 0.37932265 -3.5742259
8.1554298 0.18966042 -3.5742249
8.1554298 2.3304214e-07 -3.5742252
8.2116728 -0.19096868 -3.416337
8.1880522 -0.38083866 -3.4826472
8.155242 -0.56896955 -3.5747542
8.1552105 -0.75862479 -3.5748408
8.155179 -0.94827622 -3.5749302
8.155179 -1.1379316 -3.5749302
8.155179 -1.327587 -3.57493
8.1551476 -1.5172365 -3.5750182
8.1822395 -1.7125615 -3.4989657
8.2044621 -1.9080141 -3.4365821
8.2265491 -2.1044667 -3.3745756
8.2486286 -2.3019428 -3.3125947
8.3463793 -2.5233245 -3.0381863
8.3463793 -2.7174256 -3.0381863
8.3463793 -2.9115272 -3.0381868
8.3463793 -3.105629 -3.0381873
8.3464127 -3.2997441 -3.038094
8.3464127 -3.4938469 -3.0380952
8.3464127 -3.6879499 -3.038094
8.3464127 -3.8820515 -3.0380943
8.3464127 -4.0761557 -3.0380938
8.3464127 -4.270257 -3.0380943
8.3464127 -4.4643598 -3.038095
8.3464127 -4.658463 -3.038094
8.3464127 -4.8525653 -3.038095
8.3464127 -5.0466681 -3.0380936
8.3464127 -5.2407703 -3.0380943
8.3464127 -5.4348726 -3.0380952
8.2823582 -5.5857763 -3.2179089
8.2504253 -5.7561111 -3.3075504
8.2305412 -5.9336452 -3.3633723
8.2105284 -6.1101613 -3.4195495
8.1905823 -6.2857957 -3.4755449
8.1681833 -6.4585633 -3.5384231
8.1551161 -6.6378851 -3.5751064
8.1551476 -6.8275657 -3.5750172
8.1551476 -7.0172205 -3.575017
8.1551476 -7.2068744 -3.5750182
8.1551476 -7.3965287 -3.5750175
8.1551476 -7.586184 -3.5750172
8.3726854 8.1823978 -3.4985223
8.3727818 7.9922018 -3.4982567
8.3727818 7.8019109 -3.4982567
8.3727818 7.6116199 -3.498256
8.3728466 7.4213867 -3.4980798
8.5157461 7.3545089 -3.106045
8.4002028 7.063807 -3.4230304
8.4002028 6.8728929 -3.4230309
8.4002028 6.6819801 -3.4230297
8.4002028 6.4910655 -3.4230304
8.4001703 6.300128 -3.4231195
8.4001703 6.1092153 -3.4231193
8.4177341 5.9306769 -3.3749337
8.4385538 5.7535596 -3.3178184
8.4590473 5.5752816 -3.261595
8.4799395 5.3963256 -3.2042794
8.500968 5.2165031 -3.1465893
8.5560722 5.0558615 -2.9954121
8.5974979 4.8849421 -2.8817668
8.5974979 4.6895447 -2.8817663
8.5974979 4.4941468 -2.8817661
8.5974979 4.298749 -2.8817658
8.5974979 4.1033511 -2.8817668
8.5975323 3.9079692 -2.8816731
8.5975323 3.7125702 -2.8816726
8.5975323 3.5171728 -2.8816731
8.5975323 3.3217738 -2.8816724
8.5975323 3.1263757 -2.8816736
8.5975323 2.9309764 -2.8816726
8.5975323 2.7355793 -2.8816731
8.5975323 2.54018 -2.8816724
8.5975323 2.3447819 -2.8816733
8.5975323 2.1493828 -2.8816726
8.5152454 1.9352838 -3.1074204
8.4910555 1.7368068 -3.173784
8.4684553 1.5397189 -3.2357833
8.4448586 1.3435006 -3.3005195
8.4217196 1.1484172 -3.3640001
8.4003658 0.95458722 -3.4225833
8.4003983 0.76367205 -3.4224942
8.4003983 0.57275563 -3.4224954
8.4003983 0.38183695 -3.4224951
8.4003983 0.19091849 -3.4224949
8.4003983 -9.4039208e-08 -3.4224946
8.4588165 -0.19224541 -3.2622278
8.4309473 -0.38322425 -3.3386858
8.4002028 -0.57274085 -3.4230294
8.4002028 -0.76365554 -3.4230292
8.4002028 -0.95456833 -3.4230304
8.4001703 -1.1454779 -3.4231193
8.4001703 -1.3363909 -3.4231181
8.4001703 -1.5273036 -3.4231193
8.4294729 -1.7242107 -3.3427291
8.4525232 -1.9210277 -3.2794931
8.4754343 -2.1188581 -3.2166374
8.4983377 -2.317728 -3.153805
8.5971575 -2.5400693 -2.8826997
8.5971575 -2.7354591 -2.8827004
8.5971575 -2.9308484 -2.8827012
8.5971575 -3.1262391 -2.8827002
8.5971575 -3.3216286 -2.8827009
8.5971575 -3.5170195 -2.8827
8.5971575 -3.712409 -2.8827007
8.5971575 -3.9077985 -2.8827016
8.5971575 -4.1031895 -2.8827007
8.5971575 -4.2985783 -2.8827012
8.5971575 -4.493969 -2.8827
8.5971575 -4.6893582 -2.8827007
8.5971909 -4.884768 -2.882607
8.5971909 -5.0801578 -2.8826079
8.5971909 -5.2755489 -2.8826072
8.5971909 -5.4709401 -2.8826065
8.5169497 -5.6134439 -3.1027429
8.494113 -5.791441 -3.1653945
8.4734821 -5.9699535 -3.221993
8.452754 -6.1474576 -3.2788601
8.4320936 -6.3240705 -3.3355398
8.4017963 -6.4922976 -3.4186573
8.4001379 -6.6819272 -3.4232087
8.4001379 -6.8728404 -3.4232075
8.4001379 -7.0637522 -3.4232082
8.4001379 -7.2546644 -3.423209
8.4001379 -7.4455771 -3.4232078
8.4001379 -7.6364889 -3.4232085
8.6202154 8.0455341 -3.3449755
8.6202154 7.8539734 -3.3449755
8.6202154 7.6624141 -3.3449745
8.6202488 7.4708819 -3.3448851
8.7092867 7.3545089 -3.106045
8.6486006 7.1110725 -3.2688298
8.6485004 6.9188013 -3.2691004
8.6484661 6.7265849 -3.269191
8.6484661 6.5343971 -3.2691913
8.6484661 6.3422084 -3.2691913
8.6484327 6.1499968 -3.2692819
8.6531878 5.9610848 -3.2565274
8.6837959 5.7891979 -3.1744218
8.7050161 5.6099 -3.1174989
8.7265806 5.4298725 -3.0596535
8.7483559 5.2490129 -3.0012426
8.7817965 5.0739274 -2.9115396
8.8516388 4.9175763 -2.7241905
8.8516388 4.7208743 -2.724191
8.8516388 4.5241709 -2.7241902
8.8516388 4.3274679 -2.7241898
8.8516388 4.130765 -2.7241895
8.8516388 3.934062 -2.7241914
8.8516388 3.7373588 -2.724191
8.8516388 3.5406559 -2.7241905
8.8516388 3.3439529 -2.7241902
8.8516388 3.1472487 -2.72419
8.8516388 2.9505458 -2.7241898
8.8516388 2.7538438 -2.7241912
8.8516388 2.5571408 -2.7241907
8.8516388 2.3604367 -2.7241907
8.8516388 2.1637337 -2.7241902
8.7706213 1.9490273 -2.9415171
8.743289 1.7486578 -3.0148332
8.7200317 1.5502287 -3.0772212
8.6955338 1.3526391 -3.1429343
8.6714449 1.1561939 -3.2075527
8.6486349 0.96095943 -3.2687395
8.6486349 0.76876843 -3.2687399
8.6486349 0.5765754 -3.2687395
8.6486349 0.3843843 -3.2687399
8.6486349 0.19219209 -3.2687387
8.6486349 2.232069e-07 -3.2687399
8.7088757 -0.19353105 -3.1071444
8.6769371 -0.38564083 -3.1928196
8.6485004 -0.57656628 -3.2691007
8.6485004 -0.76875561 -3.2691002
8.6484661 -0.96094024 -3.2691913
8.6484661 -1.1531296 -3.2691905
8.6484327 -1.3453114 -3.2692826
8.6484327 -1.537499 -3.2692809
