# .PCD v0.7 - Point Cloud Data file format
VERSION 0.7
FIELDS x y z
SIZE 4 4 4
TYPE F F F
COUNT 1 1 1
WIDTH 1483
HEIGHT 1
VIEWPOINT 0 0 0 1 0 0 0
POINTS 1483
DATA ascii
-272.99246 -136.49626 -321.19452
-272.99246 -144.07941 -321.19443
-272.99246 -151.66252 -321.19446
-272.99246 -159.24564 -321.19449
-272.99246 -166.82875 -321.19449
-272.99246 -174.41187 -321.19452
-272.99246 -181.99503 -321.19443
-272.99246 -189.57814 -321.19446
-272.99246 -197.16125 -321.19449
-272.99246 -204.74437 -321.19452
-272.99246 -212.32755 -321.19443
-272.99246 -219.91066 -321.19446
-272.99246 -227.49376 -321.19449
-272.99246 -235.07687 -321.19449
-272.99246 -242.65999 -321.19452
-272.99246 -250.24313 -321.19443
-272.99246 -257.82626 -321.19446
-272.99246 -265.40939 -321.19449
-272.99246 -272.99246 -321.19449
-272.72757 -280.30334 -322.08279
-265.63629 -280.39392 -345.86029
-261.87006 -283.6926 -358.48877
-261.4007 -290.44528 -360.06247
-261.67465 -298.01837 -359.14398
-261.69672 -305.31287 -359.07001
-266.56418 380.80591 -317.21164
-266.56418 373.18979 -317.21164
-266.56418 365.57373 -317.21161
-266.56418 357.95758 -317.21164
-266.56418 350.34146 -317.21161
-266.56418 342.72534 -317.21164
-266.56418 335.10922 -317.21161
-266.56418 327.4931 -317.21164
-266.56418 319.87695 -317.21164
-266.56418 312.26086 -317.21167
-266.56418 304.64471 -317.21164
-266.56418 297.02866 -317.21164
-266.56418 289.41251 -317.21161
-266.56418 281.79642 -317.21164
-266.56418 274.18027 -317.21164
-266.56418 266.56415 -317.21167
-266.56418 258.94803 -317.21164
-266.56418 251.33188 -317.21161
-266.56418 243.71577 -317.21164
-266.56418 236.09964 -317.21164
-266.56418 228.48357 -317.21164
-266.56418 220.86743 -317.21161
-266.56418 213.25133 -317.21164
-266.56418 205.63519 -317.21161
-266.56418 198.01909 -317.21164
-266.56418 190.40294 -317.21164
-266.56418 182.78682 -317.21164
-266.56418 175.1707 -317.21164
-266.56418 167.55458 -317.21164
-266.56418 159.93848 -317.21161
-266.56418 152.32237 -317.21164
-266.56418 144.70624 -317.21161
-266.56418 137.09012 -317.21164
-266.56418 129.47398 -317.21161
-266.56418 121.85788 -317.21164
-266.56418 114.24174 -317.21161
-266.56418 106.62563 -317.21167
-266.56418 99.009537 -317.21161
-266.56418 91.393433 -317.21164
-266.56418 83.77729 -317.21161
-266.56418 76.161186 -317.21164
-266.56418 68.545044 -317.21164
-266.56418 60.928936 -317.21167
-266.56418 53.312801 -317.21164
-266.56418 45.696659 -317.21161
-266.56418 38.080559 -317.21164
-266.56418 30.464457 -317.21161
-266.56418 22.848345 -317.21164
-266.56418 15.232216 -317.21161
-266.56418 7.6160889 -317.21161
-266.56418 -3.7784834e-05 -317.21161
-266.56418 -7.6161513 -317.21161
-266.56418 -15.232278 -317.21164
-266.56418 -22.848406 -317.21164
-266.56418 -30.464527 -317.21161
-266.56418 -38.080608 -317.21161
-266.56418 -45.696716 -317.21164
-266.56418 -53.312847 -317.21161
-266.56418 -60.928982 -317.21161
-266.56418 -68.545128 -317.21161
-266.56418 -76.161201 -317.21167
-266.56418 -83.777344 -317.21164
-266.56418 -91.393486 -317.21164
-266.56418 -99.009598 -317.21158
-266.56418 -106.62567 -317.21164
-266.56418 -114.24181 -317.21164
-266.56418 -121.85793 -317.21161
-266.56418 -129.47408 -317.21161
-266.56418 -137.09015 -317.21167
-266.56418 -144.7063 -317.21164
-266.56418 -152.32245 -317.21164
-266.56418 -159.93855 -317.21161
-266.56418 -167.55467 -317.21158
-266.56418 -175.17076 -317.21164
-266.56418 -182.7869 -317.21164
-266.56418 -190.40302 -317.21158
-266.56418 -198.01915 -317.21158
-266.56418 -205.63524 -317.21164
-266.56418 -213.25137 -317.21164
-266.56418 -220.86752 -317.21161
-266.56418 -228.48364 -317.21158
-266.56418 -236.09973 -317.21167
-266.56418 -243.71584 -317.21161
-266.56418 -251.33197 -317.21161
-266.56418 -258.94809 -317.21158
-266.56418 -266.56418 -317.21164
-266.56418 -274.18033 -317.21164
-265.15088 -280.3024 -322.08585
-258.24136 -280.37637 -345.91595
-255.19739 -284.36282 -356.41425
-254.58844 -290.95825 -358.51443
-255.12767 -298.86386 -356.65479
-255.18909 -306.22693 -356.4429
-260.08057 382.47144 -313.1908
-260.08057 374.82199 -313.19083
-260.08057 367.17255 -313.19083
-260.08057 359.5231 -313.19083
-260.08057 351.87372 -313.1908
-260.08057 344.2243 -313.19083
-260.08057 336.57483 -313.19083
-260.08057 328.92545 -313.19083
-260.08057 321.276 -313.19083
-260.08057 313.62656 -313.19083
-260.08057 305.97711 -313.19083
-260.08057 298.32773 -313.19086
-260.08057 290.67828 -313.19086
-260.08057 283.02884 -313.19086
-260.08057 275.37943 -313.19083
-260.08057 267.72998 -313.19083
-260.08057 260.08054 -313.19083
-260.08057 252.43112 -313.1908
-260.08057 244.78169 -313.1908
-260.08057 237.13225 -313.1908
-260.08057 229.48283 -313.1908
-260.08057 221.83339 -313.1908
-260.08057 214.18398 -313.19083
-260.08057 206.53456 -313.1908
-260.08057 198.88512 -313.1908
-260.08057 191.23569 -313.19083
-260.08057 183.58624 -313.19083
-260.08057 175.93683 -313.1908
-260.08057 168.2874 -313.1908
-260.08057 160.63797 -313.19083
-260.08057 152.98856 -313.19083
-260.08057 145.33911 -313.19083
-260.08057 137.68968 -313.19083
-260.08057 130.04027 -313.1908
-260.08057 122.39083 -313.19083
-260.08057 114.7414 -313.19086
-260.08057 107.092 -313.19083
-260.08057 99.442558 -313.19083
-260.08057 91.793121 -313.19083
-260.08057 84.143715 -313.19083
-260.08057 76.49427 -313.19083
-260.08057 68.844826 -313.19083
-260.08057 61.1954 -313.19086
-260.08057 53.545994 -313.19083
-260.08057 45.896523 -313.1908
-260.08057 38.247082 -313.1908
-260.08057 30.597698 -313.1908
-260.08057 22.948246 -313.1908
-260.08057 15.298805 -313.19083
-260.08057 7.649405 -313.1908
-260.08057 -3.489988e-05 -313.1908
-260.08057 -7.6494875 -313.1908
-260.08057 -15.298888 -313.1908
-260.08057 -22.94832 -313.1908
-260.08057 -30.597752 -313.19083
-260.08057 -38.247154 -313.1908
-260.08057 -45.89658 -313.19086
-260.08057 -53.546013 -313.19086
-260.08057 -61.195454 -313.19086
-260.08057 -68.844902 -313.19077
-260.08057 -76.494354 -313.19077
-260.08057 -84.143791 -313.19077
-260.08057 -91.79319 -313.19077
-260.08057 -99.442627 -313.19077
-260.08057 -107.09206 -313.19077
-260.08057 -114.74149 -313.1908
-260.08057 -122.39091 -313.1908
-260.08057 -130.04034 -313.19077
-260.08057 -137.68976 -313.1908
-260.08057 -145.33919 -313.19077
-260.08057 -152.98863 -313.1908
-260.08057 -160.63806 -313.1908
-260.08057 -168.28748 -313.1908
-260.08057 -175.9369 -313.1908
-260.08057 -183.58633 -313.1908
-260.08057 -191.23575 -313.1908
-260.08057 -198.88521 -313.1908
-260.08057 -206.53461 -313.1908
-260.08057 -214.18407 -313.1908
-260.08057 -221.83348 -313.1908
-260.08057 -229.48291 -313.1908
-260.08057 -237.13234 -313.1908
-260.08057 -244.78175 -313.1908
-260.08057 -252.43118 -313.1908
-260.08057 -260.08063 -313.1908
-260.08057 -267.73004 -313.1908
-260.08057 -275.37949 -313.1908
-257.57254 -280.29956 -322.09515
-250.97708 -280.50388 -345.51099
-248.80319 -285.39194 -353.22906
-248.07558 -291.85367 -355.81235
-248.78204 -300.00195 -353.30408
-249.19386 -307.82779 -351.84204
-253.53915 384.15021 -309.13785
-253.53915 376.46722 -309.13785
-253.53915 368.78418 -309.13785
-253.53915 361.10117 -309.13788
-253.53915 353.41818 -309.13785
-253.53915 345.7352 -309.13788
-253.53915 338.05219 -309.13782
-253.53915 330.36917 -309.13788
-253.53915 322.68616 -309.13785
-253.53915 315.00317 -309.13785
-253.53915 307.32016 -309.13785
-253.53915 299.63715 -309.13785
-253.53915 291.95413 -309.13788
-253.53915 284.27115 -309.13788
-253.53915 276.58813 -309.13788
-253.53915 268.90515 -309.13785
-253.53915 261.22214 -309.13785
-253.53915 253.53909 -309.13785
-253.53915 245.85611 -309.13785
-253.53915 238.1731 -309.13785
-253.53915 230.49013 -309.13788
-253.53915 222.8071 -309.13782
-253.53915 215.12408 -309.13788
-253.53915 207.4411 -309.13788
-253.53915 199.75809 -309.13785
-253.53915 192.07512 -309.13788
-253.53915 184.39209 -309.13782
-253.53915 176.70908 -309.13788
-253.53915 169.02606 -309.13785
-253.53915 161.34308 -309.13788
-253.53915 153.66006 -309.13785
-253.53915 145.97708 -309.13785
-253.53915 138.29402 -309.13785
-253.53915 130.61105 -309.13788
-253.53915 122.92803 -309.13782
-253.53915 115.24506 -309.13785
-253.53915 107.56205 -309.13785
-253.53915 99.879013 -309.13785
-253.53915 92.196022 -309.13788
-253.53915 84.513016 -309.13785
-253.53915 76.83004 -309.13788
-253.53915 69.147034 -309.13785
-253.53915 61.464001 -309.13788
-253.53915 53.780994 -309.13785
-253.53915 46.098 -309.13785
-253.53915 38.415001 -309.13782
-253.53915 30.732 -309.13785
-253.53915 23.04896 -309.13785
-253.53915 15.365977 -309.13788
-253.53915 7.6829758 -309.13785
-253.53915 -2.2678954e-05 -309.13785
-253.53915 -7.6830082 -309.13785
-253.53915 -15.366062 -309.13785
-253.53915 -23.04904 -309.13788
-253.53915 -30.732054 -309.13785
-253.53915 -38.415031 -309.13788
-253.53915 -46.098042 -309.13782
-253.53915 -53.781094 -309.13782
-253.53915 -61.464046 -309.13788
-253.53915 -69.147064 -309.13788
-253.53915 -76.83007 -309.13782
-253.53915 -84.513084 -309.13782
-253.53915 -92.196083 -309.13788
-253.53915 -99.879097 -309.13785
-253.53915 -107.5621 -309.13782
-253.53915 -115.24509 -309.13791
-253.53915 -122.92809 -309.13788
-253.53915 -130.6111 -309.13785
-253.53915 -138.29414 -309.13782
-253.53915 -145.97708 -309.13788
-253.53915 -153.66013 -309.13788
-253.53915 -161.34314 -309.13785
-253.53915 -169.02614 -309.13782
-253.53915 -176.70914 -309.13788
-253.53915 -184.39212 -309.13785
-253.53915 -192.07516 -309.13785
-253.53915 -199.75818 -309.13782
-253.53915 -207.44113 -309.13785
-253.53915 -215.12416 -309.13785
-253.53915 -222.80717 -309.13785
-253.53915 -230.49014 -309.13791
-253.53915 -238.17317 -309.13788
-253.53915 -245.85619 -309.13785
-253.53915 -253.5392 -309.13782
-253.53915 -261.22217 -309.13788
-253.53915 -268.90518 -309.13785
-253.53915 -276.5882 -309.13785
-249.99519 -280.29767 -322.10132
-243.9064 -280.86197 -344.37347
-242.51674 -286.61075 -349.4567
-241.79028 -293.07919 -352.11401
-242.51674 -301.30872 -349.45673
-246.94005 385.84381 -305.04916
-246.94089 378.12823 -305.04596
-246.94089 370.41132 -305.04599
-246.94089 362.69443 -305.04593
-246.94089 354.97751 -305.04599
-246.94089 347.26062 -305.04596
-246.94089 339.54373 -305.04596
-246.94089 331.82678 -305.04596
-246.94089 324.10992 -305.04596
-246.94089 316.39297 -305.04596
-246.94089 308.67609 -305.04593
-246.94089 300.9592 -305.04599
-246.94089 293.24228 -305.04593
-246.94089 285.52542 -305.04596
-246.94089 277.80847 -305.04596
-246.94089 270.09158 -305.04596
-246.94089 262.37466 -305.04596
-246.94089 254.65778 -305.04593
-246.94089 246.94086 -305.04599
-246.94089 239.22395 -305.04593
-246.94089 231.50708 -305.04596
-246.94089 223.79013 -305.04593
-246.94089 216.07327 -305.04596
-246.94089 208.35635 -305.04596
-246.94089 200.63945 -305.04593
-246.94089 192.92253 -305.04596
-246.94089 185.20563 -305.04593
-246.94089 177.48877 -305.04596
-246.94089 169.77182 -305.04593
-246.94089 162.05495 -305.04596
-246.94089 154.33803 -305.04596
-246.94089 146.62112 -305.04593
-246.94089 138.90421 -305.04596
-246.94089 131.18732 -305.04593
-246.94089 123.47044 -305.04596
-246.94089 115.75352 -305.04599
-246.94089 108.03663 -305.04596
-246.94089 100.31971 -305.04596
-246.94089 92.602814 -305.04593
-246.94089 84.885887 -305.04596
-246.94089 77.168991 -305.04593
-246.94089 69.45211 -305.04593
-246.94089 61.735203 -305.04599
-246.94089 54.018307 -305.04596
-246.94089 46.301388 -305.04596
-246.94089 38.584488 -305.04593
-246.94089 30.867563 -305.04596
-246.94089 23.150673 -305.04593
-246.94089 15.433785 -305.04593
-246.94089 7.716888 -305.04599
-246.94089 -3.1300708e-05 -305.04593
-246.94089 -7.7169285 -305.04596
-246.94089 -15.43384 -305.04593
-246.94089 -23.150759 -305.04596
-246.94089 -30.867624 -305.04596
-246.94089 -38.584503 -305.04599
-246.94089 -46.301464 -305.04593
-246.94089 -54.018345 -305.04593
-246.94089 -61.735249 -305.04596
-246.94089 -69.452141 -305.04596
-246.94089 -77.169106 -305.04593
-246.94089 -84.885979 -305.04593
-246.94089 -92.602859 -305.04593
-246.94089 -100.31976 -305.04596
-246.94089 -108.03665 -305.04599
-246.94089 -115.7536 -305.04593
-246.94089 -123.47047 -305.04593
-246.94089 -131.18736 -305.04596
-246.94089 -138.90427 -305.04596
-246.94089 -146.62119 -305.04599
-246.94089 -154.33812 -305.04593
-246.94089 -162.05502 -305.04596
-246.94089 -169.77191 -305.04596
-246.94089 -177.48878 -305.04596
-246.94089 -185.20573 -305.0459
-246.94089 -192.92262 -305.04593
-246.94089 -200.63951 -305.04596
-246.94089 -208.3564 -305.04596
-246.94089 -216.0733 -305.04599
-246.94089 -223.79025 -305.04593
-246.94089 -231.50711 -305.04593
-246.94089 -239.22401 -305.04593
-246.94089 -246.9409 -305.04596
-246.94089 -254.65779 -305.04599
-246.94089 -262.37479 -305.04593
-246.94089 -270.09167 -305.04596
-246.94089 -277.80856 -305.04596
-242.41794 -280.29578 -322.10751
-237.16937 -281.63867 -341.90616
-236.20517 -287.87512 -345.54327
-236.41158 -295.51453 -344.76471
-236.20517 -302.63794 -345.54327
-240.2825 387.55243 -300.92422
-240.28333 379.80261 -300.92105
-240.28333 372.05161 -300.92102
-240.28333 364.30051 -300.92099
-240.28333 356.54941 -300.92102
-240.28333 348.79837 -300.92105
-240.28333 341.04727 -300.92102
-240.28333 333.2962 -300.92102
-240.28333 325.5451 -300.92099
-240.28333 317.79407 -300.92102
-240.28333 310.043 -300.92105
-240.28333 302.2919 -300.92102
-240.28333 294.5408 -300.92102
-240.28333 286.78976 -300.92099
-240.28333 279.03867 -300.92102
-240.28333 271.28763 -300.92102
-240.28333 263.53653 -300.92102
-240.28333 255.78546 -300.92102
-240.28333 248.03438 -300.92105
-240.28333 240.28331 -300.92102
-240.28333 232.53221 -300.92102
-240.28333 224.78116 -300.92102
-240.28333 217.03006 -300.92102
-240.28333 209.27902 -300.92102
-240.28333 201.52791 -300.92102
-240.28333 193.77686 -300.92099
-240.28333 186.02577 -300.92105
-240.28333 178.2747 -300.92099
-240.28333 170.52362 -300.92105
-240.28333 162.77255 -300.92099
-240.28333 155.02145 -300.92102
-240.28333 147.27042 -300.92102
-240.28333 139.51932 -300.92102
-240.28333 131.76826 -300.92102
-240.28333 124.01716 -300.92102
-240.28333 116.26611 -300.92099
-240.28333 108.51502 -300.92102
-240.28333 100.76395 -300.92099
-240.28333 93.012871 -300.92102
-240.28333 85.261818 -300.92102
-240.28333 77.510704 -300.92102
-240.28333 69.759666 -300.92102
-240.28333 62.008553 -300.92102
-240.28333 54.257519 -300.92102
-240.28333 46.506424 -300.92102
-240.28333 38.755348 -300.92099
-240.28333 31.004269 -300.92102
-240.28333 23.253218 -300.92102
-240.28333 15.502099 -300.92099
-240.28333 7.7510638 -300.92102
-240.28333 -4.2290423e-05 -300.92099
-240.28333 -7.7510982 -300.92099
-240.28333 -15.502172 -300.92105
-240.28333 -23.253216 -300.92102
-240.28333 -31.004358 -300.92099
-240.28333 -38.755402 -300.92099
-240.28333 -46.506496 -300.92102
-240.28333 -54.25753 -300.92102
-240.28333 -62.008614 -300.92105
-240.28333 -69.75972 -300.92096
-240.28333 -77.510796 -300.92099
-240.28333 -85.261841 -300.92099
-240.28333 -93.012939 -300.92102
-240.28333 -100.76397 -300.92102
-240.28333 -108.51507 -300.92105
-240.28333 -116.26618 -300.92099
-240.28333 -124.01724 -300.92099
-240.28333 -131.76833 -300.92102
-240.28333 -139.51936 -300.92105
-240.28333 -147.27045 -300.92105
-240.28333 -155.02156 -300.92099
-240.28333 -162.77261 -300.92099
-240.28333 -170.5237 -300.92102
-240.28333 -178.27475 -300.92102
-240.28333 -186.02582 -300.92105
-240.28333 -193.77693 -300.92099
-240.28333 -201.52802 -300.92099
-240.28333 -209.27907 -300.92102
-240.28333 -217.03012 -300.92102
-240.28333 -224.78119 -300.92105
-240.28333 -232.5323 -300.92096
-240.28333 -240.28339 -300.92099
-240.28333 -248.03444 -300.92099
-240.28333 -255.78552 -300.92102
-240.28333 -263.53656 -300.92102
-240.28333 -271.28766 -300.92105
-240.28333 -279.03876 -300.92099
-234.84079 -280.29388 -322.11365
-230.33157 -282.34195 -339.67209
-230.07521 -289.44949 -340.67035
-229.8369 -296.56378 -341.59824
-229.8369 -303.97787 -341.59827
-233.56654 389.2775 -296.7594
-233.56734 381.49329 -296.75613
-233.56734 373.70773 -296.75613
-233.56734 365.92212 -296.75613
-233.56734 358.13657 -296.75613
-233.56734 350.35095 -296.75613
-233.56734 342.5654 -296.7561
-233.56734 334.77985 -296.7561
-233.56734 326.99423 -296.7561
-233.56734 319.20868 -296.7561
-233.56734 311.42307 -296.7561
-233.56734 303.63754 -296.75613
-233.56734 295.85193 -296.75616
-233.56734 288.06638 -296.75613
-233.56734 280.28082 -296.75613
-233.56734 272.49524 -296.75616
-233.56734 264.70966 -296.75613
-233.56734 256.92404 -296.75616
-233.56734 249.13849 -296.75613
-233.56734 241.35289 -296.75613
-233.56734 233.56732 -296.75613
-233.56734 225.78172 -296.75613
-233.56734 217.99615 -296.7561
-233.56734 210.2106 -296.7561
-233.56734 202.425 -296.75613
-233.56734 194.63943 -296.7561
-233.56734 186.85384 -296.75613
-233.56734 179.06827 -296.7561
-233.56734 171.28267 -296.75613
-233.56734 163.4971 -296.7561
-233.56734 155.71155 -296.7561
-233.56734 147.92595 -296.75613
-233.56734 140.14038 -296.7561
-233.56734 132.35478 -296.75613
-233.56734 124.56921 -296.7561
-233.56734 116.78362 -296.75613
-233.56734 108.99809 -296.75613
-233.56734 101.21247 -296.75613
-233.56734 93.426918 -296.75613
-233.56734 85.641365 -296.75613
-233.56734 77.855751 -296.75613
-233.56734 70.07019 -296.75613
-233.56734 62.284584 -296.75613
-233.56734 54.499027 -296.75613
-233.56734 46.713421 -296.75613
-233.56734 38.927864 -296.75613
-233.56734 31.142303 -296.75613
-233.56734 23.356695 -296.75613
-233.56734 15.57114 -296.75613
-233.56734 7.7855306 -296.75613
-233.56734 -2.3991381e-05 -296.75613
-233.56734 -7.7856255 -296.75613
-233.56734 -15.571188 -296.7561
-233.56734 -23.35675 -296.7561
-233.56734 -31.142351 -296.7561
-233.56734 -38.927914 -296.7561
-233.56734 -46.713516 -296.7561
-233.56734 -54.499077 -296.7561
-233.56734 -62.284672 -296.7561
-233.56734 -70.070236 -296.7561
-233.56734 -77.85585 -296.7561
-233.56734 -85.641411 -296.7561
-233.56734 -93.426971 -296.75607
-233.56734 -101.21258 -296.7561
-233.56734 -108.99815 -296.7561
-233.56734 -116.78371 -296.75607
-233.56734 -124.56928 -296.75607
-233.56734 -132.35489 -296.7561
-233.56734 -140.14046 -296.75607
-233.56734 -147.92604 -296.75607
-233.56734 -155.71164 -296.75607
-233.56734 -163.49721 -296.75607
-233.56734 -171.28273 -296.75616
-233.56734 -179.0683 -296.75616
-233.56734 -186.85388 -296.75616
-233.56734 -194.63945 -296.75613
-233.56734 -202.42506 -296.75616
-233.56734 -210.21063 -296.75616
-233.56734 -217.99622 -296.75613
-233.56734 -225.78178 -296.75613
-233.56734 -233.56738 -296.75616
-233.56734 -241.35294 -296.75613
-233.56734 -249.1385 -296.75613
-233.56734 -256.9241 -296.75613
-233.56734 -264.70969 -296.75613
-233.56734 -272.49527 -296.75613
-233.49837 -280.19812 -297.03357
-227.26373 -280.29199 -322.11984
-223.67444 -283.32098 -336.56207
-223.13979 -290.08179 -338.71332
-223.41199 -297.88269 -337.6181
-223.42908 -305.35309 -337.54938
-226.78973 391.01675 -292.56058
-226.79053 383.19778 -292.55728
-226.79053 375.37735 -292.55731
-226.79053 367.55701 -292.55731
-226.79053 359.73663 -292.55728
-226.79053 351.91629 -292.55728
-226.79053 344.09592 -292.55731
-226.79053 336.27557 -292.55728
-226.79053 328.4552 -292.55725
-226.79053 320.63483 -292.55731
-226.79053 312.81448 -292.55728
-226.79053 304.99414 -292.55728
-226.79053 297.17374 -292.55728
-226.79053 289.35339 -292.55728
-226.79053 281.53305 -292.55728
-226.79053 273.71265 -292.55728
-226.79053 265.8923 -292.55728
-226.79053 258.07196 -292.55728
-226.79053 250.25156 -292.55728
-226.79053 242.43123 -292.55728
-226.79053 234.61087 -292.55728
-226.79053 226.79047 -292.55728
-226.79053 218.97014 -292.55728
-226.79053 211.14978 -292.55725
-226.79053 203.32939 -292.55728
-226.79053 195.50905 -292.55728
-226.79053 187.68864 -292.55728
-226.79053 179.86832 -292.55728
-226.79053 172.04796 -292.55728
-226.79053 164.22757 -292.55731
-226.79053 156.40723 -292.55728
-226.79053 148.58687 -292.55725
-226.79053 140.76648 -292.55728
-226.79053 132.94614 -292.55728
-226.79053 125.12579 -292.55728
-226.79053 117.3054 -292.55728
-226.79053 109.48504 -292.55728
-226.79053 101.6647 -292.55728
-226.79053 93.844307 -292.55728
-226.79053 86.023956 -292.55725
-226.79053 78.203613 -292.55728
-226.79053 70.383217 -292.55728
-226.79053 62.562881 -292.55728
-226.79053 54.742523 -292.55725
-226.79053 46.922131 -292.55728
-226.79053 39.101791 -292.55728
-226.79053 31.281397 -292.55728
-226.79053 23.461058 -292.55728
-226.79053 15.640708 -292.55728
-226.79053 7.8203068 -292.55728
-226.79053 -1.7870485e-05 -292.55728
-226.79053 -7.8203878 -292.55725
-226.79053 -15.640752 -292.55731
-226.79053 -23.461145 -292.55725
-226.79053 -31.281471 -292.55725
-226.79053 -39.101849 -292.55731
-226.79053 -46.92223 -292.55722
-226.79053 -54.742565 -292.55725
-226.79053 -62.562931 -292.55728
-226.79053 -70.383278 -292.55731
-226.79053 -78.203651 -292.55725
-226.79053 -86.024025 -292.55728
-226.79053 -93.84436 -292.55728
-226.79053 -101.66479 -292.55725
-226.79053 -109.48512 -292.55728
-226.79053 -117.30545 -292.55728
-226.79053 -125.12585 -292.55725
-226.79053 -132.94621 -292.55728
-226.79053 -140.76656 -292.55731
-226.79053 -148.58694 -292.55722
-226.79053 -156.40729 -292.55725
-226.79053 -164.22765 -292.55728
-226.79053 -172.04797 -292.55731
-226.79053 -179.86838 -292.55725
-226.79053 -187.68872 -292.55728
-226.79053 -195.50906 -292.55728
-226.79053 -203.32948 -292.55725
-226.79053 -211.14984 -292.55728
-226.79053 -218.9702 -292.55731
-226.79053 -226.79057 -292.55725
-226.79053 -234.61092 -292.55728
-226.79053 -242.43127 -292.55728
-226.79053 -250.25165 -292.55722
-226.79053 -258.07202 -292.55725
-226.79053 -265.89236 -292.55728
-226.79053 -273.71268 -292.55728
-225.71353 -280.19617 -297.04016
-219.6868 -280.29013 -322.12601
-217.00212 -284.34769 -333.30078
-216.32733 -290.923 -336.10962
-216.92967 -299.21338 -333.60236
-217.16241 -307.02277 -332.63358
-219.95207 392.77151 -288.3241
-219.95285 384.91751 -288.32077
-219.95361 377.06339 -288.31744
-219.95361 369.20789 -288.31741
-219.95361 361.35236 -288.31744
-219.95361 353.49689 -288.31744
-219.95361 345.64139 -288.31747
-219.95361 337.78592 -288.31744
-219.95361 329.93042 -288.31741
-219.95361 322.07495 -288.31744
-219.95361 314.21942 -288.31744
-219.95361 306.36395 -288.31744
-219.95361 298.50848 -288.31744
-219.95361 290.65295 -288.31744
-219.95361 282.79749 -288.31744
-219.95361 274.94202 -288.31741
-219.95361 267.08655 -288.31744
-219.95361 259.23102 -288.31744
-219.95361 251.37555 -288.31744
-219.95361 243.52008 -288.31744
-219.95361 235.6646 -288.31741
-219.95361 227.80908 -288.31744
-219.95361 219.9536 -288.31741
-219.95361 212.09813 -288.31744
-219.95361 204.24261 -288.31744
-219.95361 196.38713 -288.31741
-219.95361 188.53168 -288.31744
-219.95361 180.67619 -288.31741
-219.95361 172.82066 -288.31744
-219.95361 164.96519 -288.31741
-219.95361 157.10973 -288.31744
-219.95361 149.25421 -288.31744
-219.95361 141.39873 -288.31741
-219.95361 133.54326 -288.31744
-219.95361 125.68778 -288.31741
-219.95361 117.83226 -288.31744
-219.95361 109.97678 -288.31741
-219.95361 102.12132 -288.31741
-219.95361 94.265793 -288.31744
-219.95361 86.410316 -288.31741
-219.95361 78.554848 -288.31744
-219.95361 70.699364 -288.31741
-219.95361 62.843849 -288.31741
-219.95361 54.988369 -288.31741
-219.95361 47.132908 -288.31741
-219.95361 39.277424 -288.31741
-219.95361 31.421902 -288.31741
-219.95361 23.566435 -288.31744
-219.95361 15.710964 -288.31741
-219.95361 7.8554416 -288.31741
-219.95361 -9.4854513e-06 -288.31747
-219.95361 -7.8555169 -288.31741
-219.95361 -15.710968 -288.31744
-219.95361 -23.566505 -288.31744
-219.95361 -31.421953 -288.31744
-219.95361 -39.277451 -288.31741
-219.95361 -47.13295 -288.31747
-219.95361 -54.988449 -288.31741
-219.95361 -62.843899 -288.31744
-219.95361 -70.699394 -288.31741
-219.95361 -78.554886 -288.31747
-219.95361 -86.410393 -288.31741
-219.95361 -94.265846 -288.31744
-219.95361 -102.12139 -288.31741
-219.95361 -109.97683 -288.31744
-219.95361 -117.83234 -288.31741
-219.95361 -125.6878 -288.31744
-219.95361 -133.5433 -288.31741
-219.95361 -141.39879 -288.31744
-219.95361 -149.25427 -288.31741
-219.95361 -157.10974 -288.31744
-219.95361 -164.96529 -288.31741
-219.95361 -172.82072 -288.31744
-219.95361 -180.67624 -288.31741
-219.95361 -188.53168 -288.31744
-219.95361 -196.38722 -288.31741
-219.95361 -204.24266 -288.31744
-219.95361 -212.09818 -288.31738
-219.95361 -219.95364 -288.31744
-219.95361 -227.80916 -288.31741
-219.95361 -235.66463 -288.31744
-219.95361 -243.52013 -288.31738
-219.95361 -251.37558 -288.31744
-219.95361 -259.23111 -288.31738
-219.95361 -267.08658 -288.31744
-219.95361 -274.94205 -288.31738
-217.92879 -280.19421 -297.04663
-212.16304 -280.35831 -321.90341
-210.39766 -285.5397 -329.5141
-209.70561 -292.09 -332.49759
-210.38991 -300.55707 -329.54749
-213.05356 394.54361 -284.04599
-213.05431 386.65408 -284.04266
-213.05431 378.76318 -284.04269
-213.05431 370.87222 -284.04266
-213.05431 362.98141 -284.04266
-213.05431 355.09048 -284.04266
-213.05431 347.19962 -284.04269
-213.05431 339.30865 -284.04266
-213.05431 331.41779 -284.04266
-213.05431 323.52689 -284.04266
-213.05431 315.63593 -284.04266
-213.05431 307.74506 -284.04266
-213.05431 299.85419 -284.04263
-213.05431 291.96326 -284.04269
-213.05431 284.07236 -284.04263
-213.05431 276.18149 -284.04266
-213.05431 268.29056 -284.04266
-213.05431 260.39969 -284.04266
-213.05431 252.50877 -284.04263
-213.05431 244.61787 -284.04269
-213.05431 236.72696 -284.04266
-213.05431 228.83609 -284.04266
-213.05431 220.94516 -284.04266
-213.05431 213.05429 -284.04269
-213.05431 205.16338 -284.04266
-213.05431 197.27246 -284.04269
-213.05431 189.38158 -284.04266
-213.05431 181.49069 -284.04269
-213.05431 173.59975 -284.04266
-213.05431 165.70886 -284.04266
-213.05431 157.81799 -284.04266
-213.05431 149.92705 -284.04266
-213.05431 142.03616 -284.04266
-213.05431 134.14528 -284.04263
-213.05431 126.25436 -284.04269
-213.05431 118.36346 -284.04263
-213.05431 110.47258 -284.04266
-213.05431 102.58165 -284.04266
-213.05431 94.690773 -284.04266
-213.05431 86.799866 -284.04263
-213.05431 78.908951 -284.04266
-213.05431 71.018066 -284.04266
-213.05431 63.12719 -284.04266
-213.05431 55.236259 -284.04269
-213.05431 47.345383 -284.04269
-213.05431 39.454479 -284.04266
-213.05431 31.563564 -284.04269
-213.05431 23.672657 -284.04266
-213.05431 15.781771 -284.04263
-213.05431 7.8908553 -284.04266
-213.05431 -2.119501e-05 -284.04266
-213.05431 -7.8909459 -284.0426
-213.05431 -15.781861 -284.04266
-213.05431 -23.672729 -284.04266
-213.05431 -31.563606 -284.04269
-213.05431 -39.454571 -284.04263
-213.05431 -47.345444 -284.04266
-213.05431 -55.236309 -284.04266
-213.05431 -63.127224 -284.04269
-213.05431 -71.01815 -284.04263
-213.05431 -78.909027 -284.04266
-213.05431 -86.799942 -284.04269
-213.05431 -94.690819 -284.04269
-213.05431 -102.58174 -284.04263
-213.05431 -110.47266 -284.04266
-213.05431 -118.36352 -284.04266
-213.05431 -126.25446 -284.0426
-213.05431 -134.14534 -284.04263
-213.05431 -142.03624 -284.04266
-213.05431 -149.92709 -284.04266
-213.05431 -157.81807 -284.04263
-213.05431 -165.70895 -284.04263
-213.05431 -173.59982 -284.04263
-213.05431 -181.49072 -284.04269
-213.05431 -189.38167 -284.04263
-213.05431 -197.27252 -284.04263
-213.05431 -205.16341 -284.04266
-213.05431 -213.05432 -284.04269
-213.05431 -220.94524 -284.04263
-213.05431 -228.83614 -284.04266
-213.05431 -236.72702 -284.04266
-213.05431 -244.6179 -284.04269
-213.05431 -252.50885 -284.04263
-213.05431 -260.39975 -284.04266
-213.05431 -268.29062 -284.04266
-213.05431 -276.18155 -284.04263
-210.14343 -280.19128 -297.05646
-204.92607 -280.82468 -320.38202
-203.79044 -286.81622 -325.4592
-203.22971 -293.55405 -327.96606
-203.79044 -301.91183 -325.45917
-206.09175 396.33026 -279.7326
-206.09248 388.405 -279.72919
-206.09322 380.47977 -279.72583
-206.09322 372.55307 -279.72586
-206.09322 364.62643 -279.72583
-206.09322 356.69977 -279.7258
-206.09322 348.7731 -279.72583
-206.09322 340.84647 -279.7258
-206.09322 332.91977 -279.7258
-206.09322 324.99313 -279.7258
-206.09322 317.06647 -279.72583
-206.09322 309.13983 -279.7258
-206.09322 301.21313 -279.7258
-206.09322 293.28644 -279.72583
-206.09322 285.3598 -279.7258
-206.09322 277.43314 -279.7258
-206.09322 269.5065 -279.7258
-206.09322 261.5798 -279.7258
-206.09322 253.65318 -279.7258
-206.09322 245.7265 -279.7258
-206.09322 237.79985 -279.7258
-206.09322 229.87317 -279.7258
-206.09322 221.94649 -279.7258
-206.09322 214.01985 -279.7258
-206.09322 206.09317 -279.7258
-206.09322 198.16652 -279.72577
-206.09322 190.23984 -279.72577
-206.09322 182.31323 -279.72583
-206.09322 174.38655 -279.72583
-206.09322 166.4599 -279.7258
-206.09322 158.53322 -279.7258
-206.09322 150.60654 -279.72583
-206.09322 142.6799 -279.7258
-206.09322 134.7532 -279.72577
-206.09322 126.82655 -279.72577
-206.09322 118.8999 -279.72583
-206.09322 110.97327 -279.7258
-206.09322 103.04658 -279.7258
-206.09322 95.119942 -279.7258
-206.09322 87.19326 -279.7258
-206.09322 79.266579 -279.7258
-206.09322 71.339928 -279.7258
-206.09322 63.413246 -279.7258
-206.09322 55.48661 -279.72577
-206.09322 47.559944 -279.7258
-206.09322 39.633297 -279.7258
-206.09322 31.706615 -279.7258
-206.09322 23.779976 -279.72577
-206.09322 15.853293 -279.7258
-206.09322 7.9266095 -279.7258
-206.09322 -3.4769386e-05 -279.72577
-206.09322 -7.9267182 -279.7258
-206.09322 -15.853363 -279.72577
-206.09322 -23.780046 -279.72577
-206.09322 -31.706678 -279.72574
-206.09322 -39.633362 -279.72577
-206.09322 -47.559998 -279.72586
-206.09322 -55.486641 -279.72583
-206.09322 -63.413322 -279.72583
-206.09322 -71.339966 -279.72583
-206.09322 -79.266655 -279.72583
-206.09322 -87.193298 -279.7258
-206.09322 -95.119965 -279.7258
-206.09322 -103.04661 -279.7258
-206.09322 -110.9733 -279.7258
-206.09322 -118.89996 -279.7258
-206.09322 -126.82662 -279.7258
-206.09322 -134.7533 -279.72577
-206.09322 -142.67995 -279.72577
-206.09322 -150.60661 -279.72577
-206.09322 -158.53328 -279.72577
-206.09322 -166.45996 -279.72577
-206.09322 -174.38663 -279.72577
-206.09322 -182.31325 -279.72583
-206.09322 -190.2399 -279.72583
-206.09322 -198.16656 -279.72583
-206.09322 -206.09323 -279.72583
-206.09322 -214.01988 -279.7258
-206.09322 -221.94655 -279.7258
-206.09322 -229.87321 -279.7258
-206.09322 -237.7999 -279.7258
-206.09322 -245.72656 -279.7258
-206.09322 -253.65323 -279.7258
-206.09322 -261.57986 -279.7258
-206.09322 -269.50656 -279.72577
-206.09322 -277.43323 -279.72577
-202.35893 -280.18936 -297.06296
-197.89801 -281.62415 -317.77377
-197.13121 -288.1149 -321.33383
-197.16389 -295.74591 -321.18207
-197.13121 -303.27878 -321.33389
-199.06662 398.13321 -275.37988
-199.06734 390.17197 -275.37646
-199.06804 382.21057 -275.37305
-199.06804 374.24792 -275.37305
-199.06804 366.28513 -275.37305
-199.06804 358.32245 -275.37305
-199.06804 350.35971 -275.37305
-199.06804 342.397 -275.37308
-199.06804 334.43427 -275.37305
-199.06804 326.47156 -275.37308
-199.06804 318.50882 -275.37305
-199.06804 310.54611 -275.37308
-199.06804 302.58337 -275.37305
-199.06804 294.62067 -275.37305
-199.06804 286.65793 -275.37305
-199.06804 278.69522 -275.37305
-199.06804 270.73248 -275.37302
-199.06804 262.76978 -275.37305
-199.06804 254.80705 -275.37302
-199.06804 246.84435 -275.37305
-199.06804 238.88161 -275.37302
-199.06804 230.91891 -275.37305
-199.06804 222.95618 -275.37302
-199.06804 214.99347 -275.37305
-199.06804 207.03073 -275.37302
-199.06804 199.06804 -275.37305
-199.06804 191.10526 -275.37305
-199.06804 183.14256 -275.37308
-199.06804 175.17982 -275.37305
-199.06804 167.2171 -275.37305
-199.06804 159.25438 -275.37305
-199.06804 151.29166 -275.37305
-199.06804 143.32896 -275.37308
-199.06804 135.36623 -275.37305
-199.06804 127.40353 -275.37308
-199.06804 119.44079 -275.37305
-199.06804 111.47809 -275.37308
-199.06804 103.51535 -275.37305
-199.06804 95.55265 -275.37308
-199.06804 87.589912 -275.37305
-199.06804 79.627213 -275.37308
-199.06804 71.664474 -275.37305
-199.06804 63.701756 -275.37305
-199.06804 55.73904 -275.37305
-199.06804 47.776318 -275.37305
-199.06804 39.813591 -275.37305
-199.06804 31.850883 -275.37305
-199.06804 23.888113 -275.37305
-199.06804 15.92538 -275.37302
-199.06804 7.9626641 -275.37305
-199.06804 -3.0116425e-05 -275.37308
-199.06804 -7.9627457 -275.37308
-199.06804 -15.925509 -275.37302
-199.06804 -23.888203 -275.37305
-199.06804 -31.850918 -275.37305
-199.06804 -39.813625 -275.37308
-199.06804 -47.776375 -275.37302
-199.06804 -55.739094 -275.37302
-199.06804 -63.701797 -275.37305
-199.06804 -71.664505 -275.37308
-199.06804 -79.627258 -275.37302
-199.06804 -87.589958 -275.37302
-199.06804 -95.552673 -275.37305
-199.06804 -103.51538 -275.37308
-199.06804 -111.47813 -275.37299
-199.06804 -119.44085 -275.37302
-199.06804 -127.40357 -275.37305
-199.06804 -135.36627 -275.37305
-199.06804 -143.32903 -275.37302
-199.06804 -151.29175 -275.37302
-199.06804 -159.25446 -275.37305
-199.06804 -167.21716 -275.37308
-199.06804 -175.17993 -275.37302
-199.06804 -183.14264 -275.37305
-199.06804 -191.10535 -275.37305
-199.06804 -199.06807 -275.37308
-199.06804 -207.03082 -275.37302
-199.06804 -214.99352 -275.37302
-199.06804 -222.95622 -275.37305
-199.06804 -230.91893 -275.37305
-199.06804 -238.8817 -275.37299
-199.06804 -246.84441 -275.37302
-199.06804 -254.80711 -275.37305
-199.06804 -262.76981 -275.37305
-199.06804 -270.7326 -275.37302
-199.06804 -278.69531 -275.37302
-194.57454 -280.18738 -297.06952
-190.79927 -282.38293 -315.29822
-190.46255 -289.50308 -316.92404
-190.41205 -297.04282 -317.16788
-190.41205 -304.6593 -317.16785
-191.97728 399.95264 -270.98743
-191.97865 391.95636 -270.98053
-191.97865 383.95731 -270.9805
-191.97865 375.95819 -270.98053
-191.97865 367.95905 -270.98053
-191.97865 359.95987 -270.98053
-191.97865 351.96085 -270.9805
-191.97865 343.9617 -270.98053
-191.97865 335.96262 -270.9805
-191.97865 327.9635 -270.98056
-191.97865 319.96439 -270.9805
-191.97865 311.96527 -270.9805
-191.97865 303.96616 -270.98053
-191.97865 295.96707 -270.98053
-191.97865 287.96796 -270.98053
-191.97865 279.96881 -270.9805
-191.97865 271.96973 -270.98053
-191.97865 263.97064 -270.9805
-191.97865 255.9715 -270.98053
-191.97865 247.97241 -270.98053
-191.97865 239.97327 -270.98053
-191.97865 231.97417 -270.9805
-191.97865 223.97507 -270.9805
-191.97865 215.97595 -270.98053
-191.97865 207.97684 -270.9805
-191.97865 199.97774 -270.9805
-191.97865 191.97862 -270.98053
-191.97865 183.97952 -270.98053
-191.97865 175.98038 -270.9805
-191.97865 167.98128 -270.9805
-191.97865 159.98219 -270.9805
-191.97865 151.98306 -270.98053
-191.97865 143.98395 -270.9805
-191.97865 135.98488 -270.98053
-191.97865 127.98573 -270.9805
-191.97865 119.98663 -270.9805
-191.97865 111.98751 -270.98053
-191.97865 103.98841 -270.98053
-191.97865 95.989304 -270.9805
-191.97865 87.990166 -270.9805
-191.97865 79.991089 -270.98053
-191.97865 71.991989 -270.9805
-191.97865 63.992836 -270.9805
-191.97865 55.993755 -270.9805
-191.97865 47.994614 -270.98053
-191.97865 39.995514 -270.9805
-191.97865 31.996414 -270.9805
-191.97865 23.997274 -270.9805
-191.97865 15.998197 -270.9805
-191.97865 7.9991145 -270.98053
-191.97865 -4.9988055e-05 -270.9805
-191.97865 -7.9991274 -270.9805
-191.97865 -15.998257 -270.98056
-191.97865 -23.997374 -270.9805
-191.97865 -31.99645 -270.9805
-191.97865 -39.995579 -270.98056
-191.97865 -47.994705 -270.9805
-191.97865 -55.993774 -270.9805
-191.97865 -63.992939 -270.98047
-191.97865 -71.992027 -270.9805
-191.97865 -79.991135 -270.98053
-191.97865 -87.990265 -270.98047
-191.97865 -95.989349 -270.9805
-191.97865 -103.98847 -270.98053
-191.97865 -111.98759 -270.98047
-191.97865 -119.98666 -270.9805
-191.97865 -127.98579 -270.98053
-191.97865 -135.98492 -270.98047
-191.97865 -143.98401 -270.98053
-191.97865 -151.98311 -270.98053
-191.97865 -159.98227 -270.9805
-191.97865 -167.98134 -270.9805
-191.97865 -175.98044 -270.98056
-191.97865 -183.97958 -270.9805
-191.97865 -191.9787 -270.98053
-191.97865 -199.9778 -270.98047
-191.97865 -207.97691 -270.9805
-191.97865 -215.976 -270.98053
-191.97865 -223.97514 -270.98047
-191.97865 -231.97423 -270.9805
-191.97865 -239.97331 -270.98053
-191.97865 -247.97247 -270.98047
-191.97865 -255.97157 -270.9805
-191.97865 -263.97064 -270.98053
-191.97865 -271.96979 -270.98047
-191.97865 -279.9689 -270.9805
-186.79027 -280.18546 -297.07602
-183.8166 -283.384 -312.03235
-183.30779 -290.23737 -314.59155
-183.63081 -298.40009 -312.96692
-183.70984 -306.18311 -312.56934
-184.8235 401.79019 -266.55115
-184.82416 393.7558 -266.54767
-184.82483 385.72137 -266.54416
-184.82483 377.68552 -266.54416
-184.82483 369.64969 -266.54416
-184.82483 361.6138 -266.54413
-184.82483 353.57794 -266.54413
-184.82483 345.54205 -266.54416
-184.82483 337.5062 -266.54416
-184.82483 329.47034 -266.54416
-184.82483 321.43448 -266.54419
-184.82483 313.39859 -266.54419
-184.82483 305.36273 -266.54419
-184.82483 297.32687 -266.54416
-184.82483 289.29102 -266.54416
-184.82483 281.25516 -266.54416
-184.82483 273.2193 -266.54416
-184.82483 265.18344 -266.54413
-184.82483 257.14752 -266.54416
-184.82483 249.11169 -266.54419
-184.82483 241.07584 -266.54419
-184.82483 233.03998 -266.54419
-184.82483 225.00412 -266.54419
-184.82483 216.96826 -266.54419
-184.82483 208.93239 -266.54416
-184.82483 200.89653 -266.54416
-184.82483 192.86064 -266.54416
-184.82483 184.82478 -266.54416
-184.82483 176.78894 -266.54419
-184.82483 168.75308 -266.54419
-184.82483 160.71722 -266.54419
-184.82483 152.68135 -266.54416
-184.82483 144.64551 -266.54416
-184.82483 136.60965 -266.54416
-184.82483 128.57375 -266.54419
-184.82483 120.5379 -266.54419
-184.82483 112.50202 -266.54416
-184.82483 104.46616 -266.54416
-184.82483 96.430321 -266.54416
-184.82483 88.394463 -266.54416
-184.82483 80.358612 -266.54416
-184.82483 72.322754 -266.54416
-184.82483 64.286858 -266.54419
-184.82483 56.250984 -266.54416
-184.82483 48.215126 -266.54416
-184.82483 40.179276 -266.54416
-184.82483 32.143433 -266.54419
-184.82483 24.107552 -266.54413
-184.82483 16.071716 -266.54419
-184.82483 8.0358267 -266.54413
-184.82483 -4.582986e-05 -266.54419
-184.82483 -8.0359354 -266.54413
-184.82483 -16.071756 -266.54416
-184.82483 -24.107599 -266.54419
-184.82483 -32.143482 -266.54416
-184.82483 -40.179314 -266.54419
-184.82483 -48.215206 -266.54413
-184.82483 -56.251038 -266.54419
-184.82483 -64.286964 -266.54416
-184.82483 -72.3228 -266.54419
-184.82483 -80.358688 -266.54413
-184.82483 -88.394524 -266.54416
-184.82483 -96.430344 -266.54419
-184.82483 -104.46623 -266.54416
-184.82483 -112.50207 -266.54419
-184.82483 -120.53796 -266.54413
-184.82483 -128.57381 -266.54419
-184.82483 -136.6097 -266.54413
-184.82483 -144.64554 -266.54416
-184.82483 -152.68144 -266.54413
-184.82483 -160.71727 -266.54416
-184.82483 -168.75311 -266.54419
-184.82483 -176.78902 -266.54416
-184.82483 -184.82484 -266.54419
-184.82483 -192.86075 -266.54413
-184.82483 -200.89656 -266.54416
-184.82483 -208.93246 -266.54413
-184.82483 -216.96831 -266.54419
-184.82483 -225.00418 -266.54413
-184.82483 -233.04004 -266.54416
-184.82483 -241.07588 -266.54422
-184.82483 -249.11176 -266.54416
-184.82483 -257.14761 -266.54419
-184.82483 -265.18347 -266.54413
-184.82483 -273.21936 -266.54419
-184.05511 -280.08392 -270.58386
-179.00609 -280.1835 -297.08261
-176.82372 -284.45554 -308.53641
-176.26604 -291.22217 -311.46317
-176.78731 -299.76981 -308.72745
-177.13857 -308.06711 -306.88394
-177.60306 403.64328 -262.07739
-177.6037 395.57184 -262.07388
-177.60432 387.50037 -262.07037
-177.60432 379.42737 -262.07037
-177.60432 371.35446 -262.0704
-177.60432 363.28156 -262.07037
-177.60432 355.20865 -262.07037
-177.60432 347.13577 -262.0704
-177.60432 339.06277 -262.07037
-177.60432 330.9899 -262.0704
-177.60432 322.91693 -262.07037
-177.60432 314.84402 -262.0704
-177.60432 306.77112 -262.07037
-177.60432 298.69818 -262.0704
-177.60432 290.62524 -262.07037
-177.60432 282.55231 -262.0704
-177.60432 274.4794 -262.07037
-177.60432 266.40649 -262.07037
-177.60432 258.33353 -262.0704
-177.60432 250.26064 -262.0704
-177.60432 242.1877 -262.07034
-177.60432 234.11478 -262.0704
-177.60432 226.04184 -262.07034
-177.60432 217.96896 -262.07037
-177.60432 209.89598 -262.07037
-177.60432 201.82309 -262.07037
-177.60432 193.75012 -262.07037
-177.60432 185.67723 -262.07037
-177.60432 177.60434 -262.0704
-177.60432 169.53137 -262.07037
-177.60432 161.45847 -262.07037
-177.60432 153.38554 -262.07037
-177.60432 145.31261 -262.0704
-177.60432 137.23969 -262.07037
-177.60432 129.16675 -262.0704
-177.60432 121.09383 -262.07037
-177.60432 113.02093 -262.07037
-177.60432 104.94798 -262.07037
-177.60432 96.875076 -262.0704
-177.60432 88.802139 -262.07034
-177.60432 80.729218 -262.0704
-177.60432 72.656288 -262.07034
-177.60432 64.583359 -262.0704
-177.60432 56.510422 -262.07037
-177.60432 48.437531 -262.07037
-177.60432 40.364567 -262.07037
-177.60432 32.291676 -262.07037
-177.60432 24.218771 -262.07037
-177.60432 16.145828 -262.0704
-177.60432 8.0728912 -262.07034
-177.60432 -6.7420897e-06 -262.07034
-177.60432 -8.0729561 -262.0704
-177.60432 -16.145845 -262.0704
-177.60432 -24.21883 -262.07034
-177.60432 -32.29174 -262.07037
-177.60432 -40.364632 -262.07037
-177.60432 -48.437569 -262.0704
-177.60432 -56.510525 -262.07034
-177.60432 -64.583412 -262.07034
-177.60432 -72.656349 -262.07037
-177.60432 -80.72924 -262.0704
-177.60432 -88.802238 -262.07034
-177.60432 -96.875137 -262.07034
-177.60432 -104.94803 -262.07037
-177.60432 -113.02097 -262.0704
-177.60432 -121.09392 -262.07034
-177.60432 -129.16684 -262.07037
-177.60432 -137.23976 -262.07037
-177.60432 -145.31264 -262.07037
-177.60432 -153.38556 -262.0704
-177.60432 -161.45853 -262.07034
-177.60432 -169.53145 -262.07037
-177.60432 -177.60434 -262.07037
-177.60432 -185.67726 -262.0704
-177.60432 -193.75023 -262.07034
-177.60432 -201.82315 -262.07037
-177.60432 -209.89604 -262.07037
-177.60432 -217.96896 -262.0704
-177.60432 -226.04195 -262.07034
-177.60432 -234.11484 -262.07034
-177.60432 -242.18776 -262.07037
-177.60432 -250.26067 -262.0704
-177.60432 -258.33365 -262.07034
-177.60432 -266.40652 -262.07034
-177.60432 -274.47946 -262.07037
-176.05145 -280.08191 -270.59076
-171.25237 -280.23117 -296.92267
-169.88127 -285.70944 -304.44562
-169.34549 -292.50589 -307.38538
-169.88127 -301.1532 -304.44562
-170.31569 405.51352 -257.56223
-170.3163 397.40472 -257.55865
-170.31754 389.29718 -257.55161
-170.31754 381.18689 -257.55157
-170.31754 373.07651 -257.55161
-170.31754 364.96613 -257.55164
-170.31754 356.8558 -257.55157
-170.31754 348.74542 -257.55161
-170.31754 340.63504 -257.55157
-170.31754 332.52469 -257.55157
-170.31754 324.41437 -257.55157
-170.31754 316.30399 -257.55161
-170.31754 308.1936 -257.55161
-170.31754 300.08328 -257.55161
-170.31754 291.9729 -257.55157
-170.31754 283.86255 -257.55157
-170.31754 275.75217 -257.55161
-170.31754 267.64182 -257.55161
-170.31754 259.53146 -257.55161
-170.31754 251.42113 -257.55157
-170.31754 243.31078 -257.55157
-170.31754 235.20036 -257.55157
-170.31754 227.09001 -257.55157
-170.31754 218.97968 -257.55157
-170.31754 210.86932 -257.55157
-170.31754 202.75894 -257.55161
-170.31754 194.64859 -257.55161
-170.31754 186.53824 -257.55161
-170.31754 178.42787 -257.55154
-170.31754 170.31752 -257.55154
-170.31754 162.20714 -257.55157
-170.31754 154.09679 -257.55161
-170.31754 145.98645 -257.55161
-170.31754 137.87608 -257.55157
-170.31754 129.7657 -257.55161
-170.31754 121.65536 -257.55161
-170.31754 113.54498 -257.55157
-170.31754 105.43465 -257.55157
-170.31754 97.324303 -257.55157
-170.31754 89.213913 -257.55161
-170.31754 81.103561 -257.55157
-170.31754 72.99321 -257.55161
-170.31754 64.882866 -257.55161
-170.31754 56.772495 -257.55154
-170.31754 48.662109 -257.55157
-170.31754 40.551758 -257.55157
-170.31754 32.44141 -257.55157
-170.31754 24.33106 -257.55157
-170.31754 16.220675 -257.55161
-170.31754 8.1103392 -257.55161
-170.31754 -1.6887487e-05 -257.55161
-170.31754 -8.1103649 -257.55161
-170.31754 -16.220707 -257.55161
-170.31754 -24.331095 -257.55164
-170.31754 -32.441498 -257.55154
-170.31754 -40.551846 -257.55154
-170.31754 -48.662189 -257.55154
-170.31754 -56.772575 -257.55157
-170.31754 -64.882927 -257.55157
-170.31754 -72.993271 -257.55157
-170.31754 -81.103615 -257.55157
-170.31754 -89.213974 -257.55157
-170.31754 -97.324356 -257.55161
-170.31754 -105.4347 -257.55161
-170.31754 -113.54505 -257.55161
-170.31754 -121.6554 -257.55161
-170.31754 -129.76575 -257.55161
-170.31754 -137.8761 -257.55161
-170.31754 -145.98647 -257.55161
-170.31754 -154.09686 -257.55154
-170.31754 -162.20724 -257.55154
-170.31754 -170.3176 -257.55157
-170.31754 -178.42795 -257.55157
-170.31754 -186.5383 -257.55157
-170.31754 -194.64865 -257.55157
-170.31754 -202.75903 -257.55157
-170.31754 -210.86935 -257.55157
-170.31754 -218.97974 -257.55161
-170.31754 -227.09009 -257.55161
-170.31754 -235.20044 -257.55161
-170.31754 -243.31079 -257.55161
-170.31754 -251.42114 -257.55161
-170.31754 -259.53152 -257.55164
-170.31754 -267.64191 -257.55154
-170.31754 -275.75226 -257.55154
-168.04791 -280.07986 -270.59775
-163.7914 -280.78528 -295.0647
-162.91066 -287.03308 -300.12729
-162.77032 -294.5368 -300.93396
-162.91066 -302.5484 -300.12732
-162.96107 407.40271 -253.00137
-162.96167 399.2561 -252.99782
-162.96227 391.10941 -252.99431
-162.96227 382.96127 -252.99429
-162.96227 374.81314 -252.99429
-162.96227 366.66513 -252.99426
-162.96227 358.517 -252.99426
-162.96227 350.36887 -252.99428
-162.96227 342.22073 -252.99428
-162.96227 334.07263 -252.99431
-162.96227 325.9245 -252.99426
-162.96227 317.7764 -252.99428
-162.96227 309.62827 -252.99429
-162.96227 301.48016 -252.99423
-162.96227 293.33206 -252.99426
-162.96227 285.18393 -252.99426
-162.96227 277.03583 -252.99429
-162.96227 268.88773 -252.99425
-162.96227 260.73959 -252.99428
-162.96227 252.59148 -252.99428
-162.96227 244.44339 -252.99426
-162.96227 236.29526 -252.99426
-162.96227 228.14714 -252.99429
-162.96227 219.99902 -252.99429
-162.96227 211.85092 -252.99425
-162.96227 203.7028 -252.99426
-162.96227 195.55469 -252.99429
-162.96227 187.40659 -252.99425
-162.96227 179.25845 -252.99425
-162.96227 171.11035 -252.99428
-162.96227 162.96223 -252.99431
-162.96227 154.81413 -252.99426
-162.96227 146.666 -252.99426
-162.96227 138.5179 -252.99429
-162.96227 130.3698 -252.99425
-162.96227 122.22168 -252.99426
-162.96227 114.07355 -252.99428
-162.96227 105.92541 -252.99425
-162.96227 97.777336 -252.99425
-162.96227 89.629227 -252.99428
-162.96227 81.481094 -252.99428
-162.96227 73.333 -252.99425
-162.96227 65.184883 -252.99426
-162.96227 57.036758 -252.99428
-162.96227 48.888622 -252.99426
-162.96227 40.740574 -252.99429
-162.96227 32.592426 -252.99428
-162.96227 24.444283 -252.99425
-162.96227 16.296234 -252.99429
-162.96227 8.1480894 -252.99426
-162.96227 -4.8151873e-05 -252.99425
-162.96227 -8.1481447 -252.99429
-162.96227 -16.296249 -252.99425
-162.96227 -24.444386 -252.99423
-162.96227 -32.592484 -252.99429
-162.96227 -40.740589 -252.99425
-162.96227 -48.888733 -252.99422
-162.96227 -57.036819 -252.99429
-162.96227 -65.184967 -252.99426
-162.96227 -73.333023 -252.99429
-162.96227 -81.481163 -252.99428
-162.96227 -89.629295 -252.99425
-162.96227 -97.777344 -252.99429
-162.96227 -105.92549 -252.99426
-162.96227 -114.07364 -252.99423
-162.96227 -122.22173 -252.99431
-162.96227 -130.36983 -252.99426
-162.96227 -138.51797 -252.99423
-162.96227 -146.66606 -252.99428
-162.96227 -154.81419 -252.99426
-162.96227 -162.96233 -252.99422
-162.96227 -171.11041 -252.99429
-162.96227 -179.25853 -252.99425
-162.96227 -187.40662 -252.99431
-162.96227 -195.55473 -252.99426
-162.96227 -203.70285 -252.99423
-162.96227 -211.85095 -252.99429
-162.96227 -219.99908 -252.99426
-162.96227 -228.14723 -252.99425
-162.96227 -236.2953 -252.99429
-162.96227 -244.44344 -252.99428
-162.96227 -252.59157 -252.99423
-162.96227 -260.73962 -252.99428
-162.96227 -268.88779 -252.99426
-162.96227 -277.03589 -252.99422
-160.04391 -280.07684 -270.60806
