# .PCD v0.7 - Point Cloud Data file format
VERSION 0.7
FIELDS x y z
SIZE 4 4 4
TYPE F F F
COUNT 1 1 1
WIDTH 1532
HEIGHT 1
VIEWPOINT 0 0 0 1 0 0 0
POINTS 1532
DATA ascii
129.19327 -6.45965 -350.10114
129.19327 -12.91932 -350.10114
129.19327 -19.37899 -350.10114
129.19327 -25.838629 -350.10117
129.19327 -32.298298 -350.10117
129.19368 -38.75811 -350.09869
129.19368 -45.217777 -350.09869
129.19368 -51.677448 -350.09866
129.19368 -58.137131 -350.09866
129.19368 -64.596825 -350.09866
129.19368 -71.056511 -350.09866
129.19368 -77.516197 -350.09866
129.19368 -83.975868 -350.09869
129.19368 -90.435562 -350.09869
129.19368 -96.895226 -350.09866
129.19368 -103.35493 -350.09869
129.19368 -109.81461 -350.09869
129.19368 -116.27427 -350.09866
129.19368 -122.73398 -350.09869
129.19368 -129.19366 -350.09869
129.19368 -135.65335 -350.09869
129.19368 -142.11305 -350.09863
129.19368 -148.57274 -350.09863
129.19368 -155.03242 -350.09863
129.19817 -161.49767 -350.07166
129.19817 -167.9576 -350.07159
129.19817 -174.41748 -350.07162
129.19817 -180.8774 -350.07166
136.43817 155.92937 -345.58759
136.43817 149.4323 -345.58752
136.43817 142.93524 -345.58755
136.43297 136.433 -345.61746
136.43297 129.93616 -345.61743
136.43297 123.43941 -345.61743
136.43297 116.94258 -345.61743
136.43297 110.44576 -345.61743
136.43297 103.94894 -345.61746
136.43297 97.452156 -345.61743
136.43297 90.955345 -345.61743
136.43297 84.458519 -345.61743
136.43297 77.961731 -345.6174
136.43297 71.46492 -345.61743
136.43297 64.968094 -345.61743
136.43297 58.471302 -345.61746
136.43297 51.974491 -345.6174
136.43297 45.477673 -345.6174
136.43297 38.980885 -345.61746
136.43297 32.484051 -345.61743
136.43297 25.987286 -345.61743
136.43297 19.490454 -345.61743
136.43297 12.993633 -345.61743
136.43297 6.4968171 -345.61746
136.43297 3.6201753e-05 -345.61743
136.43297 -6.4967966 -345.6174
136.43297 -12.9936 -345.61743
136.43297 -19.490395 -345.6174
136.43297 -25.987198 -345.61743
136.43297 -32.484032 -345.61743
136.43297 -38.98085 -345.6174
136.43297 -45.477612 -345.61743
136.43297 -51.974449 -345.6174
136.43297 -58.471249 -345.61746
136.43297 -64.968056 -345.61743
136.4334 -71.46508 -345.61496
136.4334 -77.961906 -345.61493
136.4334 -84.45874 -345.61493
136.4334 -90.955589 -345.61496
136.4334 -97.452408 -345.61493
136.4334 -103.94923 -345.61493
136.4334 -110.44608 -345.61493
136.4334 -116.94288 -345.61496
136.4334 -123.43972 -345.61496
136.4334 -129.93655 -345.61493
136.4334 -136.4334 -345.61493
136.4334 -142.93019 -345.61496
136.4334 -149.42703 -345.61493
136.4334 -155.92386 -345.61496
136.43773 -162.42586 -345.59003
136.43773 -168.92287 -345.59006
136.43773 -175.41994 -345.59006
143.7619 156.83119 -341.05161
143.7619 150.29657 -341.05164
143.7619 143.76192 -341.05164
143.75639 137.22205 -341.08185
143.75639 130.68764 -341.08182
143.75639 124.15327 -341.08185
143.75639 117.61887 -341.08185
143.75639 111.08453 -341.08185
143.75639 104.55015 -341.08185
143.75639 98.01577 -341.08188
143.75639 91.481361 -341.08185
143.75639 84.946968 -341.08185
143.75639 78.412598 -341.08188
143.75639 71.878242 -341.08185
143.75639 65.343872 -341.08188
143.75639 58.809467 -341.08185
143.75639 52.275074 -341.08185
143.75639 45.740696 -341.08188
143.75639 39.206287 -341.08185
143.75639 32.671947 -341.08185
143.75639 26.137556 -341.08185
143.75639 19.603163 -341.08185
143.75639 13.068798 -341.08185
143.75639 6.534389 -341.08185
143.75639 1.1807108e-05 -341.08188
143.75639 -6.5343423 -341.08185
143.75639 -13.068751 -341.08182
143.75639 -19.603113 -341.08188
143.75639 -26.137522 -341.08185
143.75639 -32.671886 -341.08185
143.75639 -39.20628 -341.08185
143.75639 -45.74065 -341.08182
143.75639 -52.275024 -341.08185
143.75639 -58.809418 -341.08185
143.75639 -65.343796 -341.08185
143.75639 -71.878197 -341.08185
143.75639 -78.412552 -341.08185
143.75639 -84.946953 -341.08185
143.75639 -91.481331 -341.08185
143.75639 -98.015694 -341.08185
143.75685 -104.55045 -341.07932
143.75685 -111.08481 -341.07935
143.75685 -117.61922 -341.07935
143.75685 -124.15364 -341.07935
143.75685 -130.68805 -341.07928
143.75685 -137.22244 -341.07932
143.75685 -143.75684 -341.07935
143.75685 -150.29126 -341.07932
143.75685 -156.82562 -341.07935
143.76144 -163.36528 -341.05414
143.76144 -169.89984 -341.05417
143.76144 -176.43448 -341.05417
151.17087 157.74356 -336.46292
151.17087 151.17088 -336.46295
151.17087 144.59825 -336.46295
151.16504 138.02029 -336.4935
151.16504 131.44788 -336.4935
151.16504 124.87551 -336.4935
151.16504 118.30309 -336.4935
151.16504 111.73072 -336.4935
151.16504 105.15829 -336.49353
151.16504 98.585915 -336.4935
151.16504 92.013527 -336.49347
151.16504 85.441124 -336.4935
151.16504 78.868744 -336.4935
151.16504 72.296333 -336.49353
151.16504 65.723953 -336.4935
151.16504 59.151566 -336.4935
151.16504 52.579144 -336.4935
151.16504 46.006779 -336.4935
151.16504 39.434376 -336.49353
151.16504 32.861984 -336.4935
151.16504 26.289604 -336.4935
151.16504 19.717184 -336.4935
151.16504 13.144804 -336.49347
151.16504 6.5724006 -336.4935
151.16504 2.3031591e-05 -336.49353
151.16504 -6.5723572 -336.4935
151.16504 -13.144776 -336.4935
151.16504 -19.717157 -336.49347
151.16504 -26.28956 -336.4935
151.16504 -32.861938 -336.49353
151.16504 -39.434319 -336.4935
151.16504 -46.006737 -336.4935
151.16504 -52.579117 -336.49347
151.16504 -59.151516 -336.4935
151.16504 -65.723923 -336.4935
151.16504 -72.296295 -336.4935
151.16504 -78.868698 -336.4935
151.16504 -85.441071 -336.4935
151.16504 -92.013474 -336.4935
151.16504 -98.585884 -336.4935
151.16504 -105.15826 -336.49353
151.16504 -111.73067 -336.49353
151.16504 -118.30305 -336.4935
151.16504 -124.87545 -336.4935
151.16553 -131.44826 -336.49094
151.16553 -138.02068 -336.49097
151.16553 -144.59308 -336.49097
151.16553 -151.16548 -336.49097
151.16553 -157.73792 -336.49097
151.17038 -164.31563 -336.46545
151.17038 -170.88826 -336.46548
151.17038 -177.46086 -336.46552
158.66653 158.66655 -331.82059
158.66653 152.05544 -331.82053
158.66653 145.44434 -331.82056
158.65987 138.82742 -331.85403
158.66037 132.21703 -331.85147
158.66037 125.60616 -331.85147
158.66037 118.99529 -331.85147
158.66037 112.38448 -331.85147
158.66037 105.77361 -331.85147
158.66037 99.162781 -331.85147
158.66037 92.551895 -331.85144
158.66037 85.941032 -331.85147
158.66037 79.330231 -331.85147
158.66037 72.719353 -331.85147
158.66037 66.108528 -331.85144
158.66037 59.497677 -331.8515
158.66037 52.886806 -331.85147
158.66037 46.275974 -331.85147
158.66037 39.665104 -331.85144
158.66037 33.054272 -331.85144
158.66037 26.443432 -331.85147
158.66037 19.832546 -331.85147
158.66037 13.221729 -331.85144
158.66037 6.6108756 -331.8515
158.66037 4.2127227e-05 -331.85147
158.66037 -6.6108274 -331.85147
158.66037 -13.2217 -331.85147
158.66037 -19.832531 -331.85144
158.66037 -26.443371 -331.85147
158.66037 -33.054218 -331.85144
158.66037 -39.665073 -331.85147
158.66037 -46.275906 -331.85144
158.66037 -52.886768 -331.85144
158.66037 -59.497631 -331.85147
158.66037 -66.10849 -331.85144
158.66037 -72.71933 -331.85147
158.66037 -79.33017 -331.85147
158.66037 -85.941025 -331.85144
158.66037 -92.551865 -331.85147
158.66037 -99.162689 -331.85147
158.66037 -105.77358 -331.85147
158.66037 -112.38441 -331.85147
158.66037 -118.99526 -331.85147
158.66037 -125.60609 -331.85147
158.66037 -132.21698 -331.85144
158.66037 -138.82784 -331.85144
158.66037 -145.43866 -331.85147
158.66037 -152.0495 -331.85147
158.66037 -158.66032 -331.85147
158.66602 -165.27705 -331.82315
158.66602 -171.88815 -331.82309
158.66602 -178.49927 -331.82309
166.24988 159.59991 -327.12613
166.24988 152.94994 -327.12613
166.24988 146.29991 -327.12607
166.24339 139.64445 -327.15738
166.24339 132.99472 -327.15738
166.24339 126.345 -327.15738
166.24339 119.69527 -327.15738
166.24339 113.04554 -327.15738
166.24339 106.39581 -327.15738
166.24339 99.746094 -327.15741
166.24339 93.096321 -327.15741
166.24394 86.446869 -327.15479
166.24394 79.797096 -327.15479
166.24394 73.147369 -327.15479
166.24394 66.497574 -327.15475
166.24394 59.847855 -327.15479
166.24394 53.19809 -327.15482
166.24394 46.548325 -327.15475
166.24394 39.898563 -327.15475
166.24394 33.248833 -327.15475
166.24394 26.599043 -327.15475
166.24394 19.949284 -327.15479
166.24394 13.29955 -327.15479
166.24394 6.6497617 -327.15479
166.24394 2.8366148e-05 -327.15479
166.24394 -6.6497312 -327.15479
166.24394 -13.29948 -327.15475
166.24394 -19.949253 -327.15479
166.24394 -26.599005 -327.15472
166.24394 -33.24876 -327.15479
166.24394 -39.898533 -327.15482
166.24394 -46.548279 -327.15475
166.24394 -53.198051 -327.15479
166.24394 -59.847782 -327.15479
166.24394 -66.497566 -327.15475
166.24394 -73.147324 -327.15479
166.24394 -79.797066 -327.15479
166.24394 -86.446838 -327.15475
166.24394 -93.096581 -327.15479
166.24394 -99.74633 -327.15479
166.24394 -106.39607 -327.15479
166.24394 -113.04586 -327.15472
166.24394 -119.69563 -327.15475
166.24394 -126.34538 -327.15475
166.24394 -132.99513 -327.15475
166.24394 -139.6449 -327.15479
166.24394 -146.29463 -327.15482
166.24394 -152.94443 -327.15475
166.24394 -159.59418 -327.15475
166.24933 -166.24931 -327.12869
166.24933 -172.89929 -327.12872
166.24933 -179.54927 -327.12869
173.92355 160.54485 -322.37347
173.92355 153.85548 -322.37347
173.92355 147.16609 -322.37344
173.91673 140.47124 -322.40512
173.91673 133.78214 -322.40512
173.91673 127.09303 -322.40512
173.91673 120.40391 -322.40509
173.91673 113.71483 -322.40512
173.91673 107.02571 -322.40509
173.91673 100.33662 -322.40515
173.91673 93.647514 -322.40512
173.91673 86.958412 -322.40512
173.91673 80.269295 -322.40509
173.91673 73.580193 -322.40512
173.91673 66.891098 -322.40512
173.91673 60.201939 -322.40512
173.91673 53.512859 -322.40515
173.91673 46.823738 -322.40512
173.9173 40.134811 -322.4025
173.9173 33.445652 -322.4025
173.9173 26.756535 -322.40247
173.9173 20.06739 -322.40247
173.9173 13.378304 -322.4025
173.9173 6.689147 -322.4025
173.9173 2.881565e-05 -322.4025
173.9173 -6.6891284 -322.4025
173.9173 -13.378234 -322.40247
173.9173 -20.067352 -322.40244
173.9173 -26.756477 -322.4025
173.9173 -33.445595 -322.4025
173.9173 -40.13475 -322.4025
173.9173 -46.823856 -322.40247
173.9173 -53.513008 -322.4025
173.9173 -60.202126 -322.40247
173.9173 -66.891228 -322.4025
173.9173 -73.580376 -322.4025
173.9173 -80.269501 -322.4025
173.9173 -86.958633 -322.4025
173.9173 -93.647758 -322.40247
173.9173 -100.33691 -322.40247
173.9173 -107.02602 -322.40247
173.9173 -113.71513 -322.40244
173.9173 -120.40427 -322.40244
173.9173 -127.09338 -322.40253
173.9173 -133.78249 -322.4025
173.9173 -140.47163 -322.4025
173.9173 -147.16077 -322.4025
173.9173 -153.84988 -322.4025
173.92297 -160.54425 -322.3761
173.92297 -167.2336 -322.37613
173.92297 -173.92299 -322.37607
173.92297 -180.6123 -322.37607
181.68863 154.77182 -317.56421
181.68863 148.04262 -317.56421
181.68146 141.30783 -317.59625
181.68146 134.57889 -317.59625
181.68146 127.84995 -317.59625
181.68146 121.121 -317.59625
181.68146 114.39205 -317.59622
181.68146 107.66313 -317.59628
181.68146 100.93418 -317.59625
181.68146 94.205231 -317.59625
181.68146 87.476295 -317.59625
181.68146 80.747353 -317.59625
181.68146 74.018394 -317.59625
181.68146 67.289459 -317.59625
181.68146 60.560513 -317.59625
181.68146 53.831562 -317.59622
181.68146 47.102638 -317.59628
181.68146 40.373688 -317.59625
181.68146 33.644749 -317.59625
181.68146 26.915812 -317.59625
181.68146 20.186857 -317.59625
181.68146 13.457905 -317.59625
181.68146 6.7289524 -317.59622
181.68146 3.1731382e-05 -317.59628
181.68205 -6.7289562 -317.5936
181.68205 -13.457909 -317.5936
181.68205 -20.186861 -317.59357
181.68205 -26.915854 -317.5936
181.68205 -33.644802 -317.59357
181.68205 -40.373795 -317.59357
181.68205 -47.102745 -317.59357
181.68205 -53.831715 -317.5936
181.68205 -60.560654 -317.5936
181.68205 -67.289604 -317.5936
181.68205 -74.0186 -317.5936
181.68205 -80.747551 -317.5936
181.68205 -87.476517 -317.5936
181.68205 -94.205505 -317.59354
181.68205 -100.93446 -317.5936
181.68205 -107.66345 -317.59354
181.68205 -114.3924 -317.5936
181.68205 -121.12131 -317.5936
181.68205 -127.85033 -317.59357
181.68205 -134.57927 -317.59363
181.68205 -141.30826 -317.59357
181.68205 -148.0372 -317.5936
181.68205 -154.76619 -317.59357
181.68803 -161.50046 -317.56686
181.68803 -168.22964 -317.56686
181.68803 -174.95882 -317.56693
189.54675 155.69916 -312.69733
189.54675 148.92961 -312.69736
189.53923 142.15445 -312.72977
189.53923 135.38518 -312.72974
189.53923 128.61595 -312.72977
189.53923 121.84669 -312.72974
189.53923 115.07742 -312.7298
189.53923 108.30815 -312.72977
189.53923 101.53889 -312.72974
189.53923 94.769646 -312.72977
189.53923 88.000351 -312.72974
189.53923 81.231117 -312.72977
189.53923 74.461845 -312.72974
189.53923 67.692619 -312.72977
189.53923 60.923355 -312.72974
189.53923 54.154083 -312.72977
189.53923 47.384815 -312.72974
189.53923 40.61557 -312.72974
189.53923 33.846317 -312.72974
189.53923 27.077063 -312.72974
189.53923 20.307783 -312.72977
189.53923 13.53853 -312.72977
189.53923 6.7692738 -312.72974
189.53923 3.6852722e-05 -312.72974
189.53923 -6.7692714 -312.72974
189.53923 -13.538495 -312.72977
189.53923 -20.307764 -312.72974
189.53923 -27.077002 -312.72977
189.53923 -33.846256 -312.72974
189.53986 -40.615669 -312.72705
189.53986 -47.384964 -312.72705
189.53986 -54.154224 -312.72705
189.53986 -60.923508 -312.72708
189.53986 -67.692757 -312.72705
189.53986 -74.462067 -312.72705
189.53986 -81.231361 -312.72705
189.53986 -88.000648 -312.72705
189.53986 -94.769928 -312.72702
189.53986 -101.53918 -312.72708
189.53986 -108.30846 -312.72708
189.53986 -115.07774 -312.72705
189.53986 -121.84702 -312.72705
189.53986 -128.61632 -312.72705
189.53986 -135.3856 -312.72705
189.53986 -142.15488 -312.72702
189.53986 -148.92419 -312.72702
189.53986 -155.69345 -312.72702
189.54611 -162.46808 -312.70004
189.54611 -169.23761 -312.70001
189.54611 -176.0071 -312.70001
197.49896 156.63712 -307.77451
197.49896 149.8268 -307.77451
197.49896 143.01651 -307.77451
197.49173 136.2012 -307.8046
197.49173 129.39114 -307.80463
197.49173 122.58109 -307.80463
197.49173 115.77106 -307.8046
197.49173 108.96099 -307.8046
197.49173 102.15091 -307.80457
197.49173 95.340866 -307.8046
197.49173 88.530792 -307.8046
197.49173 81.720726 -307.8046
197.49173 74.910667 -307.8046
197.49173 68.100639 -307.8046
197.49173 61.290585 -307.80463
197.49173 54.480499 -307.8046
197.49173 47.670441 -307.8046
197.49173 40.860371 -307.8046
197.49173 34.050312 -307.8046
197.49173 27.240252 -307.80463
197.49173 20.430229 -307.8046
197.49173 13.620168 -307.8046
197.49173 6.8100777 -307.8046
197.49173 1.6391268e-05 -307.8046
197.49173 -6.8100448 -307.8046
197.49173 -13.620111 -307.8046
197.49173 -20.430164 -307.80463
197.49173 -27.2402 -307.8046
197.49173 -34.050255 -307.80463
197.49173 -40.86034 -307.80457
197.49173 -47.670406 -307.8046
197.49173 -54.480465 -307.8046
197.49173 -61.29052 -307.8046
197.49239 -68.100792 -307.80185
197.49239 -74.910889 -307.80188
197.49239 -81.720963 -307.80188
197.49239 -88.531067 -307.80182
197.49239 -95.341148 -307.80185
197.49239 -102.15121 -307.80185
197.49239 -108.96129 -307.80188
197.49239 -115.77137 -307.80191
197.49239 -122.5815 -307.80182
197.49239 -129.39156 -307.80185
197.49239 -136.20163 -307.80185
197.49239 -143.0117 -307.80188
197.49239 -149.82178 -307.80188
197.49239 -156.6319 -307.80182
197.49831 -163.44687 -307.77722
197.49831 -170.25713 -307.77725
197.49831 -177.0674 -307.77728
239.31854 239.31857 -166.90804
239.31854 231.34129 -166.90804
239.31854 223.36401 -166.90804
239.31854 215.38673 -166.90804
239.31854 207.40945 -166.90804
239.31854 199.43217 -166.90804
239.31854 191.45485 -166.90805
205.54823 157.58702 -302.78925
205.54823 150.73541 -302.78925
205.54823 143.8838 -302.78928
205.54066 137.02711 -302.8197
205.54066 130.17578 -302.81973
205.54066 123.32442 -302.81973
205.54066 116.47306 -302.8197
205.54066 109.62173 -302.81973
205.54066 102.77036 -302.8197
205.54066 95.918999 -302.8197
205.54066 89.067642 -302.81967
205.54066 82.216309 -302.8197
205.54066 75.364944 -302.8197
205.54066 68.513588 -302.81967
205.54066 61.662216 -302.81973
205.54066 54.810852 -302.8197
205.54066 47.959496 -302.8197
205.54066 41.108147 -302.8197
205.54066 34.256798 -302.8197
205.54066 27.405451 -302.81973
205.54066 20.554085 -302.8197
205.54066 13.702737 -302.8197
205.54066 6.8514018 -302.8197
205.54066 3.724586e-05 -302.8197
205.54066 -6.8513274 -302.81967
205.54066 -13.702667 -302.8197
205.54066 -20.554064 -302.81973
205.54066 -27.405428 -302.8197
205.54066 -34.256756 -302.81973
205.54066 -41.108112 -302.8197
205.54066 -47.959476 -302.8197
205.54066 -54.810833 -302.8197
205.54066 -61.662174 -302.8197
205.54066 -68.513535 -302.8197
205.54066 -75.364868 -302.81973
205.54066 -82.21627 -302.81967
205.54066 -89.067604 -302.81973
205.54066 -95.918945 -302.81973
205.54137 -102.77068 -302.81689
205.54137 -109.62203 -302.81696
205.54137 -116.47343 -302.81689
205.54137 -123.32478 -302.81696
205.54137 -130.17618 -302.81689
205.54137 -137.02756 -302.81696
205.54137 -143.87895 -302.81689
205.54137 -150.7303 -302.81693
205.54137 -157.58173 -302.81693
205.54756 -164.438 -302.79202
205.54756 -171.2896 -302.79202
205.54756 -178.1412 -302.79199
244.95071 237.04913 -176.03966
244.95071 229.14748 -176.03967
244.95071 221.24583 -176.03966
244.95071 213.34421 -176.03964
244.95071 205.44258 -176.03966
244.95071 197.54095 -176.03964
244.95071 189.63928 -176.03967
213.69576 158.54851 -297.74316
213.69576 151.65504 -297.74319
213.69576 144.76164 -297.74316
213.68784 137.86313 -297.77402
213.68784 130.96997 -297.77399
213.68784 124.07683 -297.77402
213.68784 117.18369 -297.77402
213.68784 110.2905 -297.77399
213.68784 103.39736 -297.77399
213.68784 96.504219 -297.77399
213.68784 89.611053 -297.77399
213.68784 82.717911 -297.77399
213.68784 75.82476 -297.77402
213.68784 68.931618 -297.77402
213.68784 62.038441 -297.77396
213.68784 55.145256 -297.77402
213.68784 48.25211 -297.77402
213.68784 41.358948 -297.77399
213.68784 34.465805 -297.77402
213.68784 27.572662 -297.77402
213.68784 20.679485 -297.77399
213.68784 13.78633 -297.77399
213.68784 6.8931866 -297.77399
213.68784 1.9301868e-05 -297.77399
213.68784 -6.8931241 -297.77399
213.68784 -13.786267 -297.77399
213.68784 -20.679434 -297.77396
213.68784 -27.572592 -297.77399
213.68784 -34.465775 -297.77402
213.68784 -41.35894 -297.77399
213.68784 -48.252083 -297.77399
213.68784 -55.145226 -297.77399
213.68784 -62.038395 -297.77396
213.68784 -68.931526 -297.77402
213.68784 -75.824692 -297.77399
213.68784 -82.717865 -297.77396
213.68784 -89.610977 -297.77402
213.68784 -96.504173 -297.77399
213.68784 -103.39734 -297.77396
213.68784 -110.29046 -297.77402
213.68784 -117.18363 -297.77399
213.68784 -124.07681 -297.77396
213.68784 -130.96991 -297.77402
213.68855 -137.86357 -297.77118
213.68855 -144.75674 -297.77118
213.68855 -151.64992 -297.77124
213.68855 -158.54309 -297.77121
213.69502 -165.44128 -297.746
213.69502 -172.33467 -297.746
213.69502 -179.22809 -297.74594
250.4771 242.6497 -184.99969
250.4771 234.8223 -184.99969
250.4771 226.99487 -184.99971
250.4771 219.16747 -184.99971
250.4771 211.34009 -184.99968
250.4771 203.51266 -184.99969
250.4771 195.68524 -184.99969
250.4771 187.85783 -184.99969
221.94252 159.52124 -292.63797
221.94252 152.58551 -292.63797
221.94252 145.64978 -292.63797
221.93427 138.70894 -292.66919
221.93427 131.77351 -292.66916
221.93501 124.83845 -292.66632
221.93501 117.90299 -292.66632
221.93501 110.96753 -292.66632
221.93501 104.03205 -292.66632
221.93501 97.096588 -292.66632
221.93501 90.161125 -292.66635
221.93501 83.225647 -292.66632
221.93501 76.290184 -292.66632
221.93501 69.354721 -292.66635
221.93501 62.419243 -292.66632
221.93501 55.483784 -292.66632
221.93501 48.548317 -292.66635
221.93501 41.612858 -292.66635
221.93501 34.677376 -292.66635
221.93501 27.741886 -292.66629
221.93501 20.806427 -292.66629
221.93501 13.870955 -292.66632
221.93501 6.9354882 -292.66632
221.93501 2.1436108e-05 -292.66632
221.93501 -6.9354377 -292.66632
221.93501 -13.870917 -292.66632
221.93501 -20.806385 -292.66632
221.93501 -27.741844 -292.66632
221.93501 -34.677311 -292.66632
221.93501 -41.61277 -292.66632
221.93501 -48.548275 -292.66629
221.93501 -55.483742 -292.66629
221.93501 -62.419201 -292.66629
221.93501 -69.354668 -292.66629
221.93501 -76.290146 -292.66629
221.93501 -83.225609 -292.66632
221.93501 -90.161102 -292.66632
221.93501 -97.096558 -292.66632
221.93501 -104.03203 -292.66632
221.93501 -110.96749 -292.66632
221.93501 -117.90296 -292.66632
221.93501 -124.83842 -292.66632
221.93501 -131.77391 -292.66632
221.93501 -138.70937 -292.66635
221.93501 -145.64484 -292.66632
221.93501 -152.58031 -292.66632
221.94252 -159.52116 -292.63797
221.94252 -166.45689 -292.63794
221.94252 -173.39256 -292.63797
221.94252 -180.32829 -292.63794
255.90056 240.39146 -193.79295
255.90056 232.63692 -193.79297
255.90056 224.88237 -193.79297
255.90056 217.12779 -193.79301
255.8996 209.37242 -193.79652
255.8996 201.61792 -193.79652
255.8996 193.86339 -193.79654
255.8996 186.10881 -193.79652
230.29193 160.5065 -287.46686
230.29193 153.52797 -287.46683
230.29193 146.54942 -287.46686
230.28328 139.56563 -287.49844
230.28328 132.58737 -287.49844
230.28328 125.60908 -287.49844
230.28328 118.63081 -287.49844
230.28328 111.65253 -287.49847
230.28328 104.67424 -287.49847
230.28328 97.695969 -287.49844
230.28328 90.717674 -287.49844
230.28328 83.739426 -287.49844
230.28407 76.76136 -287.49557
230.28407 69.783051 -287.49557
230.28407 62.804756 -287.49557
230.28407 55.826462 -287.49557
230.28407 48.848164 -287.49557
230.28407 41.869854 -287.49557
230.28407 34.891556 -287.49557
230.28407 27.913256 -287.49557
230.28407 20.934959 -287.49557
230.28407 13.956656 -287.49557
230.28407 6.9783611 -287.49557
230.28407 -5.5483597e-06 -287.49557
230.28407 -6.978301 -287.49557
230.28407 -13.956605 -287.49557
230.28407 -20.9349 -287.49557
230.28407 -27.913204 -287.49557
230.28407 -34.891499 -287.49557
230.28407 -41.869839 -287.49554
230.28407 -48.84811 -287.49557
230.28407 -55.826439 -287.49554
230.28407 -62.80471 -287.49557
230.28407 -69.783035 -287.49554
230.28407 -76.761307 -287.49557
230.28407 -83.739677 -287.49557
230.28407 -90.717918 -287.49557
230.28407 -97.696259 -287.49554
230.28407 -104.67455 -287.49561
230.28407 -111.65287 -287.49557
230.28407 -118.63114 -287.49561
230.28407 -125.60947 -287.49557
230.28407 -132.58774 -287.49561
230.28407 -139.56607 -287.49557
230.28407 -146.54439 -287.49551
230.28407 -153.52269 -287.49557
230.29193 -160.50648 -287.46683
230.29193 -167.48502 -287.4668
230.29193 -174.46358 -287.4668
261.22406 238.17491 -202.42406
261.22406 230.49185 -202.42407
261.22406 222.80878 -202.42409
261.22308 215.12491 -202.42758
261.22308 207.44188 -202.42757
261.22308 199.75885 -202.42755
261.22308 192.07582 -202.42755
261.22308 184.39279 -202.42754
261.22308 176.70976 -202.42754
238.74509 154.48213 -282.23145
238.74509 147.46024 -282.23148
238.73608 140.43303 -282.26346
238.73608 133.41138 -282.26346
238.73608 126.38972 -282.26346
238.73608 119.36806 -282.26346
238.73608 112.34641 -282.26346
238.73608 105.32476 -282.26346
238.73608 98.303116 -282.26346
238.73608 91.281471 -282.26346
238.73608 84.259834 -282.26349
238.73608 77.238152 -282.26343
238.73608 70.216522 -282.26346
238.73608 63.19487 -282.26346
238.73608 56.173222 -282.26346
238.73608 49.151569 -282.26346
238.73608 42.129925 -282.26346
238.73608 35.108261 -282.26343
238.73689 28.086723 -282.26053
238.73689 21.065046 -282.26056
238.73689 14.043369 -282.26053
238.73689 7.021699 -282.26056
238.73689 2.2014689e-05 -282.26053
238.73689 -7.0216489 -282.26056
238.73689 -14.043325 -282.26053
238.73689 -21.065018 -282.26056
238.73689 -28.086674 -282.26053
238.73689 -35.108364 -282.26056
238.73689 -42.130009 -282.26056
238.73689 -49.151649 -282.26056
238.73689 -56.173382 -282.26053
238.73689 -63.195034 -282.26053
238.73689 -70.216705 -282.26056
238.73689 -77.238358 -282.26056
238.73689 -84.260078 -282.26053
238.73689 -91.281731 -282.26053
238.73689 -98.303398 -282.26053
238.73689 -105.32505 -282.26056
238.73689 -112.34678 -282.2605
238.73689 -119.36844 -282.26053
238.73689 -126.39011 -282.26056
238.73689 -133.41177 -282.26056
238.73689 -140.43343 -282.26059
238.73689 -147.45514 -282.26053
238.73689 -154.47681 -282.26053
238.74428 -161.50348 -282.23434
238.74428 -168.52536 -282.23441
238.74428 -175.54724 -282.23434
266.45026 235.99886 -210.89749
266.45026 228.38596 -210.89748
266.45026 220.77312 -210.89749
266.44928 213.15944 -210.90089
266.44928 205.5466 -210.90088
266.44928 197.93376 -210.90089
266.44928 190.32092 -210.90092
266.44928 182.7081 -210.90094
266.44928 175.09528 -210.90088
247.30399 155.44826 -276.9306
247.30399 148.38242 -276.93057
247.2946 141.31122 -276.96298
247.2946 134.24567 -276.96298
247.2946 127.18009 -276.96298
247.2946 120.11454 -276.96298
247.2946 113.04898 -276.96301
247.2946 105.98341 -276.96298
247.2946 98.917854 -276.96301
247.2946 91.852318 -276.96298
247.2946 84.786758 -276.96298
247.2946 77.721184 -276.96298
247.2946 70.655632 -276.96301
247.2946 63.59008 -276.96301
247.2946 56.524506 -276.96301
247.2946 49.45895 -276.96301
247.2946 42.393375 -276.96301
247.2946 35.32782 -276.96301
247.2946 28.262293 -276.96301
247.2946 21.196705 -276.96295
247.2946 14.13114 -276.96298
247.2946 7.0655746 -276.96298
247.29546 4.9024502e-06 -276.96002
247.29546 -7.0655599 -276.96005
247.29546 -14.131117 -276.96005
247.29546 -21.19672 -276.96008
247.29546 -28.262335 -276.96002
247.29546 -35.327938 -276.96002
247.29546 -42.393501 -276.96005
247.29546 -49.459061 -276.96005
247.29546 -56.524651 -276.96008
247.29546 -63.590214 -276.96008
247.29546 -70.65583 -276.95999
247.29546 -77.721436 -276.96002
247.29546 -84.786995 -276.96002
247.29546 -91.852554 -276.96005
247.29546 -98.918129 -276.96005
247.29546 -105.98373 -276.96008
247.29546 -113.04935 -276.96002
247.29546 -120.11493 -276.96002
247.29546 -127.18049 -276.96002
247.29546 -134.24608 -276.96005
247.29546 -141.31165 -276.96008
247.29546 -148.37723 -276.96008
247.29546 -155.44286 -276.96002
247.30313 -162.51347 -276.93353
247.30313 -169.57925 -276.93356
247.30313 -176.64508 -276.93353
271.58185 241.4061 -219.21748
271.58185 233.86217 -219.21742
271.58185 226.31822 -219.21745
271.58185 218.77428 -219.21744
271.58081 211.22957 -219.22081
271.58081 203.68567 -219.22081
271.58081 196.14174 -219.22083
271.58081 188.59782 -219.22079
271.58081 181.05392 -219.22079
271.58081 173.50998 -219.22081
255.96973 156.42598 -271.56601
255.96973 149.31569 -271.56598
255.96083 142.2005 -271.59583
255.96083 135.09047 -271.59583
255.96083 127.98045 -271.59583
255.96083 120.87041 -271.59583
255.96083 113.76041 -271.59583
255.96083 106.65037 -271.59583
255.96083 99.540359 -271.59583
255.96083 92.430305 -271.59579
255.96083 85.320305 -271.59579
255.96083 78.210258 -271.59579
255.96083 71.100258 -271.59583
255.96083 63.990211 -271.59579
255.96083 56.88023 -271.59583
255.96083 49.770161 -271.59579
255.96083 42.660172 -271.59583
255.96083 35.550117 -271.59583
255.96083 28.440128 -271.59583
255.96083 21.330082 -271.59583
255.96083 14.220053 -271.59579
255.96083 7.1100373 -271.59583
255.96083 2.3400284e-05 -271.59579
255.96083 -7.1099744 -271.59579
255.96083 -14.220027 -271.59579
255.96083 -21.330017 -271.59583
255.96083 -28.440054 -271.59586
255.96172 -35.550198 -271.59286
255.96172 -42.660275 -271.5928
255.96172 -49.770306 -271.59283
255.96172 -56.88039 -271.5928
255.96172 -63.990406 -271.59283
255.96172 -71.100433 -271.59286
255.96172 -78.21051 -271.59283
255.96172 -85.320549 -271.59286
255.96172 -92.430626 -271.5928
255.96172 -99.540657 -271.59286
255.96172 -106.65067 -271.59286
255.96172 -113.76074 -271.59283
255.96172 -120.87077 -271.59286
255.96172 -127.98085 -271.59283
255.96172 -135.09087 -271.59283
255.96172 -142.20096 -271.5928
255.96172 -149.31097 -271.59283
255.96172 -156.42102 -271.59286
255.96973 -163.53618 -271.56604
255.96973 -170.64645 -271.56604
255.96973 -177.75673 -271.56601
276.62131 239.24007 -227.38809
276.62131 231.76384 -227.38809
276.62131 224.28758 -227.38808
276.6203 216.81055 -227.39139
276.6203 209.3343 -227.39139
276.6203 201.85808 -227.39143
276.6203 194.38188 -227.39142
276.6203 186.90564 -227.3914
276.6203 179.4294 -227.39142
276.61929 171.95256 -227.3947
264.74609 157.4166 -266.13046
264.74609 150.26131 -266.13049
264.74609 143.106 -266.13049
264.73682 135.94597 -266.16064
264.73682 128.79092 -266.16068
264.73682 121.63585 -266.16064
264.73682 114.48082 -266.16068
264.73682 107.32578 -266.16068
264.73682 100.17071 -266.16064
264.73682 93.015663 -266.16064
264.73682 85.860634 -266.16068
264.73682 78.705566 -266.16068
264.73682 71.550522 -266.16068
264.73682 64.395462 -266.16064
264.73682 57.240414 -266.16064
264.73682 50.085381 -266.16068
264.73682 42.930325 -266.16068
264.73682 35.775272 -266.16068
264.73682 28.620216 -266.16064
264.73682 21.465185 -266.16068
264.73682 14.31013 -266.16068
264.73682 7.1550684 -266.16068
264.73682 1.9752293e-05 -266.16064
264.73682 -7.1550417 -266.16064
264.73682 -14.31009 -266.16064
264.73682 -21.465153 -266.16064
264.73682 -28.620153 -266.16071
264.73682 -35.775215 -266.16071
264.73682 -42.930264 -266.16068
264.73682 -50.085323 -266.16068
264.73682 -57.240372 -266.16068
264.73682 -64.395432 -266.16064
264.73773 -71.550758 -266.15762
264.73773 -78.705818 -266.15762
264.73773 -85.860863 -266.15759
264.73773 -93.015968 -266.15762
264.73773 -100.17101 -266.15759
264.73773 -107.32612 -266.15762
264.73773 -114.48119 -266.15762
264.73773 -121.63625 -266.15762
264.73773 -128.79132 -266.15765
264.73773 -135.9464 -266.15765
264.73773 -143.10149 -266.15765
264.73773 -150.25655 -266.15765
264.73773 -157.41161 -266.15765
264.74609 -164.57185 -266.13049
264.74609 -171.72719 -266.13046
264.74609 -178.88248 -266.13049
281.57117 237.11258 -235.41347
281.57117 229.70284 -235.41342
281.57117 222.29306 -235.41344
281.57016 214.88251 -235.41669
281.57016 207.47278 -235.41667
281.57016 200.06302 -235.41669
281.57016 192.65327 -235.41667
281.57016 185.24356 -235.41669
281.56912 177.83316 -235.41992
281.56912 170.42343 -235.41991
273.63431 158.41991 -260.62567
273.63431 151.21899 -260.62567
273.63431 144.01811 -260.62567
273.62469 136.81238 -260.65625
273.62469 129.61171 -260.65625
273.62469 122.41105 -260.65625
273.62469 115.21043 -260.65625
273.62469 108.00977 -260.65625
273.62469 100.80914 -260.65622
273.62469 93.608467 -260.65622
273.62469 86.407799 -260.65622
273.62469 79.207169 -260.65622
273.62469 72.0065 -260.65619
273.62469 64.805862 -260.65625
273.62469 57.605232 -260.65622
273.62469 50.404568 -260.65625
273.62469 43.203941 -260.65622
273.62469 36.003269 -260.65622
273.62469 28.802605 -260.65622
273.62469 21.60198 -260.65622
273.62469 14.401314 -260.65622
273.62469 7.2006483 -260.65622
273.62469 2.3047578e-05 -260.65622
273.62469 -7.2006488 -260.65622
273.62469 -14.401282 -260.65619
273.62469 -21.601942 -260.65619
273.62469 -28.802605 -260.65622
273.62469 -36.003239 -260.65619
273.62469 -43.203861 -260.65628
273.62469 -50.404495 -260.65625
273.62469 -57.605148 -260.65625
273.62469 -64.805817 -260.65625
273.62469 -72.006454 -260.65625
273.62469 -79.207108 -260.65625
273.62469 -86.407776 -260.65625
273.62469 -93.608406 -260.65622
273.62469 -100.80908 -260.65625
273.62564 -108.0101 -260.65314
273.62564 -115.21078 -260.65317
273.62564 -122.41145 -260.65317
273.62564 -129.61212 -260.6532
273.62564 -136.81277 -260.65317
273.62564 -144.01347 -260.6532
273.62564 -151.21417 -260.65314
273.62564 -158.41483 -260.65314
273.63336 -165.62019 -260.62869
273.63336 -172.82104 -260.62872
273.63336 -180.02191 -260.62872
290.55945 238.40778 -230.52774
290.55945 230.95755 -230.52776
290.55838 223.50645 -230.53105
290.55838 216.05627 -230.53104
290.55838 208.60603 -230.53104
290.55838 201.15582 -230.53108
290.55838 193.70563 -230.53104
290.55838 186.25539 -230.53105
290.55731 178.80455 -230.5343
290.55731 171.35437 -230.53432
282.63657 159.436 -255.05023
282.63657 152.18893 -255.0502
282.63657 144.94182 -255.05022
282.62656 137.68987 -255.08119
282.62656 130.44305 -255.08119
282.62656 123.19621 -255.08121
282.62656 115.94939 -255.08118
282.62656 108.70255 -255.08119
282.62656 101.45573 -255.08119
282.62656 94.208878 -255.08118
282.62656 86.962029 -255.08121
282.62656 79.715225 -255.08119
282.62656 72.468376 -255.08121
282.62656 65.221558 -255.08119
282.62656 57.974709 -255.08121
282.62656 50.727859 -255.08121
282.62656 43.481045 -255.08119
282.62656 36.234203 -255.08121
282.62656 28.987383 -255.08119
282.62656 21.74053 -255.08121
282.62656 14.493663 -255.08118
282.62656 7.2468739 -255.08121
282.62656 5.8144742e-06 -255.08118
282.62656 -7.2467895 -255.08121
282.62656 -14.493659 -255.08116
282.62656 -21.740454 -255.08119
282.62656 -28.987329 -255.08118
282.62656 -36.23415 -255.08121
282.62656 -43.480984 -255.08118
282.62656 -50.727806 -255.08121
282.62656 -57.974651 -255.08116
282.62656 -65.221474 -255.08122
282.62656 -72.468346 -255.08118
282.62656 -79.715141 -255.08121
282.62656 -86.962006 -255.08118
282.62656 -94.208801 -255.08121
282.62656 -101.45568 -255.08118
282.62656 -108.70248 -255.08122
282.62656 -115.94934 -255.08118
282.62656 -123.19614 -255.08121
282.62656 -130.44301 -255.08118
282.62656 -137.68983 -255.08122
282.62756 -144.93719 -255.07811
282.62756 -152.18405 -255.07806
282.63556 -159.43539 -255.05334
282.63556 -166.68248 -255.05334
282.63556 -173.92953 -255.05333
299.93509 239.94807 -224.71733
299.93509 232.44971 -224.71735
299.93509 224.95132 -224.71735
299.93509 217.45296 -224.71736
299.93509 209.95457 -224.71736
299.93509 202.45621 -224.71738
299.93399 194.95712 -224.72067
299.93399 187.45876 -224.72069
299.93399 179.96042 -224.72069
299.93399 172.46208 -224.72066
291.754 160.46472 -249.40593
291.754 153.17085 -249.40591
291.754 145.87703 -249.40591
291.74359 138.57826 -249.4373
291.74359 131.28465 -249.43732
291.74359 123.99107 -249.43729
291.74466 116.6979 -249.43416
291.74466 109.40426 -249.43419
291.74466 102.11065 -249.43419
291.74466 94.817024 -249.43417
291.74466 87.523415 -249.43417
291.74466 80.229813 -249.43417
291.74466 72.936203 -249.43417
291.74466 65.64257 -249.43414
291.74466 58.348972 -249.43416
291.74466 51.055363 -249.43416
291.74466 43.761696 -249.43416
291.74466 36.468094 -249.43417
291.74466 29.174488 -249.43417
291.74466 21.88088 -249.43417
291.74466 14.587256 -249.43416
291.74466 7.2936664 -249.4342
291.74466 4.1356398e-05 -249.43416
291.74466 -7.293582 -249.43414
291.74466 -14.587166 -249.43419
291.74466 -21.880836 -249.43417
291.74466 -29.174459 -249.43416
291.74466 -36.468044 -249.43419
291.74466 -43.761673 -249.43416
291.74466 -51.055305 -249.43413
291.74466 -58.348881 -249.43417
291.74466 -65.642525 -249.43416
291.74466 -72.936157 -249.43411
291.74466 -80.229736 -249.43417
291.74466 -87.523392 -249.43416
291.74466 -94.816986 -249.4342
291.74466 -102.11062 -249.43417
291.74466 -109.40424 -249.43414
291.74466 -116.69782 -249.43419
291.74466 -123.99146 -249.43416
291.74466 -131.28508 -249.43414
291.74466 -138.57867 -249.43419
291.74466 -145.87231 -249.43416
291.74466 -153.16592 -249.43413
291.754 -160.46472 -249.4059
291.754 -167.75854 -249.4059
291.754 -175.0524 -249.4059
309.43378 241.50935 -218.82802
309.43378 233.96216 -218.82805
309.43378 226.41499 -218.82802
309.43378 218.86784 -218.82802
309.43378 211.32068 -218.82806
309.43265 203.77275 -218.83141
309.43265 196.22559 -218.83138
309.43265 188.67845 -218.83141
309.43265 181.13135 -218.83138
309.43265 173.58421 -218.83139
309.43152 166.03645 -218.83475
300.99094 154.16614 -243.68517
300.99094 146.82489 -243.68515
300.98013 139.47864 -243.71695
300.98013 132.13765 -243.71695
300.98013 124.79665 -243.71693
300.98013 117.45569 -243.71696
300.98013 110.11473 -243.71693
300.98013 102.77376 -243.71693
300.98013 95.432755 -243.71692
300.98013 88.091789 -243.71695
300.98013 80.750801 -243.71693
300.98123 73.410072 -243.71376
300.98123 66.069084 -243.71375
300.98123 58.728069 -243.71379
300.98123 51.387077 -243.71378
300.98123 44.046082 -243.71376
300.98123 36.705048 -243.71376
300.98123 29.36405 -243.71375
300.98123 22.023041 -243.71378
300.98123 14.682029 -243.71375
300.98123 7.3410187 -243.71378
300.98123 -7.0424549e-06 -243.71373
300.98123 -7.3409781 -243.71375
300.98123 -14.681989 -243.71379
300.98123 -22.023008 -243.71373
300.98123 -29.363997 -243.71378
300.98123 -36.705029 -243.71373
300.98123 -44.046001 -243.71375
300.98123 -51.386997 -243.71379
300.98123 -58.728031 -243.71375
300.98123 -66.069031 -243.71378
300.98123 -73.410049 -243.71373
300.98123 -80.751022 -243.71376
300.98123 -88.092018 -243.71379
300.98123 -95.433052 -243.71375
300.98123 -102.77405 -243.71378
300.98123 -110.11507 -243.71371
300.98123 -117.45607 -243.71376
300.98123 -124.79704 -243.71379
300.98123 -132.13809 -243.71376
300.98123 -139.47908 -243.71379
300.98123 -146.8201 -243.71373
300.98123 -154.16107 -243.71376
300.99094 -161.50731 -243.68515
300.99094 -168.84857 -243.68513
300.99094 -176.18979 -243.6852
319.05576 235.49358 -212.86496
319.05576 227.89699 -212.86497
319.05576 220.3004 -212.86496
319.05576 212.70386 -212.86496
319.05576 205.10727 -212.86494
319.05576 197.51074 -212.86496
319.05576 189.91417 -212.86497
319.05576 182.31757 -212.86496
319.05457 174.7204 -212.86836
319.05457 167.12386 -212.86835
310.34872 155.17438 -237.88957
310.34872 147.78513 -237.88956
310.33749 140.39082 -237.92177
310.33749 133.00183 -237.92175
310.33749 125.61282 -237.92177
310.33749 118.22382 -237.92175
310.33749 110.83486 -237.92178
310.33749 103.44585 -237.92172
310.33749 96.056892 -237.92175
310.33749 88.667862 -237.92175
310.33749 81.2789 -237.92177
310.33749 73.8899 -237.92174
310.33749 66.500923 -237.92175
310.33749 59.111897 -237.92175
310.33749 51.722927 -237.92175
310.33749 44.333961 -237.92177
310.33862 36.945114 -237.91856
310.33862 29.556084 -237.91855
310.33862 22.167091 -237.91853
310.33862 14.778061 -237.91853
310.33862 7.3890305 -237.91853
310.33862 -8.7666185e-09 -237.91853
310.33862 -7.388998 -237.9185
310.33862 -14.778022 -237.9185
310.33862 -22.167011 -237.91858
310.33862 -29.555996 -237.91855
310.33862 -36.945034 -237.91856
310.33862 -44.334057 -237.91855
310.33862 -51.723095 -237.91855
310.33862 -59.11208 -237.91853
310.33862 -66.501122 -237.91852
310.33862 -73.890144 -237.91852
310.33862 -81.279175 -237.9185
310.33862 -88.668167 -237.91849
310.33862 -96.057144 -237.91856
310.33862 -103.44618 -237.91856
310.33862 -110.83518 -237.91855
310.33862 -118.22421 -237.91853
310.33862 -125.61323 -237.91853
310.33862 -133.00224 -237.91852
310.33862 -140.39128 -237.91852
310.33862 -147.78029 -237.9185
310.33862 -155.16931 -237.9185
310.3476 -162.56299 -237.89278
310.3476 -169.95222 -237.89281
310.3476 -177.34143 -237.89281
328.80447 237.04512 -206.8233
328.80447 229.39851 -206.82329
328.80447 221.75189 -206.82333
328.80447 214.10529 -206.8233
328.80447 206.45865 -206.82333
328.80447 198.81204 -206.8233
328.80447 191.16541 -206.8233
328.80447 183.51881 -206.8233
328.80447 175.87219 -206.82336
328.80447 168.22559 -206.82333
319.82849 156.19534 -232.02092
319.82849 148.75746 -232.02095
319.81805 141.31497 -232.05026
319.81805 133.87733 -232.05026
319.81805 126.4397 -232.05028
319.81805 119.00211 -232.05026
319.81805 111.56445 -232.05025
319.81805 104.12682 -232.05026
319.81805 96.689186 -232.05026
319.81805 89.251579 -232.05025
319.81805 81.813942 -232.05025
319.81805 74.376305 -232.05026
319.81805 66.93866 -232.05026
319.81805 59.501068 -232.05025
319.81805 52.063423 -232.05025
319.81805 44.62579 -232.05026
319.81805 37.188156 -232.05026
319.81805 29.750513 -232.05026
319.81805 22.31291 -232.05026
319.81805 14.875267 -232.05025
319.81805 7.4376321 -232.05026
319.81921 6.0498562e-05 -232.04703
319.81921 -7.4376678 -232.04698
319.81921 -14.875297 -232.047
319.81921 -22.312946 -232.047
319.81921 -29.750612 -232.04703
319.81921 -37.188263 -232.04703
319.81921 -44.625889 -232.04703
319.81921 -52.06353 -232.04704
319.81921 -59.501255 -232.04698
319.81921 -66.938881 -232.047
319.81921 -74.376526 -232.04701
319.81921 -81.814201 -232.04703
319.81921 -89.251839 -232.04704
319.81921 -96.689476 -232.04703
319.81921 -104.12717 -232.04697
319.81921 -111.56483 -232.047
319.81921 -119.00249 -232.047
319.81921 -126.44014 -232.04703
319.81921 -133.87778 -232.04703
319.81921 -141.31543 -232.04704
319.81921 -148.75311 -232.04698
319.81921 -156.19078 -232.047
319.82849 -163.63316 -232.02094
319.82849 -171.07106 -232.02089
319.82849 -178.50893 -232.02094
338.68384 238.61816 -200.69806
338.68384 230.92084 -200.69806
338.68384 223.22346 -200.69804
338.68384 215.52608 -200.69801
338.68384 207.82874 -200.69806
338.68384 200.13138 -200.69801
338.68384 192.43404 -200.69806
338.68384 184.73665 -200.69803
338.68384 177.03931 -200.69807
338.68384 169.34195 -200.69803
329.43509 157.23039 -226.07124
329.43509 149.74326 -226.07123
329.42422 142.25139 -226.10098
329.42422 134.76447 -226.101
329.42422 127.27757 -226.10095
329.42422 119.79066 -226.10097
329.42422 112.30375 -226.10098
329.42422 104.81683 -226.101
329.42422 97.32991 -226.10101
329.42422 89.843002 -226.10095
329.42422 82.356087 -226.10097
329.42422 74.869179 -226.101
329.42422 67.382256 -226.101
329.42422 59.895321 -226.10097
329.42422 52.40844 -226.10097
329.42422 44.921528 -226.10098
329.42422 37.434612 -226.101
329.42422 29.947693 -226.10101
329.42422 22.460773 -226.10101
329.42422 14.973854 -226.10094
329.42422 7.4869356 -226.10095
329.42422 1.6892118e-05 -226.10097
329.42422 -7.4869018 -226.10097
329.42422 -14.973812 -226.101
329.42422 -22.460691 -226.10098
329.42422 -29.947611 -226.101
329.42545 -37.434677 -226.09769
329.42545 -44.921635 -226.09764
329.42545 -52.408581 -226.09767
329.42545 -59.8955 -226.09767
329.42545 -67.382416 -226.09769
329.42545 -74.869415 -226.09766
329.42545 -82.356331 -226.09767
329.42545 -89.843254 -226.09769
329.42545 -97.330246 -226.09766
329.42545 -104.81717 -226.09766
329.42545 -112.30408 -226.09767
329.42545 -119.79105 -226.0977
329.42545 -127.278 -226.09766
329.42545 -134.76494 -226.09767
329.42545 -142.25186 -226.09769
329.42545 -149.73883 -226.09763
329.42545 -157.22577 -226.09767
329.43509 -164.7175 -226.07124
329.43509 -172.20468 -226.07121
329.43509 -179.69182 -226.07126
348.69382 240.21132 -194.49446
348.69382 232.46255 -194.49448
348.69382 224.71382 -194.49446
348.69382 216.96506 -194.49446
348.69382 209.21632 -194.49445
348.69382 201.46756 -194.49446
348.69382 193.7188 -194.49446
348.69382 185.97008 -194.49445
348.69382 178.2213 -194.49445
348.69382 170.47255 -194.49448
339.16986 158.2793 -220.04221
339.16986 150.74219 -220.04216
339.16986 143.20506 -220.04218
339.1586 135.66348 -220.07231
339.1586 128.12659 -220.0723
339.1586 120.58976 -220.0723
339.1586 113.0529 -220.07233
339.1586 105.51601 -220.07231
339.1586 97.979187 -220.07231
339.1586 90.442322 -220.07234
339.1586 82.905472 -220.0723
339.1586 75.368607 -220.07231
339.1586 67.831741 -220.07234
339.1586 60.294914 -220.07234
339.1586 52.758007 -220.07228
339.1586 45.22118 -220.0723
339.1586 37.684315 -220.07231
339.1586 30.147455 -220.07234
339.1586 22.61062 -220.07233
339.1586 15.073707 -220.07228
339.1586 7.53688 -220.07228
339.1586 2.1179128e-05 -220.07231
339.1586 -7.5368443 -220.07233
339.1586 -15.073664 -220.07233
339.1586 -22.610579 -220.07228
339.1586 -30.147404 -220.07228
339.1586 -37.684277 -220.0723
339.1586 -45.221104 -220.0723
339.1586 -52.757969 -220.07233
339.1586 -60.294834 -220.07236
339.15985 -67.83197 -220.06892
339.15985 -75.368835 -220.06895
339.15985 -82.905701 -220.06898
339.15985 -90.442604 -220.06892
339.15985 -97.979469 -220.06895
339.15985 -105.51637 -220.069
339.15985 -113.05329 -220.06894
339.15985 -120.59014 -220.06895
339.15985 -128.12701 -220.06898
339.15985 -135.66393 -220.06894
339.15985 -143.20081 -220.06897
339.15985 -150.73767 -220.06898
339.15985 -158.27458 -220.06894
339.16986 -165.81635 -220.04216
339.16986 -173.35349 -220.04214
349.03534 159.34227 -213.93213
349.03534 151.75452 -213.93214
349.03534 144.16678 -213.93211
349.02368 136.57452 -213.96266
349.02368 128.98703 -213.96268
349.02368 121.39957 -213.96266
349.02368 113.81212 -213.96266
349.02368 106.22462 -213.96268
349.02368 98.637169 -213.96268
349.02368 91.049667 -213.96268
349.02368 83.462219 -213.96269
349.02368 75.874748 -213.96265
349.02368 68.28727 -213.96269
349.02368 60.699821 -213.96271
349.02368 53.112328 -213.96265
349.02368 45.524845 -213.96268
349.02368 37.937405 -213.96269
349.02368 30.349873 -213.96263
349.02368 22.762428 -213.96266
349.02368 15.174982 -213.96266
349.02368 7.5875049 -213.96271
349.02368 3.9290326e-06 -213.96263
349.02368 -7.5874343 -213.96265
349.02368 -15.174919 -213.96268
349.02368 -22.762365 -213.96269
349.02368 -30.34989 -213.96265
349.02368 -37.937344 -213.96268
349.02368 -45.524788 -213.96268
349.02368 -53.112274 -213.96271
349.02368 -60.69976 -213.96265
349.02368 -68.287209 -213.96265
349.02368 -75.87468 -213.96269
349.02368 -83.462173 -213.96262
349.02368 -91.049667 -213.96266
349.02368 -98.637115 -213.96268
349.02499 -106.22498 -213.95923
349.02499 -113.81246 -213.95926
349.02499 -121.39995 -213.9593
349.02499 -128.98747 -213.95926
349.02499 -136.57495 -213.95929
349.02499 -144.16249 -213.95924
349.02499 -151.74997 -213.95929
349.03534 -159.34219 -213.93211
349.03534 -166.92993 -213.9321
349.03534 -174.51765 -213.93207
359.0329 160.41896 -207.74289
359.0329 152.78001 -207.7429
359.0329 145.14099 -207.74289
359.02219 137.49791 -207.77043
359.02219 129.85912 -207.77045
359.02219 122.22035 -207.77043
359.02219 114.5816 -207.77042
359.02219 106.9428 -207.77042
359.02219 99.304047 -207.7704
359.02219 91.665245 -207.7704
359.02219 84.026489 -207.77039
359.02219 76.387718 -207.77043
359.02219 68.748947 -207.7704
359.02219 61.11021 -207.77042
359.02219 53.471394 -207.77039
359.02219 45.832657 -207.77042
359.02219 38.19389 -207.77046
359.02219 30.555105 -207.7704
359.02219 22.916338 -207.77045
359.02219 15.277554 -207.7704
359.02219 7.6388183 -207.77042
359.02219 2.1226356e-06 -207.77039
359.02219 -7.6387334 -207.77042
359.02219 -15.277541 -207.77039
359.02219 -22.916277 -207.77042
359.02219 -30.555052 -207.77046
359.02219 -38.193836 -207.77042
359.02219 -45.832558 -207.77043
359.02219 -53.471382 -207.7704
359.02219 -61.110115 -207.77043
359.02219 -68.74894 -207.7704
359.02219 -76.387672 -207.77042
359.02219 -84.026482 -207.77039
359.02219 -91.665222 -207.7704
359.02219 -99.303947 -207.77043
359.02219 -106.94277 -207.77042
359.02219 -114.58151 -207.77043
359.02219 -122.22032 -207.7704
359.02219 -129.85905 -207.77042
359.02219 -137.49785 -207.77039
359.02353 -145.13716 -207.76694
359.02353 -152.77592 -207.76698
359.0329 -160.41891 -207.7429
359.0329 -168.05794 -207.7429
359.0329 -175.69693 -207.74287
369.16791 161.51096 -201.46596
369.16791 153.82001 -201.46597
369.16791 146.12897 -201.46596
369.15543 138.4333 -201.49734
369.15543 130.74257 -201.49734
369.15543 123.05183 -201.49738
369.1568 115.36152 -201.49385
369.1568 107.67075 -201.49385
369.1568 99.979996 -201.49387
369.1568 92.289223 -201.49387
369.1568 84.598442 -201.49384
369.1568 76.907715 -201.4939
369.1568 69.216942 -201.49388
369.1568 61.526165 -201.49388
369.1568 53.835384 -201.49385
369.1568 46.144611 -201.49384
369.1568 38.453835 -201.49382
369.1568 30.763103 -201.49388
369.1568 23.072327 -201.49387
369.1568 15.381557 -201.49385
369.1568 7.6907802 -201.49384
369.1568 9.9281806e-06 -201.49384
369.1568 -7.6907268 -201.49388
369.1568 -15.381497 -201.49387
369.1568 -23.072273 -201.49385
369.1568 -30.763058 -201.49384
369.1568 -38.453835 -201.49382
369.1568 -46.14455 -201.49388
369.1568 -53.835327 -201.49387
369.1568 -61.526112 -201.49385
369.1568 -69.216888 -201.49384
369.1568 -76.907654 -201.49382
369.1568 -84.598389 -201.49388
369.1568 -92.289169 -201.49387
369.1568 -99.979942 -201.49385
369.1568 -107.67072 -201.49385
369.1568 -115.36149 -201.49382
369.1568 -123.05222 -201.49388
369.1568 -130.743 -201.49387
369.1568 -138.43378 -201.49385
369.1568 -146.12456 -201.49384
