# .PCD v0.7 - Point Cloud Data file format
VERSION 0.7
FIELDS x y z
SIZE 4 4 4
TYPE F F F
COUNT 1 1 1
WIDTH 1487
HEIGHT 1
VIEWPOINT 0 0 0 1 0 0 0
POINTS 1487
DATA ascii
-258.61209 415.62659 -121.6571
-258.61423 406.39377 -121.64793
-258.61423 397.15753 -121.64788
-258.61423 387.92133 -121.64787
-258.61423 378.68503 -121.6479
-258.61423 369.44888 -121.64793
-258.61423 360.21265 -121.6479
-258.61423 350.97644 -121.64788
-258.61423 341.74023 -121.64787
-258.61423 332.50394 -121.6479
-258.61423 323.26776 -121.6479
-258.61423 314.03156 -121.64789
-258.61423 304.79535 -121.64787
-258.61423 295.55905 -121.64791
-258.61423 286.32285 -121.64788
-258.61423 277.08667 -121.6479
-258.61423 267.85043 -121.64784
-258.61423 258.61417 -121.64792
-258.61423 249.37799 -121.64793
-258.61423 240.14175 -121.64787
-258.61423 230.90553 -121.64793
-258.61423 221.6693 -121.64786
-258.61423 212.43307 -121.6479
-258.61423 203.19688 -121.64793
-258.61423 193.96065 -121.64786
-258.61423 184.72443 -121.6479
-258.61423 175.4882 -121.64785
-258.61423 166.25198 -121.6479
-258.61423 157.01579 -121.64793
-258.61423 147.77951 -121.64788
-258.61423 138.54333 -121.6479
-258.61423 129.30705 -121.64786
-258.61423 120.07087 -121.64788
-258.61423 110.83465 -121.64793
-258.61423 101.59842 -121.64787
-258.61423 92.36219 -121.64791
-258.61423 83.125961 -121.64786
-258.61423 73.88974 -121.6479
-258.61423 64.653557 -121.64793
-258.61423 55.417278 -121.64788
-258.61423 46.181095 -121.64791
-258.61423 36.944862 -121.64784
-258.61423 27.708641 -121.6479
-258.61423 18.472454 -121.64791
-258.61423 9.2361803 -121.64787
-258.61423 -7.4713034e-07 -121.6479
-258.61423 -9.2362766 -121.64786
-258.61423 -18.472454 -121.64788
-258.61423 -27.708683 -121.64793
-258.61423 -36.94492 -121.64787
-258.61423 -46.181141 -121.64791
-258.61423 -55.417374 -121.64785
-258.61423 -64.653595 -121.6479
-258.61423 -73.889786 -121.64792
-258.61423 -83.126053 -121.64788
-258.61423 -92.362236 -121.6479
-258.61423 -101.59851 -121.64787
-258.61423 -110.8347 -121.64789
-258.61423 -120.07087 -121.6479
-258.61316 -129.30659 -121.6525
-258.61209 -138.54225 -121.65705
-258.61209 -147.7784 -121.65704
-258.61209 -157.01453 -121.65704
-258.61209 -166.25067 -121.65704
-258.61209 -175.48683 -121.65704
-258.61209 -184.72296 -121.65703
-258.61209 -193.95911 -121.65702
-258.61209 -203.19524 -121.65713
-258.61209 -212.43138 -121.65712
-258.61209 -221.66753 -121.65712
-258.61209 -230.90367 -121.65711
-258.61209 -240.1398 -121.6571
-258.61209 -249.37593 -121.6571
-258.61209 -258.61209 -121.6571
-258.61209 -267.84827 -121.65711
-258.61209 -277.08438 -121.6571
-252.65144 -279.72131 -147.35393
-249.10898 -284.69601 -162.62593
-248.24841 -292.57849 -166.33597
-249.0793 -302.45346 -162.75386
-247.89012 422.33133 -128.2999
-247.89925 413.16544 -128.25902
-247.90129 403.98721 -128.24998
-247.90129 394.80569 -128.25
-247.90129 385.62415 -128.24997
-247.90129 376.44263 -128.24998
-247.90129 367.26111 -128.24997
-247.90129 358.07959 -128.24998
-247.90129 348.89804 -128.24995
-247.90129 339.71652 -128.24997
-247.90129 330.535 -128.24998
-247.90129 321.35345 -128.24994
-247.90129 312.17194 -128.24995
-247.90129 302.99042 -128.24997
-247.90129 293.8089 -128.24998
-247.90129 284.62735 -128.24995
-247.90129 275.44583 -128.24995
-247.90129 266.26431 -128.24997
-247.90129 257.08279 -128.24997
-247.90129 247.90126 -128.24998
-247.90129 238.7197 -128.24991
-247.90129 229.53818 -128.24992
-247.90129 220.35664 -128.24992
-247.90129 211.17514 -128.24994
-247.90129 201.99362 -128.24995
-247.90129 192.81209 -128.24995
-247.90129 183.63057 -128.24998
-247.90129 174.44905 -128.24998
-247.90129 165.26749 -128.24992
-247.90129 156.08595 -128.24992
-247.90129 146.90443 -128.24994
-247.90129 137.72292 -128.24995
-247.90129 128.5414 -128.24995
-247.90129 119.35988 -128.24997
-247.90129 110.17835 -128.24997
-247.90129 100.99679 -128.24991
-247.90129 91.815262 -128.24991
-247.90129 82.633743 -128.24992
-247.90129 73.452217 -128.24992
-247.90129 64.270699 -128.24994
-247.90129 55.089184 -128.24995
-247.90129 45.907658 -128.24997
-247.90129 36.726044 -128.24991
-247.90027 27.544464 -128.25449
-247.90027 18.362942 -128.2545
-247.90027 9.1814632 -128.25449
-247.90027 -2.1919041e-05 -128.25447
-247.90027 -9.1815386 -128.25449
-247.90027 -18.36302 -128.25447
-247.90027 -27.544495 -128.25444
-247.90027 -36.726021 -128.25446
-247.90027 -45.907497 -128.25444
-247.90027 -55.08897 -128.25453
-247.90027 -64.270447 -128.25452
-247.90027 -73.451927 -128.2545
-247.90027 -82.633446 -128.25452
-247.90027 -91.814926 -128.2545
-247.90027 -100.99641 -128.25449
-247.90027 -110.17793 -128.2545
-247.89925 -119.35891 -128.25903
-247.89824 -128.53986 -128.26353
-247.89824 -137.72125 -128.26358
-247.89824 -146.90269 -128.26355
-247.89824 -156.08406 -128.26358
-247.89824 -165.2655 -128.26353
-247.89824 -174.44695 -128.26361
-247.89824 -183.62837 -128.26357
-247.89824 -192.80977 -128.26361
-247.89824 -201.9912 -128.26357
-247.89824 -211.17259 -128.26361
-247.89824 -220.354 -128.26355
-247.89824 -229.53542 -128.26361
-247.89824 -238.71686 -128.26357
-247.89824 -247.8983 -128.26352
-247.89824 -257.07968 -128.26357
-247.89824 -266.26114 -128.26353
-247.89824 -275.4425 -128.26358
-243.57718 -279.66272 -147.58202
-238.96442 -283.21713 -168.20453
-237.98203 -290.86694 -172.59666
-238.76163 -300.66284 -169.11116
-237.29611 428.95834 -134.85956
-237.30481 419.84695 -134.81917
-237.31351 410.73489 -134.77879
-237.31447 401.6091 -134.77429
-237.31447 392.48157 -134.77431
-237.31447 383.35413 -134.77426
-237.31447 374.22659 -134.77428
-237.31447 365.09918 -134.77429
-237.31447 355.97165 -134.77431
-237.31447 346.84421 -134.77426
-237.31447 337.71667 -134.77428
-237.31447 328.58926 -134.77426
-237.31447 319.46173 -134.77431
-237.31447 310.33432 -134.77429
-237.31351 301.2056 -134.77878
-237.31351 292.07816 -134.77876
-237.31351 282.95071 -134.77873
-237.31351 273.82321 -134.77879
-237.31351 264.69586 -134.77878
-237.31351 255.56836 -134.77876
-237.31351 246.44095 -134.77878
-237.31351 237.31348 -134.77879
-237.31351 228.186 -134.77872
-237.31351 219.05859 -134.77873
-237.31351 209.93114 -134.77876
-237.31351 200.80371 -134.77878
-237.31351 191.67628 -134.77878
-237.31351 182.54883 -134.77882
-237.31351 173.42136 -134.77875
-237.31351 164.29395 -134.77875
-237.31351 155.16649 -134.77878
-237.31351 146.03906 -134.77878
-237.31351 136.91165 -134.77879
-237.31351 127.78414 -134.77875
-237.31351 118.65672 -134.77875
-237.31351 109.5293 -134.77876
-237.31351 100.40184 -134.77879
-237.31351 91.274429 -134.77881
-237.31351 82.146957 -134.77872
-237.31351 73.019493 -134.77875
-237.31351 63.892078 -134.77876
-237.31351 54.764656 -134.77876
-237.31351 45.637199 -134.77881
-237.31351 36.509727 -134.77873
-237.31351 27.382307 -134.77873
-237.31351 18.254852 -134.77876
-237.31351 9.1274319 -134.77878
-237.31351 -2.697669e-05 -134.77881
-237.31351 -9.1274996 -134.77873
-237.31351 -18.254913 -134.77873
-237.31351 -27.382372 -134.77876
-237.31351 -36.509792 -134.77878
-237.31351 -45.637211 -134.77879
-237.31351 -54.764725 -134.77873
-237.31351 -63.892143 -134.77875
-237.31351 -73.019562 -134.77875
-237.31351 -82.147018 -134.77878
-237.31351 -91.274445 -134.77879
-237.31351 -100.40192 -134.77872
-237.31255 -109.52892 -134.78322
-237.31158 -118.6558 -134.78773
-237.31059 -127.78264 -134.79225
-237.31059 -136.90999 -134.79221
-237.31059 -146.03735 -134.79219
-237.31059 -155.16464 -134.79224
-237.31059 -164.29202 -134.79221
-237.31059 -173.4193 -134.79225
-237.31059 -182.54665 -134.79221
-237.31059 -191.67398 -134.79227
-237.31059 -200.8013 -134.79222
-237.31059 -209.92867 -134.79219
-237.31059 -219.05598 -134.79225
-237.31059 -228.18332 -134.79221
-237.31059 -237.31061 -134.79225
-237.31059 -246.43799 -134.79222
-237.31059 -255.56532 -134.79219
-237.31059 -264.69263 -134.79222
-237.31059 -273.81998 -134.79221
-234.50575 -279.60306 -147.81432
-229.10388 -281.97403 -172.89374
-228.15451 -289.58078 -177.3013
-228.56541 -298.89328 -175.39362
-226.83412 426.44815 -141.30652
-226.84239 417.38995 -141.26662
-226.85065 408.33115 -141.2267
-226.85065 399.25714 -141.22667
-226.85065 390.18314 -141.22665
-226.85065 381.1091 -141.22664
-226.85065 372.03503 -141.22672
-226.85065 362.96103 -141.2267
-226.85065 353.88702 -141.22668
-226.85065 344.81293 -141.2267
-226.85065 335.73892 -141.22668
-226.85065 326.66492 -141.22665
-226.85065 317.59091 -141.22664
-226.85065 308.51685 -141.22672
-226.85065 299.44284 -141.2267
-226.85065 290.36884 -141.22667
-226.85065 281.2948 -141.22665
-226.85065 272.2207 -141.22668
-226.85065 263.1467 -141.22665
-226.85065 254.07274 -141.22668
-226.85065 244.99869 -141.22668
-226.85065 235.92467 -141.22667
-226.85065 226.85062 -141.22667
-226.85065 217.77663 -141.22667
-226.85065 208.70258 -141.22667
-226.85065 199.62856 -141.22664
-226.85065 190.5545 -141.22664
-226.85065 181.48045 -141.22665
-226.85065 172.40651 -141.22672
-226.85065 163.33244 -141.22673
-226.85065 154.25844 -141.2267
-226.85065 145.18439 -141.2267
-226.85065 136.11038 -141.22668
-226.85065 127.03633 -141.22668
-226.85065 117.96233 -141.22667
-226.85065 108.88828 -141.22668
-226.85065 99.814262 -141.22665
-226.85065 90.740211 -141.22665
-226.85065 81.666206 -141.22664
-226.85065 72.592155 -141.22664
-226.85065 63.51815 -141.22664
-226.85065 54.444149 -141.22672
-226.85065 45.370136 -141.22668
-226.85065 36.296085 -141.2267
-226.85065 27.222075 -141.22667
-226.85065 18.148031 -141.22668
-226.85065 9.0740242 -141.22667
-226.85065 -3.187422e-05 -141.22667
-226.85065 -9.0740814 -141.22667
-226.85065 -18.148092 -141.22665
-226.85065 -27.222139 -141.22667
-226.85065 -36.29615 -141.22664
-226.85065 -45.370201 -141.22664
-226.85065 -54.444157 -141.2267
-226.85065 -63.518204 -141.22672
-226.85065 -72.592224 -141.2267
-226.84973 -81.665901 -141.23111
-226.84973 -90.739922 -141.23109
-226.84882 -99.81353 -141.23557
-226.84792 -108.88701 -141.23996
-226.84792 -117.96092 -141.24001
-226.84792 -127.03489 -141.23994
-226.84792 -136.10878 -141.23997
-226.84792 -145.18269 -141.24001
-226.84792 -154.25661 -141.23993
-226.84792 -163.33052 -141.23996
-226.84792 -172.4044 -141.23997
-226.84792 -181.47833 -141.24002
-226.84792 -190.55229 -141.23997
-226.84792 -199.62616 -141.23997
-226.84792 -208.70009 -141.24002
-226.84792 -217.77405 -141.23996
-226.84792 -226.84793 -141.23999
-226.84792 -235.92181 -141.24001
-226.84792 -244.99579 -141.23996
-226.84792 -254.06967 -141.23997
-226.84792 -263.14355 -141.23999
-226.84792 -272.21756 -141.23996
-225.43912 -279.54453 -148.04224
-219.46873 -280.92004 -176.86964
-218.73169 -288.72586 -180.4285
-218.4894 -297.1456 -181.59845
-218.66423 -306.12997 -180.75418
-216.49474 423.96887 -147.6741
-216.50259 414.96323 -147.63466
-216.50955 405.95541 -147.59956
-216.50955 396.93417 -147.59953
-216.50955 387.91293 -147.59955
-216.50955 378.89169 -147.59956
-216.50955 369.87045 -147.59958
-216.50955 360.84921 -147.59959
-216.50955 351.82806 -147.59955
-216.50955 342.80679 -147.59956
-216.50955 333.78555 -147.59958
-216.50955 324.76431 -147.59959
-216.50955 315.74307 -147.59959
-216.50955 306.72186 -147.59961
-216.50955 297.70056 -147.59956
-216.50955 288.67941 -147.59953
-216.50955 279.65817 -147.59955
-216.50955 270.63693 -147.59955
-216.50955 261.61569 -147.59956
-216.50955 252.59445 -147.59958
-216.50955 243.57324 -147.59956
-216.50955 234.552 -147.59958
-216.50955 225.53073 -147.59953
-216.50955 216.50954 -147.59952
-216.50955 207.4883 -147.59953
-216.50955 198.46706 -147.59955
-216.5087 189.44508 -147.60396
-216.5087 180.42389 -147.60394
-216.5087 171.40268 -147.60393
-216.5087 162.38148 -147.60391
-216.5087 153.36028 -147.6039
-216.5087 144.33914 -147.60397
-216.5087 135.31793 -147.60396
-216.5087 126.29674 -147.60394
-216.5087 117.2755 -147.60396
-216.5087 108.25429 -147.60393
-216.5087 99.233086 -147.60391
-216.5087 90.211884 -147.6039
-216.5087 81.190742 -147.60397
-216.5087 72.16954 -147.60397
-216.5087 63.148342 -147.60396
-216.5087 54.127136 -147.60393
-216.5087 45.105934 -147.60391
-216.5087 36.084736 -147.6039
-216.5087 27.063591 -147.60397
-216.5087 18.042389 -147.60396
-216.5087 9.0211878 -147.60396
-216.5087 -1.4349426e-05 -147.60393
-216.5087 -9.0212126 -147.60391
-216.5087 -18.042418 -147.6039
-216.5087 -27.063654 -147.60391
-216.5087 -36.084808 -147.60397
-216.5087 -45.106007 -147.60396
-216.5087 -54.127205 -147.60394
-216.5087 -63.148403 -147.60393
-216.5087 -72.169609 -147.60393
-216.5078 -81.19046 -147.60832
-216.50694 -90.211266 -147.61269
-216.50607 -99.231972 -147.61711
-216.50607 -108.2531 -147.61707
-216.50607 -117.27416 -147.61707
-216.50607 -126.29523 -147.61708
-216.50607 -135.3163 -147.61711
-216.50607 -144.33742 -147.61703
-216.50607 -153.35854 -147.61708
-216.50607 -162.37959 -147.6171
-216.50607 -171.40065 -147.61711
-216.50607 -180.42178 -147.61705
-216.50607 -189.44284 -147.61707
-216.50607 -198.46391 -147.61708
-216.50607 -207.485 -147.61711
-216.50607 -216.50613 -147.61705
-216.50607 -225.52721 -147.61708
-216.50607 -234.54828 -147.6171
-216.50607 -243.56935 -147.61713
-216.50607 -252.59045 -147.61705
-216.50607 -261.61154 -147.61707
-216.50607 -270.63263 -147.61711
-216.37627 -279.48605 -148.26994
-210.04066 -280.05423 -180.1356
-208.52968 -286.72833 -187.73529
-208.52968 -295.41708 -187.73524
-208.52885 -304.10461 -187.73933
-206.46085 430.87479 -152.99213
-206.27487 421.51822 -153.96806
-206.28232 412.56458 -153.92906
-206.28728 403.60553 -153.90308
-206.28728 394.63647 -153.90306
-206.28728 385.66748 -153.90302
-206.28728 376.69846 -153.90309
-206.28728 367.72949 -153.90305
-206.28728 358.76041 -153.90303
-206.28728 349.79147 -153.90305
-206.28728 340.82242 -153.90306
-206.28728 331.85342 -153.90303
-206.28728 322.8844 -153.90306
-206.28728 313.91541 -153.90303
-206.28728 304.94638 -153.90306
-206.28728 295.97733 -153.90308
-206.28728 287.00836 -153.90303
-206.28728 278.03934 -153.90305
-206.28728 269.07034 -153.90303
-206.28728 260.10132 -153.90302
-206.28728 251.13234 -153.90306
-206.28728 242.1633 -153.90302
-206.28728 233.19426 -153.90305
-206.28728 224.22527 -153.90308
-206.28728 215.25626 -153.90308
-206.28728 206.28722 -153.90303
-206.28728 197.31822 -153.90306
-206.28728 188.34924 -153.90308
-206.28728 179.38019 -153.90302
-206.28728 170.41119 -153.90305
-206.28728 161.4422 -153.90308
-206.28728 152.47316 -153.90302
-206.28728 143.50417 -153.90303
-206.28728 134.53517 -153.90306
-206.28728 125.56613 -153.903
-206.28728 116.59715 -153.90303
-206.28728 107.62815 -153.90306
-206.28728 98.659065 -153.90302
-206.28728 89.690071 -153.90305
-206.28728 80.721077 -153.90306
-206.28728 71.752083 -153.90309
-206.28728 62.783039 -153.90303
-206.28728 53.814045 -153.90305
-206.28728 44.845055 -153.90308
-206.28728 35.876007 -153.90302
-206.28728 26.907013 -153.90305
-206.28728 17.938025 -153.90306
-206.28728 8.9689846 -153.90302
-206.28728 -6.8689546e-06 -153.90303
-206.28728 -8.9690027 -153.90306
-206.28728 -17.938053 -153.903
-206.28728 -26.907084 -153.90305
-206.28728 -35.876076 -153.90308
-206.28728 -44.845119 -153.90302
-206.28728 -53.814114 -153.90303
-206.28728 -62.7831 -153.90306
-206.28645 -71.751846 -153.90733
-206.28561 -80.720497 -153.91167
-206.28481 -89.689049 -153.91605
-206.28481 -98.657959 -153.91602
-206.28481 -107.62691 -153.91603
-206.28481 -116.59577 -153.91608
-206.28481 -125.56468 -153.91605
-206.28481 -134.5336 -153.91602
-206.28481 -143.50252 -153.916
-206.28481 -152.47137 -153.91605
-206.28481 -161.44032 -153.91605
-206.28481 -170.40923 -153.91602
-206.28481 -179.3781 -153.91608
-206.28481 -188.347 -153.91606
-206.28481 -197.31592 -153.91603
-206.28481 -206.28485 -153.91602
-206.28481 -215.25371 -153.91606
-206.28481 -224.22261 -153.91605
-206.28481 -233.19154 -153.91603
-206.28481 -242.16046 -153.916
-206.28481 -251.12932 -153.91605
-206.28481 -260.09827 -153.91605
-206.28481 -269.06717 -153.91602
-206.28481 -278.03601 -153.91606
-201.03612 -279.70245 -181.46269
-198.6913 -285.07886 -193.76891
-198.02246 -292.72891 -197.27916
-198.6844 -302.34589 -193.80507
-196.16469 427.99564 -160.23251
-196.17171 419.09412 -160.19395
-196.17874 410.19196 -160.1554
-196.18343 401.28424 -160.12968
-196.18343 392.36679 -160.12968
-196.18343 383.44937 -160.12971
-196.18343 374.53201 -160.12968
-196.18343 365.61456 -160.12968
-196.18343 356.69714 -160.12971
-196.18343 347.77969 -160.12971
-196.18343 338.86224 -160.1297
-196.18343 329.94479 -160.1297
-196.18343 321.02734 -160.12971
-196.18343 312.11002 -160.12967
-196.18343 303.19257 -160.1297
-196.18343 294.27515 -160.1297
-196.18343 285.3577 -160.1297
-196.18343 276.44025 -160.12968
-196.18343 267.52283 -160.12967
-196.18343 258.60541 -160.1297
-196.18343 249.68797 -160.1297
-196.18343 240.77057 -160.12968
-196.18343 231.85312 -160.12968
-196.18343 222.93568 -160.12971
-196.18343 214.01823 -160.12968
-196.18343 205.10083 -160.12967
-196.18343 196.1834 -160.12968
-196.18343 187.26596 -160.1297
-196.18343 178.34856 -160.12968
-196.18343 169.43112 -160.1297
-196.18343 160.51369 -160.12971
-196.18343 151.5963 -160.1297
-196.18343 142.67886 -160.12973
-196.18343 133.76141 -160.12973
-196.18343 124.84393 -160.12965
-196.18343 115.92654 -160.12965
-196.18343 107.0091 -160.12967
-196.18343 98.09166 -160.12967
-196.18265 89.173874 -160.13397
-196.18265 80.256477 -160.13396
-196.18265 71.339088 -160.13396
-196.18265 62.421734 -160.134
-196.18265 53.504341 -160.134
-196.18265 44.586952 -160.134
-196.18265 35.669548 -160.13397
-196.18265 26.752155 -160.13397
-196.18265 17.834755 -160.13396
-196.18265 8.9173603 -160.13394
-196.18265 -3.5863177e-05 -160.13393
-196.18265 -8.9173832 -160.134
-196.18265 -17.834778 -160.13399
-196.18265 -26.752216 -160.134
-196.18265 -35.669609 -160.13399
-196.18265 -44.587006 -160.13397
-196.18265 -53.504398 -160.13396
-196.18187 -62.42149 -160.13828
-196.18109 -71.338646 -160.14253
-196.18031 -80.255592 -160.14687
-196.18031 -89.172913 -160.1468
-196.18031 -98.090172 -160.14682
-196.18031 -107.00744 -160.14685
-196.18031 -115.92475 -160.14677
-196.18031 -124.84206 -160.14682
-196.18031 -133.75932 -160.14685
-196.18031 -142.67664 -160.14677
-196.18031 -151.5939 -160.1468
-196.18031 -160.51117 -160.14682
-196.18031 -169.42847 -160.14687
-196.18031 -178.34579 -160.1468
-196.18031 -187.26305 -160.14682
-196.18031 -196.18031 -160.14685
-196.18031 -205.09764 -160.14679
-196.18031 -214.01492 -160.14682
-196.18031 -222.93221 -160.14685
-196.18031 -231.84946 -160.14687
-196.18031 -240.76677 -160.14679
-196.18031 -249.68405 -160.14682
-196.18031 -258.60135 -160.14685
-196.18031 -267.51865 -160.14679
-196.18031 -276.43591 -160.14682
-192.34644 -279.77667 -181.18271
-189.08508 -283.62766 -199.07726
-188.32436 -291.04681 -203.25117
-188.95389 -300.60849 -199.79712
-186.17819 425.55011 -166.38255
-186.18483 416.69934 -166.34439
-186.19145 407.84793 -166.30632
-186.19514 398.98956 -166.28513
-186.19514 390.12317 -166.28513
-186.19514 381.25668 -166.28517
-186.19514 372.39029 -166.28514
-186.19514 363.52377 -166.28513
-186.1944 354.65594 -166.2894
-186.1944 345.78955 -166.28937
-186.1944 336.92319 -166.28941
-186.1944 328.05676 -166.28938
-186.1944 319.19037 -166.28937
-186.1944 310.32397 -166.28935
-186.1944 301.45761 -166.28938
-186.1944 292.59119 -166.28937
-186.1944 283.72479 -166.28934
-186.1944 274.8584 -166.28934
-186.1944 265.99197 -166.28937
-186.1944 257.12558 -166.28937
-186.1944 248.25919 -166.28935
-186.1944 239.39279 -166.28938
-186.1944 230.52641 -166.28937
-186.1944 221.65999 -166.28934
-186.1944 212.79355 -166.28935
-186.1944 203.92719 -166.28938
-186.1944 195.06078 -166.28937
-186.1944 186.19438 -166.28935
-186.1944 177.32799 -166.28934
-186.1944 168.46158 -166.28931
-186.1944 159.59518 -166.28941
-186.1944 150.72878 -166.28938
-186.1944 141.86238 -166.28938
-186.1944 132.99599 -166.28935
-186.1944 124.12959 -166.28935
-186.1944 115.26318 -166.28932
-186.1944 106.39674 -166.28934
-186.1944 97.530342 -166.28932
-186.1944 88.663994 -166.2894
-186.1944 79.797592 -166.28937
-186.1944 70.93119 -166.28935
-186.1944 62.064793 -166.28935
-186.1944 53.198345 -166.28935
-186.1944 44.331951 -166.28934
-186.1944 35.465549 -166.28932
-186.1944 26.599201 -166.2894
-186.1944 17.732794 -166.28937
-186.1944 8.8664026 -166.28937
-186.1944 -4.3215736e-05 -166.28937
-186.1944 -8.8664494 -166.28935
-186.1944 -17.732841 -166.28934
-186.1944 -26.599249 -166.28932
-186.1944 -35.465599 -166.28938
-186.1944 -44.331993 -166.28937
-186.19366 -53.198231 -166.29355
-186.19293 -62.064331 -166.29785
-186.19218 -70.930397 -166.30205
-186.19145 -79.796379 -166.30629
-186.19145 -88.662643 -166.30629
-186.19145 -97.528877 -166.30629
-186.19145 -106.39513 -166.3063
-186.19145 -115.26141 -166.30632
-186.19145 -124.12763 -166.3063
-186.19145 -132.9939 -166.30632
-186.19145 -141.86023 -166.30626
-186.19145 -150.72649 -166.30627
-186.19145 -159.59271 -166.30627
-186.19145 -168.45898 -166.30627
-186.19145 -177.32526 -166.3063
-186.19145 -186.19148 -166.30629
-186.19145 -195.05775 -166.3063
-186.19145 -203.924 -166.3063
-186.19145 -212.79025 -166.30632
-186.19145 -221.65649 -166.30632
-186.19145 -230.52275 -166.30632
-186.19145 -239.38907 -166.30626
-186.19145 -248.25533 -166.30626
-186.19145 -257.12158 -166.30626
-186.19145 -265.98785 -166.30629
-186.19145 -274.8541 -166.30629
-183.56616 -279.71991 -181.39679
-179.67493 -282.34631 -203.76419
-178.98662 -289.7879 -207.72055
-179.33386 -298.88986 -205.72453
-176.30447 423.13071 -172.46687
-176.31073 414.33017 -172.42923
-176.31697 405.52902 -172.39148
-176.31975 396.71939 -172.37479
-176.31975 387.90347 -172.37476
-176.31975 379.08743 -172.37473
-176.31975 370.27142 -172.37474
-176.31975 361.45541 -172.37474
-176.31975 352.6394 -172.37477
-176.31975 343.82349 -172.37474
-176.31975 335.00748 -172.37473
-176.31975 326.1915 -172.37476
-176.31975 317.37549 -172.37477
-176.31975 308.55954 -172.37473
-176.31975 299.74356 -172.37474
-176.31975 290.92755 -172.37477
-176.31975 282.11157 -172.37474
-176.31975 273.29556 -172.37476
-176.31975 264.47961 -172.37476
-176.31975 255.66359 -172.37476
-176.31975 246.84764 -172.37474
-176.31975 238.03163 -172.37477
-176.31975 229.21565 -172.37474
-176.31975 220.39966 -172.37476
-176.31975 211.58369 -172.37476
-176.31975 202.76768 -172.37477
-176.31975 193.95172 -172.37476
-176.31975 185.13568 -172.37473
-176.31975 176.31973 -172.37473
-176.31975 167.50372 -172.37473
-176.31975 158.68774 -172.37471
-176.31975 149.87175 -172.37474
-176.31975 141.05574 -172.37474
-176.31975 132.23978 -172.37473
-176.31975 123.42377 -172.37476
-176.31975 114.6078 -172.37474
-176.31975 105.79179 -172.37474
-176.31975 96.975838 -172.37474
-176.31975 88.159828 -172.37476
-176.31975 79.343857 -172.37473
-176.31975 70.527855 -172.37476
-176.31975 61.711887 -172.37474
-176.31975 52.895882 -172.37474
-176.31975 44.079922 -172.37474
-176.31975 35.263912 -172.37476
-176.31975 26.447947 -172.37474
-176.31975 17.631945 -172.37476
-176.31975 8.8159733 -172.37474
-176.31975 -3.0092502e-05 -172.37476
-176.31975 -8.8159933 -172.37476
-176.31905 -17.631931 -172.37889
-176.31905 -26.447897 -172.37888
-176.31905 -35.263813 -172.37895
-176.31836 -44.079609 -172.38313
-176.31766 -52.895336 -172.38727
-176.31697 -61.711006 -172.39146
-176.31697 -70.526833 -172.39149
-176.31697 -79.342667 -172.39151
-176.31697 -88.158508 -172.39153
-176.31697 -96.974388 -172.39148
-176.31697 -105.79022 -172.39149
-176.31697 -114.60606 -172.39151
-176.31697 -123.42189 -172.39154
-176.31697 -132.23778 -172.39146
-176.31697 -141.0536 -172.39149
-176.31697 -149.86945 -172.39151
-176.31697 -158.68532 -172.39145
-176.31697 -167.50114 -172.39146
-176.31697 -176.31697 -172.39148
-176.31697 -185.13284 -172.39151
-176.31697 -193.94872 -172.39145
-176.31697 -202.76454 -172.39146
-176.31697 -211.58037 -172.39149
-176.31697 -220.39621 -172.39151
-176.31697 -229.2121 -172.39145
-176.31697 -238.02795 -172.39148
-176.31697 -246.84378 -172.39149
-176.31697 -255.65962 -172.39153
-176.31697 -264.47549 -172.39146
-176.31697 -273.29135 -172.39148
-174.78946 -279.66321 -181.61081
-170.48421 -281.29898 -207.59534
-170.06686 -289.11368 -210.1142
-169.82323 -297.19067 -211.58467
-169.90953 -305.83719 -211.06383
-166.53719 429.4906 -178.51556
-166.54305 420.74033 -178.47827
-166.54892 411.98941 -178.44102
-166.55478 403.23788 -178.40376
-166.55675 394.47647 -178.39134
-166.55675 385.71033 -178.39131
-166.55675 376.94415 -178.39136
-166.55675 368.17807 -178.39133
-166.55675 359.41183 -178.39133
-166.55675 350.64575 -178.39131
-166.55675 341.87958 -178.39133
-166.55675 333.11349 -178.39133
-166.55675 324.34729 -178.39134
-166.55675 315.58115 -178.3913
-166.55675 306.815 -178.39136
-166.55675 298.04886 -178.39131
-166.55675 289.28275 -178.39133
-166.55675 280.5166 -178.39131
-166.55675 271.75046 -178.39134
-166.55675 262.98431 -178.39133
-166.55675 254.21815 -178.39133
-166.55609 245.45108 -178.39548
-166.55609 236.68494 -178.39548
-166.55609 227.91884 -178.39548
-166.55609 219.15274 -178.39546
-166.55609 210.38661 -178.39548
-166.55609 201.6205 -178.39545
-166.55609 192.85442 -178.39545
-166.55609 184.08827 -178.39546
-166.55609 175.32216 -178.39542
-166.55609 166.55603 -178.39546
-166.55609 157.78993 -178.39545
-166.55609 149.02385 -178.39546
-166.55609 140.25772 -178.39548
-166.55609 131.49162 -178.39548
-166.55609 122.72554 -178.39548
-166.55609 113.9594 -178.39549
-166.55609 105.19332 -178.39551
-166.55609 96.427177 -178.39542
-166.55609 87.661049 -178.39545
-166.55609 78.894951 -178.39543
-166.55609 70.128868 -178.39545
-166.55609 61.362732 -178.39546
-166.55609 52.596649 -178.39548
-166.55609 43.830513 -178.39549
-166.55609 35.064423 -178.39549
-166.55609 26.298338 -178.39549
-166.55609 17.532154 -178.39543
-166.55609 8.7660627 -178.39543
-166.55609 -2.0193327e-05 -178.39543
-166.55609 -8.7661562 -178.39546
-166.55609 -17.532248 -178.39545
-166.55544 -26.298265 -178.3996
-166.55478 -35.06419 -178.40379
-166.55414 -43.830086 -178.40784
-166.55348 -52.595837 -178.41205
-166.55348 -61.361847 -178.41199
-166.55348 -70.127808 -178.41202
-166.55348 -78.893768 -178.41205
-166.55348 -87.659775 -178.412
-166.55348 -96.425735 -178.41203
-166.55348 -105.1917 -178.41206
-166.55348 -113.95769 -178.41202
-166.55348 -122.72365 -178.41205
-166.55348 -131.48965 -178.41199
-166.55348 -140.25558 -178.412
-166.55348 -149.02155 -178.41203
-166.55348 -157.78755 -178.41197
-166.55348 -166.5535 -178.412
-166.55348 -175.31946 -178.41203
-166.55348 -184.08546 -178.41199
-166.55348 -192.85144 -178.41202
-166.55348 -201.61737 -178.41205
-166.55348 -210.38338 -178.41199
-166.55348 -219.14934 -178.41202
-166.55348 -227.9153 -178.41205
-166.55348 -236.68129 -178.41199
-166.55348 -245.44725 -178.41202
-166.55348 -254.21326 -178.41197
-166.55348 -262.97922 -178.412
-166.55348 -271.74518 -178.41203
-166.01631 -279.60645 -181.82478
-161.41222 -280.34756 -211.07552
-160.4201 -287.06763 -217.37846
-160.42073 -295.5119 -217.37462
-160.41951 -303.95282 -217.38229
-156.8858 427.078 -184.45897
-156.89131 418.3768 -184.4221
-156.89679 409.6749 -184.38528
-156.90169 400.97092 -184.35255
-156.90289 392.25726 -184.34433
-156.90289 383.54041 -184.34435
-156.90289 374.82355 -184.34433
-156.90289 366.10672 -184.34435
-156.90289 357.38989 -184.34436
-156.90289 348.67303 -184.34435
-156.90289 339.95633 -184.34435
-156.90289 331.23947 -184.34433
-156.90289 322.52261 -184.34435
-156.90289 313.80579 -184.34435
-156.90289 305.08893 -184.34435
-156.90289 296.3721 -184.34435
-156.90289 287.6553 -184.34435
-156.90289 278.93848 -184.34435
-156.90289 270.22162 -184.34433
-156.90289 261.50479 -184.34435
-156.90289 252.78799 -184.34433
-156.90289 244.07117 -184.34436
-156.90289 235.35432 -184.34438
-156.90289 226.63748 -184.34436
-156.90289 217.92068 -184.34435
-156.90289 209.20384 -184.34436
-156.90289 200.487 -184.34435
-156.90289 191.77016 -184.34435
-156.90289 183.05336 -184.34433
-156.90289 174.33652 -184.34433
-156.90289 165.61967 -184.34433
-156.90289 156.90291 -184.34436
-156.90289 148.18604 -184.34431
-156.90289 139.46922 -184.34436
-156.90289 130.75237 -184.34431
-156.90289 122.03559 -184.34435
-156.90289 113.31872 -184.3443
-156.90289 104.6019 -184.34435
-156.90289 95.885086 -184.34439
-156.90289 87.168259 -184.34431
-156.90289 78.451447 -184.34438
-156.90289 69.734581 -184.34433
-156.90289 61.017769 -184.34438
-156.90289 52.300941 -184.34431
-156.90289 43.584122 -184.34435
-156.90289 34.867256 -184.34431
-156.90289 26.15044 -184.34436
-156.90289 17.433615 -184.34428
-156.90289 8.7167988 -184.34435
-156.90289 -1.052376e-05 -184.34439
-156.90289 -8.7168818 -184.34435
-156.90228 -17.433638 -184.34842
-156.90169 -26.150297 -184.35255
-156.90108 -34.86692 -184.35664
-156.90045 -43.5835 -184.36073
-156.90045 -52.300194 -184.36069
-156.90045 -61.01683 -184.36073
-156.90045 -69.733574 -184.36073
-156.90045 -78.450264 -184.3607
-156.90045 -87.166954 -184.36067
-156.90045 -95.883644 -184.36075
-156.90045 -104.60033 -184.36072
-156.90045 -113.31702 -184.36067
-156.90045 -122.03371 -184.36076
-156.90045 -130.7504 -184.36072
-156.90045 -139.4671 -184.3607
-156.90045 -148.18384 -184.36069
-156.90045 -156.90047 -184.36073
-156.90045 -165.61717 -184.3607
-156.90045 -174.33391 -184.3607
-156.90045 -183.05054 -184.36075
-156.90045 -191.76727 -184.36073
-156.90045 -200.48396 -184.3607
-156.90045 -209.20067 -184.36069
-156.90045 -217.91733 -184.36073
-156.90045 -226.63403 -184.3607
-156.90045 -235.35072 -184.36069
-156.90045 -244.06741 -184.36075
-156.90045 -252.7841 -184.36073
-156.90045 -261.50082 -184.3607
-156.90045 -270.21753 -184.36067
-156.90045 -278.9342 -184.36075
-152.68582 -279.92407 -212.62462
-151.12271 -285.45404 -223.10716
-150.61926 -292.87079 -226.48338
-151.12271 -302.24548 -223.10715
-147.34169 424.69067 -190.34004
-147.34682 416.03806 -190.3036
-147.35194 407.3848 -190.2672
-147.35707 398.73093 -190.23076
-147.35765 390.06433 -190.22672
-147.35765 381.39627 -190.2267
-147.35765 372.72812 -190.22672
-147.35765 364.06006 -190.22672
-147.35765 355.39191 -190.22675
-147.35765 346.72385 -190.2267
-147.35765 338.05573 -190.22675
-147.35765 329.38766 -190.22672
-147.35765 320.7196 -190.22668
-147.35765 312.05145 -190.22673
-147.35765 303.38339 -190.2267
-147.35765 294.71524 -190.2267
-147.35765 286.04718 -190.22672
-147.35765 277.37906 -190.22668
-147.35765 268.711 -190.22673
-147.35765 260.04288 -190.22673
-147.35765 251.37477 -190.2267
-147.35765 242.7067 -190.22675
-147.35765 234.03856 -190.22672
-147.35765 225.37045 -190.2267
-147.35765 216.70241 -190.2267
-147.35765 208.0343 -190.22668
-147.35765 199.36623 -190.22673
-147.35765 190.6981 -190.2267
-147.35765 182.03 -190.2267
-147.35765 173.36191 -190.22673
-147.35765 164.6938 -190.22672
-147.35765 156.02571 -190.22675
-147.35765 147.35765 -190.22672
-147.35707 138.689 -190.23076
-147.35707 130.02092 -190.23071
-147.35707 121.35286 -190.23079
-147.35707 112.68479 -190.23076
-147.35707 104.01672 -190.23071
-147.35707 95.348656 -190.23079
-147.35707 86.680595 -190.23076
-147.35707 78.012566 -190.23079
-147.35707 69.344498 -190.23076
-147.35707 60.676384 -190.23074
-147.35707 52.008366 -190.23079
-147.35707 43.340298 -190.23076
-147.35707 34.67218 -190.23073
-147.35707 26.004162 -190.23079
-147.35707 17.336096 -190.23074
-147.35707 8.6680679 -190.23079
-147.35707 -3.7462509e-05 -190.23077
-147.35651 -8.6680889 -190.23479
-147.35593 -17.336 -190.23885
-147.35536 -26.003925 -190.24289
-147.35478 -34.671703 -190.24696
-147.35478 -43.339653 -190.24696
-147.35478 -52.007595 -190.24695
-147.35478 -60.675529 -190.24695
-147.35478 -69.34346 -190.24693
-147.35478 -78.011398 -190.24693
-147.35478 -86.679337 -190.24692
-147.35478 -95.347282 -190.24692
-147.35478 -104.01521 -190.24692
-147.35478 -112.68311 -190.24699
-147.35478 -121.35104 -190.24698
-147.35478 -130.01894 -190.24695
-147.35478 -138.68687 -190.24695
-147.35478 -147.35483 -190.24695
-147.35478 -156.02275 -190.24693
-147.35478 -164.69069 -190.24693
-147.35478 -173.35863 -190.24692
-147.35478 -182.02657 -190.24692
-147.35478 -190.69446 -190.24699
-147.35478 -199.36237 -190.24698
-147.35478 -208.0303 -190.24696
-147.35478 -216.69824 -190.24695
-147.35478 -225.36618 -190.24695
-147.35478 -234.03412 -190.24695
-147.35478 -242.70206 -190.24693
-147.35478 -251.36998 -190.24692
-147.35478 -260.03793 -190.24692
-147.35478 -268.70587 -190.2469
-147.35478 -277.37375 -190.24698
-144.18309 -279.88486 -212.76804
-142.00543 -284.01093 -228.23074
-141.44801 -291.21649 -232.18886
-141.92924 -300.55606 -228.7718
-137.90419 422.33151 -196.15176
-137.90897 413.72693 -196.11574
-137.91374 405.12158 -196.07974
-137.91798 396.51416 -196.04773
-137.91798 387.89432 -196.04767
-137.91798 379.27441 -196.04768
-137.91798 370.65457 -196.04765
-137.91798 362.03464 -196.04768
-137.91798 353.41483 -196.04765
-137.91798 344.79492 -196.04773
-137.91798 336.17511 -196.0477
-137.91798 327.55518 -196.04771
-137.91798 318.93536 -196.0477
-137.91798 310.31543 -196.04771
-137.91798 301.69559 -196.04768
-137.91798 293.07571 -196.04767
-137.91798 284.45584 -196.04767
-137.91798 275.83594 -196.04765
-137.91798 267.21609 -196.04765
-137.91798 258.59622 -196.04765
-137.91798 249.97633 -196.04765
-137.91798 241.35649 -196.0477
-137.91798 232.73657 -196.04771
-137.91798 224.1167 -196.04771
-137.91798 215.49683 -196.04771
-137.91798 206.87694 -196.04768
-137.91798 198.25706 -196.04768
-137.91798 189.63719 -196.04768
-137.91798 181.0173 -196.04768
-137.91798 172.39743 -196.04767
-137.91798 163.77756 -196.04767
-137.91798 155.15768 -196.04767
-137.91798 146.53781 -196.04767
-137.91798 137.91794 -196.04767
-137.91798 129.29807 -196.04767
-137.91798 120.67818 -196.04765
-137.91798 112.05831 -196.04765
-137.91798 103.43843 -196.04765
-137.91798 94.818558 -196.04765
-137.91798 86.19873 -196.04773
-137.91798 77.578857 -196.04773
-137.91798 68.958984 -196.04773
-137.91798 60.3391 -196.0477
-137.91798 51.719223 -196.0477
-137.91798 43.09935 -196.0477
-137.91798 34.479473 -196.0477
-137.91798 25.859598 -196.0477
-137.91798 17.239727 -196.0477
-137.91747 8.6198177 -196.05165
-137.91692 -3.5406927e-05 -196.05571
-137.9164 -8.619812 -196.05971
-137.91586 -17.239542 -196.06369
-137.91586 -25.859247 -196.06369
-137.91586 -34.479 -196.06371
-137.91586 -43.098736 -196.06374
-137.91586 -51.718494 -196.06366
-137.91586 -60.338226 -196.06369
-137.91586 -68.957977 -196.06372
-137.91586 -77.577675 -196.06372
-137.91586 -86.197472 -196.06366
-137.91586 -94.817215 -196.06369
-137.91586 -103.43692 -196.06369
-137.91586 -112.05666 -196.06372
-137.91586 -120.67646 -196.06366
-137.91586 -129.29616 -196.06366
-137.91586 -137.91591 -196.06369
-137.91586 -146.53564 -196.06372
-137.91586 -155.15535 -196.06372
-137.91586 -163.77513 -196.06366
-137.91586 -172.39487 -196.06367
-137.91586 -181.01459 -196.06369
-137.91586 -189.63432 -196.06372
-137.91586 -198.2541 -196.06366
-137.91586 -206.87381 -196.06366
-137.91586 -215.49358 -196.06371
-137.91586 -224.11328 -196.06371
-137.91586 -232.73308 -196.06364
-137.91586 -241.35281 -196.06367
-137.91586 -249.97255 -196.06369
-137.91586 -258.59225 -196.06371
-137.91586 -267.21201 -196.06372
-137.91586 -275.83179 -196.06366
-135.67502 -279.82974 -212.96957
-133.03416 -282.69763 -232.8933
-132.56386 -289.98343 -236.4415
-132.83797 -298.88544 -234.37354
-133.15178 -307.91348 -232.006
-128.56606 428.55347 -201.93884
-128.57048 419.99689 -201.9032
-128.57491 411.43967 -201.86758
-128.57935 402.8819 -201.83199
-128.58327 394.32199 -201.80026
-128.58327 385.74982 -201.80025
-128.58327 377.17758 -201.80029
-128.58327 368.60532 -201.80029
-128.58327 360.03317 -201.80029
-128.58327 351.46091 -201.80028
-128.58327 342.88873 -201.80025
-128.58327 334.3165 -201.80029
-128.58327 325.74423 -201.80029
-128.58327 317.17206 -201.80028
-128.58327 308.59979 -201.80028
-128.58327 300.02762 -201.80029
-128.58327 291.45538 -201.80028
-128.58327 282.88318 -201.80026
-128.58327 274.31097 -201.80028
-128.58327 265.73871 -201.80026
-128.58327 257.1665 -201.80028
-128.58327 248.59431 -201.80031
-128.58327 240.02209 -201.80028
-128.58327 231.44987 -201.80026
-128.58327 222.87762 -201.80028
-128.58327 214.3054 -201.80028
-128.58327 205.73322 -201.80029
-128.58327 197.16098 -201.80026
-128.58327 188.58879 -201.80028
-128.58327 180.01657 -201.80025
-128.58327 171.44432 -201.80029
-128.58327 162.87212 -201.80029
-128.58327 154.2999 -201.80028
-128.58327 145.72769 -201.80028
-128.58327 137.15549 -201.80028
-128.58327 128.58325 -201.80032
-128.58327 120.011 -201.80026
-128.58327 111.4388 -201.80026
-128.58327 102.8666 -201.80028
-128.58327 94.294395 -201.80029
-128.58327 85.722153 -201.80032
-128.58327 77.149902 -201.80025
-128.58327 68.577705 -201.80028
-128.58327 60.005505 -201.80028
-128.58327 51.433308 -201.80029
-128.58278 42.860905 -201.80426
-128.58278 34.288742 -201.80424
-128.58278 25.716539 -201.80428
-128.58278 17.144339 -201.80428
-128.58229 8.5721016 -201.80817
-128.58179 6.659463e-06 -201.81218
-128.5813 -8.5721512 -201.8161
-128.58081 -17.144167 -201.82005
-128.58081 -25.71619 -201.82008
-128.58081 -34.288219 -201.8201
-128.58081 -42.860298 -201.82004
-128.58081 -51.432362 -201.82008
-128.58081 -60.004383 -201.8201
-128.58081 -68.576462 -201.82002
-128.58081 -77.148537 -201.82008
-128.58081 -85.720566 -201.82008
-128.58081 -94.292641 -201.82002
-128.58081 -102.86467 -201.82005
-128.58081 -111.43673 -201.82008
-128.58081 -120.00877 -201.8201
-128.58081 -128.58084 -201.82004
-128.58081 -137.15291 -201.82008
-128.58081 -145.72493 -201.8201
-128.58081 -154.29701 -201.82004
-128.58081 -162.86903 -201.82005
-128.58081 -171.44109 -201.82008
-128.58081 -180.01318 -201.82002
-128.58081 -188.58524 -201.82005
-128.58081 -197.15726 -201.82008
-128.58081 -205.72931 -201.8201
-128.58081 -214.30139 -201.82004
-128.58081 -222.87344 -201.82007
-128.58081 -231.44547 -201.82008
-128.58081 -240.01756 -201.82004
-128.58081 -248.58961 -201.82007
-128.58081 -257.16165 -201.82008
-128.58081 -265.73373 -201.82004
-128.58081 -274.30576 -201.82005
-127.1703 -279.77472 -213.17096
-124.26299 -281.66284 -236.56717
-123.97512 -289.27533 -238.8838
-123.84766 -297.23441 -239.90956
-123.89422 -305.6058 -239.53482
-119.33577 426.19916 -207.62276
-119.33985 417.68948 -207.58751
-119.34393 409.17923 -207.55226
-119.34803 400.66833 -207.51704
-119.3512 392.1539 -207.48965
-119.3512 383.62885 -207.48964
-119.3512 375.10379 -207.48959
-119.3512 366.57864 -207.48965
-119.3512 358.05356 -207.48961
-119.3512 349.52853 -207.48961
-119.3512 341.00339 -207.48965
-119.3512 332.4783 -207.48961
-119.3512 323.95325 -207.48962
-119.3512 315.42813 -207.48965
-119.3512 306.90308 -207.48965
-119.35075 298.37686 -207.49355
-119.35075 289.85184 -207.49356
-119.35075 281.32675 -207.49352
-119.35075 272.8017 -207.49352
-119.35075 264.27667 -207.49353
-119.35075 255.75156 -207.49355
-119.35075 247.22652 -207.49355
-119.35075 238.70148 -207.49356
-119.35075 230.17642 -207.49358
-119.35075 221.65135 -207.49353
-119.35075 213.12631 -207.49353
-119.35075 204.60126 -207.49355
-119.35075 196.07622 -207.49356
-119.35075 187.55115 -207.49352
-119.35075 179.02609 -207.49352
-119.35075 170.50105 -207.49353
-119.35075 161.97601 -207.49355
-119.35075 153.45094 -207.49353
-119.35075 144.9259 -207.49352
-119.35075 136.40085 -207.49353
-119.35075 127.87581 -207.49355
-119.35075 119.35072 -207.49358
-119.35075 110.82563 -207.4935
-119.35075 102.30059 -207.49352
-119.35075 93.775543 -207.49353
-119.35075 85.250496 -207.49353
-119.35075 76.725456 -207.49355
-119.35075 68.200409 -207.49355
-119.35075 59.675365 -207.49356
-119.35075 51.150322 -207.49358
-119.35075 42.625225 -207.49348
-119.35075 34.100174 -207.4935
-119.3503 25.575012 -207.49742
-119.34985 17.049984 -207.50139
-119.34939 8.5248938 -207.50526
-119.34893 -5.841826e-05 -207.50916
-119.34849 -8.5249157 -207.51312
-119.34849 -17.049786 -207.51314
-119.34849 -25.574705 -207.51308
-119.34849 -34.09959 -207.51309
-119.34849 -42.624493 -207.51314
-119.34849 -51.149361 -207.51314
-119.34849 -59.674282 -207.51308
-119.34849 -68.199165 -207.51309
-119.34849 -76.724037 -207.51311
-119.34849 -85.24894 -207.51315
-119.34849 -93.773865 -207.51308
-119.34849 -102.29873 -207.51309
-119.34849 -110.82362 -207.51311
-119.34849 -119.34848 -207.51312
-119.34849 -127.87344 -207.51309
-119.34849 -136.39832 -207.51309
-119.34849 -144.92319 -207.51312
-119.34849 -153.44806 -207.51312
-119.34849 -161.97298 -207.51306
-119.34849 -170.49788 -207.51309
-119.34849 -179.02274 -207.51311
-119.34849 -187.54762 -207.51312
-119.34849 -196.07256 -207.51306
-119.34849 -204.59744 -207.51309
-119.34849 -213.12231 -207.51311
-119.34849 -221.6472 -207.51314
-119.34849 -230.17213 -207.51308
-119.34849 -238.69702 -207.51309
-119.34849 -247.22188 -207.51309
-119.34849 -255.74678 -207.51314
-119.34849 -264.2717 -207.51306
-119.34849 -272.79657 -207.51308
-118.66893 -279.71967 -213.37231
-115.59328 -280.72656 -239.89124
-114.95528 -287.38821 -245.39214
-114.9557 -295.6004 -245.38844
-114.95528 -303.81042 -245.39209
-110.20634 423.87054 -213.24451
-110.2101 415.40723 -213.2097
-110.21384 406.94342 -213.1748
-110.21761 398.47897 -213.14001
-110.21968 390.00812 -213.12061
-110.21968 381.52963 -213.12065
-110.21968 373.05124 -213.12064
-110.21968 364.57281 -213.12061
-110.21968 356.09433 -213.12065
-110.21968 347.61591 -213.12061
-110.21968 339.13748 -213.12057
-110.21968 330.659 -213.12062
-110.21968 322.18057 -213.12062
-110.21968 313.70218 -213.12062
-110.21968 305.22372 -213.12064
-110.21968 296.7453 -213.12065
-110.21968 288.26688 -213.12062
-110.21968 279.78839 -213.12061
-110.21968 271.30994 -213.12061
-110.21968 262.83154 -213.12059
-110.21968 254.35309 -213.12062
-110.21968 245.87465 -213.12064
-110.21968 237.39624 -213.12062
-110.21968 228.9178 -213.12064
-110.21968 220.43938 -213.12061
-110.21968 211.96091 -213.12061
-110.21968 203.48247 -213.12062
-110.21968 195.00404 -213.12059
-110.21968 186.52559 -213.12061
-110.21968 178.04715 -213.12062
-110.21968 169.56874 -213.12062
-110.21968 161.0903 -213.12064
-110.21968 152.61182 -213.12061
-110.21968 144.13341 -213.12059
-110.21968 135.65495 -213.12061
-110.21968 127.17651 -213.12062
-110.21968 118.6981 -213.12061
-110.21968 110.21965 -213.12062
-110.21968 101.74121 -213.12064
-110.21968 93.262802 -213.12062
-110.21968 84.784348 -213.12064
-110.21968 76.305939 -213.12062
-110.21968 67.827499 -213.12064
-110.21968 59.349045 -213.12065
-110.21968 50.870586 -213.12056
-110.21928 42.392025 -213.1245
-110.21885 33.913483 -213.12839
-110.21843 25.434998 -213.13228
-110.21801 16.956596 -213.13611
-110.21761 8.4782763 -213.13998
-110.21761 3.4608602e-06 -213.14001
-110.21761 -8.4783239 -213.13995
-110.21761 -16.956596 -213.13997
-110.21761 -25.434868 -213.13998
-110.21761 -33.913109 -213.13998
-110.21761 -42.391396 -213.14
-110.21761 -50.869709 -213.13994
-110.21761 -59.347988 -213.13995
-110.21761 -67.826263 -213.13998
-110.21761 -76.304497 -213.13997
-110.21761 -84.782776 -213.14
-110.21761 -93.261101 -213.13994
-110.21761 -101.73938 -213.13995
-110.21761 -110.21765 -213.13997
-110.21761 -118.69588 -213.13997
-110.21761 -127.17416 -213.13998
-110.21761 -135.65244 -213.14
-110.21761 -144.13077 -213.13994
-110.21761 -152.60904 -213.13997
-110.21761 -161.0873 -213.13997
-110.21761 -169.56557 -213.14
-110.21761 -178.04382 -213.14
-110.21761 -186.52216 -213.13994
-110.21761 -195.00041 -213.13994
-110.21761 -203.47868 -213.13997
-110.21761 -211.95697 -213.13998
-110.21761 -220.43523 -213.14
-110.21761 -228.91354 -213.13994
-110.21761 -237.3918 -213.13994
-110.21761 -245.87009 -213.13997
-110.21761 -254.34833 -213.13997
-110.21761 -262.8266 -213.13998
-110.21761 -271.30487 -213.14
-110.17091 -279.66467 -213.5735
-107.11004 -280.13397 -241.99504
-106.1606 -285.81705 -250.81102
-105.80772 -293.00604 -254.08762
-106.1606 -302.14944 -250.81104
-101.17575 421.56558 -218.80908
-101.17918 413.14832 -218.77457
-101.18261 404.73041 -218.74011
-101.18604 396.31192 -218.70566
-101.18793 387.88705 -218.68651
-101.18793 379.45474 -218.68648
-101.18793 371.02243 -218.68649
-101.18793 362.59009 -218.68646
-101.18793 354.15781 -218.68648
-101.18793 345.72546 -218.68645
-101.18793 337.29309 -218.68652
-101.18793 328.86075 -218.68649
-101.18793 320.42844 -218.68651
-101.18793 311.99609 -218.68649
-101.18793 303.56381 -218.68651
-101.18793 295.13147 -218.68648
-101.18793 286.69916 -218.68649
-101.18793 278.26682 -218.68648
-101.18793 269.83447 -218.68649
-101.18793 261.40213 -218.68649
-101.18793 252.96982 -218.68648
-101.18793 244.53751 -218.68648
-101.18793 236.10515 -218.68649
-101.18793 227.67282 -218.68649
-101.18793 219.24051 -218.68649
-101.18793 210.8082 -218.68651
-101.18793 202.37587 -218.68648
-101.18756 193.94279 -218.69028
-101.18756 185.51048 -218.69031
-101.18756 177.07819 -218.69032
-101.18756 168.64592 -218.69032
-101.18756 160.21362 -218.69034
-101.18756 151.78128 -218.69031
-101.18756 143.34903 -218.69031
-101.18756 134.91672 -218.69032
-101.18756 126.48441 -218.69034
-101.18756 118.05215 -218.69034
-101.18756 109.61981 -218.69031
-101.18756 101.18757 -218.69034
-101.18756 92.755234 -218.69031
-101.18756 84.322906 -218.69029
-101.18756 75.890671 -218.69032
-101.18756 67.458336 -218.69029
-101.18756 59.026058 -218.69035
-101.18756 50.593758 -218.69029
-101.18718 42.161263 -218.69412
-101.18679 33.728889 -218.69795
-101.18642 25.296558 -218.70177
-101.18604 16.864321 -218.70564
-101.18565 8.4321203 -218.70947
-101.18565 -3.6996775e-05 -218.70946
-101.18565 -8.4321938 -218.70944
-101.18565 -16.864304 -218.70952
-101.18565 -25.296415 -218.70947
-101.18565 -33.728577 -218.70946
-101.18565 -42.160736 -218.70943
-101.18565 -50.592846 -218.7095
-101.18565 -59.025002 -218.70947
-101.18565 -67.457169 -218.70946
-101.18565 -75.889275 -218.70943
-101.18565 -84.321381 -218.70947
-101.18565 -92.753548 -218.70947
-101.18565 -101.18569 -218.70944
-101.18565 -109.61781 -218.70952
-101.18565 -118.04996 -218.70949
-101.18565 -126.48209 -218.70944
-101.18565 -134.91425 -218.70943
-101.18565 -143.34636 -218.7095
-101.18565 -151.7785 -218.70947
-101.18565 -160.21065 -218.70944
-101.18565 -168.64281 -218.70943
-101.18565 -177.07492 -218.70949
-101.18565 -185.50706 -218.70946
-101.18565 -193.93922 -218.70944
-101.18565 -202.37131 -218.7095
-101.18565 -210.80345 -218.70947
-101.18565 -219.23561 -218.70946
-101.18565 -227.66779 -218.70944
-101.18565 -236.09987 -218.70949
-101.18565 -244.53201 -218.70946
-101.18565 -252.96417 -218.70944
-101.18565 -261.3963 -218.70941
-101.18565 -269.82843 -218.70949
-101.18565 -278.26059 -218.70947
-98.81884 -279.98672 -242.51781
-97.499718 -284.37421 -255.78705
-97.126015 -291.37808 -259.54626
-97.461899 -300.50757 -256.16748
-92.243195 419.28723 -224.30962
-92.2463 410.91528 -224.27553
-92.249405 402.54288 -224.24141
-92.25251 394.1698 -224.20731
-92.253555 385.7876 -224.19591
-92.253555 377.40091 -224.19591
-92.253555 369.01422 -224.19592
-92.253555 360.62744 -224.19597
-92.253555 352.24075 -224.19597
-92.253555 343.8541 -224.19598
-92.253555 335.46741 -224.19597
-92.253555 327.08072 -224.19597
-92.253555 318.69409 -224.19595
-92.253555 310.3074 -224.19595
-92.253555 301.92068 -224.19592
-92.253555 293.534 -224.19591
-92.253555 285.14731 -224.19591
-92.253555 276.76065 -224.19592
-92.253555 268.37396 -224.19591
-92.253555 259.98724 -224.19595
-92.253555 251.60056 -224.19595
-92.253555 243.21387 -224.19594
-92.253555 234.82719 -224.19595
-92.253555 226.44051 -224.19595
-92.253555 218.05382 -224.19595
-92.253555 209.66714 -224.19597
-92.253555 201.28046 -224.19595
-92.253555 192.89377 -224.19595
-92.253555 184.50706 -224.19592
-92.253555 176.12038 -224.19591
-92.253555 167.7337 -224.19592
-92.253555 159.34702 -224.19592
-92.253555 150.96033 -224.19591
-92.253555 142.57365 -224.19594
-92.253555 134.18697 -224.19592
-92.253555 125.80029 -224.19594
-92.253555 117.4136 -224.19594
-92.253555 109.02692 -224.19594
-92.253555 100.64023 -224.19594
-92.253555 92.253548 -224.19594
-92.253555 83.866867 -224.19594
-92.253555 75.480133 -224.19597
-92.253555 67.09346 -224.19597
-92.253204 58.706554 -224.19972
