# .PCD v0.7 - Point Cloud Data file format
VERSION 0.7
FIELDS x y z
SIZE 4 4 4
TYPE F F F
COUNT 1 1 1
WIDTH 1497
HEIGHT 1
VIEWPOINT 0 0 0 1 0 0 0
POINTS 1497
DATA ascii
0.1546219 0.25827906 1.8140001
0.16516039 0.25706974 1.8140001
0.19349334 0.25914288 1.8140001
-0.23150097 0.2625981 1.8140001
-0.22459048 0.2625981 1.8140001
-0.21422477 0.26490161 1.8140001
-0.2073143 0.26605335 1.8140001
-0.19349332 0.26835683 1.8140001
-0.18312763 0.26950857 1.8140001
-0.17967239 0.26950857 1.8140001
-0.15203048 0.26950857 1.8140001
-0.14512001 0.26950857 1.8140001
-0.13475429 0.26950857 1.8140001
-0.12438858 0.26950857 1.8140001
-0.053556193 0.26950857 1.8140001
-0.041462857 0.26950857 1.8140001
-0.024186667 0.26605335 1.8140001
-0.013820953 0.26605335 1.8140001
-0.0051828572 0.26605335 1.8140001
0.0034552382 0.26605335 1.8140001
0.013820953 0.26605335 1.8140001
0.024186667 0.26605335 1.8140001
0.031097144 0.26605335 1.8140001
0.09501905 0.26605335 1.8140001
0.10365715 0.26374987 1.8140001
0.11171937 0.26490161 1.8140001
0.12266096 0.2625981 1.8140001
0.14857525 0.2625981 1.8140001
0.15548573 0.2625981 1.8140001
-0.17448953 0.27296382 1.8140001
-0.16585143 0.27296382 1.8140001
-0.15721333 0.27296382 1.8140001
-0.12438858 0.27296382 1.8140001
-0.11402286 0.27296382 1.8140001
-0.10365714 0.27296382 1.8140001
-0.09559492 0.27411556 1.8140001
-0.084653333 0.27296382 1.8140001
-0.076015241 0.27296382 1.8140001
-0.066340573 0.27434593 1.8140001
-0.055283815 0.27296382 1.8140001
-0.048373334 0.27296382 1.8140001
-0.062194288 0.63921905 1.8140001
-0.051828574 0.63921905 1.8140001
-0.048373334 0.63921905 1.8140001
-0.072560005 0.64958477 1.8140001
-0.064785719 0.64526576 1.8140001
-0.055283815 0.64440197 1.8140001
-0.044918101 0.64843303 1.8140001
-0.038007621 0.65304005 1.8140001
0.2655597 0.6851244 1.8140001
0.27411556 0.68644065 1.8140001
0.26605332 0.69565463 1.8140001
0.27296382 0.69795811 1.8140001
0.25568762 0.7071721 1.8140001
0.26562142 0.70443672 1.8140001
0.25626349 0.71523428 1.8140001
0.26374987 0.71753788 1.8140001
0.25741524 0.72387236 1.8140001
0.26432574 0.7256 1.8140001
0.26704055 0.73645931 1.8140001
0.27296382 0.73596573 1.8140001
0.24704954 0.74978667 1.8140001
0.25568762 0.74575561 1.8140001
0.26432574 0.74287623 1.8140001
0.24532191 0.75669718 1.8140001
-0.20150858 0.22930287 1.8240001
-0.20324573 0.2345143 1.8240001
-0.2432 0.25709715 1.8240001
-0.23625143 0.25362286 1.8240002
-0.22791314 0.25431773 1.8240001
0.12854858 0.25709715 1.8240001
0.15808001 0.25536001 1.8240001
0.16329144 0.25362286 1.8240001
-0.21540572 0.26288763 1.824
-0.20324573 0.26752001 1.8240001
-0.19282287 0.26752001 1.8240001
-0.18413715 0.26752001 1.824
-0.17718858 0.26752001 1.8240001
-0.1216 0.26752001 1.8240001
-0.055588573 0.26752001 1.8240001
-0.026057143 0.26578286 1.8240001
-0.013897143 0.26404572 1.8240001
-0.0052114287 0.26404572 1.8240001
0.0034742858 0.26404572 1.824
0.013897143 0.26404572 1.8240001
0.025014859 0.26404572 1.8240001
0.032426666 0.26288763 1.824
0.086857148 0.2623086 1.8240001
0.092937142 0.2623086 1.8240001
0.10422858 0.26172957 1.824
0.11552 0.2623086 1.8240001
0.12854858 0.26057145 1.8240001
-0.18761143 0.27099431 1.8240001
-0.17371428 0.27099431 1.824
-0.16502857 0.27099431 1.8240001
-0.15808001 0.27099431 1.8240001
-0.1250743 0.27099431 1.8240001
-0.11465143 0.27099431 1.824
-0.10422858 0.27446857 1.8240001
-0.062537149 0.27099431 1.8240001
-0.059062861 0.27099431 1.8240001
-0.046902858 0.27099431 1.8240001
0.17197715 0.60800004 1.8240001
0.17371428 0.61436951 1.8240002
0.17545143 0.62189716 1.8240001
-0.062537149 0.63926858 1.8240001
-0.054720003 0.63840002 1.8240001
-0.048640002 0.6375314 1.8240001
-0.072960004 0.64969146 1.8240001
-0.067748576 0.64447999 1.8240001
-0.057325717 0.64274287 1.8240001
-0.044470858 0.64621717 1.8240001
-0.038217146 0.65316576 1.8240001
0.22930287 0.66706288 1.8240001
0.23625144 0.66532576 1.8240001
0.2432 0.66358858 1.8240001
0.2345143 0.67227435 1.8240001
0.2466743 0.68617141 1.8240001
0.25362286 0.68486863 1.8240002
0.26144001 0.68356574 1.8240001
0.25536001 0.69485718 1.8240002
0.26346669 0.6960153 1.8240002
0.27377373 0.69624692 1.8240001
0.22930287 0.70180571 1.8240001
0.23277715 0.70180571 1.8240001
0.25461552 0.70577633 1.8240002
0.26172957 0.70296383 1.824
0.2466743 0.71744001 1.8240001
0.25101715 0.71657145 1.8240001
0.2466743 0.72612572 1.824
0.25188574 0.72612572 1.8240002
0.25449142 0.73394287 1.8240001
0.26172954 0.73539048 1.824
0.25420189 0.74349719 1.8240002
0.26172954 0.74118096 1.824
0.25014859 0.75044572 1.8240001
-0.20599429 0.23392573 1.8330001
-0.20459771 0.24509828 1.8329999
-0.19901143 0.24614573 1.8330001
-0.22461526 0.25487426 1.8330001
-0.21996 0.25836572 1.8330001
0.022694286 0.25836572 1.8330001
0.11521715 0.25836572 1.8330001
0.12394571 0.25836572 1.8330001
-0.24440001 0.26185715 1.8330001
-0.22519715 0.26185715 1.8330001
-0.21297716 0.26185715 1.8330001
-0.20512144 0.2644757 1.8330001
-0.19639286 0.26447573 1.8330001
-0.18417287 0.2644757 1.8330001
-0.17387316 0.26674515 1.8329999
-0.16479543 0.26744348 1.8329999
-0.15362287 0.26884001 1.8330001
-0.14489429 0.26884001 1.8330001
-0.13616572 0.26884001 1.8330001
-0.12743714 0.26884001 1.8330001
-0.11521715 0.26884001 1.8330001
-0.10823429 0.26884001 1.8330001
-0.090777144 0.26884001 1.8330001
-0.062845714 0.26709431 1.8330001
-0.055862863 0.2659305 1.8330001
-0.046086859 0.26744345 1.8329999
-0.035612576 0.26744345 1.8329999
-0.020948572 0.26534858 1.8330001
-0.013965715 0.26534858 1.8330001
-0.0034914287 0.26185715 1.8330001
0.0034914287 0.26185715 1.8330001
0.013965715 0.26534858 1.8330001
0.022694286 0.26185715 1.8330001
0.096014291 0.26360285 1.8330001
0.10125143 0.26185715 1.8330001
0.11521715 0.26185715 1.8330001
0.12394571 0.26185715 1.8330001
-0.10474286 0.27233145 1.8330001
-0.094268583 0.27233145 1.8330001
-0.083794288 0.27233145 1.8330001
-0.075065717 0.27233145 1.8330001
-0.068082862 0.27233145 1.8330001
-0.054117143 0.62845719 1.8330001
-0.048880003 0.62845719 1.8330001
0.17340761 0.62554765 1.8330001
-0.065173335 0.63660383 1.8330001
-0.056299292 0.63500357 1.8330001
-0.044952147 0.63500357 1.8330001
-0.073320001 0.64591432 1.8330001
-0.068082862 0.64242285 1.8330001
-0.043642856 0.64591432 1.8330001
0.21472287 0.65988004 1.8330001
0.20948572 0.66511714 1.8330001
0.21577029 0.66546631 1.8329999
0.22345144 0.66511714 1.8330001
0.23392572 0.66569906 1.8330001
0.20808916 0.6731475 1.8329999
0.21603215 0.67340934 1.8330001
0.22461526 0.67151815 1.8330001
0.2304343 0.67559147 1.8330001
0.24090858 0.67035431 1.8330001
0.21297716 0.68082857 1.8330001
0.2327619 0.68490189 1.8330001
0.24556382 0.68548387 1.8330001
0.25487429 0.68170142 1.8330001
0.26360285 0.68082857 1.8330001
0.22519715 0.69828576 1.8330001
0.23276192 0.69595814 1.8330001
0.24614573 0.69566721 1.8330001
0.25138286 0.69654 1.8330001
0.23532228 0.70387208 1.8329999
0.24440001 0.70483214 1.8330001
0.25138286 0.70526862 1.8330001
0.2439636 0.71530652 1.8330001
0.24440001 0.72272575 1.8330001
0.25487429 0.74018288 1.8330001
-0.19483143 0.24924383 1.8430001
-0.22233017 0.25392446 1.8430001
-0.21413906 0.25977525 1.8430001
-0.2018524 0.25626478 1.8430001
-0.19483143 0.25626478 1.8430001
-0.1872254 0.25743493 1.8430001
-0.17903429 0.25977525 1.8430001
-0.14392953 0.25977525 1.8430001
-0.10882477 0.25977525 1.8430001
-0.064943813 0.25977525 1.8430001
-0.057922859 0.25977525 1.8430001
0.10531429 0.25977525 1.8430001
-0.21413906 0.26328573 1.8430001
-0.20711811 0.26328573 1.8430001
-0.19483143 0.26328573 1.8430001
-0.18781048 0.26328573 1.8430001
-0.17552382 0.26328573 1.8430001
-0.16411477 0.26416335 1.8430001
-0.15446095 0.26591858 1.8430001
-0.14463162 0.26539201 1.8430001
-0.13515334 0.2667962 1.8430001
-0.12637715 0.2667962 1.8430001
-0.11584572 0.2667962 1.8430001
-0.10882477 0.26504096 1.8430001
-0.091272384 0.2667962 1.8430001
-0.073720001 0.2667962 1.8430001
-0.064943813 0.26504096 1.8430001
-0.056167621 0.26328573 1.8430001
-0.044758573 0.26416335 1.8430001
-0.035104763 0.26445588 1.8430001
-0.024573334 0.2667962 1.8430001
0.014041905 0.26328573 1.8430001
-0.11584572 0.27030668 1.8430001
-0.10355905 0.27030668 1.8430001
-0.096538097 0.27030668 1.8430001
-0.084251434 0.27030668 1.8430001
-0.073720001 0.27030668 1.8430001
-0.06669905 0.27030668 1.8430001
-0.064943813 0.61784381 1.8430001
-0.064592764 0.62486476 1.8430001
-0.056606434 0.62530357 1.8430002
-0.04739143 0.62661999 1.8430001
0.16850287 0.62837523 1.8430001
-0.070209526 0.63890672 1.8430001
-0.065528892 0.63305593 1.8430001
-0.059678096 0.63188577 1.8430001
-0.043880954 0.63188577 1.8430001
-0.038615238 0.63715148 1.8430001
-0.038615238 0.64417243 1.8430001
-0.038615238 0.65645909 1.8430001
0.20711811 0.65821433 1.8430001
0.21363758 0.65746212 1.8430002
0.20711811 0.66523528 1.8430001
0.21062858 0.66348004 1.8430001
0.22233017 0.6646502 1.8430001
0.23344667 0.66699052 1.8430001
0.2439781 0.66699052 1.8430001
0.20477779 0.67401147 1.8430001
0.22818096 0.67401147 1.8430001
0.24222286 0.67752194 1.8430001
0.20624049 0.68366528 1.8430001
0.21413906 0.6866492 1.8430001
0.22510931 0.68410408 1.8430002
0.23520191 0.68454289 1.8430001
0.24573337 0.68337274 1.8430001
0.25626478 0.68103242 1.8430001
0.26328573 0.68103242 1.8430001
0.22677676 0.69437224 1.8430001
0.23578699 0.69624448 1.8430001
0.24310048 0.69595194 1.8430001
0.23871239 0.70209527 1.8430001
0.24222286 0.70209527 1.8430001
0.24573334 0.7126267 1.8430001
-0.21530096 0.25412571 1.853
-0.20824191 0.25412571 1.853
-0.18177047 0.25765523 1.853
-0.17471144 0.25765523 1.853
-0.16588762 0.25765523 1.853
-0.13059239 0.25765523 1.853
-0.12706286 0.25765523 1.853
-0.11294477 0.25765523 1.853
-0.10941524 0.25765523 1.853
0.10941524 0.25765523 1.853
0.11294477 0.25765523 1.853
-0.20824191 0.26118478 1.853
-0.17471144 0.26118478 1.853
-0.16588762 0.26118478 1.853
-0.15529904 0.26259661 1.853
-0.14353397 0.26236129 1.853
-0.13323954 0.26383191 1.853
-0.1252981 0.26294953 1.853
-0.11412128 0.2647143 1.853
-0.10412096 0.26471427 1.853
-0.096473657 0.26530254 1.853
-0.084708571 0.26824382 1.853
-0.074120007 0.2647143 1.853
-0.067060955 0.2647143 1.853
-0.03706 0.26118478 1.853
-0.060001906 0.62119621 1.853
-0.054119367 0.62237269 1.853
-0.045883808 0.62413746 1.853
-0.038824763 0.62825525 1.853
0.16765238 0.62825525 1.853
-0.042354286 0.6317848 1.853
-0.035295241 0.63884383 1.853
0.16765237 0.63531429 1.853
0.17471144 0.63884383 1.853
-0.035295241 0.6441381 1.853
0.21441858 0.64678526 1.853
-0.038824763 0.65472668 1.853
0.20824191 0.65649146 1.853
0.21530096 0.65531492 1.853
0.19765334 0.6635505 1.853
0.20294762 0.66355044 1.853
0.22588952 0.66472703 1.853
0.23471335 0.66708004 1.853
0.24177238 0.66708004 1.853
0.19765334 0.67413902 1.853
0.20259467 0.67343318 1.853
0.22941905 0.67060953 1.853
0.24706668 0.67766857 1.853
0.25236094 0.67766857 1.853
0.18706477 0.68825716 1.853
0.19530033 0.6859042 1.853
0.20206524 0.68561006 1.853
0.24353714 0.6859042 1.853
0.25236094 0.68119812 1.853
0.18706477 0.69355142 1.853
0.19341791 0.6931985 1.853
0.20471239 0.6946103 1.853
0.21530096 0.69708103 1.853
0.22236001 0.69531614 1.853
0.21883048 0.70237529 1.853
0.22412477 0.70237529 1.853
0.27678859 0.11710286 1.863
0.28033715 0.11710286 1.863
0.27678859 0.12420001 1.863
0.28033715 0.12420001 1.863
0.27678859 0.13307142 1.863
0.28033715 0.13484572 1.863
-0.22001144 0.25549716 1.863
-0.21291429 0.25549716 1.863
-0.15968572 0.25904572 1.863
-0.13484572 0.25904572 1.863
-0.12242572 0.25904572 1.863
-0.10468285 0.25904572 1.863
-0.13662001 0.26259428 1.863
-0.12065143 0.26436859 1.863
-0.11710286 0.26436859 1.863
-0.085165717 0.26614287 1.863
-0.074519999 0.26259428 1.863
-0.031937145 0.26614287 1.863
-0.024839999 0.26614287 1.863
0.055002857 0.38502002 1.863
0.060325716 0.3867943 1.863
0.056777146 0.39211714 1.863
0.060325716 0.39211714 1.863
-0.043765713 0.62218291 1.863
-0.039034288 0.62632287 1.863
0.16500857 0.62809718 1.863
0.17033143 0.62809718 1.863
-0.039034288 0.63696861 1.863
0.16323429 0.6351943 1.863
0.16500857 0.64583999 1.863
0.17388 0.64761436 1.863
0.18401878 0.64685398 1.863
0.19517143 0.64938861 1.863
0.20652688 0.64796919 1.8630002
0.21468857 0.64584005 1.863
0.16500857 0.65293717 1.863
0.17388 0.65471148 1.863
0.18452573 0.65471148 1.863
0.19517143 0.65471148 1.863
0.20581715 0.65471143 1.863
0.21646287 0.65471148 1.863
0.22119431 0.65412003 1.863
0.17489389 0.66307586 1.863
0.18452573 0.66358286 1.863
0.19415756 0.66307592 1.863
0.20404287 0.6600343 1.863
0.22533429 0.66180861 1.863
0.23420572 0.66624427 1.863
0.24130286 0.66713142 1.863
0.12656572 0.67541146 1.863
0.13307142 0.67777717 1.863
0.17624573 0.6718629 1.863
0.18503265 0.67321479 1.863
0.19339715 0.67422867 1.863
0.17742857 0.68842286 1.863
0.18503265 0.68588817 1.863
0.19304229 0.68416458 1.8630002
0.25904572 0.6848743 1.863
0.26259428 0.6848743 1.863
0.17742857 0.69374573 1.863
0.1831063 0.69481033 1.8630002
0.20581715 0.69906861 1.863
0.26757145 0.12843429 1.8730001
0.27256611 0.12415315 1.8730001
0.26578763 0.13378572 1.8730001
0.27232826 0.13438033 1.8730001
-0.11594763 0.25686857 1.8730001
-0.22119239 0.26043621 1.8730001
-0.21405715 0.26043621 1.8730001
-0.11773143 0.26043621 1.8730001
-0.083839051 0.26400381 1.8730001
-0.066000953 0.26043621 1.8730001
0.053514287 0.3942219 1.8730001
-0.060649525 0.62433338 1.8730001
-0.055298097 0.62433338 1.8730001
-0.046379048 0.62195498 1.8730001
-0.036865398 0.62552255 1.8730001
0.1658943 0.62790096 1.8730001
-0.035676192 0.63503617 1.8730001
0.15697524 0.63503623 1.8730001
0.16054286 0.63503617 1.8730001
-0.035676192 0.64217144 1.8730001
0.15554819 0.64502555 1.8730001
0.16054286 0.64573908 1.8730001
0.1873 0.64573908 1.8730001
0.19550553 0.64787972 1.8730001
0.2033543 0.64930671 1.8730001
0.15697524 0.65465808 1.8730001
0.16054286 0.65465808 1.8730001
0.16455644 0.66313124 1.8730001
0.17124572 0.66714478 1.8730001
0.22654381 0.66000956 1.8730001
0.23546286 0.66429067 1.8730001
0.2425981 0.66714478 1.8730001
-0.033892382 0.67428005 1.8730001
-0.028540954 0.67428005 1.8730001
0.12558019 0.67213947 1.8730001
0.14270477 0.67606384 1.8730001
0.16500239 0.67338812 1.8730001
0.17213762 0.67517197 1.8730001
0.13913715 0.68141526 1.8730001
0.14627239 0.68319905 1.8730001
0.17659716 0.68498296 1.8730001
0.18373239 0.68319905 1.8730001
0.17362414 0.69330734 1.8730001
0.25824001 0.11656667 1.8830001
0.26541334 0.11692534 1.8830001
0.27527669 0.11656667 1.8830001
0.28334668 0.11477334 1.8830001
0.24748001 0.12732667 1.8830001
0.25584891 0.12672889 1.8830003
0.26496503 0.12508501 1.8830003
0.27617335 0.12912001 1.8830001
0.24747999 0.13629334 1.883
0.25465333 0.13629334 1.8830003
0.26397866 0.13772801 1.8830001
0.27617335 0.13808668 1.8830001
0.22954668 0.14705335 1.8830001
0.23492667 0.14705335 1.8830001
0.24389334 0.14526001 1.8830003
0.25465333 0.14526002 1.8830003
0.26541334 0.14525999 1.8830003
0.27617335 0.14526001 1.8830003
0.28334668 0.14526001 1.8830001
0.23492667 0.15064001 1.8830001
0.24434169 0.15377834 1.8830003
0.25420502 0.15377834 1.8830003
0.26541334 0.15422668 1.8830003
0.27545601 0.15207466 1.8830001
0.28334668 0.15064001 1.8830001
0.24491811 0.16447428 1.8830003
0.25226223 0.16379112 1.883
-0.073526666 0.25824001 1.8830001
-0.068146668 0.25824001 1.8830001
-0.073526666 0.26182666 1.8830001
0.037660003 0.38556668 1.8830001
0.037660003 0.39094669 1.8830001
0.050213337 0.39453331 1.883
-0.02152 0.60973334 1.8830001
-0.039453335 0.6169067 1.8830001
-0.053800002 0.62408 1.883
-0.044833332 0.62049335 1.8830001
-0.037660003 0.62228668 1.8830001
0.16677999 0.62766671 1.8830001
-0.032280002 0.63125336 1.8830001
0.13629334 0.63125336 1.8830001
0.15207466 0.63555735 1.8830001
0.14346667 0.64201337 1.8830001
0.15153667 0.64470333 1.8830001
-0.035866667 0.65994668 1.8830001
0.15333001 0.65546334 1.8830001
0.14346667 0.66712004 1.8830001
0.15494402 0.66568536 1.8830001
-0.034671113 0.67309779 1.883
-0.028693335 0.67429334 1.8830001
0.12553334 0.67070669 1.883
0.13629335 0.67608672 1.8830003
0.14346667 0.67429334 1.8830001
0.15781334 0.67070669 1.8830001
0.16229668 0.67519003 1.8830001
0.13629334 0.68146676 1.883
0.14705335 0.68326002 1.8830001
0.15064001 0.68326002 1.8830001
0.16498667 0.68266225 1.883
0.17216 0.68684667 1.8830001
0.17216 0.69222671 1.8830001
0.22728001 0.10822857 1.8940001
0.24712192 0.10822857 1.8940001
0.25523904 0.10732666 1.8940001
0.26335621 0.10462096 1.8940001
0.27057144 0.10822857 1.8940001
0.28319809 0.10462096 1.8940001
0.22547621 0.1154438 1.8940001
0.2453181 0.11544381 1.8940002
0.2551102 0.11492843 1.8940001
0.26576129 0.11303873 1.8940001
0.27417907 0.11303873 1.8940001
0.28590381 0.1127381 1.8940001
0.22637811 0.12716857 1.8940001
0.23449525 0.12987429 1.8940001
0.24428734 0.12575129 1.8940001
0.25373587 0.12386159 1.8940001
0.22547621 0.1334819 1.8940001
0.23449524 0.1334819 1.8940001
0.24351428 0.13528572 1.8940001
0.23449524 0.14250095 1.8940001
0.2435143 0.14069715 1.8940001
0.22547621 0.15152 1.8940001
0.23449524 0.15572889 1.8940001
0.24171048 0.15873525 1.8940001
0.25974858 0.15873525 1.8940001
0.27598286 0.15873525 1.8940001
0.23690033 0.16474794 1.8940001
0.24171048 0.16775429 1.8940001
0.2573435 0.16655175 1.8940001
0.26516002 0.16595048 1.8940001
0.2741791 0.16595048 1.8940002
0.24603963 0.17460875 1.8940001
0.25614095 0.17496954 1.8940001
0.26455876 0.17436826 1.8940001
0.27417907 0.17316572 1.8940001
0.2813943 0.17316572 1.8940001
-0.03427238 0.26516002 1.8940001
0.033671111 0.38601527 1.8940001
0.04689905 0.38962287 1.8940001
0.04689905 0.39503431 1.8940001
0.04689905 0.40044573 1.8940001
-0.023088764 0.60680157 1.8940001
-0.024050795 0.6157003 1.8940001
0.11905143 0.61690289 1.8940001
0.12554514 0.6154598 1.8940001
-0.05050667 0.62411809 1.8940001
-0.045095243 0.62051052 1.8940001
-0.03427238 0.62411809 1.8940001
-0.026284084 0.62360275 1.8940001
0.11905143 0.62411809 1.8940001
0.12626666 0.62411809 1.8940002
0.1334819 0.62592191 1.8940001
0.14791238 0.62411809 1.8940001
0.16775429 0.62772572 1.8940001
-0.032468572 0.63494098 1.8940001
-0.027658412 0.63373846 1.8940001
0.1178489 0.63373846 1.8940001
0.12671761 0.63449001 1.8940001
0.13492496 0.63494098 1.8940001
0.14482014 0.63597172 1.8940001
0.15873525 0.63494098 1.8940001
0.16234286 0.63313717 1.8940001
-0.032468572 0.64576381 1.8940001
0.12987429 0.64576381 1.8940001
0.13528572 0.64576381 1.8940001
0.14430477 0.64576381 1.8940001
-0.032468572 0.65478289 1.8940001
0.12987429 0.65478289 1.8940001
0.13528572 0.65478289 1.8940001
0.14430477 0.65478295 1.8940001
-0.03427238 0.66380191 1.8940001
0.11905143 0.66740954 1.8940001
0.12678204 0.66483265 1.8940001
0.13528572 0.66380191 1.8940001
0.14430475 0.66380191 1.8940002
0.15152 0.66380191 1.8940001
-0.03427238 0.67282099 1.8940001
0.12626667 0.67101717 1.8940001
0.13528572 0.67282104 1.8940001
0.14490604 0.67402357 1.8940001
0.1544061 0.6767894 1.8940001
0.14791238 0.68184 1.8940001
0.15584914 0.68328303 1.8940001
0.16775429 0.68905526 1.8940001
0.15873525 0.69266289 1.8940001
0.16667201 0.69410598 1.8940001
0.24661334 0.097920001 1.904
0.25386667 0.097920001 1.9039999
0.2647467 0.097920001 1.9039999
0.27562666 0.097920001 1.9039999
0.23528001 0.10562667 1.9040002
0.2448 0.10517333 1.904
0.25386667 0.10299733 1.904
0.26547199 0.104448 1.904
0.27608001 0.10472 1.9040002
0.23573335 0.11605333 1.9040002
0.27925333 0.11242667 1.904
0.22485334 0.12512 1.904
0.23573335 0.12512001 1.9040002
0.22666667 0.13781334 1.904
0.23573333 0.13600001 1.904
0.22666666 0.14325334 1.904
0.22727112 0.15715556 1.9039999
0.23210667 0.15957335 1.904
0.22848001 0.16501334 1.904
0.23331557 0.16440889 1.9039999
0.22848001 0.17045334 1.904
0.23573335 0.17407998 1.9040002
0.24298668 0.17770667 1.904
0.26837334 0.17770667 1.904
0.27562669 0.17770667 1.9039999
0.28288001 0.17770667 1.904
0.22727112 0.18616889 1.9039999
0.23521526 0.18392381 1.9040002
0.24516268 0.18423466 1.904
0.25386667 0.18495999 1.9040002
0.2647467 0.18495999 1.9040002
0.27562666 0.18495999 1.9040002
0.28288001 0.18133333 1.904
0.25568002 0.19402668 1.904
0.26526478 0.1948038 1.9040002
0.27490133 0.19366401 1.904
-0.034453336 0.26293334 1.904
-0.029013334 0.26656002 1.904
0.079786673 0.36992002 1.904
0.08704 0.36992002 1.904
-0.10517333 0.37536001 1.904
-0.10517333 0.38080001 1.904
0.03626667 0.38321781 1.9039999
0.045695998 0.38515204 1.904
0.054399997 0.38488001 1.9040002
0.061653335 0.38624001 1.904
0.079786673 0.38261336 1.904
0.04352 0.39168 1.904
0.050773334 0.39168 1.904
-0.023573333 0.5984 1.904
-0.025386667 0.6047467 1.904
-0.018133335 0.6074667 1.904
0.11968 0.60928005 1.904
-0.038080003 0.61653334 1.904
-0.029013334 0.61471999 1.904
-0.018133335 0.61471999 1.904
0.1088 0.61653334 1.904
0.11786667 0.61471999 1.904
0.12330667 0.61290669 1.904
-0.04352 0.62016004 1.904
-0.034816004 0.62233603 1.904
-0.025386667 0.62378669 1.904
-0.018133335 0.62016004 1.904
0.10517333 0.62378669 1.9040002
0.11424001 0.62378669 1.9040002
0.13660444 0.62499553 1.9039999
0.14234668 0.62288004 1.904
-0.022666667 0.63466668 1.904
0.10662399 0.63321602 1.904
0.11387734 0.63394135 1.904
0.13781334 0.63104004 1.904
0.14264889 0.63345784 1.9039999
0.15594669 0.63587558 1.9039999
0.16320001 0.63104004 1.904
-0.025386667 0.64554667 1.9040002
0.1088 0.64192003 1.904
0.11726222 0.64433783 1.9040002
0.12475733 0.64627206 1.904
-0.025386667 0.65461338 1.9040002
0.11786667 0.65461338 1.904
0.12512 0.65461338 1.904
-0.032640003 0.66730666 1.904
-0.0272 0.66186666 1.904
0.097920001 0.66730666 1.904
0.10517333 0.66730666 1.9039999
0.11786667 0.66368002 1.9040002
0.12512 0.66186666 1.904
-0.032640003 0.67274666 1.904
-0.0272 0.67637336 1.904
0.092480004 0.67093337 1.904
0.11605334 0.67274666 1.904
0.23573335 0.67456001 1.904
-0.023573333 0.68181336 1.904
0.15715556 0.69390225 1.9039999
0.17045334 0.70357335 1.904
0.23709525 0.098485716 1.9150001
0.24439049 0.095750004 1.9150001
0.24256667 0.10213333 1.9150001
0.2279762 0.14955239 1.9150001
0.22858413 0.1763016 1.9150001
0.2279762 0.18602857 1.9150001
0.23709525 0.1896762 1.9150001
0.24256667 0.1896762 1.9150001
0.22980002 0.19514763 1.9150001
0.23527144 0.19514762 1.9150001
0.24439049 0.19478288 1.9150002
0.25168571 0.19514763 1.9150001
0.23527144 0.20061906 1.9150001
0.24317461 0.20183492 1.9150001
0.25578928 0.20381072 1.9150001
0.26582024 0.20472264 1.9150001
0.27539527 0.20426667 1.9150001
0.25776508 0.21277779 1.9150001
0.26627618 0.21156192 1.9150001
0.27357143 0.21156192 1.9150001
-0.032828573 0.26262859 1.9150001
-0.029180953 0.26262859 1.9150001
0.065657146 0.36658573 1.9150001
0.074168257 0.36719367 1.9150001
0.083895244 0.36840954 1.9150001
0.093014285 0.36840954 1.9150001
-0.10304524 0.37479287 1.9150001
-0.098485716 0.37205717 1.9150001
0.036476191 0.37935239 1.9150001
0.043771431 0.37935242 1.9150001
0.067480952 0.37570477 1.9150001
0.074776195 0.37570477 1.9150001
0.083287306 0.3763127 1.9150001
0.094108567 0.37351623 1.9150002
0.10432191 0.37497526 1.9150002
-0.10213333 0.38482383 1.9150001
-0.098485716 0.38482383 1.9150001
0.026262859 0.38445908 1.9150002
0.032828573 0.38300002 1.9150001
0.041947622 0.38300002 1.9150001
0.054714289 0.38300002 1.9150001
0.062009525 0.38300002 1.9150001
0.075384125 0.38421592 1.9150001
0.085719049 0.38482386 1.9150001
0.029180953 0.39029527 1.9150001
-0.02279762 0.59547389 1.9150001
-0.018238096 0.59456193 1.9150001
-0.034652382 0.60915238 1.9150001
-0.029180953 0.60732859 1.9150001
-0.018238096 0.60368097 1.9150001
0.069304764 0.60915238 1.9150001
0.075384125 0.60793656 1.9150001
0.084351197 0.60596073 1.9150001
0.094838098 0.60550475 1.9150001
0.10505144 0.60623431 1.9150002
0.11672381 0.60915238 1.9150001
0.12037143 0.60915238 1.9150001
-0.040123813 0.61462379 1.9150001
-0.034652382 0.61462384 1.9150001
0.068088889 0.61523175 1.9150001
0.074776195 0.61462379 1.9150001
0.083895244 0.61462384 1.9150001
0.09483809 0.61462384 1.9150001
0.10578096 0.61462384 1.9150001
0.11429208 0.61401588 1.9150001
-0.051066667 0.6273905 1.9150001
-0.043771431 0.62009525 1.9150001
-0.032828573 0.62009525 1.9150001
-0.018238096 0.6273905 1.9150001
0.066113099 0.6232869 1.9150001
0.074776195 0.62191904 1.9150001
0.083895244 0.62191904 1.9150001
0.09483809 0.62374282 1.9150001
0.10395715 0.62009525 1.9150001
0.1130762 0.62009525 1.9150001
0.13569143 0.62155426 1.9150002
0.1446889 0.622527 1.9150001
0.15502381 0.6273905 1.9150001
0.16231906 0.6273905 1.9150001
0.095880277 0.63416469 1.9150001
0.10395715 0.63833338 1.9150001
0.14590476 0.63286197 1.9150001
0.15538856 0.63395625 1.9150002
0.16171111 0.63225406 1.9150001
-0.018238096 0.64198101 1.9150001
0.09483809 0.64562863 1.9150001
0.10473878 0.64614969 1.9150001
0.1130762 0.6492762 1.9150001
-0.016414287 0.65657145 1.9150001
0.087542862 0.65474761 1.9150001
0.094108574 0.65511239 1.9150002
0.10578096 0.65474761 1.9150001
0.11429208 0.6541397 1.9150001
-0.021885715 0.66569054 1.9150001
-0.018238096 0.66569054 1.9150001
0.086083815 0.6645962 1.9150002
0.094838098 0.66386676 1.9150001
0.10578096 0.6638667 1.9150001
0.1130762 0.6638667 1.9150001
-0.027357142 0.67298573 1.9150001
0.083895244 0.67116195 1.9150001
0.093014285 0.67116195 1.9150001
0.1130762 0.67116195 1.9150001
-0.31734288 0.74411434 1.9150001
0.24200001 0.099000007 1.9250001
-0.28416669 0.1045 1.9250001
-0.27866668 0.1045 1.9250001
-0.2849524 0.11419048 1.9250001
-0.27683336 0.11458333 1.9250001
-0.28508335 0.12191667 1.9250001
-0.27866668 0.12100001 1.9250001
0.24566668 0.19800001 1.9250001
0.23711114 0.20655556 1.9250001
0.24627779 0.20655556 1.9250001
0.25300002 0.20900001 1.9250001
0.23833334 0.21266668 1.9250001
0.24566668 0.21266668 1.9250001
0.25422224 0.21511112 1.9250001
0.26644444 0.21511112 1.9250001
0.27316666 0.21633334 1.9250001
0.25446668 0.22293334 1.925
0.26399997 0.22183335 1.9250001
0.26033333 0.24933334 1.9250001
0.26033333 0.25666669 1.9250001
0.26308331 0.26125002 1.9250001
-0.1045 0.36666667 1.9250001
-0.099000007 0.36666667 1.9250001
0.029333334 0.36666667 1.9250001
0.036666669 0.36666667 1.9250001
0.044 0.36666667 1.9250001
0.056833334 0.36666667 1.9250001
0.067833334 0.36666667 1.9250001
-0.1045 0.37033334 1.9250001
-0.094809532 0.37347621 1.9250001
-0.085380957 0.37400004 1.9250001
0.0275 0.37033334 1.9250001
0.035444446 0.37277779 1.9250001
0.044 0.37400004 1.9250001
0.055000003 0.37766668 1.9250001
0.064533331 0.37326664 1.925
0.099000007 0.37766668 1.9250001
-0.094111115 0.38500002 1.9250001
-0.08653333 0.38573337 1.925
0.025666667 0.38133335 1.9250001
0.033 0.38133335 1.9250001
0.053166669 0.38133335 1.9250001
0.066611111 0.38499999 1.9250001
0.088 0.38133335 1.9250001
0.095333338 0.3831667 1.9250001
0.10266667 0.38316667 1.9250001
-0.022 0.5866667 1.9250001
-0.014666666 0.5866667 1.9250001
-0.0036666668 0.5866667 1.9250001
-0.024444446 0.59400004 1.9250001
-0.013619048 0.59347624 1.9250001
-0.0058666673 0.59326673 1.925
0 0.59033334 1.9250001
-0.040333334 0.60866672 1.9250001
-0.034833334 0.60683334 1.9250001
-0.029333334 0.6031667 1.9250001
-0.01375 0.60408336 1.9250001
0.068444446 0.60744447 1.9250001
0.0748 0.6042667 1.925
0.084333338 0.60255557 1.9250001
0.10633334 0.60683334 1.9250001
0.11183333 0.60683334 1.9250001
-0.042777777 0.6147778 1.9250001
-0.014666667 0.61233336 1.9250001
0.058666669 0.6196667 1.9250001
0.064166665 0.616 1.9250001
0.10633334 0.61233336 1.9250001
0.11366667 0.61233336 1.9250001
-0.047666669 0.62700003 1.9250001
0.058666669 0.62516665 1.9250001
-0.055000003 0.63433337 1.9250001
-0.018333334 0.63616669 1.9250001
0.058666669 0.63250005 1.9250001
0.063555554 0.63311118 1.9250001
0.074555561 0.63188893 1.9250001
0.08433333 0.63250005 1.9250001
0.091666669 0.63800001 1.9250001
-0.017111113 0.64533335 1.9250001
0.088 0.64716673 1.9250001
0.091666669 0.64166671 1.9250001
-0.017111111 0.65511113 1.9250001
0.088 0.65266669 1.9250001
0.099000007 0.65633339 1.9250001
-0.17233334 0.66366667 1.9250001
-0.0165 0.66366667 1.9250001
0.077 0.66733336 1.9250001
0.083111115 0.66366673 1.9250001
-0.022 0.67650002 1.9250001
0.075166672 0.671 1.9250001
0.080666669 0.671 1.9250001
-0.022 0.68383336 1.9250001
-0.018333334 0.68566668 1.9250001
-0.32266667 0.73700005 1.9250001
-0.31900001 0.73700005 1.9250001
-0.33000001 0.74066669 1.9250001
-0.3238889 0.74188894 1.9250001
-0.31680003 0.74360001 1.925
-0.2835556 0.74311113 1.9250001
-0.27866668 0.74066669 1.9250001
-0.28763428 0.099565715 1.9360001
-0.27288383 0.099565715 1.9360001
-0.26550859 0.099565715 1.9360002
-0.25813335 0.099565715 1.9360001
-0.30238476 0.10694095 1.9360001
-0.29427201 0.10472838 1.9360001
-0.27288383 0.10509714 1.9360001
-0.26550859 0.10325333 1.9360002
-0.25628954 0.10325333 1.9360001
-0.30238476 0.1143162 1.9360002
-0.29547048 0.11385526 1.936
-0.27509642 0.11357868 1.9360001
-0.26550862 0.11247239 1.936
-0.30238476 0.12353525 1.9360001
-0.29648456 0.12537906 1.9360001
-0.28148827 0.12783746 1.9360002
-0.27288383 0.12169144 1.9360001
-0.26274288 0.12445715 1.9360001
-0.25628954 0.12906668 1.9360001
-0.29746795 0.13398351 1.9360002
-0.28148827 0.13398351 1.9360002
-0.27411303 0.1352127 1.9360002
-0.26366478 0.13459811 1.9360001
-0.25444576 0.13459812 1.936
-0.24707049 0.13459811 1.9360001
-0.26182097 0.14381714 1.9360002
-0.25444576 0.14381714 1.936
-0.24707049 0.14381714 1.9360002
-0.26182097 0.15119238 1.9360001
-0.25444573 0.15119238 1.9360002
-0.24707049 0.15119238 1.9360001
-0.26366478 0.1733181 1.9360001
0.23969525 0.21756953 1.9360001
0.24522668 0.21756953 1.9360001
0.25075811 0.21756953 1.9360001
0.24522668 0.22310096 1.9360001
0.25260192 0.22586668 1.9360001
0.26550859 0.22863239 1.9360002
0.27472767 0.22494479 1.936
0.2559208 0.2374827 1.9360001
0.26550862 0.23600766 1.936
0.27411303 0.23477842 1.9360002
0.25444576 0.2452267 1.936
0.26550862 0.2452267 1.936
0.27288383 0.24522668 1.9360001
0.25444576 0.25444576 1.936
0.26656222 0.25444576 1.936
0.25444576 0.26366481 1.936
0.26550859 0.26673779 1.9360002
0.025813334 0.36876193 1.9360001
0.033188574 0.36876193 1.9360001
0.051626667 0.36691812 1.9360001
-0.095878102 0.37982479 1.9360001
-0.081127621 0.37613717 1.9360001
-0.077440001 0.37613717 1.9360001
0.016594285 0.37613717 1.9360001
0.026550859 0.37687469 1.9360001
0.034417782 0.37736639 1.9360002
0.044251431 0.37613717 1.9360002
0.055314291 0.37429336 1.936
-0.095878102 0.38351241 1.9360001
-0.084815241 0.38351241 1.9360001
0.0073752385 0.38535622 1.9360001
0.014750478 0.38535622 1.936
0.059001908 0.38351241 1.9360001
0.014750477 0.39088765 1.9360002
0.022125715 0.39088765 1.9360001
-0.022125715 0.58633143 1.9360001
-0.014750476 0.58633143 1.9360002
-0.0061460324 0.58510226 1.9360002
-0.15488 0.59739429 1.9360002
-0.025813334 0.59186286 1.9360001
-0.0073752385 0.59001905 1.9360001
0.0012292064 0.59370667 1.9360002
0.029500954 0.59739429 1.9360001
0.03687619 0.59739429 1.9360001
0.042407621 0.59739429 1.9360001
-0.16225524 0.60108191 1.9360001
-0.15672381 0.60108191 1.9360001
-0.040563811 0.60845715 1.9360001
-0.035032384 0.60476953 1.9360001
-0.029500954 0.60108191 1.9360001
-0.011062858 0.60845715 1.9360001
-0.0055314293 0.60476953 1.9360001
0.029500954 0.60108191 1.9360001
0.03687619 0.60108191 1.9360001
0.043022227 0.60231113 1.9360002
0.065147944 0.60722798 1.9360002
0.073752388 0.60292572 1.9360001
0.081127621 0.60476953 1.9360001
-0.044251431 0.61952001 1.9360001
-0.012906667 0.61583239 1.9360001
0.059001908 0.6176762 1.9360001
0.062689528 0.61398858 1.9360001
-0.047939051 0.62689525 1.9360001
-0.014750477 0.62505144 1.9360001
0.05408508 0.62566608 1.9360002
-0.051626667 0.63058287 1.9360001
-0.014750477 0.63427049 1.9360002
0.047939051 0.6361143 1.9360001
0.053470481 0.63427049 1.936
0.073752388 0.63795811 1.9360001
-0.01352127 0.64533335 1.9360002
0.064533338 0.64164573 1.9360001
0.073752381 0.64164573 1.9360001
0.085429847 0.64410412 1.936
-0.012906667 0.6545524 1.9360001
-0.0073752385 0.65270859 1.9360001
0.084815241 0.6545524 1.9360001
-0.30607238 0.66745907 1.9360002
-0.17700572 0.66745907 1.9360001
-0.16778667 0.66745907 1.9360001
-0.011062858 0.66377145 1.9360002
-0.0073752385 0.66377145 1.9360001
0.076210797 0.6662299 1.9360002
0.082049526 0.66284955 1.9360001
-0.30484319 0.67237592 1.9360002
-0.012906667 0.67114669 1.9360001
0.071908578 0.67114669 1.9360001
-0.018438095 0.68589717 1.9360001
-0.018438095 0.69327241 1.9360001
-0.33188573 0.73752385 1.9360001
-0.3263543 0.73752385 1.9360001
-0.33372954 0.74305528 1.9360001
-0.32819811 0.74121147 1.9360001
-0.31529143 0.74121147 1.9360001
-0.29408762 0.74766481 1.9360001
-0.28394669 0.74342406 1.9360001
-0.27472764 0.7467429 1.9360001
-0.30410287 0.10754857 1.9470001
-0.29297715 0.10013143 1.9470001
-0.28370571 0.10013143 1.9470001
-0.2756705 0.10631239 1.9470001
-0.26516289 0.10754857 1.9470001
-0.25465527 0.1044581 1.9470001
-0.30781144 0.11496571 1.9470001
-0.27072573 0.11867429 1.9470001
-0.26516289 0.11867429 1.9470001
-0.25695103 0.11443592 1.9470003
-0.3003943 0.12609144 1.9470001
-0.29297715 0.12794572 1.9470001
-0.28926858 0.12794572 1.9470001
-0.2744343 0.12655501 1.9470003
-0.26701716 0.12794572 1.9470001
-0.25681859 0.12609144 1.9470001
-0.2484743 0.12980001 1.9470001
-0.29421335 0.13598096 1.9470001
-0.28803241 0.13598096 1.9470001
-0.2731981 0.13474476 1.9470001
-0.29575861 0.14463429 1.9470001
-0.28450042 0.1441045 1.9470003
-0.27443433 0.14463429 1.9470003
-0.26701716 0.14463429 1.9470001
-0.29483145 0.15205143 1.9470001
-0.28308761 0.15328763 1.9470001
-0.27489787 0.15529644 1.9470003
-0.26553375 0.15650173 1.9470001
-0.25836384 0.15699619 1.9470001
-0.28185144 0.16503143 1.9470001
-0.2744343 0.16503143 1.9470001
-0.26516289 0.16503143 1.9470001
-0.25960001 0.16688572 1.9470001
-0.29297715 0.17615715 1.9470001
-0.28556001 0.17430285 1.9470003
-0.2744343 0.17430286 1.9470003
-0.26578096 0.17306668 1.9470001
-0.25774571 0.17523 1.9470001
-0.2484743 0.17801143 1.9470001
-0.29297715 0.18357429 1.9470001
-0.28556001 0.18357427 1.9470001
-0.27814287 0.18357429 1.9470001
0.24476571 0.22993143 1.9470001
0.24662003 0.23549429 1.9470001
0.25403714 0.23549429 1.9470001
0.27628857 0.23734859 1.9470001
0.23734859 0.24662001 1.9470001
0.2452293 0.24430217 1.9470003
0.27814287 0.24105716 1.9470001
0.23734859 0.25589144 1.9470001
0.24582532 0.25642124 1.9470003
0.2354943 0.26330858 1.9470001
0.24476571 0.26516286 1.9470001
0.2484743 0.27072573 1.9470001
0.25542787 0.27397075 1.9470003
0.26578096 0.27319813 1.9470001
0.2744343 0.27258003 1.9470001
0.25589144 0.28185144 1.9470001
0.25218287 0.30781144 1.9470001
0.24662001 0.31522858 1.9470001
0.25589144 0.31522861 1.9470003
0.26516289 0.31337428 1.9470001
-0.074171431 0.37703809 1.9470001
-0.066754289 0.37827429 1.9470001
-0.024105715 0.37456572 1.9470001
-0.014834287 0.37456572 1.9470003
-0.0055628573 0.37456572 1.9470001
0.0037085717 0.37502933 1.9470003
0.014834287 0.373824 1.9470001
0.022251429 0.37456572 1.9470001
-0.081588574 0.38569143 1.9470001
-0.075098574 0.38291001 1.9470001
-0.066754289 0.38198286 1.9470001
-0.054145146 0.38717487 1.9470001
-0.048211429 0.38198286 1.9470001
-0.033377144 0.38198286 1.9470001
-0.025032857 0.38476425 1.9470001
-0.01298 0.3856914 1.9470001
-0.0055628573 0.3856914 1.9470001
0.0026489799 0.38516161 1.9470003
0.012980001 0.38198286 1.9470001
0.022251429 0.38198286 1.9470001
-0.055628572 0.39310858 1.9470001
-0.02596 0.39496285 1.9470001
-0.013598097 0.39434478 1.9470001
-0.0055628577 0.39496285 1.9470001
0.0037085719 0.39496288 1.9470001
0.014834288 0.39681712 1.9470001
0.022251429 0.39681715 1.9470001
-0.014834287 0.40237999 1.9470001
0 0.40237999 1.9470001
-0.014834287 0.41721427 1.9470001
-0.011125715 0.57853717 1.9470001
-0.0055628577 0.57853717 1.9470001
-0.024476571 0.58521259 1.9470001
-0.014092572 0.58447087 1.9470001
-0.0049447622 0.58348191 1.9470001
0 0.58595431 1.9470001
-0.029668573 0.59707999 1.9470001
0.0061809532 0.59460765 1.9470001
0.014834288 0.59707999 1.9470001
0.026701715 0.59559655 1.9470001
0.035849527 0.59584379 1.9470001
0.044502858 0.59522575 1.9470001
0.053156193 0.59584379 1.9470001
-0.040794287 0.60820574 1.9470001
-0.034613337 0.60326099 1.9470001
-0.029668573 0.60078859 1.9470001
0.0018542858 0.60264289 1.9470001
0.018542858 0.60449719 1.9470001
0.024900408 0.60502702 1.9470003
0.034304287 0.60542434 1.9470001
0.046357144 0.60542434 1.9470001
0.055628572 0.60449719 1.9470003
0.064529143 0.60375547 1.9470001
0.072317146 0.60449719 1.9470001
0.081588574 0.60449719 1.9470001
-0.046357144 0.61747718 1.9470001
-0.011125715 0.61933148 1.9470001
-0.0074171433 0.61747718 1.9470001
0.018542858 0.61933148 1.9470001
0.02596 0.61562282 1.9470003
0.03523143 0.61562294 1.9470001
0.044502858 0.61562288 1.9470003
0.055165 0.61515927 1.9470003
-0.048211429 0.62489432 1.9470001
-0.011125715 0.62489432 1.9470001
0.018542858 0.62304002 1.9470001
0.025032859 0.62396717 1.9470001
0.035849527 0.62427622 1.9470001
0.044502858 0.62489432 1.9470001
0.053156193 0.62427622 1.9470001
-0.011125715 0.63602006 1.9470001
0.022251429 0.63045716 1.9470001
0.037085716 0.63787431 1.9470001
0.045120955 0.63416576 1.9470001
-0.059337147 0.64158291 1.9470001
-0.011125716 0.64529151 1.9470001
-0.0074171433 0.64714575 1.9470001
0.024105715 0.64158291 1.9470001
0.037085716 0.64158291 1.9470001
0.044502858 0.64529145 1.9470003
0.055628572 0.64714575 1.9470001
0.064900003 0.64900005 1.9470001
0.074171431 0.64751661 1.9470001
0.081588574 0.64900005 1.9470001
-0.0049447622 0.65394479 1.9470001
0.045244571 0.65419203 1.9470001
0.055628575 0.65493375 1.9470001
0.064900003 0.65456289 1.9470001
0.074171431 0.65456289 1.9470001
0.081588574 0.65456289 1.9470001
-0.32264572 0.66754287 1.9470001
-0.31708288 0.66754287 1.9470001
-0.18172 0.66754287 1.9470001
-0.16503143 0.66754287 1.9470001
-0.0051920004 0.66383433 1.9470001
0.0037085719 0.66568857 1.9470001
0.048211429 0.66012573 1.9470001
0.066754289 0.66754287 1.9470001
0.074171431 0.66383427 1.9470003
0.081588574 0.66012573 1.9470001
-0.32264572 0.67125148 1.9470001
-0.31522861 0.67496008 1.9470003
-0.30132145 0.67588723 1.9470001
-0.29668573 0.67496002 1.9470001
-0.18172 0.67125148 1.9470001
-0.012980001 0.67866862 1.9470001
-0.0046357145 0.67496002 1.9470001
0.0042383675 0.67390049 1.9470003
0.011125715 0.67681432 1.9470001
0.07046286 0.67125148 1.9470001
-0.31244716 0.68515855 1.9470001
-0.3041029 0.68608576 1.9470003
-0.29520231 0.68682742 1.9470001
-0.015761429 0.68701285 1.9470001
0.0049447622 0.68484956 1.9470001
0.011125715 0.68237716 1.9470001
-0.30410287 0.69535714 1.9470001
-0.29668573 0.6935029 1.9470001
-0.011125715 0.6935029 1.9470001
-0.30781144 0.70277429 1.9470001
-0.024105715 0.70092005 1.9470001
-0.32264572 0.73800576 1.9470001
0.0037085719 0.73615146 1.9470001
0.011125715 0.73615146 1.9470001
-0.32264572 0.7417143 1.9470001
-0.3003943 0.74727714 1.9470001
-0.29544953 0.74665904 1.9470001
-0.28556001 0.7417143 1.9470001
-0.27814287 0.7435686 1.9470001
-0.25360763 0.11748 1.9580001
-0.24987811 0.11748 1.9580001
-0.2548508 0.12431747 1.9580001
-0.24987811 0.12493905 1.9580001
-0.29276764 0.14638381 1.9580001
-0.29370001 0.15570763 1.9580001
-0.28717333 0.15664001 1.9580001
-0.25360763 0.15664001 1.9580001
-0.24987811 0.15664001 1.9580001
-0.29416621 0.16363285 1.9580001
-0.28624094 0.16316667 1.9580001
-0.27225524 0.16036953 1.9580001
-0.26106668 0.16409905 1.9580001
-0.25547239 0.16409905 1.9580001
-0.24987811 0.16409905 1.9580001
-0.29463241 0.1715581 1.9580001
-0.2647962 0.17901716 1.9580001
-0.25584537 0.17454171 1.9579999
-0.27474159 0.18523304 1.9580001
-0.2647962 0.18423851 1.9579999
-0.25547239 0.18461144 1.9580001
-0.24987811 0.18461144 1.9580001
-0.29090285 0.19393523 1.9580001
-0.28530857 0.19393526 1.9580001
-0.27598476 0.19207048 1.9580001
-0.26603937 0.19144888 1.9580001
-0.25547239 0.19393523 1.9580001
-0.24987811 0.19393523 1.9580001
-0.26106668 0.20139429 1.9580001
-0.2548508 0.20263748 1.9580001
-0.24987811 0.20325905 1.9580001
0.24241905 0.23868953 1.9580001
-0.24428383 0.24801335 1.9580001
-0.23868953 0.24987811 1.9580001
0.24241905 0.24987811 1.9580001
-0.24428383 0.25360763 1.9580001
-0.23868953 0.25547239 1.9580001
0.24241905 0.25547239 1.9580001
0.23868953 0.27225524 1.9580001
0.24614859 0.27598476 1.9580001
0.2647962 0.27971429 1.9580001
0.27598476 0.27971429 1.9580001
0.28344381 0.27971429 1.9580001
0.24863493 0.28468698 1.9580001
0.2548508 0.28593016 1.9580001
0.2640503 0.28493562 1.9579999
0.27598476 0.28530857 1.9580001
0.28344381 0.28344381 1.9580001
0.25547239 0.29276764 1.9580001
0.27598476 0.29090285 1.9580001
0.24801335 0.30768573 1.9580001
0.25733715 0.30955049 1.9580001
0.26293144 0.30955049 1.9580001
0.24801335 0.31328002 1.9580001
0.26106668 0.31328002 1.9580001
0.24987811 0.32260382 1.9580001
0.25360763 0.32260382 1.9580001
-0.0733473 0.37543878 1.9580001
-0.065266669 0.37668192 1.9580001
-0.05594286 0.37668192 1.9580001
-0.044754293 0.37481716 1.9580001
-0.035430476 0.37481716 1.9580001
-0.029836191 0.37481716 1.9580001
0.011188572 0.3729524 1.9580001
-0.072725713 0.38787049 1.9580001
-0.064334288 0.38507336 1.9580001
-0.057008438 0.38360816 1.9580001
-0.044288103 0.38414097 1.9580001
-0.03580343 0.38414097 1.9579999
-0.027971428 0.38507336 1.9580001
-0.01864762 0.38600573 1.9580001
-0.082049526 0.39346477 1.9580001
-0.074590474 0.39346477 1.9580001
-0.065266669 0.39346474 1.9580001
-0.055942856 0.39756724 1.9579999
-0.044754289 0.39532951 1.9579999
-0.035430476 0.39532956 1.9580001
-0.026106669 0.39532956 1.9580001
-0.016782857 0.39626193 1.9580001
-0.054078095 0.40465334 1.9580001
-0.022377145 0.40465334 1.9580001
-0.014918096 0.40465337 1.9580001
-0.0055942857 0.40465337 1.9580001
0.0055942857 0.40465337 1.9580001
0.014918096 0.40465331 1.9580001
0.022377145 0.40465334 1.9580001
-0.022377143 0.41397715 1.9580001
-0.014918096 0.41351095 1.9580001
-0.0055942857 0.41397715 1.9580001
0.0032633333 0.41444334 1.9580001
-0.011188572 0.4270305 1.9580001
-0.0037295239 0.42143622 1.9580001
0.0018647619 0.42143622 1.9580001
-0.024241906 0.57434666 1.9580001
-0.014918096 0.57434666 1.9580001
-0.0055942857 0.57807618 1.9580001
0 0.57807618 1.9580001
-0.026106665 0.58429211 1.9580001
-0.017404445 0.58304888 1.9580001
0.0027971428 0.58460289 1.9580001
-0.033565715 0.59485912 1.9580001
-0.029836191 0.59485912 1.9580001
0.0055942857 0.59299433 1.9580001
0.014918096 0.59672385 1.9580001
0.026106667 0.59485912 1.9580001
0.034808889 0.59423751 1.9580001
0.044754285 0.59299433 1.9580001
-0.15291049 0.60791242 1.9580001
-0.14545143 0.60604769 1.9580001
-0.13612762 0.60604769 1.9580001
-0.05594286 0.6041829 1.9580001
-0.043262482 0.6041829 1.9579999
-0.036052063 0.60169655 1.9580001
0.0062158727 0.60666925 1.9580001
0.013053333 0.60604769 1.9580001
0.059672382 0.60045338 1.9580001
0.076455243 0.6041829 1.9580001
-0.16036953 0.61164194 1.9580001
-0.15440229 0.61462557 1.9579999
-0.14491865 0.61430591 1.9580001
-0.13650057 0.61462557 1.9579999
-0.046992004 0.61462557 1.9579999
-0.0037295239 0.61723626 1.9580001
0.0043511111 0.61412829 1.9580001
0.014451906 0.61583769 1.9580001
-0.15291049 0.62656003 1.9580001
-0.052213334 0.6246953 1.9580001
-0.0049726986 0.62531686 1.9580001
0.0074590477 0.62283051 1.9580001
0.013053333 0.62469524 1.9580001
-0.052213334 0.63215435 1.9580001
-0.011188572 0.63401908 1.9580001
-0.0062158727 0.63526225 1.9580001
0.0062158727 0.63650542 1.9580001
0.014918095 0.63401908 1.9579999
0.027172247 0.63455188 1.9580001
0.035057522 0.63476503 1.9579999
0.041024763 0.63588381 1.9580001
-0.0052213334 0.64446175 1.9579999
0.0037295239 0.64520764 1.9579999
0.014918095 0.64520764 1.9579999
0.026639458 0.64520758 1.9580001
0.034498096 0.64614004 1.9580001
-0.0037295239 0.65266669 1.9580001
0.0018647619 0.65453148 1.9580001
0.017404445 0.65390986 1.9580001
0.037295241 0.65266669 1.9580001
0.041024763 0.65266669 1.9580001
0.05594286 0.65639621 1.9580001
-0.16596381 0.66758478 1.9580001
0.0037295239 0.66199046 1.9580001
0.056688763 0.66534704 1.9579999
0.065266669 0.66572005 1.9580001
0.070860952 0.66385525 1.9580001
-0.33192763 0.67690861 1.9580001
-0.32726571 0.67597616 1.9580001
-0.29649717 0.67877334 1.9580001
-0.20325905 0.67504382 1.9580001
-0.19393523 0.67504382 1.9580001
-0.1864762 0.67317903 1.9580001
-0.17528762 0.6713143 1.9580001
0.059672382 0.6713143 1.9580001
0.064645082 0.67380065 1.9580001
-0.33192763 0.68436766 1.9580001
-0.32393581 0.68516678 1.9580001
-0.31700954 0.68996191 1.9580001
-0.29276764 0.68529999 1.9580001
-0.28530857 0.68809712 1.9580001
-0.27598476 0.68623239 1.9580001
-0.013053333 0.68809712 1.9580001
-0.005967238 0.68697828 1.9579999
0.0024863493 0.68685395 1.9580001
0.011188572 0.68996191 1.9580001
-0.32073906 0.69369143 1.9580001
-0.31576636 0.69617778 1.9580001
-0.014918095 0.69742095 1.9580001
-0.0055942857 0.69555616 1.9580001
0.0037295236 0.69592917 1.9579999
0.012431747 0.69617778 1.9580001
-0.31514478 0.70488 1.9580001
-0.013852519 0.70488006 1.9580001
-0.0046619046 0.7039476 1.9580001
0.0037295239 0.70488 1.9579999
0.012680382 0.70413411 1.9579999
-0.31514478 0.7123391 1.9580001
-0.0037295239 0.71420383 1.9580001
0.0065266667 0.71513623 1.9580001
0.011188572 0.7123391 1.9580001
-0.0037295239 0.72725719 1.9580001
0.0037295239 0.72539246 1.9580001
-0.014918095 0.73658097 1.9580001
-0.0037295239 0.73471624 1.9580001
0.0018647619 0.73285145 1.9580001
-0.32073906 0.74404001 1.9580001
-0.31477183 0.74515891 1.9579999
-0.30706415 0.74652642 1.9580001
-0.29463241 0.74466163 1.9580001
-0.28530857 0.74217528 1.9580001
-0.0037295239 0.74217528 1.9580001
-0.27378479 0.18377334 1.9690001
-0.26628381 0.18752381 1.9690001
-0.28128573 0.19877525 1.9690001
-0.27378476 0.19877525 1.9690002
-0.26478362 0.19577487 1.9690001
-0.29253715 0.20440096 1.9690001
-0.28503621 0.20440096 1.969
-0.27378479 0.20440096 1.969
-0.26503363 0.20502603 1.9690002
-0.25878286 0.20627619 1.9690001
-0.29253715 0.21002668 1.9690001
-0.28450042 0.21270561 1.969
-0.27378479 0.21377717 1.9690001
-0.26440856 0.21377714 1.969
-0.25550118 0.21330836 1.969
-0.28128573 0.22502859 1.9690002
-0.27378476 0.22502857 1.9690001
-0.26440859 0.22502857 1.969
-0.25503239 0.2244035 1.969
-0.26253334 0.23628001 1.9690001
-0.25315714 0.23628001 1.9690001
-0.26347095 0.24284334 1.9690001
-0.25378224 0.24315588 1.969
-0.24753144 0.24378096 1.9690001
-0.24565619 0.25878286 1.9690001
-0.25315714 0.26440859 1.9690001
-0.24565619 0.26253334 1.9690001
0.24003048 0.27753526 1.9690001
0.24471858 0.28597382 1.9690001
0.27003428 0.28878668 1.9690001
0.24753144 0.29441237 1.9690001
0.25128192 0.29441237 1.9690001
0.26440859 0.29441237 1.9690001
0.27378479 0.29628763 1.9690002
0.28128573 0.29628763 1.9690001
0.24753144 0.30191332 1.9690001
0.25550121 0.30331978 1.969
0.26378348 0.30253839 1.9690002
0.27378479 0.30378857 1.9690002
0.27253461 0.3125397 1.9690002
-0.071259052 0.37504762 1.9690001
-0.063758098 0.37504759 1.9690002
-0.054381907 0.37504762 1.9690001
0.0075009526 0.41255239 1.9690001
0.013126667 0.41442761 1.9690001
-0.011251429 0.42380384 1.9690001
-0.0062507936 0.42630419 1.9690002
0 0.42755431 1.9690001
0.013126668 0.42005336 1.9690001
-0.0056257145 0.43130478 1.9690001
0 0.43130478 1.9690001
-0.03000381 0.57569814 1.9690001
-0.025003174 0.57632321 1.9690002
-0.011251429 0.57757336 1.9690001
-0.0075009526 0.57757336 1.9690001
-0.041255239 0.58882481 1.9690001
-0.032254092 0.58657449 1.9690001
-0.022502858 0.5813238 1.9690001
-0.015001905 0.5813238 1.9690001
0.0075009526 0.58694959 1.9690001
0.011251429 0.58882481 1.9690001
-0.090011433 0.59632576 1.9690001
-0.083760642 0.59507555 1.9690002
-0.075009525 0.59632576 1.9690001
-0.04313048 0.59445047 1.9690001
-0.036254603 0.5938254 1.9690002
0.0075009526 0.59257525 1.9690001
0.013751746 0.59507561 1.9690002
0.024378095 0.59445047 1.9690001
0.033754285 0.59257525 1.9690002
0.041255239 0.59257525 1.9690001
0.05250667 0.59632576 1.9690001
-0.10376319 0.60507685 1.9690002
-0.094699532 0.60101384 1.9690001
-0.073509336 0.60457677 1.9690001
-0.064293884 0.60489827 1.969
-0.053756829 0.60507685 1.9690002
-0.045755811 0.60157645 1.9690001
-0.037504762 0.6000762 1.9690001
0.056257144 0.6000762 1.9690001
0.063758098 0.6038267 1.9690001
0.071259052 0.60757715 1.9690001
