# .PCD v0.7 - Point Cloud Data file format
VERSION 0.7
FIELDS x y z
SIZE 4 4 4
TYPE F F F
COUNT 1 1 1
WIDTH 1494
HEIGHT 1
VIEWPOINT 0 0 0 1 0 0 0
POINTS 1494
DATA ascii
-0.14430001 0.28225714 1.6650001
-0.13446859 0.28289142 1.6650002
-0.12368572 0.28225714 1.6650001
-0.074528575 0.28225714 1.6650001
-0.063428573 0.28225714 1.6650001
-0.1316143 0.65648574 1.6650001
-0.12277959 0.65648574 1.6650001
-0.11655001 0.65648574 1.6650001
0.17442858 0.65965718 1.6650001
0.18077144 0.65965718 1.6650001
-0.12157143 0.66494292 1.6650001
-0.1160743 0.66663426 1.6650002
0.1760143 0.66600001 1.6650001
0.18235716 0.66282862 1.6650001
-0.12051429 0.6723429 1.6650001
-0.11734286 0.67551428 1.6650001
0.1760143 0.67551428 1.6650001
-0.11205715 0.68502855 1.6650001
0.17633145 0.68566287 1.6650002
0.16702859 0.69665718 1.6650001
0.17482501 0.69454288 1.6650001
0.1665 0.70088571 1.6650001
0.17760001 0.70088571 1.6650001
0.13702667 0.25812 1.6730001
-0.23422 0.2660867 1.6730001
-0.22705001 0.26529002 1.6730001
-0.21510002 0.26449335 1.6730001
-0.20394666 0.26449335 1.673
-0.19332445 0.2634311 1.6730002
-0.18562335 0.26688337 1.6730001
-0.17526668 0.26768002 1.673
-0.16889334 0.26768002 1.6730001
0.13702667 0.26449335 1.673
0.14446223 0.26555559 1.673
0.16570668 0.26768002 1.673
0.19279334 0.26449335 1.6730001
0.21669334 0.26449335 1.673
0.22625333 0.26449335 1.673
0.23581335 0.26289999 1.6730001
0.24696667 0.26130667 1.6730001
0.25174668 0.26130667 1.6730001
-0.23475111 0.27192888 1.673
-0.16358222 0.27192888 1.673
-0.15614666 0.27352223 1.6730002
-0.14977334 0.27724001 1.6730001
-0.12109334 0.27724001 1.6730001
-0.11631334 0.27405334 1.6730001
-0.10356668 0.27405334 1.6730001
-0.095600002 0.27596533 1.6730001
-0.071700007 0.27405334 1.6730001
-0.063733339 0.27405334 1.6730001
-0.054173335 0.27405334 1.673
-0.045410004 0.27644333 1.6730001
-0.032928891 0.27617779 1.673
-0.025493333 0.27532801 1.6730001
-0.015933333 0.27564669 1.6730002
-0.0063733342 0.27617779 1.673
0.0042488892 0.27405334 1.673
0.015933333 0.27086666 1.6730001
0.025493335 0.27086666 1.6730001
0.035850003 0.27166334 1.6730001
0.043816667 0.27245998 1.6730001
0.052580003 0.27086666 1.6730001
0.063733339 0.27405334 1.6730001
0.076480001 0.27405334 1.673
0.08285334 0.27564669 1.6730001
0.10834667 0.27086666 1.6730001
0.11312667 0.27086666 1.6730001
0.13384001 0.27086666 1.6730001
-0.14180666 0.28042668 1.6730001
-0.13702667 0.28042668 1.6730001
-0.12587334 0.28042668 1.6730001
-0.089226671 0.28361335 1.6730001
-0.01434 0.28042668 1.6730001
-0.14021334 0.65804672 1.6730001
-0.13384001 0.65592223 1.6730002
-0.12507668 0.65406334 1.6730001
-0.11408267 0.65581602 1.6730001
-0.10834667 0.65964001 1.6730001
0.16252001 0.65964001 1.6730001
0.1763289 0.65857786 1.673
0.18164001 0.65964001 1.6730001
-0.112808 0.66537601 1.6730001
-0.10834667 0.6692 1.6730001
0.1673 0.66521668 1.6730001
0.17367336 0.66521668 1.6730001
0.18695112 0.66388893 1.673
0.1912 0.66601336 1.6730001
-0.11312667 0.67557335 1.6730001
-0.10834667 0.67238671 1.6730001
0.16889334 0.67557335 1.673
0.17208 0.67557335 1.673
-0.11259556 0.68300891 1.673
-0.10675333 0.68672669 1.6730001
0.14021334 0.68832004 1.6730001
0.16889334 0.68672669 1.6730001
0.17335469 0.68449605 1.6730001
0.16783112 0.69469339 1.673
0.17208001 0.69150668 1.6730001
-0.2321381 0.25935429 1.6810001
-0.22413333 0.25935429 1.6810001
0.1280762 0.25935429 1.6810001
0.13287905 0.25935429 1.6810001
0.14248477 0.25935429 1.6810001
0.20812382 0.25935429 1.6810001
0.21412741 0.25655264 1.681
0.22413333 0.25935429 1.6810001
-0.23373906 0.26495761 1.6810001
-0.22413333 0.2625562 1.6810001
-0.21452762 0.2625562 1.6810001
-0.20492192 0.2625562 1.6810001
-0.18571049 0.26415715 1.6810001
-0.17770572 0.2657581 1.6810001
-0.16329715 0.26896 1.6810001
-0.15689334 0.26896 1.6810001
0.028817143 0.26896 1.6810001
0.036821909 0.26896 1.6810001
0.044826668 0.26896 1.6810001
0.11847048 0.26896 1.6810001
0.12615505 0.26703888 1.6810001
0.13287905 0.2657581 1.6810001
0.14280495 0.2657581 1.6810001
0.15369143 0.26682541 1.6810001
0.16649905 0.2657581 1.6810001
0.18250857 0.26896 1.6810001
0.20652287 0.2625562 1.6810001
0.21452762 0.2625562 1.6810001
0.22413333 0.2625562 1.6810001
0.23373905 0.2625562 1.6810001
-0.24014287 0.27856573 1.6810001
-0.15209049 0.27376288 1.6810001
-0.1448862 0.27776527 1.6810001
-0.13768192 0.27856573 1.6810001
-0.11366762 0.27376288 1.6810001
-0.10646334 0.27296239 1.6810001
-0.096057147 0.27296239 1.6810001
-0.086451426 0.27536383 1.6810001
-0.062437147 0.2721619 1.6810001
-0.052831434 0.2721619 1.6810001
-0.043225713 0.27536383 1.6810001
-0.035220955 0.27429652 1.6810001
-0.02561524 0.2721619 1.6810001
-0.016009524 0.2721619 1.6810001
-0.007044191 0.27344269 1.6810001
0.0024014288 0.27296239 1.6810001
0.02561524 0.2721619 1.6810001
0.044826668 0.2721619 1.6810001
0.064038098 0.27322921 1.6810001
0.088052385 0.2721619 1.6810001
0.097658098 0.2721619 1.6810001
0.10406191 0.2721619 1.6810001
-0.24014287 0.28176764 1.6810001
-0.13287905 0.28176764 1.6810001
0.15689334 0.64998668 1.6810001
0.1648981 0.64998668 1.6810001
0.17290287 0.64998668 1.6810001
-0.12487429 0.65318859 1.6810001
-0.1144681 0.65398908 1.6810001
-0.1065777 0.65684789 1.681
0.15689334 0.65639049 1.6810001
0.16489811 0.65639061 1.6809999
0.17503746 0.65639049 1.6810001
0.18250857 0.65959239 1.6810001
-0.10726381 0.66679668 1.6810001
0.15689334 0.66599613 1.6810001
0.16409762 0.66599613 1.681
0.17290287 0.66279429 1.6810001
-0.10512921 0.6766693 1.6810001
0.14248477 0.67880386 1.6810001
0.15689334 0.6724 1.6810001
0.16369738 0.67520171 1.681
-0.11206667 0.68200576 1.6810001
-0.10459557 0.68467402 1.6810001
-0.099259049 0.68520766 1.6810001
0.13768192 0.68520766 1.6810001
0.14168429 0.68600816 1.6810001
0.16596539 0.68467396 1.6810001
0.14568667 0.69321239 1.6810001
0.16569857 0.69401288 1.6810001
-0.23177144 0.2575238 1.6900001
-0.22533333 0.25591427 1.6900002
-0.21465462 0.25500318 1.6946669
-0.20505372 0.25680229 1.6980002
-0.19451918 0.25643268 1.6980001
-0.18327622 0.25658667 1.6980001
-0.17572953 0.2565867 1.6980001
0.22372383 0.2575238 1.6900001
-0.21567619 0.26074287 1.6900001
-0.20601906 0.26074287 1.6900001
-0.1963619 0.26074287 1.6900001
-0.18445651 0.26243305 1.6939999
-0.17373475 0.26402241 1.6930001
-0.16469124 0.26479155 1.6953332
-0.15607493 0.26694605 1.6953334
-0.144896 0.26715201 1.6980002
-0.1390743 0.26844573 1.6980001
-0.10511429 0.26682857 1.6980001
-0.095446534 0.26605552 1.6945714
-0.085708573 0.26844573 1.6980001
-0.05498286 0.26844573 1.6980001
-0.042045716 0.26844573 1.6980001
-0.032342859 0.26844573 1.6980001
-0.02472 0.26652443 1.6926666
-0.016095238 0.26718095 1.6900001
-0.0080476198 0.26718095 1.6900001
0.03710667 0.26619619 1.694
0.045140315 0.26598793 1.6926666
0.052826669 0.26736763 1.6980001
0.067919999 0.26844573 1.6980001
0.074388579 0.26844573 1.6980001
0.087325715 0.26844573 1.6980001
0.097028576 0.26844573 1.6980001
0.10565334 0.26736763 1.6980001
0.11616001 0.26619619 1.6940001
0.1247381 0.26476666 1.6900001
0.14807619 0.26235241 1.6900001
0.15387049 0.2626743 1.6900002
0.16456001 0.26512063 1.6940002
0.17429876 0.26559347 1.6945715
0.18406986 0.26802412 1.6953334
0.19589841 0.26587304 1.6953334
0.20440954 0.26235241 1.6900001
0.23428826 0.26222733 1.6926666
0.24742287 0.26197717 1.6980001
0.2522743 0.26197717 1.6980001
-0.24271619 0.27426285 1.6900002
-0.15236826 0.27147302 1.6900001
-0.14453858 0.27337667 1.6910002
-0.13562328 0.27447918 1.6953332
-0.1255862 0.27499095 1.696
-0.11621487 0.27245563 1.6948
-0.10622858 0.27040002 1.6900001
-0.09399619 0.27104384 1.6900002
-0.083459601 0.27343291 1.6945715
-0.074248388 0.27439314 1.6948
-0.064487614 0.2708267 1.6926666
-0.055597141 0.27152479 1.692
-0.045173332 0.27264953 1.6940002
-0.036123432 0.27219963 1.6931999
-0.025798097 0.27082667 1.6926666
-0.016095238 0.27040002 1.6900001
-0.0064380956 0.27040002 1.6900001
0.004836191 0.27072003 1.692
0.019405715 0.27168 1.6980001
0.024142858 0.27040002 1.6900001
0.032190476 0.27040002 1.6900001
0.04506667 0.27040002 1.6900001
0.055597145 0.27152479 1.692
0.064529523 0.27184477 1.694
0.074038096 0.27200955 1.6900002
0.083206855 0.27219963 1.6931999
0.094640002 0.27104384 1.6900002
0.10622858 0.27040002 1.6900001
0.11427619 0.27040002 1.6900001
-0.24464762 0.28005716 1.6900001
-0.13359049 0.28005716 1.6900001
-0.12715238 0.28005716 1.6900001
-0.1160635 0.63568705 1.6926666
-0.10673144 0.63715428 1.6980001
0.15362859 0.63715428 1.6980001
-0.12232381 0.64702863 1.6900001
-0.11567046 0.64377064 1.6916002
-0.10562667 0.64414829 1.695143
-0.093794286 0.64524001 1.6980001
-0.085708573 0.64362288 1.6980001
0.1390743 0.64685714 1.6980001
0.14662857 0.64416492 1.6945715
0.15435326 0.64318758 1.6914548
0.16325171 0.64426941 1.6900003
-0.12554286 0.6518572 1.6900002
-0.11588571 0.6518572 1.6900002
-0.10439162 0.65343851 1.6916002
-0.096605711 0.65512556 1.6958183
0.13842745 0.65397257 1.6980002
0.1451162 0.65465176 1.6930771
0.15344128 0.6545397 1.6900003
0.16417144 0.65024763 1.6900001
-0.10408255 0.66848892 1.6900001
-0.095682077 0.66629338 1.6950909
0.1390743 0.66626287 1.6980001
0.14508064 0.66631621 1.6926668
0.15290478 0.66634291 1.6900002
-0.10300953 0.67439049 1.6900001
-0.095293336 0.67597437 1.6960001
-0.087325715 0.67758286 1.6980001
0.14508064 0.67598861 1.6926668
0.15359457 0.67645985 1.6900003
-0.10944762 0.68565714 1.6900001
-0.095845506 0.68494904 1.6962222
0.1390743 0.68405145 1.6980001
0.14604191 0.68565655 1.6913334
0.15507647 0.68520111 1.691143
0.16095239 0.6856572 1.6900001
-0.095411435 0.69213718 1.6980001
0.14807619 0.69370478 1.6900001
0.15435325 0.69473672 1.6914548
0.16224 0.69531429 1.6900002
0.1545143 0.70175242 1.6900001
0.16256191 0.70175242 1.6900001
-0.20309524 0.25508761 1.7060001
-0.19334668 0.25346288 1.7060001
-0.18738921 0.25454605 1.706
-0.16735049 0.2599619 1.7060001
-0.095860958 0.2599619 1.7060001
0.23396572 0.2599619 1.7060001
0.24696381 0.25671238 1.7060001
0.25183812 0.25833714 1.7060001
-0.15597714 0.26564857 1.7060001
-0.14704096 0.26402381 1.7060001
-0.13583009 0.26776075 1.7060001
-0.12510666 0.26971048 1.7060001
-0.11373334 0.26808572 1.7060001
-0.10398477 0.26321143 1.706
-0.092611432 0.26483619 1.7060001
-0.084487617 0.26754412 1.706
-0.074739054 0.26971048 1.706
-0.061740953 0.26971048 1.7060001
-0.053942095 0.26711088 1.7060001
-0.045493335 0.26599675 1.7060002
-0.036827937 0.26700255 1.7060002
-0.025996191 0.26808572 1.7060001
-0.016247619 0.26646096 1.7060001
-0.0048742858 0.26646096 1.7060001
0.0010831746 0.26754412 1.706
0.027620953 0.26971048 1.7060001
0.032495238 0.26971048 1.7060001
0.048742861 0.26321143 1.7060001
0.056866668 0.26808572 1.7060001
0.063365713 0.26971048 1.7060001
0.076363817 0.26808572 1.7060001
0.084487617 0.26700255 1.7060002
0.094236195 0.26700255 1.7060002
0.10398476 0.26451126 1.7060001
0.11373333 0.26321143 1.706
0.12239873 0.26429459 1.706
0.16572572 0.26321143 1.7060001
0.17547429 0.26321143 1.7060001
0.18305652 0.26537779 1.706
0.19388826 0.26537779 1.706
0.20309524 0.26321143 1.7060001
0.24208954 0.26321143 1.7060001
-0.12998095 0.27296001 1.7060001
-0.076363817 0.27296001 1.7060001
0.014622858 0.27296001 1.7060001
-0.11048381 0.63528192 1.7060001
-0.10463468 0.63560688 1.7060001
-0.090986669 0.63528192 1.7060001
-0.08665397 0.63582349 1.706
-0.10073524 0.64178097 1.7060001
-0.094236195 0.64178097 1.7060002
-0.085416056 0.6447984 1.7060002
0.13702159 0.64665526 1.7060002
0.14557867 0.64275581 1.7060001
-0.090986669 0.65640384 1.706
0.13539682 0.65640384 1.706
-0.090986669 0.66452765 1.7060001
0.13648 0.66615242 1.706
-0.087737143 0.67427623 1.7060001
0.13810477 0.67671341 1.7060001
0.13593841 0.68564957 1.7060002
-0.17313334 0.25806668 1.715
-0.16823334 0.25806668 1.715
-0.147 0.25806668 1.715
-0.005716667 0.25725001 1.715
0.071866669 0.25806668 1.715
0.16986667 0.25806668 1.715
0.17476667 0.25806668 1.715
0.24608891 0.25588891 1.715
0.25153333 0.25480002 1.715
-0.16170001 0.26133335 1.715
-0.15353334 0.26460001 1.715
-0.147 0.26133335 1.715
-0.1323 0.26623333 1.715
-0.12413335 0.26786667 1.715
-0.11351667 0.26460001 1.715
-0.10453334 0.26133335 1.715
-0.091466673 0.26460001 1.715
-0.083844453 0.2656889 1.715
-0.075133331 0.26786667 1.715
-0.062066671 0.26786667 1.715
-0.057166666 0.26623333 1.715
-0.049000002 0.26786667 1.715
-0.034299999 0.26460001 1.715
-0.026133334 0.2656889 1.715
-0.015866667 0.26460001 1.715
-0.0069999998 0.26366669 1.715
0.00245 0.26460004 1.715
0.035933334 0.2656889 1.715
0.044100001 0.26460001 1.715
0.052266669 0.26460001 1.715
0.066422224 0.2656889 1.715
0.074044451 0.26514447 1.715
0.083300002 0.26460001 1.715
0.093100004 0.26460001 1.715
0.11596667 0.26133335 1.715
0.16823334 0.26133335 1.715
0.17640001 0.26133335 1.715
0.18837778 0.2656889 1.715
0.19600001 0.26460001 1.715
0.20580001 0.26133335 1.715
0.23846668 0.26133335 1.715
0.245 0.26133335 1.715
-0.066966668 0.27113333 1.715
-0.0032666668 0.27113333 1.715
0.0065333336 0.27113333 1.715
0.017966667 0.27113333 1.715
0.022866668 0.27113333 1.715
0.12740001 0.60760003 1.715
0.13066667 0.60760003 1.715
0.1323 0.61740005 1.715
0.13338888 0.62393337 1.715
-0.10453334 0.63482219 1.715
-0.094733335 0.63536668 1.715
-0.084933333 0.63536668 1.715
0.13524 0.63242668 1.7149999
0.14326668 0.63466674 1.715
-0.096366674 0.64026672 1.715
-0.081666671 0.64353341 1.715
0.12631112 0.64571112 1.715
0.13393335 0.64407784 1.715
0.14308001 0.64157331 1.7149999
0.15026668 0.64026672 1.715
-0.085586675 0.65725338 1.7149999
0.12600002 0.65566671 1.715
0.13175556 0.65496671 1.715
-0.086566664 0.66640002 1.715
0.12544002 0.66574669 1.7149999
0.1323 0.66640002 1.715
-0.084279999 0.67685336 1.7149999
0.11596667 0.67293334 1.715
0.12413334 0.67293334 1.715
0.133 0.67666668 1.715
0.12740001 0.68600005 1.715
0.13197334 0.68534672 1.7149999
-0.17394096 0.25598857 1.723
-0.16409524 0.25817654 1.723
-0.11158477 0.25927049 1.723
-0.10502096 0.25927049 1.723
-0.024614286 0.25927049 1.723
-0.018050477 0.25927049 1.723
0.0010939683 0.25708255 1.723
0.047587622 0.25927049 1.723
0.054151431 0.25927049 1.723
0.077124767 0.25927049 1.723
0.085329525 0.25927049 1.723
0.16737714 0.25927049 1.723
0.17394096 0.25598857 1.723
0.18050477 0.25927049 1.723
0.19527334 0.25927049 1.723
0.20511904 0.25927049 1.723
0.24368145 0.25516808 1.723
-0.15589049 0.26255238 1.723
-0.14221588 0.26364636 1.723
-0.13455811 0.26386517 1.7229999
-0.12471238 0.26419336 1.7229999
-0.1170546 0.26364636 1.723
-0.091893338 0.26255238 1.723
-0.084235556 0.26364636 1.723
-0.074827433 0.26452154 1.7229999
-0.066048339 0.26542404 1.7229998
-0.057980318 0.26364636 1.723
-0.044305716 0.26255238 1.723
-0.026255241 0.26364636 1.723
-0.01969143 0.26255238 1.723
0.0065638092 0.2658343 1.723
0.01969143 0.26911619 1.723
0.026255241 0.26911619 1.723
0.03938286 0.26255238 1.723
0.045946669 0.26255238 1.723
0.057105143 0.26517791 1.7229999
0.064544126 0.26802221 1.723
0.077124767 0.26255238 1.723
0.085329525 0.26255238 1.723
0.095175244 0.26255238 1.723
0.10502096 0.26255238 1.723
0.11158477 0.26255238 1.723
0.16245429 0.2658343 1.723
0.18542764 0.26255238 1.723
0.19363238 0.26255238 1.723
0.20019619 0.26255238 1.723
0.013127619 0.27239811 1.723
0.12635334 0.6071524 1.723
0.13127619 0.6071524 1.723
-0.082047619 0.61371619 1.723
-0.07876572 0.61207521 1.723
0.12471239 0.61465389 1.7229998
0.13127619 0.61535716 1.723
-0.084673144 0.62553108 1.7229999
-0.07876572 0.62356192 1.723
0.11732809 0.62438238 1.723
0.12471239 0.62356198 1.7229998
-0.10173905 0.63504863 1.723
-0.095175244 0.6328606 1.7229999
-0.084860682 0.63246995 1.7229998
-0.075483806 0.63549608 1.7229997
0.11552304 0.6343922 1.7229998
0.12471238 0.63504863 1.7229997
0.13258895 0.63668954 1.7229999
-0.075894058 0.64612508 1.7229998
-0.068920001 0.64325339 1.723
0.11732809 0.64571476 1.723
0.12361842 0.64544129 1.7229999
0.13291714 0.64325339 1.723
-0.082047619 0.6596629 1.723
-0.07876572 0.65473998 1.723
0.11814857 0.65638095 1.723
0.12225096 0.65556049 1.723
-0.082047619 0.66622669 1.723
0.11732809 0.66704714 1.723
0.12143048 0.66622669 1.723
-0.083141588 0.67497844 1.723
-0.075483814 0.67935437 1.723
0.10830286 0.67607242 1.723
0.11486667 0.67661935 1.7229999
0.12471237 0.67672884 1.7229999
0.11650762 0.6826362 1.723
0.12471239 0.68427712 1.7229999
-0.16330287 0.25732571 1.7320001
-0.1517562 0.25732571 1.7320001
-0.14680763 0.25732571 1.7320001
0.02969143 0.25732571 1.7320001
-0.15505524 0.26062477 1.732
-0.14350858 0.26062477 1.7320001
-0.13361144 0.26062477 1.7320001
-0.089074291 0.26392382 1.7320001
-0.076702856 0.26144952 1.7320001
-0.067630485 0.26062477 1.7320001
-0.036289524 0.26392382 1.732
0.007422857 0.26392382 1.7320001
0.015175621 0.26524344 1.7320001
0.027334968 0.26439512 1.7320002
0.036289524 0.26392382 1.732
0.042887621 0.26062477 1.7320001
0.095672391 0.26062477 1.732
0.10227048 0.26062477 1.7320001
0.11381715 0.26062477 1.7320001
0.1863962 0.26062477 1.7320001
0.19134477 0.26062477 1.7320001
0.20124191 0.26062477 1.7320001
0.24083048 0.26062477 1.7320001
0.014845715 0.27052191 1.7320001
-0.075878099 0.6152724 1.7320001
0.11876572 0.6136229 1.732
0.12206477 0.6119734 1.7320001
-0.095672391 0.62681907 1.732
-0.085115425 0.62286025 1.7320001
-0.076702856 0.62434477 1.7320001
-0.067630485 0.62681907 1.7320001
0.11491682 0.62351996 1.7320002
-0.10392 0.63506669 1.7320001
-0.096497148 0.63094288 1.7320001
-0.075878099 0.63094288 1.7320001
-0.068455249 0.63424188 1.7320001
0.10804382 0.63341719 1.7320001
0.11216763 0.63011813 1.7320001
-0.068455249 0.6433143 1.7320001
0.10886858 0.6433143 1.732
0.11282744 0.64595354 1.7320001
-0.073898673 0.6571703 1.7320001
0.11464191 0.65568572 1.7320001
-0.076349393 0.665465 1.7320002
0.11546668 0.66640764 1.732
-0.078352384 0.67630476 1.7320001
0.10886858 0.67465526 1.7320001
0.11216763 0.67465526 1.7320001
-0.15751906 0.25866288 1.7410001
0.0082904771 0.25866288 1.7410001
0.017244192 0.25733641 1.7409999
0.026529524 0.25866288 1.7410001
0.036478095 0.25866288 1.7410001
0.099485718 0.25866288 1.7410001
0.10280191 0.25866288 1.7410001
0.18736477 0.25866288 1.7410001
0.19731334 0.25866288 1.7410001
0.24208191 0.25866288 1.7410001
-0.13928001 0.26197904 1.7410001
-0.08456286 0.26197904 1.7410001
-0.034819998 0.26197904 1.7410001
-0.029845715 0.26363713 1.7410001
0.0082904771 0.26197904 1.7410001
0.018239047 0.26363713 1.7410001
0.023213334 0.26529524 1.7410001
0.034267303 0.26308444 1.7410001
0.056375239 0.26529524 1.7410001
0.066987053 0.26396877 1.7409999
0.10777619 0.26197904 1.7410001
0.11606667 0.61515337 1.7410001
-0.074282669 0.62410706 1.7409999
0.11385588 0.62123305 1.7410001
-0.06466572 0.63505054 1.7410001
0.1061181 0.63256335 1.7410001
-0.064334102 0.64533073 1.7409999
0.1061181 0.64499909 1.7410001
-0.067981906 0.65494764 1.7410001
0.1083289 0.65439492 1.7410001
0.11275048 0.65992194 1.7410001
-0.069640003 0.66821241 1.7410001
0.10943428 0.66655433 1.7410001
0.11275048 0.66655433 1.7410001
-0.074282669 0.67583966 1.7409999
-0.069640003 0.67981905 1.7410001
0.10777619 0.67650288 1.7410001
0.11275048 0.67318672 1.7410001
-0.074614286 0.68313527 1.7410001
-0.069640003 0.68313527 1.7410001
0.30824381 0.11559144 1.7590001
0.31159431 0.11559144 1.7590001
0.29484192 0.12492491 1.7589999
0.30489334 0.12396762 1.7589999
0.31293449 0.12329753 1.7590001
0.29735476 0.13318144 1.7590001
0.30454475 0.13386287 1.757
0.30531213 0.14365168 1.7589999
0.29819238 0.15747239 1.7590001
0.30573094 0.1532843 1.7590001
0.29819238 0.16082287 1.7590001
0.30154288 0.16082287 1.7590001
0.24730095 0.20552287 1.7545002
0.24659505 0.21376038 1.7590001
0.29651713 0.22113144 1.7590001
0.026666667 0.25666669 1.7500001
0.033333335 0.25666669 1.7500001
0.040000003 0.25666669 1.7500001
-0.14239524 0.26133716 1.7590001
-0.13736953 0.26133716 1.7590001
0.023333333 0.26166669 1.7500001
0.096666671 0.26000002 1.7500001
0.19333334 0.26000002 1.7500001
0.095488571 0.604761 1.7590001
0.10163111 0.60866982 1.7590002
-0.072035238 0.61983812 1.7590001
-0.06365905 0.61983812 1.7590001
0.094650954 0.61900049 1.7590001
0.10338613 0.61744493 1.7589999
0.11407747 0.61549878 1.7530001
0.12333333 0.61333334 1.7500001
-0.070814095 0.62527543 1.7536001
-0.063842081 0.62658238 1.7557274
-0.053607617 0.6282143 1.7589999
0.087112382 0.62486386 1.7590001
0.094048962 0.62656289 1.7572
0.10333335 0.62500006 1.7500001
0.11066667 0.62399995 1.7500002
-0.061064765 0.63577622 1.7567501
-0.054947812 0.63525027 1.7590001
-0.046906669 0.63324004 1.7590001
0.093332388 0.63660216 1.757875
0.10166667 0.63500005 1.7500001
-0.060102861 0.6444419 1.7530001
-0.056958098 0.64664191 1.7590002
0.093813337 0.64664191 1.7589999
0.10153905 0.64532691 1.7536001
-0.061820954 0.65500909 1.7545002
0.087112382 0.65501809 1.7590001
0.09414994 0.65477365 1.7564286
0.10166667 0.65333337 1.7500001
-0.07 0.66500002 1.7500001
-0.063131429 0.6638667 1.7577143
0.087112382 0.66339433 1.7590001
0.093332388 0.66338879 1.757875
0.10333334 0.6633333 1.7500001
0.11000001 0.66333336 1.7500001
-0.07 0.67666668 1.7500001
-0.06583555 0.67342418 1.7575001
0.094483435 0.67143548 1.7590001
0.1038143 0.67334956 1.7511251
-0.07 0.68000001 1.7500001
-0.06666667 0.68000001 1.7500001
0.10350477 0.68004894 1.7530001
0.29635048 0.11702476 1.7680001
0.30533078 0.11674413 1.7680001
0.28961524 0.12460191 1.7680001
0.29635048 0.12123429 1.7680001
0.28961524 0.13302097 1.7680001
0.29432994 0.13537829 1.768
0.29803431 0.14396572 1.7680001
0.30308571 0.14817524 1.7680001
0.29859558 0.15491049 1.7680001
0.30476952 0.15491048 1.7680001
0.29635048 0.16164573 1.7680001
0.25257143 0.21216001 1.7680001
0.29803431 0.21889524 1.7680001
0.30308571 0.21889524 1.7680001
0.30308571 0.22226286 1.7680001
0.090925716 0.59943622 1.7680001
-0.050514288 0.60953909 1.7680001
-0.045462858 0.60953909 1.7680001
-0.030308573 0.60953909 1.7680001
0.085874289 0.60785526 1.7680001
0.091767624 0.60532957 1.7680001
-0.070720002 0.6196419 1.7680001
-0.063563809 0.61669528 1.7679999
-0.053881902 0.6162743 1.7679999
-0.044741224 0.61579323 1.7679999
-0.033676192 0.61290669 1.7680001
0.085313015 0.61515176 1.768
0.093872383 0.61585337 1.7679999
0.10608 0.6162743 1.7680001
-0.063984767 0.62300956 1.7680001
-0.05388191 0.62469333 1.768
-0.045462858 0.62637717 1.768
0.085874289 0.62469339 1.7680001
-0.052198097 0.63984764 1.7680001
-0.045462858 0.63563812 1.7680001
0.087558098 0.63648003 1.7680001
-0.051861335 0.64590937 1.768
-0.047146667 0.64321524 1.7680001
0.086211048 0.64725643 1.768
-0.053881902 0.65444064 1.7680001
-0.047146667 0.65331811 1.7680001
0.085313022 0.65444064 1.7680001
-0.057249527 0.66342098 1.7680001
0.085032381 0.66426289 1.7680001
-0.060617145 0.67520761 1.7680001
-0.056407623 0.67436576 1.7680001
-0.062300958 0.68025905 1.7680001
0.096538417 0.68138164 1.7680001
0.28601238 0.11677429 1.7770001
0.29221779 0.11621016 1.7770001
0.30462858 0.11395365 1.7770001
0.31139812 0.11169714 1.7770001
0.28635088 0.12455925 1.7770001
0.26570383 0.13708286 1.7770001
0.28770477 0.13539048 1.7770001
0.29108953 0.13877524 1.7770001
0.26739621 0.14554477 1.7770001
0.27303746 0.14667302 1.7770001
0.28657651 0.14441651 1.7770001
0.29391018 0.14498064 1.7770001
0.28770477 0.15739143 1.7770001
0.29312038 0.15637602 1.7770001
0.28770477 0.16246858 1.7770001
0.2944743 0.16359684 1.7770001
0.3029362 0.16754572 1.7770001
0.25216478 0.20308572 1.7770001
-0.05077143 0.60925716 1.7770001
-0.044001907 0.60925716 1.7770001
-0.033847619 0.60925716 1.7770001
-0.025385715 0.60925716 1.7770001
0.076721273 0.60812896 1.7770001
0.083490796 0.60530823 1.7770001
-0.062618092 0.61264193 1.7770001
-0.055848572 0.61264193 1.7770001
-0.040617146 0.6160267 1.7770001
-0.034524571 0.61670363 1.7770001
-0.025385717 0.6160267 1.7770001
0.076495633 0.61534971 1.7770001
0.081234291 0.6160267 1.7770001
-0.040617146 0.62279624 1.7770001
-0.033847619 0.62364239 1.7770001
-0.027078096 0.62279624 1.7770001
0.082588196 0.62550402 1.7770001
-0.040617146 0.63633525 1.7770001
0.083265148 0.63565832 1.7770001
-0.044001907 0.64564335 1.7770001
0.07784953 0.64987433 1.7770001
0.082588196 0.64581263 1.7770001
-0.054156192 0.6532591 1.7770001
-0.043324955 0.65461296 1.7770001
0.054156192 0.65664381 1.7770001
0.07784953 0.6532591 1.7770001
0.081234291 0.65495145 1.7770001
-0.052463811 0.66341335 1.7770001
-0.046032764 0.6627363 1.7770001
0.076721281 0.66115683 1.7770001
0.081234291 0.66341335 1.7770001
-0.052463811 0.67356759 1.7770001
-0.047386665 0.67356759 1.7770001
0.07784953 0.67356765 1.7770001
0.08236254 0.6724394 1.7770001
-0.05077143 0.68033719 1.7770001
0.27782223 0.10772698 1.7860001
0.28576002 0.10716 1.7860001
0.29511523 0.10801047 1.7860001
0.30617145 0.10886095 1.7860001
0.31297526 0.10886095 1.7860001
0.27597952 0.11609001 1.7860001
0.28439924 0.11430401 1.786
0.29596573 0.11226287 1.7860001
0.30447048 0.11226286 1.7860001
0.25599334 0.12842192 1.7860001
0.26534858 0.12757142 1.7860001
0.2755543 0.12587048 1.7860001
0.28320861 0.12672096 1.7860001
0.25611484 0.13559021 1.7860001
0.2648626 0.13559021 1.7860001
0.2755543 0.1360762 1.7860001
0.28405908 0.1360762 1.7860001
0.25514287 0.14628191 1.7860001
0.26492333 0.14628191 1.7860001
0.27612129 0.14571492 1.7860001
0.2846261 0.1468489 1.7860001
0.29766667 0.14968382 1.7860001
0.24833906 0.15988953 1.7860001
0.25514287 0.15648761 1.7860001
0.26648256 0.15535365 1.7860001
0.2755543 0.15648763 1.7860001
0.28478804 0.15600164 1.7860001
0.29709968 0.15421969 1.7860001
0.24833906 0.16499239 1.7860001
0.25344193 0.16329144 1.7860001
0.26875049 0.16329144 1.7860001
0.27623469 0.1646522 1.786
0.28507963 0.16533259 1.786
0.29426479 0.16669334 1.7860001
0.28673199 0.17301118 1.7860001
0.29596573 0.17349716 1.7860001
0.30447048 0.17519811 1.7860001
0.29596573 0.18030097 1.7860001
0.30447048 0.18030097 1.7860001
0.25854477 0.19560952 1.7860001
0.26194668 0.19560952 1.7860001
0.26194668 0.20071238 1.7860001
0.29936764 0.20411427 1.7860001
0.30447048 0.2041143 1.7860001
0.25514287 0.21772191 1.7860001
0.29936764 0.21432 1.7860001
0.30390349 0.21545398 1.7860001
0.25514287 0.22112381 1.7860001
-0.052729525 0.60894096 1.7860001
-0.044224765 0.60894096 1.7860001
-0.034019049 0.60894096 1.7860001
-0.023813333 0.60894096 1.7860001
0.068038099 0.60724002 1.7860001
0.074841909 0.60553902 1.7860001
0.083346672 0.60213715 1.7860001
-0.054430477 0.61234289 1.7860001
-0.02041143 0.61574477 1.7860001
0.068038099 0.61574477 1.7860001
0.071440004 0.61574477 1.7860001
-0.04082286 0.62935239 1.7860001
-0.034019049 0.62935239 1.7860001
-0.022679366 0.62708443 1.7860001
0.068038099 0.62424958 1.7860001
0.074841909 0.62538356 1.7860001
-0.04082286 0.63445526 1.7860001
-0.034019049 0.6361562 1.7860001
-0.023813331 0.6361562 1.7860001
0.078243814 0.63615626 1.7860001
-0.04082286 0.64636195 1.7860001
-0.037420955 0.64636189 1.7860001
0.077393338 0.64721239 1.7860001
0.08164572 0.64296001 1.7860001
-0.042523813 0.65316576 1.7860001
-0.035720002 0.65571719 1.7860001
0.055280954 0.65741807 1.7860001
0.066337146 0.65996957 1.7860001
0.074274927 0.65713465 1.7860001
-0.04082286 0.66507244 1.7860001
0.05613143 0.66337144 1.7860001
0.073140956 0.66507244 1.7860001
-0.044224765 0.67017525 1.7860001
0.077109843 0.67244321 1.7860001
0.28378096 0.097442865 1.7950001
0.29472193 0.097784773 1.7950001
0.30258572 0.099152386 1.7950001
0.26668572 0.10599048 1.7950001
0.27352381 0.10599048 1.7950001
0.28378096 0.10257145 1.7950001
0.29489288 0.1034262 1.7950001
0.30429521 0.10428096 1.7950001
0.31113335 0.10599048 1.7950001
-0.25300953 0.11966667 1.7950001
0.24959049 0.11966667 1.7950001
0.25642857 0.11966667 1.7950001
0.2653181 0.11693144 1.7950001
0.27095953 0.11539286 1.7950001
-0.2564286 0.12308571 1.7950001
0.24959049 0.12479524 1.7950001
0.25574476 0.12445334 1.7950001
0.2649762 0.12308572 1.7950001
0.27010477 0.12308572 1.7950001
0.25300953 0.15385714 1.7950001
0.26326668 0.1572762 1.7950001
0.25779623 0.16548191 1.7950001
0.2649762 0.1641143 1.7950001
0.27181429 0.16753334 1.7950001
0.2564286 0.17437145 1.7950001
0.2649762 0.17437144 1.7950001
0.27352381 0.17437145 1.7950001
0.28172952 0.17505524 1.7950001
0.25984764 0.18462856 1.7950001
0.2649762 0.18462859 1.7950001
0.27352381 0.18462859 1.7950001
0.28378093 0.18462859 1.7950001
0.29361075 0.18505597 1.7950001
0.30380678 0.18560545 1.7950001
0.25984764 0.19146667 1.7950001
0.26583096 0.19403097 1.7950001
0.27352381 0.19488573 1.7950001
0.28378093 0.19488573 1.7950001
0.29403812 0.19488572 1.7950001
0.30429524 0.19488573 1.7950001
0.25899288 0.20599762 1.7950001
0.2653181 0.20582667 1.7950001
0.27352381 0.20343335 1.7950001
0.28378096 0.20416598 1.7950001
0.29446548 0.20471548 1.7950001
0.25870797 0.21312064 1.7950001
0.26326668 0.21369049 1.7950001
0.30258572 0.21540001 1.7950001
0.30429524 0.22907619 1.7950001
0.30429524 0.23249525 1.7950001
0.078638099 0.36925715 1.7950001
0.083766669 0.36925715 1.7950001
0.088895239 0.37267619 1.7950001
0.096417151 0.37677905 1.7950001
0.10599049 0.37780479 1.7950001
0.095733337 0.38293335 1.7950001
0.06496191 0.59747863 1.7950001
-0.051285718 0.60859048 1.7950001
-0.043592859 0.60773575 1.7950001
-0.034190476 0.60859048 1.7950001
-0.023363493 0.60631108 1.7950001
-0.017095238 0.60517144 1.7950001
0.06453453 0.60474408 1.7950001
0.07436429 0.60260713 1.7950001
0.08547619 0.60517144 1.7950001
-0.058123812 0.61542857 1.7950001
-0.023933334 0.61200953 1.7950001
-0.017095238 0.61542863 1.7950001
0.063594297 0.61542857 1.7950001
-0.017095238 0.62568575 1.7950001
0.06410715 0.62654048 1.7950001
-0.023933334 0.6376524 1.7950001
-0.017095238 0.63594288 1.7950001
0.067526191 0.63508809 1.7950001
0.073509522 0.63594288 1.7950001
-0.032480955 0.64790952 1.7950001
-0.023933332 0.64534527 1.7950001
0.058123812 0.64961904 1.7950001
0.065938778 0.64668846 1.7950001
0.073509522 0.6462 1.7950001
-0.032822859 0.65645713 1.7950001
-0.023933334 0.65303814 1.7950001
0.047866669 0.65645719 1.7950001
0.055559527 0.65560246 1.7950001
0.06538929 0.65688461 1.7950001
0.071800001 0.65645719 1.7950001
-0.037609525 0.66671431 1.7950001
0.06410715 0.66585958 1.7950001
-0.041028574 0.67355239 1.7950001
-0.036469843 0.67127305 1.7950001
0.068380952 0.67013335 1.7950001
0.073509529 0.67184287 1.7950001
0.27833143 0.09793143 1.8040001
0.2920762 0.096213333 1.8040001
-0.26458669 0.1099581 1.8040001
-0.25329632 0.10701279 1.804
-0.24396951 0.10995809 1.8040003
-0.23366095 0.10995809 1.8040003
-0.22678858 0.1099581 1.8040001
-0.21648002 0.10995809 1.8040003
0.26630479 0.10824001 1.8040001
0.27317715 0.10480382 1.8040001
-0.25427809 0.11511239 1.804
-0.24167873 0.11568508 1.8040003
-0.23366095 0.11511239 1.804
-0.22507048 0.11511239 1.8040001
-0.21648002 0.11511239 1.804
0.25427809 0.11545601 1.8040001
0.26229587 0.11453968 1.8040003
-0.27145904 0.12370286 1.8040001
-0.26573208 0.12370285 1.804
-0.25370541 0.12427556 1.804
-0.24396951 0.12370285 1.804
-0.23366097 0.12370285 1.804
-0.22507048 0.12370285 1.804
-0.21690954 0.12413239 1.804
-0.25384858 0.13401142 1.804
-0.24396954 0.13057524 1.8040003
-0.23537907 0.13057524 1.8040001
-0.21441829 0.13332419 1.8040001
-0.27145904 0.14088382 1.8040001
-0.26458666 0.14432 1.804
-0.25525984 0.1448109 1.804
-0.24626033 0.1466108 1.8040003
-0.21762539 0.14202921 1.8040003
-0.27145904 0.15462857 1.8040001
-0.26458669 0.15462859 1.804
-0.25427809 0.15462859 1.804
-0.24439906 0.15505812 1.804
-0.23366097 0.15634668 1.8040001
-0.27145904 0.16665524 1.8040001
-0.26458669 0.16493714 1.804
-0.25427809 0.16493714 1.804
-0.24396954 0.16493715 1.804
-0.23366095 0.16395538 1.804
-0.27145904 0.17180952 1.8040001
-0.26458669 0.17180951 1.8040003
-0.25427809 0.17352764 1.804
-0.24396953 0.17352761 1.8040001
-0.23323143 0.17481619 1.804
-0.22507048 0.17696382 1.8040001
-0.23022477 0.1821181 1.8040001
-0.22678858 0.18383619 1.8040001
0.27489522 0.20960765 1.8040003
0.28520381 0.20960763 1.8040001
0.2920762 0.20960763 1.8040001
0.26802287 0.21648002 1.8040003
0.27489525 0.21441829 1.8040001
0.28520381 0.21304382 1.8040003
0.29551238 0.21304382 1.8040001
0.26802287 0.22335239 1.8040001
0.29894859 0.22678858 1.8040001
-0.041234288 0.37798098 1.8040001
0.077314287 0.3728267 1.8040001
0.085904755 0.37569019 1.8040003
0.092777148 0.37798098 1.8040001
-0.010308572 0.38485333 1.8040001
0.046388574 0.38828954 1.8040001
0.053260952 0.38828954 1.8040001
0.089340955 0.38141716 1.8040001
0.092777148 0.38313526 1.8040001
0.054979049 0.39172572 1.8040001
-0.022335239 0.59789717 1.8040001
-0.013744761 0.59789717 1.8040003
0.057269841 0.59675175 1.8040003
0.065287627 0.59583539 1.8040001
0.072160006 0.59789717 1.8040001
-0.05154286 0.60820574 1.8040001
-0.046388574 0.60820574 1.8040001
-0.034361906 0.60820574 1.8040003
-0.023194287 0.60391051 1.8040001
-0.013057524 0.6027078 1.8040001
0.056697145 0.60476953 1.804
0.073878095 0.60133338 1.8040001
-0.056697145 0.61336005 1.8040001
-0.013744762 0.6185143 1.8040001
0.058415245 0.61507809 1.8040003
0.061851431 0.6185143 1.8040001
0.058415242 0.62366861 1.8040001
0.061851431 0.62710476 1.8040001
-0.013744761 0.63569528 1.8040003
0.058415242 0.63397717 1.8040001
0.062996827 0.637986 1.8040003
-0.024053335 0.64944005 1.8040001
-0.015462858 0.64686286 1.8040001
0.05755619 0.64686286 1.8040001
0.062710479 0.64514482 1.8040001
-0.026630476 0.65717149 1.8040001
0.046388574 0.65631241 1.8040001
0.053260956 0.6545943 1.8040001
0.061851431 0.65631241 1.8040001
-0.034361906 0.66662097 1.8040001
-0.022335239 0.66318476 1.8040001
0.06528762 0.67349339 1.8040001
0.072160006 0.67692953 1.8040001
-0.23322859 0.096746668 1.8140001
-0.22689398 0.09444318 1.8140001
-0.26605332 0.10711239 1.8140001
-0.25914288 0.10711239 1.8140001
-0.24482831 0.10464436 1.8140001
-0.2349562 0.10365716 1.814
-0.22631808 0.10365715 1.8140001
0.26605335 0.10711239 1.8140001
0.27641904 0.1002019 1.8140001
-0.28332955 0.11575048 1.8140001
-0.27641904 0.11344699 1.8140001
-0.26518953 0.11402286 1.8140001
-0.24762541 0.11517461 1.8140001
-0.22459048 0.11056762 1.8140001
0.25741524 0.11229524 1.8140001
0.2625981 0.11056762 1.8140001
-0.28332955 0.12266096 1.8140001
-0.27641904 0.12093334 1.8140001
-0.2625981 0.12784381 1.8140001
-0.2625981 0.13475429 1.8140001
-0.25914288 0.13475429 1.8140001
-0.24532193 0.13648191 1.8140001
-0.23564725 0.13544533 1.8140001
-0.22320838 0.13337219 1.8140001
-0.21768001 0.13820952 1.8140001
-0.27296382 0.14857525 1.8140001
-0.2522324 0.14339238 1.8140001
-0.24417017 0.14396827 1.8140001
-0.23594342 0.14561363 1.8140001
-0.22286287 0.14512001 1.8140001
-0.21768001 0.14857525 1.8140001
-0.27296382 0.15548572 1.8140001
-0.24186668 0.15203048 1.8140001
-0.23495619 0.15499212 1.8140001
-0.22113524 0.15203048 1.8140001
-0.21768001 0.15203048 1.8140001
-0.27296382 0.16239619 1.8140001
-0.2349562 0.16930667 1.8140001
-0.22502238 0.16628334 1.8140001
-0.25568762 0.17967241 1.8140001
-0.24532191 0.17759924 1.8140001
-0.23841144 0.17967239 1.8140001
-0.22113524 0.17276192 1.8140001
-0.25914288 0.18658286 1.8140001
-0.23668382 0.18312763 1.8140001
-0.22113524 0.21768001 1.8140001
-0.21768001 0.21768001 1.8140001
0.27641904 0.21768001 1.8140001
0.28505716 0.21768001 1.8140001
0.29196763 0.21768001 1.8140001
0.30060571 0.21768001 1.8140001
0.31269908 0.21768001 1.8140001
-0.21768001 0.22113524 1.8140001
0.26506612 0.2250841 1.8140001
0.27641904 0.22415859 1.8140001
0.28505716 0.22459048 1.8140001
0.29326335 0.22502239 1.8140001
0.30060571 0.22286287 1.8140001
0.31442669 0.22113524 1.8140001
0.26691714 0.23236479 1.8140001
0.27296382 0.23841144 1.8140001
0.29369524 0.23322861 1.8140001
0.30267888 0.23633829 1.8140001
0.31097144 0.23841144 1.8140001
0.26432574 0.24186668 1.8140001
0.31097144 0.24186668 1.8140001
0.25914288 0.25914288 1.8140001
0.2625981 0.25568762 1.8140001
-0.065649524 0.37662098 1.8140001
-0.024186669 0.37662098 1.8140001
-0.015548572 0.37662098 1.8140001
0.067377143 0.37662098 1.8140001
0.073711753 0.37546924 1.8140001
-0.063346036 0.38122794 1.8140001
-0.054851908 0.38309956 1.8140001
-0.044918094 0.38353142 1.8140001
-0.036279999 0.38353145 1.8140001
-0.024186669 0.38180384 1.8140001
-0.014512 0.38145828 1.8140001
-0.0069104764 0.38698667 1.8140001
0.036279999 0.3800762 1.8140001
0.044918098 0.38353145 1.814
0.054790206 0.38353142 1.8140001
0.066225387 0.38410735 1.8140001
0.079470478 0.3800762 1.8140001
0.085229211 0.38122794 1.8140001
-0.0051828572 0.39044192 1.8140001
0.058739051 0.39044192 1.8140001
0.063921906 0.39044192 1.8140001
-0.022459049 0.59775621 1.8140001
-0.015548572 0.59775621 1.8140001
0.055283815 0.59602857 1.8140001
0.063921906 0.59430099 1.8140001
0.072560005 0.59775621 1.8140001
-0.041462857 0.60812193 1.8140001
-0.033688571 0.60725808 1.8140001
-0.027641905 0.60812193 1.8140001
-0.0060466668 0.60380292 1.8140001
0.04722159 0.60351497 1.8140001
0.051828574 0.60466671 1.8140001
0.076015241 0.60121143 1.8140001
-0.012093334 0.61503237 1.8140001
-0.0069104764 0.61157715 1.8140001
0.054132063 0.61503237 1.8140001
-0.012093334 0.62539816 1.8140001
-0.0069104764 0.62194288 1.8140001
0.055283811 0.6253981 1.8140001
-0.011229523 0.63489997 1.8140001
-0.0069104764 0.63749146 1.8140001
0.056435559 0.63576382 1.8140001
-0.011229523 0.6469934 1.8140001
-0.0051828572 0.64267433 1.8140001
0.054296602 0.64563596 1.8140001
-0.020731429 0.65822291 1.8140001
-0.013820953 0.65822291 1.8140001
0.048373334 0.65649527 1.8140001
0.051828574 0.65304005 1.8140001
-0.024186667 0.66513336 1.8140001
-0.012957143 0.66426957 1.8140001
-0.03455238 0.67377144 1.8140001
0.27446857 0.097280003 1.824
0.28662857 0.093805715 1.8240001
-0.27620572 0.10770286 1.8240001
-0.26752001 0.10770286 1.8240001
0.26404572 0.10422858 1.8240001
0.27273142 0.10075429 1.8240001
-0.28315431 0.11117715 1.8240001
-0.27446857 0.11812571 1.824
-0.26752001 0.11638857 1.8240001
0.25709715 0.11117715 1.8240001
-0.28257525 0.12739049 1.824
-0.27707431 0.12594287 1.8240001
-0.26752001 0.1216 1.8240001
-0.28315431 0.13202286 1.8240001
-0.27403429 0.13549715 1.8240002
-0.26665145 0.13549715 1.8240001
-0.23277715 0.1372343 1.8240001
-0.22698666 0.13665526 1.824
-0.27678478 0.14476191 1.824
-0.23277715 0.14418286 1.8240001
-0.22467048 0.1470781 1.824
-0.22582857 0.15733552 1.8240002
-0.21888001 0.15808001 1.8240001
-0.22235429 0.16329144 1.8240001
-0.21888001 0.16502857 1.8240001
-0.27099431 0.17718858 1.8240001
-0.26578286 0.17718858 1.8240001
-0.22756572 0.1737143 1.8240001
-0.26404572 0.18761143 1.8240001
-0.25362289 0.1858743 1.8240002
-0.24493715 0.18587428 1.8240001
-0.23625143 0.18761142 1.824
-0.26172957 0.19224381 1.824
-0.25362289 0.19247544 1.8240001
-0.24493715 0.19282287 1.8240001
-0.23712 0.19195428 1.8240001
-0.22582859 0.20845716 1.824
-0.22582857 0.21490939 1.8240002
0.29878858 0.21714287 1.8240001
0.31442288 0.21540572 1.8240001
-0.22409143 0.22582857 1.8240002
0.27794287 0.22930287 1.8240001
0.29878858 0.22235429 1.8240001
-0.2235124 0.23393524 1.824
0.26578286 0.23798858 1.8240001
0.27562669 0.23625146 1.8240002
0.28489146 0.23625143 1.8240002
0.29531428 0.23972572 1.824
0.26578286 0.2466743 1.8240001
0.27446857 0.24493714 1.8240002
0.28489146 0.24493714 1.8240002
0.29531431 0.24493714 1.8240002
0.30573717 0.24493714 1.8240002
0.26665145 0.2527543 1.8240001
0.2744686 0.25362286 1.8240002
0.28141716 0.25362286 1.8240001
0.2652038 0.26462477 1.8240002
0.27794287 0.28489143 1.8240001
0.28141716 0.28489143 1.8240001
-0.020845715 0.3682743 1.8240001
-0.062537149 0.37696001 1.8240001
-0.055588573 0.37696001 1.8240002
-0.045165714 0.37696001 1.8240002
-0.032426666 0.37638095 1.824
-0.024320001 0.37348577 1.8240002
-0.013897143 0.37464383 1.8240002
-0.0052114287 0.37869716 1.8240001
0.0017371429 0.37869716 1.8240001
0.017371429 0.37869716 1.8240001
0.024320001 0.37869716 1.824
0.034742858 0.37869716 1.824
0.045165718 0.37869716 1.824
0.055588573 0.37869716 1.824
0.062537149 0.37869716 1.8240001
-0.059062861 0.38912001 1.8240001
-0.048640002 0.38912001 1.8240001
-0.033874288 0.38304004 1.8240001
-0.010422857 0.38564572 1.8240001
-0.0048640002 0.38495088 1.8240001
0.0039085718 0.38521144 1.8240002
0.013897144 0.38564572 1.8240002
0.024320001 0.38564575 1.8240002
0.03424653 0.38663837 1.8240002
0.057325717 0.38564572 1.8240001
0.06485334 0.38448763 1.824
0.076000005 0.38607997 1.8240002
0.084540963 0.38796189 1.824
0.090331435 0.38912001 1.8240001
-0.053851433 0.39433146 1.8240001
-0.0052114287 0.39780572 1.8240001
0.0052114287 0.39259431 1.8240001
0.012159999 0.39433146 1.8240001
0.025188573 0.39346287 1.8240001
0.035177145 0.39563429 1.8240002
0.04466939 0.3970612 1.8240002
0.052114289 0.39780572 1.8240001
0.08338286 0.39259431 1.8240001
0.0011580953 0.40880764 1.824
0.012159999 0.40996572 1.8240001
0.038217146 0.40301716 1.8240001
0.045165718 0.40301716 1.824
0.0034742858 0.41517717 1.8240001
-0.022582857 0.59583998 1.8240001
-0.013897143 0.59509552 1.8240002
-0.0069485717 0.59583998 1.8240001
0.027794287 0.59757715 1.8240001
0.036480002 0.59757715 1.8240001
0.04655543 0.59549254 1.8240001
0.054720003 0.59497142 1.8240001
0.069485717 0.59757715 1.8240001
-0.03242667 0.60452574 1.824
-0.027794287 0.60626292 1.8240001
-0.010422857 0.60105145 1.8240001
-0.0046323813 0.60336763 1.824
0.0034742858 0.60626292 1.8240001
0.015981715 0.60522062 1.8240001
0.024320001 0.60452574 1.8240002
0.034742858 0.60452574 1.8240002
0.044007618 0.60336763 1.8240002
0.078171432 0.60452574 1.8240001
-0.055588573 0.61494857 1.8240001
-0.045165718 0.61147434 1.8240001
-0.0043428573 0.61581719 1.8240001
0.024320001 0.61494857 1.8240002
0.034742862 0.61494857 1.8240002
0.045165714 0.61494863 1.8240002
0.052114289 0.61842287 1.8240001
-0.0048640002 0.62537146 1.8240001
0.0039706123 0.62437874 1.8240002
0.025188573 0.62276572 1.8240001
0.036132574 0.62398171 1.8240001
0.045165718 0.62537146 1.8240002
0.052114289 0.62537146 1.824
-0.010422857 0.63232005 1.8240001
-0.0048640002 0.63509941 1.8240001
0.0026057144 0.63840002 1.8240001
0.038217146 0.63579428 1.824
0.045165718 0.63579422 1.8240002
0.052982863 0.63579428 1.8240001
-0.0046323813 0.64737529 1.824
0.0013897143 0.64621723 1.8240001
0.027794287 0.64274287 1.8240001
0.035611432 0.64534855 1.8240001
0.045165718 0.64621711 1.8240002
0.052114289 0.64274287 1.8240001
-0.010422857 0.65664005 1.8240001
-0.0052114287 0.65490294 1.8240001
0.0011580953 0.65548199 1.824
0.047481906 0.65432388 1.824
-0.0052114292 0.66358858 1.8240002
0.00086857146 0.66272002 1.8240001
-0.031268574 0.67401147 1.8240001
-0.024320001 0.67401147 1.8240001
-0.020845715 0.68443429 1.8240001
-0.017371429 0.68443429 1.8240001
0.26709431 0.097760007 1.8330001
0.27582288 0.09252286 1.8330001
0.28280571 0.094268575 1.8330001
-0.28280571 0.10823429 1.8330001
-0.27407718 0.10474286 1.8330001
-0.26534858 0.10474286 1.8330001
-0.25138286 0.10125143 1.8330001
-0.24789144 0.10125143 1.8330001
0.26534858 0.10474285 1.8330001
-0.28280571 0.13791144 1.8330001
-0.27931431 0.13616572 1.8330001
-0.2304343 0.13965715 1.8330001
-0.2304343 0.14489429 1.8330001
-0.2304343 0.15187715 1.8330001
-0.27582288 0.17806287 1.8330001
-0.27233145 0.18504572 1.8330001
-0.26651239 0.18446381 1.8330001
-0.26604688 0.1962183 1.8329999
-0.25487429 0.19813856 1.8330001
-0.24440001 0.19901143 1.8330001
-0.234624 0.19761486 1.8329999
-0.26360285 0.20599429 1.8330001
-0.25138286 0.20599429 1.8330001
-0.24440002 0.20599429 1.8329999
-0.23436214 0.20555787 1.8330001
-0.22694287 0.20599429 1.8330001
-0.24396358 0.21603215 1.8330001
-0.23492326 0.21646857 1.8330001
-0.25836572 0.22694287 1.8330001
-0.23392572 0.22519715 1.8330001
-0.26185715 0.2304343 1.8330001
-0.25487432 0.2304343 1.8330001
-0.23130715 0.23305286 1.8330001
-0.22694287 0.23741715 1.8330001
-0.23218001 0.24789144 1.8330001
-0.22694287 0.24789144 1.8330001
-0.23183088 0.25417602 1.8329999
-0.22694285 0.25487432 1.8330001
0.27582288 0.25487432 1.8330001
0.28673357 0.25487429 1.8330001
0.29467657 0.25417599 1.8329999
0.30235773 0.25417599 1.8329999
-0.2304343 0.26185715 1.8330001
-0.22694287 0.26185715 1.8330001
0.27538645 0.26491216 1.8330001
0.28455144 0.26185715 1.8330001
0.27582288 0.27582288 1.8329999
0.28804284 0.27931431 1.8330001
0.29328001 0.27756858 1.8330001
0.27756858 0.28280571 1.8330001
0.28629714 0.28579834 1.8330001
0.29502571 0.28629714 1.8330001
-0.038405716 0.3770743 1.8330001
-0.005237143 0.3770743 1.8330001
0.024440002 0.3770743 1.8330001
-0.066337146 0.3875486 1.8330001
-0.036660001 0.38056573 1.8330001
-0.06459143 0.39453146 1.8330001
-0.059354287 0.39627713 1.8330001
-0.047134288 0.39627716 1.8330001
0.0020948572 0.39592803 1.8329999
0.017457144 0.39627713 1.8330001
0.022694286 0.39802286 1.8330001
0.0044889795 0.40450692 1.8330001
0.013965715 0.40500569 1.8329999
0.024440002 0.40500572 1.8329999
0.032586668 0.40384188 1.8330001
0.0069828574 0.41548002 1.8330001
0.013965716 0.41548005 1.8329999
0.02444 0.41373429 1.8330001
0.031422857 0.41722572 1.8330001
-0.012968165 0.57658452 1.8330001
-0.005237143 0.57608575 1.8330001
-0.013965716 0.58481431 1.8330001
-0.0052371426 0.58481431 1.8330001
0.0011638096 0.58539623 1.8330001
0.024440002 0.58656001 1.8330001
0.034914285 0.58656001 1.8330001
0.047134288 0.58656001 1.8330001
-0.022112383 0.59237909 1.8330001
-0.013965716 0.59144801 1.8329999
-0.0048879995 0.59284461 1.8329999
0.0034914287 0.59354293 1.8329999
0.012569144 0.59493953 1.8329999
0.024876431 0.59397936 1.8330001
0.034914285 0.59354293 1.8329999
0.044391025 0.59304416 1.8330001
0.055862859 0.59267002 1.8330001
0.066337146 0.59703434 1.8330001
-0.034914289 0.60401714 1.8329999
-0.027931429 0.60227144 1.8330001
-0.0034914287 0.60052574 1.8330001
0.0034914287 0.60343528 1.8330001
0.012801907 0.60285336 1.8330001
0.022694286 0.60052574 1.8330001
0.031422857 0.60052574 1.8330001
0.073320001 0.60052574 1.8330001
-0.052371431 0.61449146 1.8330001
-0.04626143 0.61187285 1.8330001
-0.038405716 0.611 1.8330001
0.0029926528 0.61548901 1.8330001
0.01346694 0.61548901 1.8330001
0.0034914287 0.62147433 1.8330001
0.013965716 0.62496573 1.8329999
0.022694286 0.62845719 1.8330001
0.033168573 0.62845719 1.8330001
0.0034914289 0.63544005 1.8330001
0.013965716 0.63543999 1.8329999
0.02444 0.63543999 1.8329999
0.033168573 0.63544005 1.8330001
0.0058190473 0.64824194 1.8330001
0.013965715 0.64591432 1.8329999
0.024003573 0.64591432 1.8330001
0.033168573 0.64416862 1.8330001
0.0058190473 0.6552248 1.8330001
0.014664 0.65429372 1.8329999
0.02444 0.65464288 1.8330001
0.034914285 0.65638858 1.8329999
0.043060955 0.65871626 1.8330001
0.038405716 0.66511714 1.8330001
0.045388572 0.66337144 1.8330001
-0.024440002 0.67733717 1.8330001
-0.01571143 0.67559147 1.8330001
-0.031422857 0.68082857 1.8330001
-0.022112383 0.68199235 1.8330001
-0.016293334 0.68199235 1.8330001
-0.2852262 0.10619191 1.8430001
-0.2808381 0.18605524 1.8430001
-0.27732763 0.18605524 1.8430001
-0.28200826 0.19541651 1.8430001
-0.27557239 0.19483143 1.8430001
-0.28200826 0.2012673 1.8430001
-0.27311507 0.20290554 1.8430001
-0.25802001 0.20536287 1.8430001
-0.27030668 0.21062858 1.8430001
-0.26445588 0.21530922 1.8430001
-0.25626478 0.21413907 1.8430002
-0.26328573 0.22467048 1.8430001
-0.25509462 0.22525556 1.8430001
-0.24623486 0.22567348 1.8430002
-0.26504096 0.23695715 1.8430001
-0.25626478 0.23695715 1.8430001
-0.24529454 0.23476312 1.8430002
-0.23730819 0.23590401 1.8430001
-0.26328573 0.24222286 1.8430001
-0.25626478 0.2439781 1.8430001
-0.2439781 0.24573337 1.8430001
-0.23570342 0.24473035 1.8430002
-0.22818096 0.2439781 1.8430001
-0.24339302 0.25392446 1.8430001
-0.23871239 0.25450954 1.8430001
0.29839048 0.25977525 1.8430001
0.30190095 0.25977525 1.8430001
-0.24222286 0.26504096 1.8430001
-0.23695715 0.26504096 1.8430001
0.28610381 0.2667962 1.8430001
0.29488 0.26504096 1.8430001
0.30190095 0.26328573 1.8430001
0.28434858 0.27381715 1.8430002
0.29224715 0.27293953 1.8430001
0.28434858 0.2808381 1.8430001
0.28434858 0.29488 1.8430001
0.29277372 0.29417792 1.8430001
0.29136953 0.30190095 1.8430001
0.035104763 0.41323325 1.8430002
0.042125717 0.41248098 1.8430001
0.015212064 0.42242733 1.8430001
0.024573334 0.42125717 1.8430001
0.014041905 0.55816573 1.8430001
0.014041905 0.5616762 1.8430001
-0.017552381 0.57922858 1.8430001
