# .PCD v0.7 - Point Cloud Data file format
VERSION 0.7
FIELDS x y z
SIZE 4 4 4
TYPE F F F
COUNT 1 1 1
WIDTH 1490
HEIGHT 1
VIEWPOINT 0 0 0 1 0 0 0
POINTS 1490
DATA ascii
0.01280762 0.2321381 1.6810001
-0.086451434 0.68840957 1.6810001
-0.086451434 0.69161147 1.6810001
-0.081648573 0.70762098 1.6810001
-0.07684572 0.70762098 1.6810001
-0.10246096 0.71562576 1.6810001
-0.084850475 0.71482521 1.6810001
-0.10246096 0.72202957 1.6810001
-0.096057147 0.72523141 1.6810001
-0.088052385 0.72202957 1.6810001
-0.086851664 0.7364381 1.681
-0.086451434 0.74284196 1.6810001
-0.060836192 0.74764478 1.6810001
0.056333333 0.099790476 1.6900001
0.061161906 0.099790476 1.6900001
0.051748574 0.10026286 1.6980001
0.10944762 0.10944762 1.6900001
0.11266667 0.10944762 1.6900001
0.11652952 0.11781715 1.6900002
0.13359049 0.11910477 1.6900001
0.11588571 0.12232381 1.6900001
-0.014554286 0.2069943 1.6980001
-0.0097028576 0.2069943 1.6980001
-0.016128255 0.21448191 1.6933335
-0.0067645721 0.21513143 1.6908003
0.0019314287 0.21438858 1.6900002
-0.015713809 0.22519764 1.6920002
-0.0064634923 0.22604448 1.6953332
0.0012876191 0.22597714 1.6900002
-0.012876191 0.23177144 1.6900001
-0.0060509527 0.2351481 1.694
0.0032209526 0.23593619 1.6910002
0.012876191 0.23820953 1.6900001
-0.014485715 0.24786668 1.6900001
-0.0064516407 0.24528763 1.6944444
0.0048400005 0.24551618 1.6960001
0.012876191 0.24142858 1.6900001
-0.080857143 0.66949719 1.6980001
-0.077622861 0.66949719 1.6980001
-0.092177145 0.67920005 1.6980001
-0.083726756 0.6765573 1.6965455
-0.074675426 0.67629111 1.6972001
-0.064146668 0.67596579 1.6980001
-0.10117842 0.6845867 1.6953334
-0.094299197 0.68565887 1.6936924
-0.084058277 0.6853348 1.6908003
-0.074266672 0.68566471 1.6953335
-0.067919999 0.68405145 1.6980001
-0.10300953 0.69370478 1.6900001
-0.094564505 0.69444031 1.6907276
-0.082775511 0.6957742 1.6900003
-0.075055785 0.69394678 1.6922858
-0.10188 0.70345712 1.6980001
-0.094134428 0.70504707 1.6957142
-0.083294153 0.70452839 1.691143
-0.077257149 0.70497149 1.6900001
-0.10241905 0.71693331 1.6980001
-0.093878411 0.71578836 1.6946669
-0.086414285 0.71312284 1.696
-0.094961911 0.72267616 1.6900003
-0.10300953 0.73555243 1.6900001
-0.096571423 0.73555237 1.6900002
-0.10300953 0.740381 1.6900001
-0.096169055 0.74319762 1.6900003
-0.08369524 0.740381 1.6900001
-0.05472381 0.74681908 1.6900001
-0.048285715 0.74681908 1.6900001
-0.05472381 0.75164765 1.6900002
-0.046676196 0.75164765 1.6900001
0.18441048 0.11617048 1.7060001
0.17872381 0.12510668 1.7060001
0.18522286 0.12348191 1.7060002
-0.0097485716 0.24046478 1.7060001
-0.012998096 0.25346288 1.7060001
-0.0056866668 0.25508761 1.7060001
0.0050219912 0.25671235 1.7060001
0.01408127 0.25400445 1.7060002
0.0084487619 0.26581106 1.7060001
0.014297905 0.26711088 1.7060001
0.015435238 0.27539715 1.7060001
0.024913019 0.28704128 1.706
0.025996191 0.29245716 1.7060001
-0.10073524 0.66940194 1.7060001
-0.082862861 0.66940194 1.7060001
-0.077988572 0.66940194 1.7060001
-0.093307756 0.67636526 1.7060002
-0.08611238 0.67265147 1.7060001
-0.073114291 0.67265147 1.7060001
-0.06742762 0.67508864 1.7060001
-0.097485721 0.68240005 1.7060001
-0.10154763 0.71408284 1.7060001
-0.097485721 0.71489525 1.7060001
0.24717779 -0.028311111 1.715
0.1323 0.1176 1.715
0.19273335 0.12576668 1.715
0.18456668 0.13066667 1.715
0.013066667 0.24826668 1.715
-0.0049000001 0.25806668 1.715
0.0032666668 0.25806668 1.715
0.018783335 0.25561666 1.715
0.023683336 0.25561669 1.715
-0.21886668 0.26460001 1.715
-0.0049000001 0.26296669 1.715
0.0016333334 0.26623333 1.715
0.018293332 0.26394668 1.7149999
0.025199998 0.26506668 1.715
0.032666668 0.26786667 1.715
0.0065333336 0.27276665 1.715
0.017966667 0.27521667 1.715
0.026133334 0.27440003 1.715
0.018293334 0.28485331 1.7149999
0.026133334 0.28311113 1.715
0.032666668 0.28746668 1.715
0.018293332 0.2933467 1.7149999
0.026133334 0.2944667 1.715
0.032666668 0.29073334 1.715
0.0196 0.30053335 1.715
0.026133332 0.30380002 1.715
-0.23426668 0.31406668 1.715
0.026133334 0.31196666 1.715
-0.24173334 0.32503337 1.715
-0.23628889 0.32231113 1.715
-0.093426667 0.66705334 1.7149999
-0.084933341 0.66966671 1.715
-0.07676667 0.66966671 1.715
-0.094733335 0.67293334 1.715
-0.088200003 0.67293334 1.715
-0.073500007 0.67293334 1.715
-0.10453334 0.71866667 1.715
0.24778381 -0.032819048 1.723
0.18706858 0.11322571 1.723
0.19281191 0.11486667 1.723
0.19582033 0.12471239 1.723
0.20019619 0.12799428 1.723
0.18050477 0.13127619 1.723
0.19199145 0.13127619 1.723
0.018050477 0.24942477 1.723
0.024614286 0.24942477 1.723
-0.18050477 0.25598857 1.723
-0.17558192 0.25762951 1.723
-0.054151431 0.25598857 1.723
-0.049228575 0.25598857 1.723
-0.009845715 0.25927049 1.723
-0.22316954 0.26747525 1.723
-0.21769969 0.26802221 1.723
-0.14112191 0.26255238 1.723
-0.13619906 0.26255238 1.723
-0.0049228575 0.26747525 1.723
-0.22316954 0.27568001 1.723
-0.21879365 0.27349207 1.723
-0.0032819049 0.27239811 1.723
0.0039382856 0.2763364 1.7229999
-0.23629715 0.28224382 1.723
-0.22316954 0.28224382 1.723
-0.21988763 0.28388476 1.723
0.009845715 0.28388476 1.723
0.01312762 0.28552574 1.723
0.029537143 0.28552574 1.723
0.032819048 0.28552574 1.723
-0.23575015 0.29591843 1.7229999
-0.22973335 0.29537144 1.723
0.014768572 0.29537141 1.723
0.032819048 0.29701239 1.723
-0.2450489 0.30740511 1.723
-0.2358869 0.30562741 1.7229998
-0.22973335 0.30521715 1.723
0.018050477 0.30521715 1.723
0.026255239 0.30521715 1.723
0.032819048 0.30521715 1.723
-0.24573264 0.31465262 1.7229998
-0.23957905 0.31342191 1.723
-0.2280924 0.31178096 1.723
0.01969143 0.31178096 1.723
0.026255239 0.31553173 1.7229998
0.032819048 0.31670383 1.723
0.09845715 0.31670383 1.723
0.10173905 0.31834477 1.723
-0.2450489 0.32272065 1.723
-0.23575015 0.32545558 1.7229999
0.029537143 0.32490858 1.723
0.09845715 0.32162669 1.723
0.10173905 0.32162669 1.723
-0.23629713 0.3314724 1.723
-0.091893338 0.66622669 1.723
-0.085876517 0.66732067 1.7229999
-0.07876572 0.66950858 1.723
-0.072201908 0.67279053 1.723
-0.066294476 0.67410326 1.7229999
0.26282415 -0.12316445 1.732
0.25732571 -0.11381715 1.7320001
0.2622743 -0.11546668 1.7320002
0.25732571 -0.10556953 1.732
0.26298124 -0.10509824 1.7320002
0.27217144 -0.10227048 1.7320001
0.25732571 -0.098971434 1.7320001
0.26458365 -0.097651817 1.7320001
0.27217144 -0.098971434 1.7320001
0.25732571 -0.08742477 1.7320001
0.26062477 -0.08742477 1.7320001
0.24742858 -0.036289524 1.7320001
0.25072762 -0.036289524 1.7320001
0.19629334 0.095672376 1.7320002
0.20124191 0.095672384 1.7320001
0.19629334 0.10721905 1.7320001
0.20124191 0.10721906 1.7320001
0.1957435 0.1132673 1.732
0.19794287 0.12206477 1.7320001
0.20124191 0.12536381 1.7320001
0.17814858 0.13196191 1.7320001
0.1863962 0.13526095 1.7320001
0.19464383 0.13526095 1.7320001
-0.14295875 0.25622603 1.732
-0.13691048 0.25567621 1.7320001
-0.21278858 0.26722288 1.7320001
-0.19134478 0.26392382 1.732
-0.18474668 0.26392382 1.7320002
-0.17437825 0.26486641 1.7320002
-0.1649524 0.26722288 1.732
-0.1583543 0.26722288 1.7320001
-0.14350858 0.26474857 1.7320001
-0.13526095 0.26447368 1.7320002
-0.12536381 0.26557338 1.7320002
-0.1171162 0.26557335 1.7320001
-0.057733335 0.26062477 1.7320001
-0.22433525 0.27382097 1.7320001
-0.21349551 0.27429226 1.7320002
-0.20501225 0.27476355 1.7320002
-0.19464381 0.273821 1.7320002
-0.18474667 0.273821 1.7320002
-0.17484953 0.27217141 1.7320002
-0.16605206 0.27162158 1.732
-0.12536381 0.27052191 1.7320001
-0.005498413 0.27382097 1.732
-0.24248001 0.28701717 1.7320001
-0.2337611 0.28371811 1.7320002
-0.22543494 0.28316829 1.7320002
-0.21773715 0.28206858 1.7320001
-0.20454097 0.28041905 1.732
-0.193984 0.28173867 1.7320001
0.0039588572 0.28305832 1.7320001
-0.24280992 0.29295546 1.7320001
-0.23357257 0.29163581 1.7320001
-0.22527783 0.29408655 1.7320002
0.0085775238 0.29295546 1.7320001
0.013196191 0.29691431 1.7320001
0.036289524 0.29361525 1.732
-0.24460082 0.30256981 1.7320002
-0.23093334 0.30186287 1.7320001
-0.22474764 0.30351239 1.7320002
-0.21773715 0.30681145 1.7320001
-0.095672384 0.30351239 1.7320001
0.013196191 0.30021334 1.7320001
0.036289524 0.30351239 1.732
-0.24742858 0.31011048 1.7320001
-0.23093334 0.31340954 1.7320001
-0.22339265 0.31293824 1.7320002
-0.21773715 0.31011048 1.7320001
0.0098971436 0.31340954 1.7320001
0.016495239 0.31011048 1.7320001
0.034639999 0.31176001 1.7320001
0.097321913 0.31505907 1.7320001
0.10227048 0.31670859 1.7320001
-0.23093334 0.32495618 1.7320001
-0.22268574 0.32660571 1.7320002
0.02639238 0.32660571 1.732
0.095672384 0.32000762 1.7320001
-0.23093334 0.33650285 1.7320001
-0.22301564 0.33518323 1.7320001
-0.21663748 0.33870223 1.732
-0.23093334 0.34310097 1.7320001
-0.2210362 0.34475049 1.7320001
-0.21663748 0.34420064 1.732
-0.092373334 0.66640764 1.7320001
-0.085225396 0.66530794 1.7320002
-0.076349385 0.66735029 1.7320002
-0.069280006 0.6680572 1.7320001
-0.07422857 0.67300576 1.7320001
0.29679906 -0.1442543 1.7410001
0.30343145 -0.1425962 1.7410001
0.30343145 -0.13762191 1.7410001
0.26750603 -0.12601525 1.7410001
0.27192762 -0.12435715 1.7410001
0.26861143 -0.11606666 1.7410001
0.25534669 -0.10280191 1.7410001
0.26861143 -0.10777619 1.7410001
0.27358574 -0.10777619 1.7410001
0.2570048 -0.097827621 1.7410001
0.26197904 -0.096169524 1.7410001
0.2570048 -0.08456286 1.7410001
0.26197904 -0.082904764 1.7410001
0.25866288 -0.076272383 1.7410001
0.26197904 -0.076272383 1.7410001
0.25700477 -0.066323809 1.7410001
0.26197904 -0.066323809 1.7410001
0.24871428 -0.046426669 1.7410001
0.25368857 -0.043110479 1.7410001
0.2487143 -0.039794289 1.7410001
0.25368857 -0.039794289 1.7410001
0.24672461 -0.025866289 1.7409999
0.2487143 -0.019897144 1.7410001
0.19233905 0.096169524 1.7410001
0.20494059 0.094843052 1.7409999
0.19565524 0.1061181 1.7410001
0.20228763 0.10280191 1.7410001
0.19897144 0.11938286 1.7410001
0.20228763 0.11606666 1.7410001
0.20449843 0.12601525 1.7410001
0.18570668 0.13817461 1.7410001
0.19565524 0.13679285 1.7410001
0.20228763 0.13264762 1.7410001
0.22715905 0.13762191 1.7410001
0.22771175 0.1437016 1.7410001
0.19731334 0.17244191 1.7410001
0.21389429 0.23876572 1.7410001
0.21389429 0.2453981 1.7410001
-0.20726192 0.25700477 1.7410001
-0.19565524 0.25866288 1.7410001
-0.13264762 0.2570048 1.7410001
-0.12822604 0.25755748 1.7410001
0.21555239 0.25424129 1.7410001
0.22218478 0.25866288 1.7410001
-0.20693031 0.26662174 1.7409999
-0.19731335 0.26529524 1.7410001
-0.16580953 0.26529524 1.7410001
-0.15586096 0.26861143 1.7410001
-0.14812317 0.26529524 1.7410001
-0.13264762 0.26197904 1.7410001
-0.12767334 0.26197904 1.7410001
-0.11496127 0.26529524 1.7410001
-0.1083289 0.26750603 1.7410001
-0.065218419 0.26640067 1.7410001
-0.057204284 0.26529527 1.7410001
-0.20394573 0.27192762 1.7410001
-0.17575811 0.27856001 1.7410001
-0.16580953 0.2759071 1.7409999
-0.15254477 0.27524382 1.7410001
-0.1425962 0.27192762 1.7410001
-0.1251862 0.27358574 1.7410001
-0.11559293 0.27429631 1.7410001
-0.1083289 0.27303302 1.7410001
-0.077598855 0.27524382 1.7409999
-0.066323817 0.27358571 1.7410001
-0.056375239 0.2727567 1.7410001
-0.0066323811 0.27856001 1.7410001
-0.21389428 0.28353429 1.7410001
-0.18636991 0.28320268 1.7409999
-0.17907429 0.28187621 1.7410001
-0.16580953 0.2851924 1.7410001
-0.056375239 0.28187621 1.7410001
-0.0049742861 0.28353429 1.7410001
0.0011053969 0.2874032 1.7410001
0.038136192 0.28850859 1.7410001
-0.2487143 0.29845715 1.7410001
-0.16580953 0.29182476 1.7410001
0.0049742861 0.29514095 1.7410001
-0.22218478 0.30508953 1.7410001
-0.21886858 0.30508953 1.7410001
-0.10280191 0.30508953 1.7410001
-0.095340483 0.30343145 1.7410001
-0.088431746 0.30398414 1.7410001
0.0099485721 0.30343145 1.7410001
0.013264762 0.30508953 1.7410001
0.039794289 0.30508953 1.7410001
0.043110479 0.30674762 1.7410001
-0.22881715 0.31835431 1.7410001
-0.21555237 0.31598562 1.7410001
0.0066323811 0.31503811 1.7410001
0.037583493 0.31503811 1.7410001
0.043110479 0.31172192 1.7410001
0.094511434 0.31669623 1.7410001
0.10528906 0.31586719 1.7410001
0.16912572 0.31835431 1.7410001
0.17244191 0.31835431 1.7410001
-0.22715904 0.32498667 1.7410001
-0.21649988 0.32451293 1.7410001
0.034819998 0.32332858 1.7410001
0.10777619 0.3216705 1.7410001
0.16912572 0.32332858 1.7410001
0.17410001 0.32332858 1.7410001
-0.23213334 0.33825144 1.7410001
-0.22715905 0.33825144 1.7410001
-0.2172105 0.33327717 1.7410001
-0.22715904 0.34488383 1.7410001
-0.089537144 0.65992194 1.7410001
-0.08622095 0.66323811 1.7410001
-0.076272383 0.66544896 1.7410001
-0.065660581 0.66788083 1.7409999
-0.066323817 0.6748448 1.7410001
0.2864657 -0.14072001 1.7590001
0.29386669 -0.14191619 1.7572
0.30000001 -0.14 1.7500001
0.27452239 -0.13100478 1.7522502
0.28430477 -0.13379619 1.756
0.29433334 -0.13379048 1.756
0.30308244 -0.13247646 1.7512858
0.31079715 -0.13200095 1.7545002
0.27714095 -0.12353904 1.7530001
0.28398287 -0.12360953 1.7540001
0.29450667 -0.12382286 1.757
0.30408663 -0.12380476 1.75675
0.31159431 -0.1273181 1.7590001
0.27495125 -0.11612 1.7518002
0.28562808 -0.11642906 1.7590001
0.29484192 -0.11559144 1.7589999
0.30712697 -0.11614984 1.7590002
0.25611848 -0.093621336 1.7554001
0.26416668 -0.092500001 1.7500001
0.25372455 -0.083182387 1.755625
0.25323811 -0.07384643 1.7522501
0.24793525 -0.06365905 1.7590002
0.25238094 -0.062857144 1.7500001
0.26000002 -0.060000002 1.7500001
0.23788382 -0.055282861 1.7590001
0.24659507 -0.052937526 1.7590001
0.25408 -0.053820718 1.7522501
0.26089144 -0.053521905 1.756
0.24517962 -0.04349497 1.7564286
0.255 -0.046666667 1.7500001
0.26000002 -0.046666667 1.7500001
0.23676699 -0.031271111 1.7590002
0.24338168 -0.033818569 1.7533751
0.23620857 -0.023453334 1.7589999
0.24238096 -0.022857144 1.7500001
0.23426287 -0.01338857 1.757
0.24238096 -0.013809524 1.7500001
0.23412763 -0.0050171432 1.756
0.24166667 -0.0049999999 1.7500001
0.22783239 0.0033504765 1.7590002
0.23426287 0.0033447619 1.757
0.2429173 0.0038242175 1.7538573
0.2264922 0.014071999 1.7590001
0.23413332 0.013375239 1.756
0.24458477 0.013401906 1.7589999
0.22475502 0.023857143 1.757875
0.23413907 0.023413334 1.756
0.2420719 0.022615716 1.7590001
0.21610571 0.033504762 1.7589999
0.22422478 0.033466667 1.757
0.23387048 0.033409525 1.7540001
0.24123429 0.030154286 1.7590001
0.21610571 0.043556187 1.7589999
0.22448193 0.043556198 1.7589999
0.23319313 0.042216003 1.7590001
0.21430856 0.05357524 1.7579999
0.22422859 0.053544763 1.757
0.23229969 0.052490797 1.7590002
0.20587717 0.063607626 1.7575001
0.21418856 0.063590474 1.757
0.22448193 0.063659042 1.7589999
0.23354042 0.064469382 1.7551429
0.20426098 0.073668569 1.7579999
0.21443051 0.073710471 1.7589999
0.22448193 0.073710479 1.7589999
0.23272136 0.072969794 1.7525715
0.19717239 0.085214287 1.7545002
0.20368573 0.083476193 1.753
0.21443048 0.083761908 1.7589999
0.22448193 0.083761901 1.7589999
0.23246096 0.083624758 1.756
0.19325638 0.091614477 1.7554001
0.20333333 0.090000004 1.7500001
0.21402645 0.093449056 1.7522501
0.22378026 0.093272381 1.75675
0.23285809 0.092138097 1.7590001
0.19441524 0.1034662 1.7522501
0.20666666 0.10333333 1.7500001
0.21345717 0.10339049 1.751
0.22196907 0.10470238 1.7590001
0.19097716 0.11056572 1.7590001
0.20666668 0.115 1.7500001
0.21333335 0.11454546 1.7500001
0.22272275 0.11565687 1.7564286
0.20666668 0.12333333 1.7500001
0.21364681 0.1244645 1.7525715
0.22447431 0.12414429 1.755625
0.23501197 0.12492491 1.7589999
0.24123429 0.12396763 1.7590002
0.17666668 0.13666667 1.7500001
0.18000001 0.13666667 1.7500001
0.20555556 0.13555557 1.7500001
0.21345526 0.13340953 1.751
0.22320597 0.13308382 1.7522501
0.23362665 0.13187163 1.7572
0.17590001 0.14072001 1.7590001
0.18326597 0.14403072 1.7533751
0.19333334 0.145 1.7500001
0.20368575 0.14358288 1.753
0.21430667 0.14399047 1.7579999
0.22287321 0.14413281 1.7538573
0.18579143 0.15399332 1.7575001
0.19344193 0.15342285 1.751
0.20426479 0.15403429 1.7579999
0.21393715 0.15376952 1.755
0.22291668 0.15291665 1.7500001
0.18678905 0.16333573 1.7590001
0.1935505 0.16352001 1.7520001
0.20344955 0.16342857 1.751
0.21357524 0.16352001 1.7520001
0.22291668 0.16375001 1.7500001
0.17590001 0.17757525 1.7590001
0.1849592 0.17445116 1.7564286
0.19303882 0.17344691 1.7511251
0.20471075 0.17362122 1.7577143
0.21401167 0.17380595 1.7589999
0.22396953 0.17383428 1.755
0.2319624 0.17522715 1.7522501
0.17590001 0.18092573 1.7590001
0.18509634 0.18366286 1.7577143
0.19410668 0.1840667 1.757
0.20051429 0.1821381 1.7545002
0.22615717 0.18427621 1.7589999
0.23118286 0.18427621 1.7590002
0.18595146 0.19432761 1.7589999
0.19421905 0.19421905 1.7579999
0.20102859 0.19432764 1.7590002
0.23118286 0.19097716 1.7590001
0.19480626 0.20342179 1.7589999
0.20326225 0.20549589 1.7589999
0.2264162 0.20386048 1.7545002
0.23295657 0.20417333 1.7572
0.19600287 0.21108001 1.7590001
0.20437907 0.21443048 1.7589999
0.21108001 0.21275525 1.7590001
0.20437907 0.2244819 1.7589999
0.21345335 0.22345906 1.751
0.20638934 0.23386323 1.7590001
0.21333335 0.23333335 1.7500001
0.22000001 0.23500001 1.7500001
0.23676699 0.23676699 1.7590002
0.24525487 0.23587354 1.7590001
0.2534484 0.23605676 1.7554001
-0.11559144 0.24793525 1.7590001
0.20772953 0.24458475 1.7590002
0.20999999 0.24333334 1.7500001
0.25416666 0.24083334 1.7500001
-0.12463772 0.25597638 1.7590001
-0.11568306 0.25678855 1.7554001
0.21243203 0.25519124 1.7536001
-0.20500001 0.26500002 1.7500001
-0.1708743 0.26468763 1.7590001
-0.16313 0.26518238 1.7567501
-0.15373333 0.2645689 1.7545
-0.12333333 0.26166669 1.7500001
-0.1146996 0.26238859 1.7564286
-0.1048016 0.26534733 1.756
-0.093813337 0.26636288 1.7589999
-0.083693333 0.26613429 1.7575001
-0.07415428 0.26520839 1.7536001
-0.06555555 0.26444447 1.7500001
-0.051282544 0.26646411 1.756
-0.046906669 0.26803809 1.7590001
-0.012267937 0.26646414 1.7560002
0.20772953 0.26803809 1.7590001
0.21369335 0.26378477 1.753
0.22166668 0.26500002 1.7500001
-0.16000001 0.27500001 1.7500001
-0.15333332 0.27388889 1.7500001
-0.14333335 0.27533334 1.7500002
-0.13427773 0.27590245 1.7536001
-0.10245443 0.27400789 1.7512858
-0.093493342 0.2737962 1.753
-0.084285721 0.27285713 1.7500001
-0.074000001 0.27133334 1.7500002
-0.063333333 0.27333334 1.7500001
-0.052222226 0.27277777 1.7500001
-0.043917142 0.27480215 1.75675
-0.034342382 0.2772519 1.7590001
-0.023436191 0.27617714 1.7575001
-0.013384762 0.27427047 1.756
0.20772953 0.27473906 1.7590002
0.21369335 0.27380192 1.753
0.22270669 0.27421114 1.7525715
-0.18260096 0.28814095 1.7590001
-0.17393334 0.28597715 1.756
-0.16166668 0.28333333 1.7500001
-0.15350474 0.28365907 1.7520001
-0.14390476 0.28447047 1.757
-0.13254514 0.2831623 1.7572
-0.125 0.28333333 1.7500001
-0.11515152 0.28363636 1.7500001
-0.10344954 0.28365716 1.7520001
-0.09370476 0.2844705 1.757
-0.084020004 0.28466713 1.755625
-0.073419042 0.28366095 1.7520001
-0.063333333 0.28333333 1.7500001
-0.052916668 0.28333333 1.7500001
-0.043407619 0.28382477 1.753
-0.03346286 0.28446859 1.757
-0.023333333 0.28333333 1.7500001
-0.013333334 0.28333333 1.7500001
0.033504762 0.28814095 1.7590001
0.20533635 0.28526911 1.7589999
0.21382669 0.28398287 1.7540001
0.22267887 0.28287429 1.7554001
-0.25 0.29666668 1.7500001
-0.18260096 0.29149145 1.7590001
-0.17295001 0.29157907 1.7545
-0.16194667 0.29383907 1.7530001
-0.15385525 0.29434288 1.756
-0.14407049 0.29484197 1.7589999
-0.12437388 0.29307023 1.7512858
-0.11454546 0.29363635 1.7500001
-0.10339049 0.29349905 1.751
-0.093704768 0.29450288 1.757
-0.083714284 0.29467618 1.7579999
-0.073670477 0.29467618 1.7579999
-0.063512385 0.29417717 1.755
-0.053333338 0.29333332 1.7500001
-0.043478094 0.29433528 1.756
-0.033504765 0.29484197 1.7589999
-0.023333333 0.29333332 1.7500001
-0.013333333 0.29333332 1.7500001
-0.0050000004 0.29333332 1.7500001
0.0011111111 0.29555556 1.7500001
0.043837857 0.29431143 1.7533751
0.053607624 0.29484192 1.7589999
0.063622862 0.2946724 1.7579999
0.072908573 0.29449877 1.7512858
0.082086667 0.29651713 1.7590001
0.19600287 0.29819238 1.7590001
0.20426098 0.2946724 1.7579999
0.21401167 0.29442313 1.7589999
0.22113144 0.29149145 1.7590001
-0.16208667 0.30077145 1.7545002
-0.15479201 0.30288309 1.7590001
-0.14502777 0.30441472 1.7589999
-0.13234381 0.30489334 1.7590001
-0.12414429 0.30473143 1.755625
-0.11417487 0.30347311 1.7527001
-0.10380954 0.30238095 1.7500001
-0.09348762 0.30051431 1.7530001
-0.083343104 0.30447453 1.7589999
-0.073152065 0.30377653 1.7589999
-0.064077862 0.30447453 1.7589999
-0.052989531 0.30330455 1.7522501
-0.043476194 0.30437332 1.756
-0.033504762 0.30489334 1.7589999
-0.023384763 0.30403236 1.7540001
-0.013379048 0.30437902 1.756
-0.0050171432 0.30437902 1.756
0.0029188097 0.30414215 1.7522501
0.044444446 0.30222222 1.7500001
0.053457145 0.30402666 1.7540001
0.063333333 0.30333331 1.7500001
0.073417142 0.30367997 1.7520001
0.083761908 0.30489334 1.7589999
0.092975721 0.30740619 1.7590001
0.10274794 0.30712697 1.7590002
0.19432762 0.30489334 1.7589999
0.20426098 0.30472189 1.7579999
0.21242018 0.30422324 1.7590001
0.25296098 0.30824381 1.7590001
-0.21111111 0.31444445 1.7500001
-0.13401905 0.31326956 1.7590001
-0.1273181 0.31159431 1.7590001
-0.10386477 0.31159431 1.7590002
-0.092975721 0.31243193 1.7590001
-0.084599525 0.31243193 1.7590001
-0.043476194 0.31106287 1.756
-0.032834668 0.31293449 1.7590001
-0.023413336 0.31441143 1.756
-0.013392381 0.3147676 1.7579999
-0.0050257142 0.31494477 1.7589999
0.0029188097 0.31351665 1.7533751
0.012777778 0.31333333 1.7500001
0.04466667 0.31466669 1.7500002
0.053333338 0.31333333 1.7500001
0.06344381 0.31387427 1.753
0.073710479 0.31452593 1.7589999
0.084125005 0.31432238 1.757875
0.093038812 0.31331524 1.7522501
0.10398031 0.31248793 1.7515001
0.1139162 0.31829524 1.7590002
0.12061714 0.31829524 1.7590001
0.16484343 0.31695503 1.7590001
0.17301981 0.31597793 1.7536001
0.18469502 0.31536356 1.7589999
0.19349 0.31243193 1.7590001
0.20354143 0.31243193 1.7590001
0.24527873 0.31384635 1.756
0.25148046 0.31329715 1.7545002
0.013333335 0.32166669 1.7500001
0.020000001 0.32166669 1.7500001
0.036666669 0.32666668 1.7500001
0.043409523 0.32389143 1.753
0.053487625 0.32426286 1.755
0.06365905 0.32332098 1.7589999
0.070360005 0.32332098 1.7590001
0.085683048 0.32399696 1.7572
0.091333337 0.32400003 1.7500002
0.11533333 0.3226667 1.7500002
0.12396762 0.3249962 1.7589999
0.13401905 0.3249962 1.7589999
0.14390667 0.32462478 1.757
0.15403429 0.32481143 1.7579999
0.1635181 0.32370666 1.7520001
0.17666668 0.32000002 1.7500001
0.1818238 0.32360765 1.7515001
0.25 0.32000002 1.7500001
0.035000004 0.33166668 1.7500001
0.041880954 0.33169717 1.7590001
0.12564287 0.33169717 1.7590001
0.13449769 0.33409041 1.7589999
0.14349334 0.33371237 1.7520001
0.15359618 0.33389902 1.753
0.1624981 0.33169717 1.7590001
0.13736953 0.34342384 1.7590001
0.14430287 0.34424311 1.75675
0.15346192 0.34196094 1.7515001
0.21778096 0.35682571 1.7590001
0.22280669 0.35682571 1.7590001
0.10721524 0.36520192 1.7590001
0.1139162 0.3629683 1.7590002
0.10721524 0.37860382 1.7590001
0.11056572 0.37860382 1.7590001
0.10721524 0.38865525 1.7590001
0.11056572 0.38698 1.7590001
0.10721524 0.39200574 1.7590001
0.11056572 0.39200574 1.7590001
-0.083401911 0.66223246 1.7515001
-0.073616184 0.66421235 1.75675
-0.064476736 0.66575402 1.7551429
-0.061983809 0.68349719 1.7590001
0.27614477 -0.1358273 1.7680001
0.30982095 -0.12460191 1.7680001
0.31318858 -0.1229181 1.7680001
0.28557408 -0.11247847 1.768
0.29635048 -0.11113143 1.7680001
0.30443275 -0.11382552 1.768
0.28793144 -0.10776381 1.7680001
0.29567695 -0.10641676 1.768
0.25369397 -0.093170792 1.7680001
0.24920382 -0.07408762 1.7680001
0.2458362 -0.063984767 1.7680001
0.23910096 -0.050514288 1.7680001
0.2433105 -0.054723814 1.7680001
0.23910096 -0.045462858 1.7680001
0.24246858 -0.043779049 1.7680001
0.23741716 -0.035360001 1.7680001
0.22899811 -0.011786667 1.7680001
0.22899811 -0.0050514285 1.7680001
0.22563048 0.0050514285 1.7680001
0.22338539 0.013470476 1.7680001
0.21805334 0.024415238 1.7680001
0.22226286 0.020205716 1.7680001
0.21216001 0.033676192 1.7680001
0.20879239 0.047146667 1.7680001
0.21216001 0.043779049 1.7680001
0.23741715 0.045462858 1.7680001
0.20879239 0.053881902 1.7680001
0.23797841 0.051636826 1.7680001
0.24246858 0.055565715 1.7680001
0.20205715 0.065668575 1.7680001
0.23741716 0.060617145 1.7680001
0.19700572 0.08419048 1.7680001
0.22899811 0.097660959 1.7680001
0.23236573 0.097660959 1.7680001
0.1919543 0.10439619 1.7680001
0.22765107 0.10372267 1.768
0.23236573 0.10102858 1.7680001
0.22787558 0.11225396 1.7680001
0.23573335 0.11449905 1.7680001
0.17680001 0.14480762 1.7680001
0.17848381 0.15827811 1.7680001
0.18185143 0.15491049 1.7680001
0.18409652 0.16501333 1.7680001
0.21889524 0.17848381 1.7680001
0.17680001 0.18690285 1.7680001
0.18185143 0.18690285 1.7680001
0.20542479 0.18858667 1.7680001
0.21620116 0.18319848 1.768
0.22226286 0.18521905 1.7680001
0.17680001 0.19532192 1.7680001
0.18185143 0.19363812 1.7680001
0.20710857 0.19532192 1.768
0.21216001 0.19532192 1.7680001
0.18690285 0.20374095 1.7680001
0.19363812 0.20879239 1.7680001
0.20766985 0.20317967 1.7680001
0.21216001 0.20542477 1.7680001
0.22338539 0.20766985 1.7680001
0.23741716 0.20879239 1.7680001
0.19599544 0.21620114 1.768
0.21216001 0.21889524 1.7680001
0.23573335 0.21216001 1.7680001
0.2441524 0.21889524 1.7680001
0.19868954 0.22394666 1.7680001
0.24487403 0.22611158 1.7679999
0.25257143 0.22899811 1.7680001
0.20289907 0.23657525 1.7680001
0.2449943 0.23404953 1.7680001
0.25425524 0.23236573 1.7680001
-0.12460191 0.24920382 1.7680001
0.20374095 0.24415238 1.7680001
0.2458362 0.24246858 1.7680001
-0.12460191 0.25257143 1.7680001
-0.11382552 0.2539185 1.768
-0.10608 0.25593904 1.768
0.20795049 0.25593907 1.7680001
-0.16164573 0.2626743 1.7680001
-0.15659429 0.2626743 1.7680001
-0.10215112 0.26379684 1.7680001
-0.094293341 0.2626743 1.7680001
-0.08419048 0.2626743 1.7680001
-0.07408762 0.2626743 1.7680001
-0.045462858 0.26772571 1.7680001
0.20879239 0.2643581 1.7680001
-0.040411431 0.27277714 1.7680001
-0.033676192 0.27502224 1.7680001
-0.023573333 0.27277714 1.7680001
0.20542477 0.27614477 1.7680001
-0.13638857 0.28793144 1.7680001
0.035360001 0.28793144 1.7680001
0.057249527 0.28961524 1.7680001
0.063984767 0.28961524 1.7680001
0.070720002 0.28961524 1.7680001
0.19868954 0.28793144 1.7680001
0.20205715 0.28456384 1.7680001
0.24752 0.28624764 1.7680001
-0.13470477 0.29635048 1.7679999
0.19532192 0.29635048 1.768
0.21889524 0.29971811 1.7680001
0.22226286 0.29635048 1.7680001
-0.15154286 0.30813715 1.7680001
-0.14144 0.30813715 1.7680001
-0.13518585 0.30645332 1.7679999
-0.075210162 0.30869842 1.7680001
0.094293334 0.30533078 1.7680001
0.10551874 0.30757588 1.7680001
0.18746412 0.30869842 1.7680001
0.21777271 0.30645332 1.7680001
0.24650972 0.30847391 1.768
0.25257143 0.30645335 1.7680001
-0.15154286 0.31487238 1.7680001
-0.14438666 0.31613526 1.7679999
-0.13470477 0.31703731 1.7679999
-0.12418097 0.31697717 1.7679999
-0.11449905 0.31487238 1.768
-0.10439619 0.31655622 1.7680001
0.07408762 0.31992382 1.7680001
0.080822863 0.31992382 1.7680001
0.11449905 0.31655622 1.7680001
0.12628572 0.31992382 1.7680001
0.13302097 0.31992382 1.7680001
0.14817524 0.31992382 1.7680001
0.15558401 0.31857675 1.768
0.16164573 0.31655622 1.7680001
0.17848381 0.31655622 1.7680001
0.18185143 0.31318858 1.7680001
0.19532192 0.31824002 1.7680001
0.20542477 0.31824002 1.7680001
0.21216001 0.31318858 1.7680001
0.23629461 0.31767872 1.768
0.24359113 0.31767872 1.7680001
-0.14144 0.32329145 1.7680001
-0.13403125 0.32463852 1.768
-0.12684698 0.32441399 1.7680001
0.075771429 0.32497525 1.7680001
0.080822863 0.32497525 1.7680001
0.18858667 0.32497525 1.7680001
0.1919543 0.32329145 1.7680001
0.23640688 0.32463852 1.768
0.2458362 0.32497525 1.768
0.053881906 0.33339429 1.7680001
0.063984767 0.33002669 1.7680001
0.072403811 0.33002669 1.7680001
0.23741716 0.33002669 1.7680001
0.24246858 0.33002669 1.7680001
0.22226286 0.34686476 1.7680001
0.20430224 0.35472259 1.768
0.21687467 0.35292649 1.768
0.22338539 0.35247746 1.7680001
0.10439619 0.36538669 1.7680001
0.1229181 0.36370286 1.7680001
0.20710859 0.36033526 1.7680001
0.21552762 0.36033526 1.7680001
0.087558098 0.37548953 1.7680001
0.094293341 0.37717333 1.7680001
0.10487728 0.37476787 1.7679999
0.11401796 0.37476793 1.7679999
0.12123429 0.37212193 1.7680001
0.094293341 0.3839086 1.7680001
0.10397523 0.38432956 1.7679999
0.11546123 0.38390857 1.7679999
0.1229181 0.38054097 1.7680001
0.13694985 0.38503113 1.7680001
0.14144 0.3855924 1.7680001
0.11618286 0.39232767 1.7680001
0.12123429 0.39232764 1.7680001
-0.025257144 0.6499505 1.7680001
-0.07408762 0.65668571 1.7680001
-0.065668575 0.65668571 1.7680001
-0.025257144 0.65331811 1.7680001
-0.081945397 0.66229844 1.7680001
-0.07408762 0.66005337 1.7680001
-0.064658284 0.66207397 1.768
-0.055565715 0.66342098 1.7680001
-0.060617145 0.67015624 1.7680001
-0.057249527 0.67015624 1.7680001
0.2758581 -0.13877524 1.7770001
0.29108953 -0.10492762 1.7770001
0.2504724 -0.084619045 1.7770001
0.24708763 -0.072772384 1.7770001
0.23693334 -0.044001907 1.7770001
0.2403181 -0.040617146 1.7770001
0.23693334 -0.037232384 1.7770001
0.23354858 -0.022000954 1.7770001
0.23016381 -0.016923809 1.7770001
0.22677906 -0.003384762 1.7770001
0.22508667 0.003384762 1.7770001
0.22113778 0.013539049 1.7770001
0.21549653 0.023693332 1.7770001
0.20985524 0.03554 1.7770001
0.20985524 0.042309526 1.7770001
0.20647049 0.055848572 1.7770001
0.20308572 0.060925715 1.7770001
0.19970097 0.076157153 1.7770001
0.1963162 0.084619053 1.7770001
0.23524097 0.11508191 1.7770001
0.24370284 0.11395365 1.7770001
0.23524097 0.12185143 1.7770001
0.17600763 0.14780128 1.7770001
0.17736153 0.15502211 1.7770001
0.18277715 0.16754572 1.7770001
0.17939238 0.17600763 1.7770001
0.18277715 0.17600763 1.7770001
0.20647049 0.17939238 1.7770001
0.20816287 0.18446952 1.7770001
0.21436827 0.18841843 1.7770001
0.22000954 0.18954667 1.7770001
0.17826414 0.19518794 1.7770001
0.21527085 0.1963162 1.7770001
0.22381739 0.19589309 1.7770002
0.23016381 0.1963162 1.7770001
0.18954667 0.20985524 1.7770001
0.21493238 0.2056243 1.7770001
0.22339429 0.20421398 1.7770001
0.18954667 0.21324001 1.7770001
0.19293143 0.21662477 1.7770001
0.1963162 0.22508667 1.7770001
0.21662477 0.22000954 1.7770001
0.22000954 0.22000954 1.7770001
0.25216478 0.22677906 1.7770001
0.19885477 0.23270239 1.7770001
0.19970097 0.24370286 1.7770001
-0.10154286 0.25554955 1.7770001
-0.09477333 0.25554955 1.7770001
-0.08631143 0.2572419 1.7770001
0.20421398 0.25385717 1.7770001
-0.10154286 0.26062667 1.7770001
-0.094773337 0.26147288 1.7770001
-0.08631143 0.26231906 1.7770001
0.20647049 0.26401144 1.7770001
0.25554955 0.26739621 1.7770001
-0.040617146 0.27078095 1.7770001
-0.032155238 0.27416572 1.7770001
-0.020308573 0.27078095 1.7770001
-0.016923809 0.27078095 1.7770001
0.20421398 0.27416572 1.7770001
0.25498542 0.27303746 1.7770001
0.26062667 0.27416572 1.7770001
0.20308572 0.28093526 1.7770001
0.23693334 0.28093526 1.7770001
0.24483113 0.28544825 1.7770001
0.25216478 0.28262764 1.7770001
0.044001907 0.29108953 1.7770001
0.052463811 0.29108953 1.7770001
0.088003814 0.29785907 1.7770001
0.1963162 0.29278192 1.7770001
0.24370284 0.29673082 1.7770001
0.2504724 0.29785907 1.7770001
0.088003814 0.30124381 1.7770001
0.096465722 0.30462858 1.7770001
0.18841843 0.30462858 1.7770001
0.22339429 0.3029362 1.7770001
0.23693334 0.30462858 1.7770001
0.24327976 0.30420548 1.7770002
0.2504724 0.3029362 1.7770001
-0.096465722 0.31816763 1.7770001
0.11423571 0.31393668 1.7770001
0.1252362 0.31816763 1.7770001
0.13539048 0.31732142 1.7770001
0.14554477 0.31816763 1.7770001
0.15231429 0.31816763 1.7770001
0.16923811 0.31478286 1.7770001
0.17600763 0.31478286 1.7770001
0.18277715 0.31139812 1.7770001
0.2154965 0.31703937 1.7770001
0.22204039 0.31613678 1.7770001
0.23354858 0.31562907 1.7770001
0.2403181 0.3130905 1.7770001
-0.12354381 0.32662952 1.7770001
-0.11508191 0.3223986 1.7770001
-0.10323524 0.3215524 1.7770001
-0.098158099 0.3215524 1.7770001
0.13877524 0.3215524 1.7770001
0.14385238 0.3215524 1.7770001
0.19970097 0.3215524 1.7770001
0.21662477 0.3215524 1.7770001
0.22381739 0.32451406 1.7770002
0.23101 0.32578334 1.7770001
-0.1252362 0.33170667 1.7770001
0.047386669 0.33509144 1.7770001
0.05077143 0.33509144 1.7770001
0.064310476 0.33509144 1.7770001
0.07531096 0.33424526 1.7770001
0.082926676 0.33339906 1.7770001
0.2233943 0.33551452 1.7770002
0.23258151 0.33557495 1.7770002
0.20647049 0.34863052 1.7770001
0.21493238 0.3469381 1.7770001
0.22291078 0.34476218 1.7770002
0.23354858 0.34186098 1.7770001
0.16585335 0.35878477 1.7770001
0.17600763 0.35878477 1.7770001
0.19857271 0.35765651 1.7770001
0.208727 0.35314354 1.7770001
0.21324001 0.3554 1.7770001
0.22677906 0.35201526 1.7770001
0.088003814 0.36893907 1.7770001
0.09477333 0.36893907 1.7770001
0.10154286 0.3655543 1.7770001
0.11677429 0.36893907 1.7770001
0.1252362 0.36893907 1.7770001
0.13606744 0.36758515 1.7770001
0.14216 0.36893907 1.7770001
0.16585335 0.36216953 1.7770001
0.17431524 0.36216953 1.7770001
0.18616192 0.36893907 1.7770001
0.1963162 0.3655543 1.7770001
0.20308572 0.36386192 1.7770001
0.21324001 0.36216953 1.7770001
0.07784953 0.37570858 1.7770001
0.083651975 0.37522504 1.7770002
0.09477333 0.37514445 1.7770001
0.10323524 0.37232381 1.7770001
0.11677429 0.37232381 1.7770001
0.12620327 0.37619212 1.7770002
0.13539046 0.37570858 1.7770002
0.1445777 0.37570858 1.7770002
0.15316048 0.37570858 1.7770001
0.17939238 0.37232381 1.7770001
0.18548496 0.37367773 1.7770001
0.19293143 0.37232381 1.7770001
0.08631143 0.38586286 1.7770001
0.094773337 0.38586289 1.7770001
0.12571974 0.38682994 1.7770002
0.13426222 0.38529873 1.7770001
0.14622173 0.38383204 1.7770001
0.15231429 0.38417047 1.7770001
0.08631143 0.3926324 1.7770001
0.096465722 0.3926324 1.7770001
0.12692857 0.3926324 1.7770001
0.13369811 0.3926324 1.7770001
-0.067695238 0.64987433 1.7770001
-0.030462857 0.64479721 1.7770001
-0.025949841 0.6453613 1.7770001
-0.074464768 0.65664381 1.7770001
-0.065156668 0.65579766 1.7770001
-0.030462857 0.6532591 1.7770001
-0.081234291 0.66002858 1.7770001
-0.060925715 0.66172099 1.7770001
-0.055848572 0.66341335 1.7770001
-0.060925715 0.67018288 1.7770001
-0.057540953 0.67018288 1.7770001
0.26231906 0.71418476 1.7770001
0.26739621 0.73787814 1.7770001
0.27190921 0.73674989 1.7770001
0.26626796 0.74690413 1.7770001
0.26401144 0.75480193 1.7770002
0.27374262 0.755225 1.7770002
0.25174096 -0.093552381 1.7860001
0.24833906 -0.08164572 1.7860001
0.24607112 -0.074841909 1.7860001
0.24493714 -0.064636193 1.7860001
0.23813334 -0.044224761 1.7860001
0.23246349 -0.023813331 1.7860001
0.22792763 -0.011906667 1.7860001
0.22792763 -0.0068038097 1.7860001
0.22339176 0.0034019046 1.7860001
0.21772191 0.015308572 1.7860001
0.22112381 0.010205715 1.7860001
0.21318603 0.023813331 1.7860001
0.2109181 0.030617144 1.7860001
0.20751619 0.044224765 1.7860001
0.20751619 0.051028572 1.7860001
0.23643239 0.057832383 1.7860001
0.24153525 0.057832383 1.7860001
0.20071238 0.071440004 1.7860001
0.19390857 0.098655239 1.7860001
0.19050667 0.10716 1.7860001
0.19050667 0.11226286 1.7860001
0.17349716 0.14968382 1.7860001
0.17349716 0.15648763 1.7860001
0.17689906 0.16329144 1.7860001
0.18030097 0.16499239 1.7860001
0.18143493 0.17236318 1.7860001
0.18370287 0.20411429 1.7860001
0.22112381 0.20241334 1.7860001
0.18710476 0.2109181 1.7860001
0.21772191 0.21432 1.7860001
0.22367525 0.21602097 1.7860001
0.19390857 0.22112381 1.7860001
0.22622667 0.22112381 1.7860001
0.19731048 0.23643239 1.7860001
0.19731048 0.24493715 1.7860001
0.20071238 0.24493715 1.7860001
0.24833906 0.24833906 1.7860001
0.25174096 0.24833906 1.7860001
-0.086748578 0.25514287 1.7860001
0.20581524 0.25344193 1.7860001
0.24748859 0.25599337 1.7860001
0.25400889 0.25627685 1.7860001
-0.022112381 0.26875049 1.7860001
-0.017009525 0.26875049 1.7860001
0.20411429 0.26364762 1.7860001
0.23388097 0.26789999 1.7860001
0.24590914 0.26583454 1.7860001
0.25465685 0.26437661 1.7860001
-0.037420955 0.27215239 1.7860001
-0.025514286 0.27215239 1.7860001
0.20241334 0.2755543 1.7860001
0.23473144 0.2755543 1.7860001
0.24493715 0.2755543 1.7860001
0.25287494 0.27782223 1.7860001
0.037420955 0.28916192 1.7860001
0.04082286 0.28916192 1.7860001
0.057832383 0.28916192 1.7860001
0.19617651 0.28689399 1.7860001
0.20071238 0.28405905 1.7860001
0.23609218 0.2864404 1.786
0.24357638 0.28439927 1.786
0.19220762 0.29596573 1.7860001
0.22792763 0.29936764 1.7860001
0.23515667 0.29639098 1.7860001
0.24493714 0.29483175 1.7860001
0.25344193 0.29426479 1.7860001
0.10205714 0.30617145 1.7860001
0.11226286 0.30957335 1.7860001
0.17689906 0.30957335 1.7860001
0.18370287 0.30787241 1.7860001
0.22707716 0.30702192 1.7860001
0.2330305 0.30617145 1.7860001
0.11736572 0.31297526 1.7860001
0.12587048 0.31467623 1.7860001
0.13607618 0.31433603 1.786
0.14628191 0.31637716 1.7860001
0.15648763 0.31637716 1.7860001
0.16555937 0.31524321 1.7860001
0.17349716 0.31297526 1.7860001
0.18030097 0.31297526 1.7860001
0.22622667 0.31467623 1.7860001
0.23246349 0.31410924 1.7860001
-0.12246858 0.32998478 1.7860001
-0.1148143 0.32828385 1.7860001
-0.10594504 0.32755488 1.7860001
-0.098655239 0.32828385 1.7860001
0.21517047 0.32573241 1.7860001
0.22112381 0.32998478 1.7860001
-0.12246858 0.33508766 1.7860001
-0.11226286 0.33508766 1.7860001
-0.10205714 0.33508766 1.7860001
-0.098655239 0.33338669 1.7860001
0.057832383 0.33678859 1.7860001
0.064636193 0.33678859 1.7860001
0.21545398 0.33565462 1.7860001
0.22452572 0.33338669 1.7860001
0.23813334 0.33678859 1.7860001
0.24153525 0.33678859 1.7860001
0.20496476 0.34614381 1.7860001
0.21432 0.34302542 1.7860001
0.22792763 0.34699431 1.7860001
0.23473144 0.34699431 1.7860001
0.24153525 0.3401905 1.7860001
0.14798287 0.35720003 1.7860001
0.15580724 0.35583928 1.786
0.17689906 0.35720003 1.7860001
0.18455334 0.35634956 1.7860001
0.19390857 0.35379812 1.7860001
0.20071238 0.35209715 1.7860001
0.2343062 0.35337287 1.7860001
0.064636193 0.36442906 1.7860001
0.074841909 0.36400384 1.7860001
0.085047625 0.36400381 1.7860001
0.094828099 0.36442909 1.7860001
0.10205714 0.36400384 1.7860001
0.1394781 0.3623029 1.7860001
0.14514795 0.36513782 1.7860001
0.15818858 0.36400381 1.7860001
0.16584286 0.36485434 1.7860001
0.17349716 0.36570477 1.7860001
0.18370287 0.36400381 1.7860001
0.19348334 0.36442909 1.7860001
0.20071238 0.36740574 1.7860001
0.067187622 0.37420952 1.7860001
0.073869936 0.37372354 1.7860001
0.083346672 0.37080762 1.7860001
0.095253333 0.37420952 1.7860001
0.14854985 0.3719416 1.7860001
0.15762159 0.37307557 1.7860001
0.16499239 0.37420952 1.7860001
0.17349716 0.37420952 1.7860001
0.18030097 0.37420952 1.7860001
0.19731048 0.37080762 1.7860001
0.20071238 0.37080762 1.7860001
0.068038099 0.38101333 1.7860001
0.074416667 0.38484046 1.7860001
0.08164572 0.38611621 1.7860001
0.14968382 0.38101333 1.7860001
0.15818858 0.38441527 1.7860001
0.16499239 0.3827143 1.7860001
0.17349716 0.3810133 1.7860001
0.18030097 0.38101333 1.7860001
0.075692385 0.39206952 1.7860001
0.08164572 0.39292002 1.7860001
-0.071440004 0.64976382 1.7860001
-0.065316573 0.64772272 1.786
-0.07416153 0.65520686 1.786
-0.062935241 0.6548667 1.7860001
-0.057832383 0.65996957 1.7860001
-0.04082286 0.65826857 1.7860001
-0.03333867 0.65724802 1.786
-0.027215239 0.65316576 1.7860001
-0.04082286 0.66337144 1.7860001
-0.037420955 0.66337144 1.7860001
0.26704952 0.73481148 1.7860001
0.26534858 0.74569756 1.786
0.2755543 0.74671811 1.7860001
0.28349206 0.74728507 1.7860001
0.2466381 0.75692385 1.7860001
0.25854477 0.75692379 1.7860001
0.26194668 0.75182098 1.7860001
0.27640477 0.75267148 1.7860001
0.28462604 0.75578994 1.7860001
0.24753907 -0.086160004 1.7950001
0.24446192 -0.076928571 1.7950001
0.23591429 -0.032480955 1.7950001
0.22907619 -0.022223812 1.7950001
0.23249525 -0.027352381 1.7950001
0.22736667 -0.013676191 1.7950001
0.22565715 -0.0051285718 1.7950001
0.22223811 0.0017095238 1.7950001
0.21710953 0.013676191 1.7950001
0.21198095 0.023933334 1.7950001
0.20856191 0.034190476 1.7950001
0.20514287 0.056414288 1.7950001
0.20172381 0.06496191 1.7950001
0.19659525 0.083766669 1.7950001
0.18804763 0.10940953 1.7950001
0.19146667 0.10257144 1.7950001
0.18668 0.11693142 1.7950001
0.19146667 0.11624762 1.7950001
0.1863381 0.12308572 1.7950001
0.17437144 0.1572762 1.7950001
0.18462858 0.20514287 1.7950001
0.18462858 0.21198095 1.7950001
0.19146667 0.21881905 1.7950001
0.21881905 0.21540001 1.7950001
0.22565715 0.21540003 1.7950001
0.19374603 0.22565715 1.7950001
0.19488572 0.23420477 1.7950001
0.19659525 0.24446192 1.7950001
0.24617144 0.24959049 1.7950001
0.20172381 0.25471905 1.7950001
0.24503176 0.2564286 1.7950001
-0.083766669 0.26326668 1.7950001
-0.023933334 0.26668572 1.7950001
-0.017095238 0.26668572 1.7950001
0.23762381 0.26668572 1.7950001
0.24275239 0.2649762 1.7950001
-0.041028574 0.27010477 1.7950001
-0.032480955 0.27352381 1.7950001
-0.027352381 0.27010477 1.7950001
0.20343333 0.27352381 1.7950001
0.19830477 0.28207144 1.7950001
0.046157144 0.29061905 1.7950001
0.052995242 0.29061905 1.7950001
0.063252389 0.29061905 1.7950001
0.19260634 0.29175875 1.7950001
0.092314288 0.30258572 1.7950001
0.11282858 0.30771428 1.7950001
0.17779048 0.30771428 1.7950001
0.18462859 0.30372539 1.7950001
0.11795714 0.31113335 1.7950001
0.12650478 0.31113335 1.7950001
0.1367619 0.31113335 1.7950001
0.14530954 0.3145524 1.7950001
0.15385716 0.3145524 1.7950001
0.1641143 0.3134127 1.7950001
0.17266192 0.31113335 1.7950001
-0.094023809 0.32651907 1.7950001
-0.087185718 0.32651907 1.7950001
0.19830477 0.32822859 1.7950001
0.20514286 0.32822859 1.7950001
0.21369049 0.32822859 1.7950001
-0.11829905 0.33575049 1.7950001
-0.10770001 0.3367762 1.7950001
-0.095163494 0.33506668 1.7950001
-0.088895239 0.33335716 1.7950001
0.20856191 0.3367762 1.7950001
0.21403238 0.33438286 1.7950001
-0.11396826 0.34304449 1.7950001
-0.10599049 0.34361431 1.7950001
-0.097784773 0.34464002 1.7950001
0.053337146 0.34464002 1.7950001
0.066329524 0.3439562 1.7950001
0.075219043 0.34190479 1.7950001
0.082057148 0.34361431 1.7950001
0.19659525 0.34703335 1.7950001
0.20514286 0.34361431 1.7950001
0.21198095 0.34190479 1.7950001
-0.099152386 0.35216191 1.7950001
0.056984127 0.35786033 1.7950001
0.065450348 0.35655782 1.7950001
0.074364282 0.35814527 1.7950001
0.085048817 0.35600832 1.7950001
0.092314288 0.35729051 1.7950001
0.1863381 0.35387143 1.7950001
0.057269048 0.36498332 1.7950001
0.06496191 0.36241907 1.7950001
0.14701906 0.36241907 1.7950001
0.15248951 0.36515433 1.7950001
0.058123812 0.37438571 1.7950001
0.062910482 0.37609527 1.7950001
0.066329524 0.3870362 1.7950001
0.066671431 0.3931905 1.7950001
-0.073509529 0.64790952 1.7950001
-0.068380952 0.64449048 1.7950001
-0.056984127 0.64733964 1.7950001
-0.07521905 0.65303814 1.7950001
-0.061542861 0.65303814 1.7950001
-0.054704763 0.65688455 1.7950001
-0.044447623 0.65645713 1.7950001
-0.036469843 0.65531749 1.7950001
-0.054020952 0.66534674 1.7950001
-0.046726987 0.66443497 1.7950001
-0.037609525 0.66329527 1.7950001
0.26326668 0.7385143 1.7950001
0.26326668 0.74535245 1.7950001
0.24959049 0.75560957 1.7950001
0.2564286 0.75617939 1.7950001
0.2872 0.75902861 1.7950001
0.24568763 -0.092777148 1.8040001
0.25084192 -0.094495237 1.8040001
0.24282414 -0.084759362 1.8040003
0.24225143 -0.076455243 1.8040001
0.23709716 -0.041234288 1.8040001
0.23709716 -0.037798095 1.8040001
0.22678858 -0.022335239 1.8040001
0.23022477 -0.027489524 1.8040001
0.22678858 -0.015462858 1.8040001
0.22335239 -0.0034361905 1.8040001
0.21991619 0.0051542856 1.8040001
0.21648 0.012026668 1.8040001
0.20960763 0.025771428 1.8040001
0.21304382 0.020617144 1.8040001
0.20617144 0.044670478 1.8040003
0.20445335 0.054979049 1.8040001
0.19929905 0.075596191 1.8040003
0.19242667 0.099649526 1.8040001
0.1878451 0.1065219 1.8040003
0.23709716 0.1099581 1.8040001
0.18383619 0.11511239 1.8040001
0.1821181 0.12198476 1.8040001
0.17868191 0.16837335 1.8040001
0.17868191 0.17180952 1.8040001
0.19242667 0.22678858 1.8040001
0.19586286 0.24225143 1.8040001
-0.030925715 0.26802287 1.8040001
0.20273525 0.26458669 1.8040003
-0.044670478 0.27145904 1.8040001
-0.034361906 0.27145904 1.8040003
0.19929905 0.27833143 1.8040001
0.20273525 0.27489525 1.8040001
0.036080003 0.28692192 1.8040001
0.19414476 0.28692192 1.8040001
0.18761601 0.29619962 1.8040001
0.096213333 0.30582097 1.8040001
0.13057524 0.30925715 1.8040001
0.16837335 0.30925715 1.8040001
0.1752457 0.30753905 1.8040001
0.1821181 0.30238476 1.8040001
0.13401143 0.31269336 1.8040001
0.14432001 0.31269336 1.8040003
0.15119238 0.31269336 1.8040001
0.16493715 0.31269336 1.8040001
-0.082468577 0.32987431 1.8040001
-0.076283433 0.32849982 1.8040001
-0.068723813 0.32987431 1.8040001
0.20617144 0.32987431 1.8040001
-0.084186673 0.33502859 1.8040001
-0.076741599 0.33445588 1.8040003
-0.067005716 0.33331048 1.8040001
0.19700825 0.33445588 1.8040003
0.2054842 0.33468497 1.8040001
-0.092777155 0.34361908 1.8040003
-0.085904755 0.34361905 1.804
-0.079032384 0.34018287 1.8040001
0.044670478 0.34361902 1.8040003
0.058415242 0.34533715 1.8040001
0.063569523 0.34705526 1.8040001
0.072160006 0.34705526 1.8040001
0.19758095 0.34190094 1.8040001
0.20388065 0.34132826 1.8040003
-0.1065219 0.35220954 1.804
-0.094495237 0.35220954 1.8040001
-0.088195562 0.35163686 1.8040003
0.05448816 0.35392764 1.804
0.063569523 0.35220954 1.8040001
0.075596191 0.35450029 1.804
0.1832635 0.35507306 1.8040003
0.052688256 0.3653816 1.8040003
0.054979049 0.3728267 1.8040001
0.058415242 0.38141716 1.8040001
0.061851431 0.38657144 1.8040001
0.061851431 0.39344382 1.8040001
-0.072160006 0.64600384 1.8040001
-0.064714924 0.64600384 1.804
-0.054979049 0.64772195 1.8040001
-0.044670478 0.64944005 1.8040003
-0.034361903 0.64944005 1.8040003
-0.027489524 0.64944005 1.8040001
-0.053833652 0.65402156 1.8040003
-0.045529522 0.65373522 1.8040001
-0.035507303 0.65402156 1.8040003
0.23709716 0.65631241 1.8040001
0.24225143 0.65631241 1.8040001
0.26556844 0.68331105 1.804
0.27260444 0.68494731 1.8040003
0.26630479 0.69411057 1.804
0.27145904 0.69239241 1.8040001
0.26630479 0.70098287 1.8040001
0.26630479 0.72847241 1.8040001
0.27145904 0.72847241 1.8040001
0.26573208 0.73649019 1.8040003
0.27145904 0.73534477 1.8040001
0.24740572 0.74908954 1.8040001
0.2577143 0.74908954 1.8040001
0.26115048 0.74565339 1.8040001
0.24740572 0.75596195 1.8040003
0.25427809 0.75424385 1.804
0.26115048 0.75252575 1.8040001
0.24532191 -0.065649524 1.8140001
0.23841144 -0.044918098 1.8140001
0.2340924 -0.033688571 1.8140001
0.22804572 -0.027641905 1.8140001
0.22459048 -0.012093334 1.8140001
0.22459048 -0.0069104764 1.8140001
0.21768001 0.0069104764 1.8140001
0.22113524 0 1.8140001
0.21422477 0.015548572 1.8140001
0.21076953 0.020731429 1.8140001
0.2073143 0.036279999 1.8140001
0.20385906 0.048373334 1.8140001
0.20385906 0.053556193 1.8140001
0.20040381 0.065649524 1.8140001
0.19579683 0.086380959 1.8140001
0.18543112 0.10596064 1.8140001
0.18312763 0.11229524 1.8140001
0.17967239 0.17794478 1.8140001
0.1900381 0.21768001 1.8140001
0.19349332 0.2349562 1.8140001
0.20040381 0.25568765 1.8140001
-0.03455238 0.26950857 1.8140001
0.20040381 0.26605335 1.8140001
0.20155556 0.27411556 1.8140001
0.19694857 0.28332955 1.8140001
0.046645716 0.29024002 1.8140001
0.053556193 0.29024002 1.8140001
0.18658286 0.29369524 1.8140001
0.076015241 0.30060571 1.8140001
0.16930667 0.30751619 1.8140001
0.17621715 0.30521271 1.8140001
0.18312763 0.30060571 1.8140001
0.10711239 0.31097144 1.8140001
0.11402287 0.31097144 1.8140001
0.12438858 0.31097144 1.8140001
0.13648191 0.31097144 1.8140001
0.14512001 0.31097144 1.8140001
0.15778922 0.31327495 1.8140001
0.16354793 0.31212321 1.8140001
-0.074863493 0.33746159 1.8140001
-0.069104761 0.33861333 1.8140001
0.20040381 0.33861333 1.8140001
-0.07774286 0.34638762 1.8140001
0.048373334 0.34897906 1.8140001
0.07774286 0.34897906 1.8140001
-0.085229211 0.35588956 1.8140001
-0.079470478 0.35243431 1.8140001
0.07774286 0.35243431 1.8140001
