# .PCD v0.7 - Point Cloud Data file format
VERSION 0.7
FIELDS x y z
SIZE 4 4 4
TYPE F F F
COUNT 1 1 1
WIDTH 1496
HEIGHT 1
VIEWPOINT 0 0 0 1 0 0 0
POINTS 1496
DATA ascii
-0.13549715 0.26404575 1.8240002
-0.1250743 0.26404572 1.824
-0.13549715 0.27099431 1.8240001
-0.053851433 0.60452574 1.8240001
0.17718858 0.60800004 1.8240001
0.18066287 0.60800004 1.8240001
-0.079908572 0.61842287 1.8240001
-0.08338286 0.62884575 1.8240001
-0.078171432 0.62189716 1.8240001
-0.08338286 0.63232005 1.8240001
-0.079908572 0.63405716 1.8240001
-0.086857148 0.65316576 1.8240001
0.18761143 0.65316576 1.8240001
0.19456001 0.65432388 1.824
0.20150858 0.65664005 1.8240001
-0.084251434 0.66272002 1.8240001
-0.07759238 0.66300952 1.8240002
0.20324574 0.66358858 1.8240002
-0.08338286 0.67227435 1.8240001
0.18761143 0.67053717 1.8240001
0.19571809 0.67169523 1.824
0.20498286 0.67401153 1.8240002
0.21193144 0.67574859 1.8240001
0.20614095 0.68327618 1.8240002
0.21332116 0.68373948 1.8240001
0.20845716 0.69485718 1.824
0.21332116 0.69555205 1.8240001
0.20845716 0.70180571 1.8240001
0.21366858 0.70180571 1.8240001
-0.1222 0.027931429 1.8330001
-0.16235143 0.090777144 1.8330001
-0.17108001 0.11521715 1.8330001
-0.16758858 0.11696286 1.8330001
-0.12569143 0.11870857 1.8330001
-0.17108001 0.1222 1.8330001
-0.16758858 0.12394571 1.8330001
-0.12499315 0.12359657 1.8329999
-0.15129524 0.16642477 1.8330001
-0.14664 0.16409715 1.8330001
-0.13616572 0.16409715 1.8330001
-0.12801905 0.16642477 1.8330001
-0.11172572 0.16758858 1.8330001
-0.10404458 0.16619201 1.8329999
-0.095432378 0.16467907 1.8330001
-0.08728572 0.16758858 1.8330001
-0.054117143 0.16758858 1.8330001
-0.047134288 0.16409715 1.8330001
-0.034914285 0.16409715 1.8330001
-0.1833 0.17457144 1.8330001
-0.16235143 0.17806287 1.8330001
-0.15304096 0.17457144 1.8330001
-0.13267429 0.17108001 1.8330001
-0.12569143 0.17108001 1.8330001
-0.11471837 0.17457144 1.8330001
-0.10374532 0.1750702 1.8330001
-0.094767354 0.17407265 1.8330001
-0.055862859 0.17108001 1.8330001
-0.1833 0.18504572 1.8330001
-0.17340763 0.18737334 1.8330001
-0.16453357 0.18460929 1.8330001
-0.1571143 0.1833 1.8330001
-0.13965715 0.18853715 1.8330001
-0.11478072 0.18460928 1.8330001
-0.10474285 0.18504572 1.8329999
-0.094268583 0.18504572 1.8329999
-0.084958099 0.18388192 1.8330001
-0.18330002 0.19552003 1.8330001
-0.17507021 0.19452246 1.8330001
-0.16409715 0.1937743 1.8330001
-0.15292458 0.19482173 1.8329999
-0.14489429 0.19726573 1.8330001
-0.13616572 0.19595645 1.8330001
-0.11347143 0.19552 1.8330001
-0.10474285 0.19552001 1.8329999
-0.096887156 0.19464716 1.8330001
-0.18295085 0.20529601 1.8329999
-0.17806287 0.20599429 1.8330001
-0.14489429 0.20424858 1.8330001
-0.13791144 0.20250286 1.8330001
-0.10357905 0.20366667 1.8330001
-0.095432378 0.20366667 1.8330001
-0.085889146 0.20669258 1.8329999
-0.18155429 0.21472287 1.8330001
-0.17526972 0.21716686 1.8329999
-0.043060955 0.21879619 1.8330001
-0.17224382 0.22461526 1.8330001
-0.16497001 0.2243243 1.8330001
-0.043060955 0.22461526 1.8330001
-0.038405716 0.22519715 1.8330001
0.17108001 0.24789144 1.8330001
-0.15362287 0.25720191 1.8330001
-0.12394571 0.25836572 1.8330001
0.13558382 0.2542924 1.8330001
0.17806287 0.25138286 1.8330001
0.18679143 0.25487429 1.8330001
-0.15187715 0.26185715 1.8330001
-0.14576715 0.26622146 1.8330001
-0.12569143 0.26534858 1.8330001
0.17457144 0.26418477 1.8330001
0.18155429 0.26185715 1.8330001
-0.14664 0.27233145 1.8330001
-0.13616572 0.2762593 1.8330001
-0.12612787 0.27582288 1.8330001
0.16409715 0.27233145 1.8330001
-0.13267429 0.28280571 1.8330001
-0.12743714 0.28455144 1.8330001
-0.055862859 0.59703434 1.8330001
-0.090777144 0.60576284 1.8330001
-0.083794288 0.606112 1.8329999
-0.076811433 0.60401714 1.8330001
-0.067500956 0.60518098 1.8330001
-0.057608575 0.60401714 1.8330001
0.17806287 0.6075086 1.8330001
0.18155429 0.6075086 1.8330001
-0.081466667 0.61216384 1.8330001
-0.075065717 0.61274576 1.8330001
-0.066337146 0.611 1.8330001
-0.055164576 0.6123966 1.8329999
0.17457144 0.611 1.8330001
-0.080302857 0.63194859 1.8330001
-0.081699431 0.65708691 1.8329999
-0.075414859 0.65708691 1.8329999
-0.069828577 0.65813434 1.8330001
0.18679142 0.65551573 1.8330001
0.1937743 0.65988004 1.8330001
-0.073320001 0.66337144 1.8330001
-0.067035429 0.66546631 1.8329999
0.18679143 0.66511714 1.8330001
0.19552 0.6651172 1.8330001
-0.080302857 0.67559147 1.8330001
-0.075065717 0.67210007 1.8330001
-0.069828577 0.67210007 1.8330001
0.18460929 0.67384577 1.8330001
0.19493811 0.67326385 1.8330001
-0.082048573 0.68257427 1.8330001
0.1876643 0.68344712 1.8330001
0.19552003 0.68388355 1.8330001
0.20250286 0.68781143 1.8330001
0.20459771 0.69409597 1.8329999
0.20599429 0.70352292 1.8330001
-0.17552382 0.11760096 1.8430001
-0.14392953 0.16762525 1.8430001
-0.13515334 0.16850287 1.8430001
-0.15095048 0.17903429 1.8430001
-0.14392953 0.17552382 1.8430002
-0.13550439 0.17622592 1.8430001
-0.12637715 0.17727906 1.8430001
-0.11935619 0.17903429 1.8430001
-0.16148192 0.18956572 1.8430001
-0.15345797 0.18655674 1.8430002
-0.14436834 0.18561643 1.8430002
-0.13515334 0.18605524 1.8430001
-0.12637715 0.18605524 1.8430002
-0.11935619 0.18956572 1.8430001
-0.18956572 0.19483143 1.8430001
-0.15095048 0.19307619 1.8430001
-0.14568476 0.19307619 1.8430001
-0.13690858 0.19307619 1.8430001
-0.12637715 0.19483143 1.8430001
-0.11935619 0.19483143 1.8430001
-0.18956572 0.20360762 1.8430001
-0.1333981 0.20360763 1.8430001
-0.12593834 0.20316882 1.8430002
-0.11634722 0.20461063 1.8430002
-0.10648445 0.20594795 1.8430001
-0.093612701 0.20594795 1.8430001
-0.18781048 0.21238382 1.8430001
-0.12286667 0.21062858 1.8430001
-0.10531429 0.21062858 1.8430001
-0.095484957 0.21203277 1.8430001
-0.17903429 0.22291525 1.8430001
0.17727906 0.24924383 1.8430001
-0.15797144 0.25977525 1.8430001
0.1333981 0.25977525 1.8430001
0.18254477 0.25626478 1.8430001
-0.15446097 0.26504096 1.8430001
-0.11935619 0.26504096 1.8430001
-0.15095048 0.27030668 1.8430001
-0.14392953 0.27557239 1.8430001
-0.12286667 0.27732763 1.8430001
-0.11935619 0.27381715 1.8430001
0.17727906 0.27030668 1.8430001
-0.12286667 0.28610381 1.8430001
-0.11760096 0.2808381 1.8430001
-0.12462191 0.29136953 1.8430001
-0.11935619 0.29136953 1.8430001
-0.080740958 0.59502572 1.8430001
-0.076060317 0.5956108 1.8430001
-0.063188575 0.59678096 1.8430001
-0.056167621 0.59537679 1.8430001
0.15095048 0.59678096 1.8430001
0.16323715 0.59678096 1.8430001
-0.080740958 0.60204667 1.8430001
-0.07430508 0.60321683 1.8430001
-0.064592764 0.60309982 1.8430001
-0.05733778 0.60380191 1.8430001
0.15095048 0.60029143 1.8430001
-0.07321851 0.61383188 1.8430002
-0.064066194 0.61521095 1.8430001
-0.074597619 0.6222319 1.8430001
-0.077230476 0.63890672 1.8430001
-0.083081275 0.64475751 1.8430001
-0.083081275 0.65411878 1.8430001
-0.073720001 0.65470386 1.8430001
-0.065528892 0.65879941 1.8430001
0.18254477 0.65996957 1.8430001
-0.064358734 0.6646502 1.8430001
0.17903429 0.66699052 1.8430001
0.18430001 0.66523528 1.8430001
-0.064943813 0.67576671 1.8430001
-0.058273904 0.67330939 1.8430001
0.17786413 0.67635179 1.8430001
0.18254477 0.67050099 1.8430001
-0.074597619 0.68191004 1.8430001
-0.06669905 0.68103242 1.8430001
0.17903429 0.68103242 1.8430001
0.18371493 0.68688321 1.8430001
0.18371493 0.692734 1.8430001
0.19483143 0.69331908 1.8430001
0.20009714 0.69682956 1.8430001
0.20243746 0.70326543 1.8430001
-0.12000381 0.21177144 1.853
0.16941714 0.24706668 1.853
0.17294668 0.24706668 1.853
0.13059239 0.25765523 1.853
0.18588825 0.2517727 1.853
0.19294731 0.25530222 1.853
0.13412191 0.26353779 1.853
0.14118096 0.2647143 1.853
0.18441762 0.26559669 1.853
0.19177079 0.26236129 1.853
-0.11647429 0.27530286 1.853
0.16941714 0.27177334 1.853
0.17471144 0.27353811 1.853
0.18353523 0.27294984 1.853
0.19059429 0.27177334 1.853
-0.12000381 0.28765619 1.853
-0.11647429 0.28942096 1.853
0.1764762 0.2841267 1.853
0.18309405 0.28633264 1.8529999
0.18353523 0.29295048 1.853
-0.060001906 0.57884192 1.853
-0.072355241 0.58766574 1.853
-0.063027211 0.58489257 1.8529999
-0.055295873 0.58707744 1.853
-0.075296506 0.59413654 1.853
-0.063531429 0.59472477 1.853
-0.056472383 0.59472477 1.853
0.15459314 0.59507769 1.853
0.16412286 0.59648955 1.853
-0.070590481 0.60178387 1.853
-0.067060955 0.6000191 1.853
-0.052942861 0.60531336 1.853
0.14824 0.60178387 1.853
0.15741676 0.60284269 1.853
0.16518173 0.60566628 1.853
0.15882857 0.61060762 1.853
0.16588762 0.61060762 1.853
0.1764762 0.61060762 1.853
0.18000571 0.61060762 1.853
-0.07412 0.62825525 1.853
-0.060001906 0.62119621 1.853
-0.074825905 0.64802063 1.853
0.084708571 0.64590287 1.853
-0.082943812 0.65296191 1.853
-0.07323762 0.6538443 1.853
-0.067060955 0.65649146 1.853
-0.061178416 0.6635505 1.853
0.16941714 0.6635505 1.853
0.17506438 0.66284454 1.853
0.18141754 0.6635505 1.853
-0.060001906 0.67060953 1.853
-0.054707624 0.67060953 1.853
0.17471142 0.67413902 1.853
0.18000571 0.67413908 1.853
-0.072355241 0.68825716 1.853
0.17294668 0.68119812 1.853
0.18000571 0.68825716 1.853
-0.075884759 0.69178671 1.853
0.1764762 0.69884574 1.853
0.18235874 0.69766921 1.853
0.1941238 0.69884574 1.853
0.19647683 0.70355177 1.853
-0.11532858 0.21291429 1.863
0.17742857 0.2484 1.863
0.18452573 0.24840002 1.863
0.097585723 0.2519486 1.863
0.12774858 0.25727144 1.863
0.13129714 0.25549716 1.863
0.19517143 0.2543143 1.863
0.20226859 0.25904572 1.863
-0.11532858 0.26791716 1.863
0.12774858 0.26259428 1.863
0.13484572 0.26850858 1.863
0.14620115 0.26827201 1.8630002
0.15258858 0.26969144 1.863
0.18807429 0.26969144 1.863
0.19517143 0.26791716 1.863
0.20493001 0.26348144 1.863
-0.11532858 0.27501428 1.863
0.1383943 0.27324 1.863
0.14620115 0.27465943 1.8630002
0.15613715 0.27501428 1.863
0.16323429 0.27678859 1.863
0.17210573 0.27678859 1.863
0.18630001 0.27678859 1.863
0.19398858 0.27560571 1.863
-0.11414573 0.28388572 1.863
0.14726572 0.28388575 1.863
0.15791143 0.28033715 1.863
0.16678286 0.28033715 1.863
0.17506285 0.28388572 1.863
0.18541287 0.28122431 1.863
0.19162287 0.28388572 1.863
-0.11355429 0.29098287 1.863
0.17388 0.29275712 1.863
0.19339715 0.29275715 1.863
-0.06121286 0.57398146 1.863
-0.056777146 0.57486862 1.863
-0.042582858 0.57841718 1.863
-0.070971429 0.58551431 1.863
-0.065648571 0.58196574 1.863
0.14549142 0.58728862 1.863
-0.070971429 0.59793431 1.863
-0.066240005 0.59379429 1.863
-0.053228572 0.59438574 1.863
-0.047905713 0.59615999 1.863
0.14667429 0.59497714 1.863
0.15613714 0.59438574 1.863
0.16500857 0.59615999 1.863
0.14549144 0.60503149 1.863
0.17506285 0.61153716 1.863
-0.070971429 0.64938861 1.863
-0.065648571 0.64938861 1.863
0.078068577 0.64229143 1.863
0.082504287 0.64584005 1.863
0.16500857 0.64583999 1.863
0.17210573 0.64938861 1.863
-0.065648571 0.65471148 1.863
0.083391428 0.65293717 1.863
0.15968572 0.65471148 1.863
0.16500857 0.65471148 1.863
0.17388003 0.65471148 1.863
-0.062100001 0.66180861 1.863
0.15968572 0.66180861 1.863
0.16536343 0.66287315 1.8630002
0.17299286 0.66092145 1.863
0.18452573 0.6600343 1.863
0.16678286 0.67245436 1.863
0.17121857 0.67334151 1.863
0.17033143 0.68309999 1.863
0.17624573 0.6967029 1.863
0.18097715 0.69552004 1.863
0.18807429 0.70616573 1.863
0.19339715 0.70793998 1.863
0.13378572 0.24973334 1.8730001
0.19443524 0.24973334 1.8730001
0.099893339 0.25686857 1.8730001
0.10465016 0.25449017 1.8730001
0.11059619 0.25330096 1.8730001
0.12415315 0.25472802 1.8730001
0.13378572 0.25330096 1.8730001
0.19978668 0.25508475 1.8730001
0.12384735 0.26451346 1.8730001
0.19978668 0.26400381 1.8730001
0.20692191 0.26400381 1.8730001
0.21048953 0.26400381 1.8730001
-0.1117854 0.27589589 1.8730001
-0.10524476 0.27649051 1.8730001
-0.099893339 0.2782743 1.8730001
0.12665048 0.27113906 1.8730001
0.13438033 0.27589589 1.8730001
0.14270477 0.2782743 1.8730001
0.15340762 0.2782743 1.8730001
0.16054286 0.27470669 1.8730001
0.19978668 0.27470669 1.8730001
0.20454352 0.27351749 1.8730001
-0.11059619 0.28540951 1.8730001
-0.10524476 0.28540954 1.8730001
-0.097345039 0.28489986 1.8730001
0.13556951 0.28540954 1.8730003
0.14270477 0.28540954 1.8730001
0.15483466 0.28612307 1.8730001
0.16411048 0.28600416 1.8730001
0.17213762 0.28451762 1.8730001
0.19800287 0.28540954 1.8730001
0.2051381 0.28362572 1.8730001
-0.11059619 0.29254478 1.8730001
-0.10524476 0.29432857 1.8730001
-0.098109528 0.2943286 1.8730001
0.13735333 0.29611242 1.8730001
0.14627239 0.2943286 1.8730001
0.15519142 0.29432857 1.8730001
0.1652997 0.29373398 1.8730001
0.19978668 0.29254478 1.8730001
0.048162859 0.30681524 1.8730001
0.048162859 0.31216669 1.8730001
-0.062433332 0.57438672 1.8730001
-0.053514287 0.57795429 1.8730001
-0.046379048 0.57795429 1.8730001
-0.071352385 0.58508956 1.8730001
-0.066000953 0.58152193 1.8730001
-0.055298101 0.58508962 1.8730001
-0.047092572 0.58366251 1.8730001
-0.03924381 0.58508956 1.8730001
0.13771009 0.58580309 1.8730001
0.14270477 0.58330572 1.8730001
-0.048162859 0.59579241 1.8730001
0.12665048 0.59936005 1.8730001
0.13675873 0.59579241 1.8730001
0.14270477 0.59936005 1.8730001
-0.048162859 0.60649526 1.8730001
0.12843429 0.60292763 1.8730001
0.13200191 0.60292763 1.8730001
0.14389397 0.60411686 1.8730001
-0.049946669 0.61719811 1.8730001
0.14270477 0.6100629 1.8730001
-0.049946669 0.62076575 1.8730001
-0.060649525 0.63860381 1.8730001
-0.055298097 0.63860381 1.8730001
-0.075633526 0.64645261 1.8730001
-0.063503623 0.64787966 1.8730001
-0.054941334 0.64645261 1.8730001
-0.046888709 0.64675844 1.8730001
0.16054286 0.64752293 1.8730001
-0.060649525 0.65465808 1.8730001
-0.055298097 0.65465808 1.8730001
-0.049946669 0.65287429 1.8730001
0.14627239 0.65287429 1.8730001
0.15519142 0.65465808 1.8730001
0.16054286 0.65287429 1.8730001
-0.060649525 0.66179335 1.8730001
-0.055298101 0.66357714 1.8730001
0.14984001 0.66357714 1.8730001
0.15519142 0.66357714 1.8730001
0.18373239 0.66000956 1.8730001
-0.055298097 0.6724962 1.8730001
-0.049946669 0.67428005 1.8730001
0.15697524 0.67071241 1.8730001
0.16232666 0.67428011 1.8730001
0.12843429 0.68141526 1.8730001
0.16625106 0.68426937 1.8730001
0.17124572 0.69211811 1.8730001
0.17574668 0.24747999 1.883
0.18471333 0.24748001 1.8830001
0.19278334 0.24658334 1.8830001
0.11836001 0.25644666 1.8830001
0.20623335 0.25824001 1.8830001
0.11746334 0.26541334 1.8830001
-0.10042667 0.27617335 1.8830001
-0.095644444 0.27856445 1.883
-0.089666672 0.27976 1.8830001
0.11836001 0.27617335 1.883
0.12553334 0.27677113 1.8830003
0.20623335 0.27617335 1.8830001
0.21161334 0.27258667 1.8830001
-0.093253337 0.28693333 1.8830001
-0.086797334 0.28549868 1.8830001
-0.07890667 0.28693333 1.8830001
0.10580667 0.28693333 1.8830001
0.11477333 0.28693333 1.883
0.12912001 0.28514001 1.8830001
-0.093253337 0.29410669 1.883
-0.086080007 0.29410663 1.8830003
-0.07890667 0.29052001 1.8830001
0.096840002 0.29231334 1.8830001
0.1050381 0.29410669 1.8830003
0.11208333 0.29410669 1.8830001
0.12912001 0.29231334 1.8830001
0.13270667 0.29590002 1.8830001
0.16498667 0.29231334 1.8830001
0.039453335 0.30486667 1.8830001
0.044235557 0.30606222 1.883
0.050213337 0.30486667 1.8830001
0.1076 0.30128002 1.8830001
0.11596891 0.30247557 1.883
0.12374 0.30307335 1.8830001
0.13270667 0.30128002 1.8830001
0.04304 0.31204 1.8830001
-0.051408891 0.55832446 1.883
-0.04304 0.55952001 1.8830001
-0.052006669 0.56490004 1.8830001
-0.044833332 0.56490004 1.8830001
-0.036584001 0.56525868 1.8830001
-0.18292001 0.57386667 1.8830001
-0.17933334 0.57386667 1.8830001
-0.053800002 0.57386672 1.8830003
-0.044833336 0.57386667 1.8830003
-0.036315002 0.57341838 1.8830003
-0.028693335 0.57207334 1.8830001
-0.038257781 0.58223557 1.883
0.13414134 0.58390933 1.8830001
-0.050213337 0.59180003 1.8830001
-0.044833332 0.59180003 1.8830001
0.12553334 0.59897333 1.883
0.13414134 0.59610403 1.8830001
0.13808668 0.60256004 1.8830001
-0.050213337 0.61511338 1.8830001
-0.046626668 0.61511338 1.8830001
-0.046626668 0.62408 1.883
-0.071733333 0.63842666 1.8830001
-0.062766671 0.63663334 1.8830001
0.12912001 0.63842666 1.8830001
0.13629334 0.63842666 1.883
-0.073167995 0.64488274 1.8830001
-0.065755554 0.64500225 1.8830003
-0.05738667 0.64560002 1.8830001
0.08608 0.64918667 1.8830001
0.12912001 0.64560002 1.883
0.13629334 0.64560002 1.8830003
0.14526001 0.64560002 1.8830003
0.15422668 0.64739335 1.8830003
0.16319335 0.64560002 1.8830001
-0.050213337 0.65994668 1.8830001
-0.046626668 0.65815336 1.8830001
0.12792444 0.65516448 1.883
0.13578096 0.65533531 1.8830003
0.14561868 0.65636003 1.8830001
0.15333 0.65456671 1.8830001
-0.050213337 0.66532671 1.8830001
-0.046626668 0.66532671 1.8830001
0.13988 0.66712004 1.8830001
0.14526001 0.66532671 1.8830001
0.15064001 0.66353333 1.8830001
-0.050213337 0.67250001 1.8830001
-0.046626668 0.6742934 1.8830001
0.12912001 0.67788005 1.8830001
0.13808668 0.67519003 1.8830001
0.14526001 0.67429334 1.8830003
0.15303113 0.67548889 1.8830003
0.13808668 0.68505335 1.8830001
0.14466222 0.68385774 1.883
0.15525143 0.68556577 1.8830003
0.16140001 0.68684667 1.8830001
0.15422668 0.69222671 1.883
0.16570401 0.6958133 1.8830001
0.17216 0.69940001 1.8830001
0.17496952 0.2453181 1.8940001
0.18398857 0.2453181 1.8940001
0.19661525 0.2453181 1.8940001
0.20202668 0.24892573 1.8940001
0.093798101 0.25974858 1.8940001
0.10822857 0.25974858 1.8940001
0.11424127 0.25854602 1.8940001
0.20443176 0.25373587 1.8940001
0.21284953 0.25974858 1.8940001
0.086582862 0.26335621 1.8940001
0.097405717 0.26516002 1.8940001
0.10462096 0.26516002 1.8940001
0.11303873 0.26455876 1.8940001
-0.093798101 0.27778667 1.8940001
0.097405717 0.27237526 1.8940001
0.10462096 0.27417907 1.8940002
0.11364 0.27417907 1.8940001
-0.021645715 0.28860953 1.8940001
-0.016234286 0.28860953 1.8940001
0.10534249 0.28283733 1.8940001
0.11472229 0.28355885 1.8940001
0.1241021 0.28572342 1.8940001
0.10101334 0.29221717 1.8940001
0.11724763 0.29672667 1.8940001
0.12536477 0.29582477 1.8940001
0.039683811 0.30304 1.8940001
0.045095243 0.30304 1.8940001
0.068544768 0.30664763 1.8940001
0.075759999 0.30664763 1.8940001
0.084779054 0.30664763 1.8940001
0.11544381 0.30484381 1.8940001
0.12987429 0.30304 1.8940001
0.068544768 0.31025526 1.8940001
0.075760007 0.31025526 1.8940001
0.084779054 0.31025526 1.8940001
-0.05050667 0.55557334 1.8940001
-0.045095243 0.55737716 1.8940001
-0.036076192 0.55918097 1.8940001
-0.04689905 0.56278861 1.8940001
-0.035174288 0.56369054 1.8940001
-0.057721905 0.57000381 1.8940001
-0.027057145 0.57000381 1.8940001
0.13528572 0.57721907 1.8940001
-0.036076192 0.5880419 1.8940001
0.12987429 0.58443427 1.8940001
0.13528572 0.5808267 1.8940001
0.12671761 0.59570813 1.8940001
0.13708954 0.60968763 1.8940001
0.14069715 0.60968763 1.8940001
0.13708954 0.61329526 1.8940001
0.14069715 0.61329526 1.8940001
-0.068544768 0.63854861 1.8940001
-0.023449525 0.63313717 1.8940001
-0.068544768 0.64215624 1.8940001
0.11905143 0.64756763 1.8940001
0.12446285 0.64576381 1.8940001
0.15422572 0.64486194 1.8940001
0.16234286 0.64576381 1.8940001
0.11905143 0.65478289 1.8940001
0.12446286 0.65478289 1.8940001
-0.043291431 0.66380191 1.8940001
0.090190478 0.66019434 1.8940001
0.12716857 0.66380191 1.8940001
0.13588698 0.66620702 1.8940001
0.14069715 0.66560572 1.8940001
-0.044493973 0.67462474 1.8940001
-0.039683811 0.6746248 1.8940001
0.12770972 0.67606783 1.8940001
0.13528572 0.67462486 1.8940001
0.12626667 0.68184 1.8940001
0.13618763 0.68544763 1.8940001
0.14610857 0.68905526 1.8940001
0.15152 0.68725145 1.8940001
0.14791238 0.69266289 1.8940001
0.16414666 0.6998781 1.8940001
0.17589334 0.23936 1.904
0.18496001 0.23936002 1.9039999
0.17589334 0.24298668 1.904
0.18496001 0.24298668 1.9039999
0.19221334 0.24298668 1.904
0.20309334 0.24661334 1.904
0.20672001 0.25024 1.904
0.21155556 0.25507557 1.9039999
0.03626667 0.26837334 1.904
0.047146667 0.26837334 1.904
0.079786673 0.26837334 1.904
0.084622227 0.26716444 1.9039999
0.092842661 0.26547202 1.904
-0.090666667 0.27744001 1.904
0.054400001 0.27925333 1.904
0.067093343 0.27562666 1.9040002
0.075641915 0.27459049 1.9040002
0.085226662 0.27562669 1.9040002
0.093257144 0.27614477 1.9040002
-0.08522667 0.28469336 1.904
-0.079786673 0.28650668 1.904
-0.018133335 0.28650668 1.904
0.058026668 0.28650668 1.904
0.068906672 0.28469336 1.904
0.07543467 0.28505602 1.904
0.083413333 0.28469336 1.904
0.094293334 0.28469336 1.9040002
0.10154667 0.28650668 1.904
-0.01088 0.29013336 1.904
0.039893337 0.29738668 1.904
0.04472889 0.29617777 1.9039999
0.050773334 0.29557335 1.904
0.068906672 0.29194668 1.904
0.076160006 0.29376 1.9040002
0.084864005 0.29448533 1.904
0.093257137 0.29324192 1.9040002
0.10154667 0.29013336 1.904
0.11968 0.29376 1.904
0.12693334 0.29376 1.904
0.00544 0.30826667 1.904
0.025386667 0.30826667 1.904
0.035662223 0.30464002 1.9040002
0.045333333 0.30101335 1.904
0.052586667 0.3028267 1.904
0.065280013 0.30524445 1.9040002
0.076160006 0.3028267 1.9040002
0.08522667 0.3028267 1.904
0.094293334 0.30464002 1.9040002
0.10299733 0.30536535 1.904
0.12512 0.30101335 1.904
0.0072533335 0.31552002 1.904
0.016320001 0.31733334 1.904
0.025386667 0.31655622 1.9040002
0.035813335 0.3150667 1.9040002
0.0272 0.32277334 1.904
0.034453336 0.32277334 1.904
-0.050773334 0.55488002 1.904
-0.045333333 0.55488002 1.904
-0.033848893 0.55729777 1.9039999
-0.026293334 0.55578673 1.904
-0.027562667 0.56576002 1.904
0.12512 0.57664001 1.904
0.13418667 0.57664001 1.9039999
-0.18254222 0.58510226 1.9039999
0.11968 0.58752 1.904
0.12512 0.58389336 1.9040002
0.13056001 0.58026671 1.904
0.117504 0.59477335 1.904
0.12451556 0.59235555 1.9039999
-0.04352 0.61653334 1.904
-0.04352 0.62559998 1.904
-0.04352 0.63285339 1.904
-0.039893337 0.63648003 1.904
-0.026293334 0.63376004 1.904
0.11424001 0.64917338 1.904
0.12512 0.64192003 1.904
0.15836446 0.64433783 1.9039999
0.16320001 0.64373338 1.904
0.11484445 0.65400892 1.9039999
0.11786667 0.66368002 1.904
0.12330667 0.66730666 1.904
-0.038080003 0.67456001 1.904
0.12512 0.67456001 1.9040002
-0.04352 0.68181336 1.904
-0.039893337 0.68181336 1.904
0.17690954 0.23709525 1.9150001
0.18602858 0.23709525 1.9150001
0.19332382 0.23709525 1.9150001
0.19575556 0.24195874 1.9150001
0.20426667 0.2462143 1.9150001
0.21593904 0.25533336 1.9150002
-0.085719049 0.26992381 1.9150001
0.014590477 0.26992381 1.9150001
0.025533333 0.26992381 1.9150001
0.034044445 0.26749209 1.9150001
0.043041907 0.26773527 1.9150002
0.053802382 0.26901191 1.9150001
0.065657146 0.26901191 1.9150001
0.075384133 0.26870796 1.9150001
0.080247626 0.26627621 1.9150001
0.21885715 0.26262859 1.9150001
-0.085719056 0.27539524 1.9150001
0.0054714289 0.27721906 1.9150001
0.014590477 0.27539527 1.9150001
0.025533333 0.27539527 1.9150001
0.034652382 0.27539524 1.9150001
0.043771431 0.27539524 1.9150001
0.054714289 0.27539527 1.9150001
0.062009525 0.27539524 1.9150001
-0.08316572 0.28232574 1.9150002
-0.0766 0.2881619 1.9150001
-0.023709524 0.2881619 1.9150001
-0.014590477 0.28694603 1.9150001
0.015198413 0.28329843 1.9150001
0.025533337 0.28451431 1.9150001
0.034652382 0.28451428 1.9150001
0.043771435 0.28451428 1.9150001
0.054106351 0.28512225 1.9150001
0.063468568 0.28524381 1.9150002
0.0766 0.28086668 1.9150001
0.083895244 0.28451431 1.9150001
0.21581747 0.28512225 1.9150001
0.22250476 0.28451431 1.9150001
-0.0766 0.29180953 1.9150001
-0.023709524 0.29363334 1.9150001
-0.015502381 0.29636905 1.9150001
0.0036476192 0.29910478 1.9150001
0.018238096 0.29910478 1.9150001
0.025989287 0.29545712 1.9150001
0.034652382 0.29545715 1.9150001
0.043771435 0.29326859 1.9150002
0.055756468 0.29493603 1.9150001
0.064614967 0.29597825 1.9150001
0.087542862 0.29180953 1.9150001
0.0054714289 0.30457622 1.9150001
0.01532 0.30494097 1.9150002
0.025533333 0.30457619 1.9150001
0.032828573 0.30275241 1.9150001
0.058361907 0.30457622 1.9150001
0.063833334 0.30275241 1.9150001
-0.0036476192 0.31734288 1.9150001
0.0024317461 0.31491113 1.9150001
0.014069389 0.31265306 1.9150001
0.025533333 0.31187144 1.9150001
-0.017022222 0.32585397 1.9150001
-0.0036476192 0.3246381 1.9150001
0.0031916667 0.32509407 1.9150001
0.014590477 0.32463813 1.9150002
0.021885715 0.32646191 1.9150001
-0.02279762 0.33466908 1.9150001
-0.015806349 0.33679685 1.9150001
-0.0036476192 0.33558097 1.9150001
0 0.33193335 1.9150001
-0.014590477 0.3428762 1.9150001
-0.025533333 0.54714286 1.9150001
-0.051066667 0.55443811 1.9150001
-0.043771431 0.55565399 1.9150001
-0.034652382 0.5562619 1.9150001
-0.024074286 0.55443811 1.9150002
-0.017326191 0.55443811 1.9150001
-0.054714289 0.56355715 1.9150001
-0.040123813 0.56173337 1.9150001
-0.023101589 0.56538099 1.9150001
0.10578096 0.56902862 1.9150001
0.09666191 0.57267618 1.9150001
0.10578096 0.57632381 1.9150001
0.11453525 0.57705337 1.9150002
0.12037143 0.57997143 1.9150001
-0.1896762 0.58726668 1.9150001
0.10578096 0.5854429 1.9150001
0.11490001 0.5854429 1.9150001
0.12037143 0.5854429 1.9150001
-0.20426667 0.59273815 1.9150001
-0.18724446 0.59213018 1.9150001
0.10760477 0.59273815 1.9150001
0.11490001 0.59273815 1.9150001
-0.023709524 0.60915238 1.9150001
-0.018238096 0.60915238 1.9150001
-0.043771431 0.61644763 1.9150001
-0.023709524 0.6128 1.9150001
0.087542862 0.61644763 1.9150001
0.094838098 0.61644763 1.9150001
-0.041947622 0.62556672 1.9150001
-0.023709524 0.62556672 1.9150001
0.086083815 0.62301338 1.9150002
0.094317012 0.62270069 1.9150001
0.10942858 0.62374288 1.9150001
0.11398811 0.62283099 1.9150001
-0.040123813 0.63286197 1.9150001
-0.034652382 0.63650954 1.9150001
-0.027357142 0.63286197 1.9150001
-0.018238096 0.63650954 1.9150001
0.087542862 0.63468575 1.9150001
0.092649527 0.63541526 1.9150002
0.1130762 0.63103813 1.9150001
-0.034652382 0.64198101 1.9150001
0.098485716 0.65657145 1.9150001
0.10578096 0.65474761 1.9150001
-0.040123813 0.66751432 1.9150001
-0.036476191 0.66751432 1.9150001
0.10942858 0.6638667 1.9150001
0.1130762 0.6638667 1.9150001
-0.040123813 0.67298579 1.9150001
-0.036476191 0.67298579 1.9150001
0.094838098 0.67116195 1.9150001
0.11550794 0.67237782 1.9150001
0.12037143 0.67663336 1.9150001
0.17966667 0.23466668 1.9250001
0.18333334 0.23466668 1.9250001
0.19188888 0.23344445 1.9250001
0.20533334 0.24566668 1.9250001
0.21450001 0.24933334 1.9250001
0.22366667 0.25544447 1.9250001
0.23650001 0.25666669 1.9250001
0.0048888889 0.26644444 1.9250001
0.014666666 0.26766667 1.9250001
0.025666669 0.26766667 1.9250001
0.034833334 0.264 1.9250001
0.056222226 0.26644444 1.9250001
0.064777777 0.26644444 1.9250001
0.073333338 0.26766667 1.9250001
0.22549999 0.26216665 1.9250001
0.23833334 0.26033333 1.9250001
-0.080666669 0.27500001 1.9250001
-0.077 0.27866668 1.9250001
0.0061111115 0.27255556 1.9250001
-0.075166672 0.28600001 1.9250001
-0.022 0.28600001 1.9250001
-0.013933334 0.28380004 1.925
-0.0036666666 0.28600001 1.9250001
0.0031428575 0.2849524 1.9250001
0.013444445 0.28844443 1.9250001
-0.0036666668 0.29516667 1.9250001
0.0036666666 0.29700002 1.9250001
0.014666666 0.2951667 1.9250001
0.022 0.29700002 1.9250001
-0.01588889 0.30677781 1.9250001
-0.0045833336 0.30525002 1.9250001
0.0018333334 0.30341667 1.9250001
0.012222223 0.30188891 1.9250001
-0.034833334 0.31900001 1.9250001
-0.025666667 0.31716669 1.9250001
-0.018333334 0.31533334 1.9250001
-0.0058666668 0.31459999 1.925
-0.035444446 0.3238889 1.9250001
-0.024933334 0.32413334 1.925
-0.014666666 0.3238889 1.9250001
-0.0073333336 0.32450002 1.9250001
-0.036666669 0.3355 1.9250001
-0.011916667 0.33366668 1.9250001
-0.0064166673 0.33366668 1.9250001
0.0044000004 0.33586669 1.925
0.011 0.33183336 1.9250001
-0.0055000004 0.34283334 1.9250001
0 0.34100002 1.9250001
-0.023222223 0.54511112 1.9250001
-0.0154 0.54413331 1.925
-0.055000003 0.55733335 1.9250001
-0.040333334 0.55733335 1.9250001
-0.034833334 0.55550003 1.9250001
-0.02688889 0.55366671 1.9250001
-0.013444445 0.55244446 1.9250001
-0.055000003 0.56100005 1.9250001
-0.0165 0.56283337 1.9250001
0.099000007 0.56833333 1.9250001
0.1045 0.56833333 1.9250001
0.11000001 0.56833333 1.9250001
-0.022 0.57200003 1.9250001
0.088 0.57749999 1.9250001
0.095333338 0.57627779 1.9250001
0.10266667 0.57200003 1.9250001
0.11366668 0.57322222 1.9250001
0.12283334 0.57933336 1.9250001
-0.19066668 0.5866667 1.9250001
0.096066669 0.58520001 1.925
-0.20533334 0.59583336 1.9250001
-0.19538096 0.59452385 1.9250001
0.093500003 0.59033334 1.9250001
0.10266667 0.59400004 1.9250001
0.11000001 0.59400004 1.9250001
-0.1925 0.60500002 1.9250001
-0.18699999 0.60500002 1.9250001
-0.023833334 0.60866672 1.9250001
-0.018333334 0.60866672 1.9250001
-0.042166665 0.616 1.9250001
-0.023833334 0.6196667 1.9250001
-0.018333334 0.616 1.9250001
0.086166665 0.61783338 1.9250001
0.095333338 0.61746663 1.925
0.10388889 0.6184445 1.9250001
-0.040333334 0.62516665 1.9250001
-0.034833334 0.62700003 1.9250001
-0.025666667 0.62455553 1.9250001
-0.018333334 0.62700003 1.9250001
0.080666669 0.62516665 1.9250001
0.1045 0.62516665 1.9250001
-0.034833334 0.63250005 1.9250001
-0.02688889 0.63311118 1.9250001
-0.0165 0.63066667 1.9250001
0.082866669 0.63360006 1.925
0.097533338 0.63360006 1.925
0.1045 0.63433337 1.9250001
0.11000001 0.63616669 1.9250001
0.084333338 0.64166671 1.9250001
0.099000007 0.65633339 1.9250001
0.095333338 0.66471428 1.9250001
0.1045 0.66550004 1.9250001
0.099000007 0.67283332 1.9250001
0.1045 0.67283332 1.9250001
0.11183333 0.67650002 1.9250001
0.18806858 0.23416382 1.9360001
0.19790222 0.23600763 1.9360002
0.11800382 0.24707049 1.9360001
0.12537906 0.24707049 1.9360002
0.20281905 0.24338287 1.9360001
0.21388191 0.24707049 1.9360002
0.11800382 0.25075811 1.9360001
0.12537906 0.25075811 1.9360002
0.22494477 0.25321653 1.9360002
0.23232001 0.25813335 1.9360001
0.029500954 0.26550859 1.9360001
0.059001908 0.26366478 1.9360001
0.065147944 0.26305017 1.9360002
0.072830483 0.26458669 1.9360001
0.23416382 0.26182097 1.9360001
-0.076210797 0.27411303 1.9360002
-0.071908578 0.28394666 1.9360001
-0.025813334 0.28763428 1.9360001
-0.0073752385 0.28579047 1.9360001
-0.0073752385 0.29500952 1.9360002
0.0044251429 0.29353446 1.9360001
-0.023969524 0.30607238 1.9360001
-0.01352127 0.30730161 1.9360002
-0.0073752385 0.30422857 1.9360001
-0.033188574 0.31713524 1.9360001
-0.025813336 0.31492266 1.9360001
-0.014012952 0.31492266 1.9360001
-0.033188574 0.32819811 1.9360001
-0.02704254 0.32328129 1.9360002
-0.013828572 0.32174477 1.9360001
-0.034417782 0.33557335 1.9360002
-0.025813334 0.33465144 1.9360001
-0.014750477 0.33188573 1.9360001
0.015488001 0.33631086 1.9360001
0.022125715 0.33741716 1.9360001
-0.025813334 0.34294859 1.9360001
0.0049168258 0.34417781 1.9360002
-0.033188574 0.54945529 1.9360001
-0.025813334 0.54576766 1.9360001
-0.011062858 0.54945529 1.9360001
-0.0055314288 0.54576766 1.9360001
0 0.54576766 1.9360001
-0.040563811 0.55683053 1.9360001
-0.035032384 0.55498672 1.9360001
-0.029500954 0.55314291 1.9360001
-0.0073752385 0.55683053 1.9360001
0.084815241 0.55683053 1.9360001
0.097721905 0.55683053 1.9360001
0.10325333 0.55683053 1.9360001
0.096931696 0.56473249 1.936
0.10417523 0.56512761 1.9360001
0.088502862 0.57526857 1.9360001
0.093419693 0.57281017 1.9360002
0.092190482 0.58633143 1.9360001
0.099565715 0.59370667 1.9360001
-0.20281905 0.60661334 1.9360001
-0.19913143 0.60661334 1.9360001
-0.040563811 0.60845715 1.9360001
-0.023969524 0.60845715 1.9360001
-0.018438095 0.60845715 1.9360001
-0.040563811 0.61583239 1.9360001
-0.033188574 0.61952001 1.9360001
-0.029500954 0.61583239 1.9360002
-0.014750477 0.6176762 1.9360001
0.077440001 0.61952001 1.9360001
0.084815249 0.61583239 1.936
0.092190482 0.61583239 1.9360001
-0.040563811 0.62320763 1.9360001
-0.034417782 0.62566608 1.9360002
-0.029500954 0.62505144 1.9360001
-0.018438095 0.62505144 1.9360001
0.076210797 0.62566608 1.9360002
0.081127621 0.62320763 1.9360001
-0.016594287 0.63795811 1.9360001
0.077440001 0.63242668 1.9360001
-0.014750477 0.64164573 1.9360001
0.081127621 0.64348954 1.9360001
0.095878102 0.67483431 1.9360001
0.11800382 0.68589717 1.9360001
0.20026286 0.22993144 1.9470001
0.20211715 0.2354943 1.9470001
0.12423715 0.24476573 1.9470001
0.13350858 0.24476573 1.9470001
0.2064438 0.24229336 1.9470001
0.21509714 0.24476571 1.9470001
0.22251429 0.2484743 1.9470001
0.22807716 0.25218287 1.9470001
0.2354943 0.25589144 1.9470001
0.029668573 0.26330858 1.9470001
0.033377144 0.26330858 1.9470001
0.2354943 0.26701716 1.9470001
-0.074171431 0.27814287 1.9470001
0.0018542858 0.27628857 1.9470001
0.23734859 0.27072573 1.9470001
-0.02596 0.28679621 1.9470001
-0.011125715 0.28185144 1.9470001
-0.0055628577 0.28185144 1.9470001
0 0.28185144 1.9470001
-0.022251429 0.30410287 1.9470001
-0.012980001 0.30410287 1.9470001
-0.033377144 0.33377144 1.9470001
-0.029668573 0.33377144 1.9470001
-0.029668573 0.34304285 1.9470001
0.014834287 0.34397 1.9470001
0.022251429 0.34489715 1.9470001
-0.014834288 0.53774285 1.9470001
-0.0074171433 0.53774285 1.9470001
-0.033377144 0.5488686 1.9470001
-0.02596 0.5463962 1.9470001
-0.014834286 0.5433057 1.9470001
-0.0074171433 0.54330575 1.9470001
0.066754289 0.5488686 1.9470001
0.074171431 0.5488686 1.9470001
-0.05192 0.55999428 1.9470001
-0.044502858 0.55628574 1.9470003
-0.037085716 0.55443144 1.9470001
-0.029668573 0.55257714 1.9470001
-0.0055628577 0.55443144 1.9470001
0.064900003 0.55257714 1.9470001
0.074701227 0.55522615 1.9470003
0.084767349 0.55628574 1.9470003
0.094568573 0.55628574 1.9470001
0.10013143 0.55443144 1.9470001
0.077880003 0.56370288 1.9470001
0.086038858 0.56518626 1.9470001
0.092714287 0.56555712 1.9470001
-0.018542858 0.57668287 1.9470001
0.08678057 0.5740869 1.9470001
0.087151431 0.58595431 1.9470001
-0.024105715 0.60820574 1.9470001
-0.016688572 0.60820574 1.9470001
0.10013143 0.60078859 1.9470001
-0.043266669 0.61685908 1.9470001
-0.034304287 0.61655003 1.9470001
-0.029668573 0.61191434 1.9470001
-0.014834287 0.61376858 1.9470001
0.066754289 0.61933148 1.9470001
0.074171431 0.61747718 1.9470001
0.082824767 0.61315054 1.9470001
-0.037085716 0.62489432 1.9470001
-0.014834287 0.62674862 1.9470001
0.066754289 0.62489432 1.9470001
0.072317146 0.62489432 1.9470001
-0.014834287 0.63231146 1.9470001
0.066754289 0.63045716 1.9470001
0.071946286 0.63490748 1.9470001
0.077880003 0.64158291 1.9470001
0.12307429 0.23868953 1.9580001
0.20636697 0.23496 1.9580001
0.21258287 0.23868953 1.9580001
0.11934476 0.24241905 1.9580001
0.12493905 0.24241905 1.9580001
0.13053334 0.24428383 1.9580001
0.21444763 0.24241905 1.9580001
0.22526324 0.24540266 1.9579999
0.23123048 0.24801335 1.9580001
0.23682477 0.25360763 1.9580001
0.24428383 0.25733715 1.9580001
0.026106667 0.26852572 1.9580001
0.24614859 0.26106668 1.9580001
-0.070860952 0.27784953 1.9580001
-0.011188572 0.27971429 1.9580001
-0.0049726986 0.27847111 1.9580001
0 0.27971429 1.9580001
-0.070860952 0.28344381 1.9580001
-0.029836191 0.28717333 1.9580001
-0.016782857 0.28344381 1.9580001
-0.041024763 0.29276764 1.9580001
-0.035057522 0.29388648 1.9579999
-0.029836191 0.29649717 1.9580001
0.014918095 0.3636286 1.9580001
0.026106669 0.43635431 1.9580001
0.033565715 0.43635431 1.9580001
0.01864762 0.44008383 1.9580001
0.026106667 0.44008383 1.9580001
0.033565715 0.44008383 1.9580001
0.014918095 0.46992001 1.9580001
0.0037295239 0.4848381 1.9580001
0.013053333 0.48110858 1.9580001
0.013053333 0.50348574 1.9580001
-0.014918096 0.52959239 1.9580001
-0.0074590477 0.5277276 1.9580001
-0.024241906 0.53705144 1.9580001
-0.014918096 0.53518671 1.9580001
-0.0062158727 0.53580827 1.9580001
0 0.53705144 1.9580001
-0.033565715 0.54824001 1.9580001
-0.025360763 0.54376459 1.9579999
-0.0037295239 0.54264569 1.9580001
0 0.54264569 1.9580001
0.059672382 0.54824001 1.9580001
0.065266669 0.54824001 1.9580001
0.074590474 0.54674816 1.9579999
0.0832927 0.54699683 1.9580001
-0.053456504 0.55694222 1.9580001
-0.048483811 0.55569905 1.9580001
0.044754289 0.55569905 1.9580001
0.058180571 0.55495316 1.9579999
0.064645082 0.55694222 1.9580001
0.086711429 0.55290192 1.9580001
0.094481267 0.5532127 1.9580001
0.063401908 0.56315809 1.9580001
0.072725713 0.56502283 1.9580001
-0.014918095 0.57434666 1.9580001
0.07707683 0.57186031 1.9580001
0.082049526 0.57434666 1.9580001
0.0832927 0.58553529 1.9580001
-0.033565715 0.6041829 1.9580001
-0.026852572 0.6041829 1.9579999
-0.016782857 0.60791242 1.9580001
0.063401908 0.60791242 1.9580001
-0.036052063 0.61537147 1.9580001
-0.029836191 0.61164194 1.9580001
-0.011188571 0.61537147 1.9580001
-0.0074590477 0.61350667 1.9580001
0.059672382 0.61537147 1.9580001
0.065266669 0.61537147 1.9580001
0.073844567 0.61387962 1.9579999
0.082049526 0.61164194 1.9580001
-0.011188572 0.6246953 1.9580001
-0.0074590477 0.62656003 1.9580001
0.057807621 0.6246953 1.9580001
0.063401908 0.6246953 1.9580001
-0.011188571 0.63401908 1.9580001
-0.0074590477 0.63401908 1.9580001
0.059672382 0.63401908 1.9580001
0.064334288 0.63495147 1.9580001
0.0074590477 0.64707243 1.9580001
0.011188572 0.64520764 1.9580001
0.059672382 0.64147812 1.9580001
0.065266669 0.64334285 1.9580001
0.074590474 0.64707243 1.9580001
0.052213334 0.65639621 1.9580001
0.078320004 0.65266669 1.9580001
0.014918095 0.70674479 1.9580001
0.014918095 0.71420383 1.9580001
0.02797143 0.71606869 1.9580001
0.033565715 0.71606857 1.9580001
0.21002668 0.23440477 1.9690001
0.12001524 0.24753144 1.9690001
0.21752763 0.24003048 1.9690001
0.22690383 0.24190572 1.9690001
0.23440477 0.24565619 1.9690001
0.23628001 0.25128192 1.9690001
-0.067508571 0.27753526 1.9690001
-0.011251429 0.27753526 1.9690001
-0.0056257145 0.27566004 1.9690001
0 0.27190953 1.9690001
-0.066258408 0.28378606 1.9690002
-0.056257144 0.28503621 1.9690001
-0.04500572 0.28878668 1.9690002
-0.035629526 0.28878668 1.9690001
-0.026253335 0.28503621 1.9690001
-0.015001905 0.28128573 1.9690001
-0.061882857 0.29441237 1.9690001
-0.054381907 0.29441237 1.9690001
-0.046880957 0.29441237 1.9690001
-0.061882861 0.3000381 1.9690001
-0.042505398 0.30128825 1.9690002
-0.037504762 0.30191332 1.9690001
0.0075009526 0.35254478 1.9690001
0.016877143 0.35254478 1.9690001
0.022502858 0.35254478 1.9690001
0.0056257145 0.3637962 1.9690001
0.015001905 0.36504635 1.9690002
0.015001905 0.37129715 1.9690001
0.0018752381 0.40317622 1.9690001
0.018752381 0.42755431 1.9690001
0.017814763 0.43599287 1.9690001
0.024378097 0.43318003 1.9690001
0.016877143 0.44443142 1.9690001
0.026253335 0.4425562 1.9690001
0.031879049 0.44630668 1.9690001
0.0075009526 0.45568287 1.9690001
0.015001906 0.45380762 1.969
0.025003174 0.45505777 1.9690002
0.032682724 0.45434341 1.969
0.0075009526 0.4613086 1.9690001
0.015537688 0.4639875 1.969
0.024378097 0.46505907 1.969
0.032682724 0.46452326 1.969
0.015001905 0.4748103 1.9690001
0.024378095 0.47443527 1.9690001
0.031879049 0.47256002 1.9690001
-0.0037504763 0.48756191 1.9690001
0 0.48756191 1.9690001
0.016252065 0.48443651 1.969
0.024003047 0.48306131 1.9690001
0.0075009526 0.49506292 1.9690002
0.015001906 0.49506289 1.9690001
0.024003047 0.49431276 1.9690001
0.0046880953 0.5053767 1.9690001
0.015001905 0.50381398 1.9690002
0.023753017 0.50506413 1.9690002
-0.0050006351 0.51631558 1.9690002
0.0037504761 0.51381528 1.9690001
0.012751619 0.51306522 1.9690001
0.022502858 0.51006478 1.9690001
-0.01425181 0.52731693 1.9690001
-0.0052506672 0.52431661 1.9690001
0.0032816667 0.52553546 1.969
0.012189047 0.52506667 1.9690001
0.024378097 0.52881718 1.9690001
-0.023753017 0.53506798 1.9690002
-0.0037504763 0.5344429 1.9690001
0.0037504763 0.53444284 1.969
0.015001905 0.53444284 1.969
0.024378095 0.5344429 1.9690001
0.03000381 0.5344429 1.9690001
-0.031879049 0.54756957 1.9690001
0.0056257141 0.54381913 1.969
0.013751746 0.543194 1.969
0.024753144 0.54381907 1.9690001
0.033754289 0.54381913 1.969
0.046077281 0.54328328 1.969
0.054381907 0.54381907 1.9690001
0.063758098 0.54569429 1.969
0.075009525 0.54756957 1.9690001
0.086260952 0.54756957 1.9690001
0.090011433 0.54756957 1.9690001
-0.04313048 0.55507052 1.9690001
-0.037504762 0.55319524 1.9690001
0.0012501588 0.55382037 1.9690002
0.026253335 0.55132002 1.9690001
0.035629526 0.55132002 1.9690001
0.045541495 0.55399889 1.969
0.053444289 0.55413288 1.9690001
-0.0037504763 0.56257147 1.9690001
0.056257144 0.56257147 1.9690001
0.063758098 0.56632191 1.9690001
-0.011251429 0.57382286 1.9690001
0.063758098 0.57194763 1.9690001
0.073134288 0.57569814 1.9690001
0.0075009526 0.58882481 1.9690001
0.018752381 0.58694959 1.9690001
0.022502858 0.58507431 1.9690001
0.078760006 0.5813238 1.9690001
0.045005713 0.59632576 1.9690002
0.05250667 0.59632576 1.9690001
0.082510479 0.59257525 1.9690001
-0.024378097 0.60757715 1.9690001
-0.013930341 0.60436249 1.969
-0.005625715 0.6038267 1.969
0.0012501588 0.60132641 1.9690002
0.045005716 0.60382676 1.9690001
0.056257144 0.60757715 1.9690001
0.061882861 0.60757715 1.9690001
-0.033754285 0.61320287 1.9690001
-0.011251429 0.61132765 1.9690001
-0.0075009526 0.61132765 1.9690001
0.047818575 0.61414051 1.9690001
0.055319525 0.61601573 1.9690001
0.063758098 0.61132765 1.9690001
0.075947151 0.61226523 1.9690001
0.082510479 0.61132765 1.9690001
-0.0075009526 0.62445432 1.9690001
0.048756193 0.62445432 1.9690001
0.053756829 0.62382925 1.9690002
-0.0075009526 0.63758099 1.9690001
0.054006863 0.63458061 1.9690001
-0.011251429 0.64695716 1.9690001
-0.0075009526 0.64508194 1.9690001
0.0075009526 0.64320672 1.9690001
0.015001906 0.64508194 1.969
0.024378097 0.64883238 1.9690001
0.048756193 0.64320672 1.9690001
0.054381907 0.64508194 1.969
0.060007621 0.64883238 1.9690001
-0.16689619 0.65633339 1.9690001
0.015001905 0.65258288 1.9690001
0.048756193 0.65633339 1.9690001
0.05250667 0.65445817 1.9690001
0.065633334 0.65445817 1.9690001
0.072509207 0.65508324 1.9690002
0.048756193 0.66008383 1.9690001
0.056257144 0.66008383 1.9690001
0.065633334 0.66008383 1.9690001
0.073134288 0.66008383 1.9690001
0.016252063 0.67633587 1.9690002
0.034504384 0.67733604 1.9690001
0.041255239 0.67696095 1.9690001
0.016252063 0.68383688 1.9690002
0.033754285 0.68446189 1.969
0.018752381 0.69758862 1.9690001
0.03250413 0.69446319 1.969
0.01725219 0.70433939 1.9690001
0.024753144 0.70433944 1.9690001
0.031879049 0.70508951 1.969
0.018752381 0.71446574 1.9690001
0.023753017 0.71384066 1.9690002
0.031879049 0.71259052 1.9690001
0.016877143 0.72384191 1.9690001
0.023753017 0.72384191 1.9690002
0.031879049 0.72759241 1.9690001
0.015001905 0.73134291 1.9690001
0.21622859 0.23634286 1.9800001
0.22628573 0.23760001 1.9800001
0.23005715 0.23571429 1.9800001
0.22440001 0.24137144 1.9800001
0.23634286 0.24262857 1.9800001
0.24137144 0.24702859 1.9800001
0.24325715 0.25457144 1.9800001
-0.015085715 0.27908573 1.9800001
0.022628572 0.27154288 1.9800001
0.22628573 0.27720001 1.9800001
0.23382856 0.27720001 1.9800001
-0.062228575 0.28474286 1.9800001
-0.054685719 0.28474286 1.9800001
-0.045257147 0.28662857 1.9800001
-0.035828575 0.28662857 1.9800001
-0.022628572 0.28662857 1.9800001
-0.018857144 0.28285715 1.9800001
0.22628573 0.28474286 1.9800001
0.23458286 0.28436571 1.9800001
-0.065057144 0.29134285 1.9800001
-0.054685719 0.2904 1.9800001
0.018857144 0.36582857 1.9800001
0.024514288 0.36771432 1.9800001
0.005657143 0.37337145 1.9800001
0.015085715 0.37462857 1.9800001
0.024514288 0.37337145 1.9800001
-0.0037714287 0.38845715 1.9800001
-0.005657143 0.39600003 1.9800001
0 0.39977145 1.9800001
0.0075428574 0.40354288 1.9800001
0.0075428574 0.41108572 1.9800001
0.015085715 0.41485715 1.9800001
0.024514288 0.41297144 1.9800001
0.01697143 0.4252286 1.9800001
0.024137145 0.42692575 1.9800001
0.013828572 0.4362286 1.9800001
0.0043102042 0.44448981 1.9800003
0.012257144 0.44597143 1.9800001
0.024514288 0.44880003 1.9800001
0.0050285715 0.45382857 1.9800001
0.011314286 0.45257145 1.9800001
0.024514288 0.45257145 1.9800001
0.018857144 0.4601143 1.9800001
0.022628572 0.4601143 1.9800001
0.032057144 0.47897145 1.9800001
0.0075428574 0.48462859 1.9800001
0.011314286 0.48274288 1.9800001
0.03394286 0.48462856 1.9800001
0.041485716 0.4865143 1.9800001
0.0037714287 0.49500003 1.9800001
0.026400002 0.49028572 1.9800001
0.033942856 0.49405718 1.9800001
0.04274286 0.4928 1.9800001
0.0018857144 0.50348574 1.9800001
0.018857144 0.50537145 1.9800001
0.026400002 0.50348574 1.9800001
0.032865308 0.50537145 1.9800003
-0.0075428574 0.51668572 1.9800001
0.018857144 0.51480001 1.9800001
0.025142858 0.5154286 1.9800001
-0.015085715 0.52422857 1.9800001
0.0075428574 0.52422857 1.9800001
0.017348573 0.52347434 1.9800001
0.023571428 0.5251714 1.9800001
0.03017143 0.528 1.9800001
-0.024514288 0.53365719 1.9800001
0.01697143 0.53177142 1.9800001
0.034571432 0.53554291 1.9800001
0.046011429 0.53780574 1.9800001
0.052800003 0.53931433 1.9800001
-0.031428572 0.5456 1.9800001
0.01697143 0.54685718 1.9800001
0.022628572 0.54685718 1.9800001
0.03394286 0.54685718 1.9800001
0.041485716 0.54685718 1.9800001
0.054685719 0.54308575 1.9800001
0.062228575 0.54308575 1.9800001
0.071657144 0.54685718 1.9800001
-0.052800003 0.55817145 1.9800001
-0.045257144 0.55628574 1.9800001
-0.037714288 0.5506286 1.9800001
0.005657143 0.55628574 1.9800001
0.016028572 0.55345714 1.9800001
0.022628572 0.55440003 1.9800001
0.03394286 0.55691433 1.9800001
0.041485716 0.5506286 1.9800001
0.054685719 0.5506286 1.9800001
-0.060342859 0.56760001 1.9800001
-0.056571431 0.56760001 1.9800001
-0.0037714287 0.56948572 1.9800001
0.0022628573 0.5664686 1.9800001
0.0132 0.56948572 1.9800001
0.022628572 0.56948572 1.9800001
0.047771428 0.56697148 1.9800001
0.054685719 0.56760001 1.9800001
-0.0075428574 0.57514286 1.9800001
0.015085715 0.5751428 1.9800001
0.024514288 0.57514286 1.9800001
0.03017143 0.57325715 1.9800001
0.056571431 0.57514286 1.9800001
0.064114287 0.57514286 1.9800001
-0.012822857 0.58532572 1.9800001
-0.0075428574 0.58834291 1.9800001
0.0037714287 0.58683431 1.9800001
0.014614286 0.58410001 1.9800003
0.024891431 0.58381712 1.9800001
0.032057144 0.58834291 1.9800001
0.066 0.5808 1.9800001
0.075428575 0.58457142 1.9800001
-0.022628572 0.59211433 1.9800001
-0.014008164 0.59534699 1.9800003
-0.0060342858 0.59588575 1.9800001
0.0033 0.59635717 1.9800003
0.014546939 0.59588575 1.9800003
0.024514286 0.59588575 1.9800001
0.033471432 0.59635717 1.9800003
0.041485716 0.59588575 1.9800001
0.0792 0.59211433 1.9800001
-0.073542863 0.6034286 1.9800001
-0.023885718 0.60468572 1.9800001
-0.018857144 0.60531431 1.9800001
0.0062857145 0.6059429 1.9800001
0.014142858 0.60437143 1.9800001
0.024514288 0.60531431 1.9800001
0.03394286 0.60531431 1.9800001
0.054057147 0.6059429 1.9800001
0.060342859 0.60720003 1.9800001
-0.0037714287 0.61662859 1.9800001
0 0.61474288 1.9800001
0.024514288 0.61097145 1.9800001
0.034885716 0.61191428 1.9800001
0.04274286 0.61725718 1.9800001
0.052800003 0.61474288 1.9800001
0.067885719 0.61097145 1.9800001
-0.0037714287 0.62605715 1.9800001
0 0.62228572 1.9800001
0.044314288 0.62511432 1.9800001
-0.0037714287 0.63548577 1.9800001
0 0.63548577 1.9800001
0.015085715 0.63737148 1.9800001
0.023885718 0.63611436 1.9800001
0.032057144 0.63737148 1.9800001
0.047142856 0.63548577 1.9800001
-0.27437145 0.6439715 1.9800001
-0.26777145 0.6411429 1.9800001
-0.0037714287 0.64491433 1.9800001
0.0015085714 0.64566863 1.9800001
0.016028572 0.64208579 1.9800001
0.024514288 0.64491433 1.9800001
0.033471432 0.64538574 1.9800003
0.044628572 0.64491433 1.9800001
-0.16782857 0.6562286 1.9800001
-0.005657143 0.65434289 1.9800001
0.0018857144 0.65434289 1.9800001
0.015085715 0.6562286 1.9800001
0.024514288 0.6562286 1.9800001
0.03394286 0.65434283 1.9800001
0.045257147 0.65434289 1.9800001
0.056571431 0.6562286 1.9800001
0.060342859 0.6562286 1.9800001
0.01584 0.66150856 1.9800001
0.035828575 0.66377145 1.9800001
0.044179592 0.66431028 1.9800003
0.056571431 0.66000003 1.9800001
0.060342859 0.66000003 1.9800001
0.018857144 0.67508572 1.9800001
0.024514288 0.67885715 1.9800001
0.03394286 0.67445713 1.9800001
0.044502858 0.67282283 1.9800001
0.005657143 0.68451428 1.9800001
0.013828572 0.68388575 1.9800001
0.024514288 0.68451428 1.9800001
0.0075428574 0.69017148 1.9800001
0.015085716 0.69441426 1.9800003
0.024514288 0.69394284 1.9800001
0.035828575 0.6939429 1.9800001
0.041485716 0.6939429 1.9800001
0.005657143 0.7090286 1.9800001
0.012257144 0.70431435 1.9800001
