# .PCD v0.7 - Point Cloud Data file format
VERSION 0.7
FIELDS x y z
SIZE 4 4 4
TYPE F F F
COUNT 1 1 1
WIDTH 1494
HEIGHT 1
VIEWPOINT 0 0 0 1 0 0 0
POINTS 1494
DATA ascii
-0.061508577 0.66240001 1.863
0.14904 0.6600343 1.863
0.15658072 0.66313928 1.863
0.16500857 0.66358286 1.863
0.17299286 0.66092145 1.863
0.18275145 0.6600343 1.863
0.13484572 0.67777717 1.863
0.1656 0.6718629 1.863
0.17121857 0.6751157 1.863
0.1383943 0.68132573 1.863
0.14371714 0.68309999 1.863
0.17246059 0.68416464 1.8630002
0.17388001 0.69552004 1.8630002
-0.053514287 0.57795429 1.8730001
-0.046379052 0.57795429 1.8730001
-0.037459999 0.57795429 1.8730001
-0.055892702 0.58271116 1.8730001
-0.047270954 0.58241385 1.8730001
-0.037459999 0.58152193 1.8730001
0.12129905 0.59757626 1.8730001
0.14627239 0.59579241 1.8730001
0.12129905 0.60292763 1.8730001
0.14448857 0.60471147 1.8730001
0.14448857 0.61184669 1.8730001
-0.063027941 0.62671179 1.8730001
0.12665048 0.63146859 1.8730001
0.13200191 0.63146859 1.8730001
-0.053514287 0.64752293 1.8730001
0.08324445 0.64692831 1.8730001
0.14984001 0.64930671 1.8730001
0.15697524 0.64930671 1.8730001
0.16411048 0.64692831 1.8730001
-0.055298097 0.65465808 1.8730001
0.14627238 0.65465808 1.8730001
0.15519142 0.65287429 1.8730001
0.16054286 0.65287429 1.8730001
-0.056190003 0.66268528 1.8730001
0.14525308 0.66408682 1.8730001
-0.060649525 0.6724962 1.8730001
-0.055892702 0.67309076 1.8730001
0.12843429 0.67784762 1.8730001
0.13556953 0.67784762 1.8730001
0.14582644 0.67383409 1.8730001
0.15483466 0.67499357 1.8730001
0.16173206 0.67665845 1.8730001
0.13913715 0.68141526 1.8730001
0.14698592 0.68426931 1.8730001
0.15483466 0.68426931 1.8730001
0.16411048 0.68498284 1.8730003
0.1676781 0.6956858 1.8730001
0.17124572 0.6939019 1.8730001
0.1676781 0.70282096 1.8730001
0.17124572 0.70282096 1.8730001
-0.044833332 0.57745337 1.8830001
-0.035149332 0.57601869 1.8830001
-0.028693335 0.57386667 1.8830001
-0.064560004 0.58223557 1.883
-0.05738667 0.58104002 1.8830001
-0.045431111 0.58582228 1.883
-0.039453335 0.58821338 1.8830001
-0.050213337 0.59180003 1.8830001
-0.046626668 0.59180003 1.8830001
0.13988 0.59538668 1.8830001
0.14466222 0.59299558 1.883
-0.050213337 0.60973334 1.8830001
0.12912001 0.60794002 1.8830001
0.13629334 0.60614669 1.8830003
0.13808668 0.61331999 1.8830001
0.12553334 0.63842666 1.883
0.13629334 0.63842666 1.8830001
-0.050213337 0.64918667 1.8830001
-0.046626668 0.64918667 1.8830001
0.12732667 0.64201337 1.8830001
0.13772801 0.64416534 1.8830001
0.14466222 0.64799112 1.883
0.15512335 0.64829004 1.8830001
0.16259556 0.64679557 1.883
-0.052006669 0.65636003 1.8830001
0.13898334 0.65636003 1.8830001
0.14526001 0.65277338 1.8830001
0.15422668 0.65277338 1.8830001
-0.053800002 0.66712004 1.8830001
0.13988 0.66532671 1.8830001
-0.052006669 0.67429334 1.8830001
-0.046626668 0.67429334 1.8830001
0.13748889 0.67489117 1.8830003
0.13629334 0.6814667 1.8830001
0.15064001 0.68326002 1.8830001
0.15422668 0.69461781 1.883
0.16379112 0.69700891 1.883
0.16498667 0.70298672 1.8830001
-0.05050667 0.56278861 1.8940001
-0.039683811 0.56639624 1.8940001
-0.051949717 0.57433295 1.8940001
-0.044493973 0.57601649 1.8940001
-0.03727873 0.57301015 1.8940001
-0.028860953 0.57361144 1.8940001
-0.061329525 0.58443433 1.8940001
-0.054114286 0.5808267 1.8940001
-0.044493973 0.59766227 1.8940001
-0.039683811 0.59525716 1.8940001
0.12807047 0.59886479 1.8940001
0.13528572 0.59706098 1.8940001
0.14069715 0.59886479 1.8940001
0.12807047 0.60427624 1.8940001
0.13528572 0.60247242 1.8940001
0.12626667 0.64816886 1.8940001
0.13588698 0.6469664 1.8940001
0.14610857 0.64576381 1.8940001
0.15332381 0.64937145 1.8940001
-0.04689905 0.65658671 1.8940001
0.12867175 0.65418166 1.8940001
0.13528572 0.65478289 1.8940001
-0.05050667 0.66380197 1.8940001
-0.04689905 0.66019434 1.8940001
0.12987429 0.66199815 1.8940001
0.13492496 0.66452342 1.8940001
-0.05050667 0.67282099 1.8940001
-0.045696512 0.67342228 1.8940001
0.12987429 0.67642862 1.8940001
0.13492496 0.6746248 1.8940001
0.12987429 0.68184 1.8940001
0.15873525 0.6998781 1.8940001
0.15873525 0.70348573 1.8940001
0.16234286 0.70348573 1.8940001
-0.047146667 0.55850667 1.904
-0.05319111 0.56817776 1.9039999
-0.045937777 0.56696892 1.9039999
-0.034453336 0.56938666 1.904
0.11424001 0.56938666 1.904
-0.056213334 0.57482672 1.904
-0.045937777 0.57422227 1.9039999
-0.032640003 0.57301337 1.904
0.10698666 0.57664001 1.904
0.115328 0.57518941 1.904
0.12512 0.57482666 1.904
0.1317689 0.57543117 1.9039999
-0.061653335 0.58389336 1.904
-0.058026668 0.58026671 1.904
0.097920001 0.58752 1.904
0.10426666 0.5848 1.904
0.11605334 0.58389336 1.9040002
0.12512 0.58389336 1.9040002
0.13373335 0.58389342 1.9040002
0.10608 0.59205335 1.904
0.11650667 0.59432 1.9040002
0.12512 0.59477335 1.9040002
0.13366859 0.59373713 1.9040002
0.14325334 0.59296 1.904
0.11968 0.6020267 1.904
0.12330667 0.6020267 1.904
0.10336 0.61653334 1.904
0.10517333 0.6219734 1.9040002
0.11786667 0.64736003 1.904
0.14869334 0.64554667 1.904
0.15594669 0.64917338 1.9039999
0.11786667 0.65461338 1.904
0.12330667 0.65461338 1.904
-0.047146667 0.66730666 1.904
0.11822934 0.66295469 1.904
0.12512 0.66368002 1.9040002
-0.047146667 0.67093337 1.904
0.12512 0.67456001 1.9040002
0.13056001 0.67274666 1.904
0.086326987 0.54592699 1.9150001
0.094838105 0.54531908 1.9150001
0.084503181 0.55322224 1.9150001
0.094317004 0.55339593 1.9150001
0.10213333 0.5562619 1.9150001
-0.057146031 0.56659693 1.9150001
-0.042729259 0.56590211 1.9150001
-0.035017144 0.56611049 1.9150002
0.098485716 0.56902862 1.9150001
0.10760477 0.56902862 1.9150001
0.11490001 0.56902862 1.9150001
-0.062009525 0.57997143 1.9150001
-0.058361907 0.57449996 1.9150001
-0.029180953 0.57449996 1.9150001
0.097269841 0.57753968 1.9150001
0.10525987 0.57528162 1.9150001
0.12310714 0.57358807 1.9150001
-0.064441271 0.58483499 1.9150001
0.095567621 0.58580768 1.9150002
0.10578096 0.5854429 1.9150001
0.13860953 0.58726668 1.9150001
0.14225715 0.58726668 1.9150001
0.10942858 0.59091431 1.9150001
0.14408097 0.59091431 1.9150001
-0.025533333 0.60732859 1.9150001
0.085111111 0.60793656 1.9150001
0.09119048 0.60915238 1.9150001
-0.023709524 0.61462379 1.9150001
0.085719049 0.61462379 1.9150001
0.09483809 0.61462384 1.9150001
0.10213333 0.61462379 1.9150001
-0.051066667 0.62374288 1.9150001
-0.024491157 0.62426394 1.9150001
0.083895236 0.62374288 1.9150001
0.094838098 0.62374288 1.9150001
-0.043771431 0.63286197 1.9150001
-0.032828573 0.63650954 1.9150001
-0.025533333 0.63468575 1.9150001
-0.018238096 0.63286197 1.9150001
0.09119048 0.63103813 1.9150001
0.10395715 0.6492762 1.9150001
0.15502381 0.6492762 1.9150001
0.16231906 0.6492762 1.9150001
0.087542862 0.65657145 1.9150001
0.094838105 0.65657145 1.9150001
0.10486905 0.6556595 1.9150001
0.1130762 0.65474761 1.9150001
-0.043771431 0.66751432 1.9150001
0.09483809 0.6638667 1.9150001
0.10578096 0.66386676 1.9150001
0.1130762 0.6638667 1.9150001
-0.042312387 0.67553908 1.9150002
-0.036476191 0.67663336 1.9150001
0.094838098 0.67116195 1.9150001
0.10578096 0.67116195 1.9150001
0.11550794 0.67237782 1.9150001
0.12037143 0.67663336 1.9150001
-0.023833334 0.53716671 1.9250001
-0.016500002 0.53533334 1.9250001
0.088 0.53900003 1.9250001
0.091666669 0.53900003 1.9250001
-0.024444446 0.54388887 1.9250001
-0.0165 0.54449999 1.9250001
0.0836 0.54413331 1.925
0.093500003 0.54266667 1.9250001
-0.040333334 0.55733335 1.9250001
-0.034833334 0.55733335 1.9250001
-0.025666667 0.55366665 1.9250001
-0.017111113 0.55122226 1.9250001
0.077 0.55550003 1.9250001
0.082500003 0.55366671 1.9250001
-0.044 0.56100005 1.9250001
-0.034222223 0.56222224 1.9250001
-0.02688889 0.56588888 1.9250001
0.077 0.56100005 1.9250001
0.08433333 0.56222224 1.9250001
0.095333338 0.56519049 1.9250001
0.1045 0.56833333 1.9250001
0.11183333 0.56833333 1.9250001
-0.062333334 0.57566667 1.9250001
-0.0275 0.57200003 1.9250001
0.096555561 0.57811111 1.9250001
0.10266667 0.57200003 1.9250001
-0.068444446 0.58422226 1.9250001
0.091666669 0.58483338 1.9250001
-0.069666669 0.59033334 1.9250001
-0.025666667 0.60591668 1.9250001
0.077 0.60866672 1.9250001
0.080666669 0.60866672 1.9250001
-0.025666667 0.61600006 1.9250001
-0.018333334 0.616 1.9250001
0.069666669 0.6196667 1.9250001
0.075166672 0.616 1.9250001
0.080666669 0.616 1.9250001
-0.040333334 0.62516665 1.9250001
-0.034833334 0.62516671 1.9250001
-0.029333334 0.62516665 1.9250001
-0.018333334 0.62516665 1.9250001
0.067833334 0.62516665 1.9250001
0.075166665 0.62516665 1.9250001
0.085555553 0.62455559 1.9250001
-0.051333334 0.63066667 1.9250001
-0.040333334 0.63433337 1.9250001
-0.0352 0.63360006 1.925
-0.018333334 0.63066667 1.9250001
0.067466661 0.63360006 1.925
0.081888892 0.63188893 1.9250001
-0.036666669 0.64166671 1.9250001
0.095333338 0.65633339 1.9250001
0.10633334 0.65633339 1.9250001
0.11000001 0.65633339 1.9250001
-0.040333334 0.67283332 1.9250001
-0.034833334 0.671 1.9250001
0.095333338 0.6746667 1.9250001
-0.035032384 0.53839242 1.9360001
-0.023969524 0.5347048 1.9360001
-0.013828571 0.5337829 1.9360001
-0.035032384 0.54576772 1.936
-0.027657144 0.54668957 1.9360001
-0.011062858 0.54208004 1.9360001
-0.040563811 0.55683053 1.9360001
-0.03503238 0.55498672 1.9360001
-0.025813334 0.55498672 1.9360001
0.077440001 0.55314291 1.9360001
-0.027288383 0.56420577 1.9360001
-0.018438095 0.56051815 1.9360001
0.077440001 0.56789333 1.9360001
0.082971431 0.56789333 1.9360001
0.099565715 0.56789333 1.9360001
0.10325333 0.56789333 1.9360001
-0.070064768 0.57895619 1.9360001
-0.066377148 0.57895619 1.9360001
0.086290285 0.57379353 1.9360001
0.093419693 0.57649779 1.9360002
-0.070064768 0.58264381 1.9360001
-0.066377148 0.58264381 1.9360001
0.088502862 0.58264381 1.9360001
0.092190482 0.58264381 1.9360001
-0.025813334 0.60661334 1.9360001
0.077440001 0.60845715 1.9360001
0.081127621 0.60845715 1.9360001
-0.033188574 0.61583239 1.9360002
-0.029500954 0.6176762 1.9360001
-0.015979683 0.61583239 1.9360002
0.070986673 0.61491048 1.9360001
-0.042407621 0.62505144 1.9360001
-0.035032384 0.62320763 1.9360001
-0.014750477 0.62505144 1.9360001
0.064533338 0.62505144 1.9360001
-0.046095241 0.63427049 1.9360001
0.0036876192 0.63795811 1.9360001
0.062689528 0.63427049 1.9360002
0.074981593 0.63549972 1.9360002
0.086659051 0.63795811 1.9360001
-0.047939051 0.64164573 1.9360001
0.0036876192 0.64164573 1.9360001
0.070064768 0.64348954 1.9360001
0.084077716 0.64312077 1.9360001
-0.042407621 0.66745907 1.9360001
-0.042407621 0.67114669 1.9360001
-0.035032384 0.67483431 1.9360001
-0.033188574 0.68220955 1.9360001
0.042648572 0.48953146 1.9470001
0.037085716 0.49324003 1.9470001
0.040794287 0.49324003 1.9470001
0.018542858 0.51920003 1.9470001
0.022251429 0.51734573 1.9470001
-0.014834287 0.52661717 1.9470001
0.022251429 0.52290857 1.9470001
-0.02348762 0.53279811 1.9470001
-0.014834288 0.53156191 1.9470001
-0.0055628577 0.53774285 1.9470001
-0.011125715 0.5488686 1.9470001
-0.0064900005 0.5442329 1.9470001
0.077880003 0.5488686 1.9470001
0.081588574 0.54516 1.9470001
-0.040794287 0.55628574 1.9470001
-0.014834287 0.55999428 1.9470001
0.073429719 0.55702746 1.9470001
0.072317146 0.56555712 1.9470001
-0.022251429 0.57112002 1.9470001
0.076025717 0.57297432 1.9470001
0.083442859 0.57853717 1.9470001
0.10754857 0.57112002 1.9470001
0.11125714 0.57112002 1.9470001
-0.074171431 0.58966285 1.9470001
0.085297145 0.58502716 1.9470001
0.089005716 0.59337145 1.9470001
-0.19284572 0.60078859 1.9470001
-0.18913715 0.60264289 1.9470001
-0.033377144 0.60820574 1.9470001
-0.024105715 0.60449719 1.9470001
-0.016688572 0.60635149 1.9470001
0.081588574 0.60820574 1.9470001
-0.040794287 0.61747718 1.9470001
-0.035849527 0.61562294 1.9470001
-0.016070478 0.61315054 1.9470001
0.064900003 0.61562282 1.9470001
0.072317146 0.61191434 1.9470001
-0.042648572 0.62489432 1.9470001
-0.037085716 0.62304002 1.9470001
-0.011125715 0.62674862 1.9470001
0.064281911 0.62427622 1.9470001
-0.048211429 0.63231146 1.9470001
-0.012609144 0.63490748 1.9470001
-0.0074171433 0.63787431 1.9470001
0.0018542858 0.63787431 1.9470001
0.05933715 0.63416576 1.9470001
-0.013598097 0.64281911 1.9470001
0.0044502863 0.64454973 1.9470001
0.012980001 0.64158291 1.9470001
0.064281911 0.64776385 1.9470001
0.07639657 0.64603317 1.9470001
0.064900003 0.65270859 1.9470001
0.037295241 0.49229717 1.9580001
0.045500197 0.4982644 1.9579999
0.052213334 0.49975622 1.9580001
0.015664 0.51691204 1.9579999
0.025360763 0.51542014 1.9579999
-0.022377145 0.52959239 1.9580001
-0.016782857 0.52679527 1.9580001
-0.0074590477 0.52959239 1.9580001
0.014451906 0.52632904 1.9580001
0.027172247 0.52639568 1.9580001
-0.026106667 0.53332192 1.9580001
-0.011188572 0.53332192 1.9580001
-0.0062158727 0.53580827 1.9580001
0.016782857 0.53518665 1.9580001
0.024241906 0.53332192 1.9580001
-0.033565715 0.54078096 1.9580001
-0.029836191 0.54264569 1.9580001
-0.0037295239 0.54824001 1.9580001
0.00093238096 0.54357815 1.9580001
0.015664 0.54227275 1.9579999
0.022377145 0.54078096 1.9580001
0.048483811 0.54824001 1.9580001
0.056688763 0.54674822 1.9579999
0.065266669 0.54637527 1.9580001
0.074590482 0.54824001 1.9580001
0.085779049 0.54824001 1.9580001
-0.011188572 0.55569905 1.9580001
-0.0037295239 0.55196953 1.9580001
0 0.55196953 1.9580001
0.037295241 0.55569905 1.9580001
0.045819867 0.55569905 1.9580001
0.055476669 0.55523288 1.9580001
0.065266669 0.55569905 1.9580001
0.072725713 0.55383432 1.9580001
0.044754289 0.56315809 1.9580001
0.065888256 0.56440121 1.9580001
-0.022377145 0.57061714 1.9580001
0.06713143 0.57061714 1.9580001
0.072104126 0.57683301 1.9580001
-0.074590482 0.58926481 1.9580001
0.078320004 0.58180571 1.9580001
0.082049526 0.58926481 1.9580001
-0.19207048 0.59672385 1.9580001
-0.1864762 0.59672385 1.9580001
-0.0055942857 0.59672385 1.9580001
0.048483811 0.59485912 1.9580001
0.052213334 0.59672385 1.9580001
-0.20139429 0.6041829 1.9580001
-0.19486761 0.60511529 1.9580001
-0.1864762 0.60045338 1.9580001
-0.074590482 0.60231817 1.9580001
-0.033565715 0.60604763 1.9580001
-0.029836191 0.60604763 1.9580001
-0.012431745 0.60542607 1.9580001
0.048483808 0.6041829 1.9580001
0.055942856 0.6041829 1.9580001
0.065266669 0.60791242 1.9580001
0.072725713 0.60791242 1.9580001
0.082049526 0.60791242 1.9580001
-0.037295241 0.61350667 1.9580001
-0.011188571 0.61537147 1.9580001
0.048483811 0.61350667 1.9580001
0.05640905 0.61583763 1.9580001
0.065266669 0.61164194 1.9580001
0.074590482 0.61164194 1.9580001
-0.044754289 0.6246953 1.9580001
-0.011188572 0.6246953 1.9580001
0.057186034 0.62407368 1.9580001
-0.048483811 0.63028955 1.9580001
-0.005967238 0.63476497 1.9579999
0.0037295239 0.63448524 1.9580001
0.014385307 0.63508469 1.9580001
0.055196952 0.63476503 1.9579999
-0.011188572 0.64893717 1.9580001
-0.0052213334 0.64595354 1.9579999
0.0074590477 0.64147812 1.9580001
0.015450886 0.64520758 1.9580001
0.055476669 0.64567387 1.9580001
-0.011188572 0.65266669 1.9580001
-0.0074590477 0.65266669 1.9580001
0.013674921 0.65390986 1.9580001
0.05594286 0.65266669 1.9580001
0.029836191 0.68623239 1.9580001
0.033565715 0.68623239 1.9580001
0.25690764 0.015001905 1.9690001
0.015001905 0.44630668 1.9690001
0.015001905 0.45005715 1.9690001
0.037504762 0.48756191 1.9690001
0.04313048 0.48756191 1.9690001
0.037504762 0.49131238 1.9690001
0.04313048 0.49131238 1.9690001
0.015001905 0.51319021 1.969
0.025003174 0.51131493 1.9690002
0.03000381 0.51756573 1.9690001
-0.013126668 0.52881718 1.9690001
-0.0075009526 0.52881718 1.9690001
0.0048220409 0.52560246 1.969
0.035629526 0.5269419 1.9690001
-0.026253335 0.53256762 1.9690001
-0.0037504763 0.5344429 1.9690001
0.0046880953 0.53350526 1.9690001
0.011251429 0.53631812 1.9690001
0.034504384 0.53481787 1.9690001
0.054381907 0.53631812 1.9690001
-0.031879049 0.54006857 1.9690001
0.0050006351 0.543194 1.969
0.011251429 0.54381907 1.9690001
0.024753144 0.54381907 1.9690001
0.033754285 0.54381907 1.9690001
0.047256 0.54456919 1.9690001
0.054006863 0.54306895 1.9690001
0.062820479 0.54288143 1.9690001
0.075009525 0.54756957 1.9690002
0.082510479 0.54756957 1.9690001
0.015001905 0.55132002 1.9690002
0.022502858 0.55132002 1.9690001
0.035629526 0.55507052 1.9690001
0.042505398 0.55257016 1.9690002
0.016877143 0.56444669 1.9690001
0.024378097 0.56444669 1.9690001
0.033754285 0.56444663 1.969
0.043755557 0.56507176 1.9690002
0.054381907 0.56632191 1.9690001
0.060007621 0.56444669 1.9690001
-0.016877143 0.57194763 1.9690001
0.018752381 0.57007241 1.9690001
0.024753144 0.57382286 1.9690001
0.033285476 0.57335407 1.969
0.045474522 0.57382286 1.969
0.054381907 0.57194763 1.9690001
0.063008003 0.57307279 1.9690001
-0.082510479 0.58882481 1.9690001
-0.076884761 0.58882481 1.9690001
0.0056257145 0.58694959 1.9690001
0.016252063 0.5838241 1.9690002
0.024378097 0.58507425 1.969
0.032504126 0.58444929 1.969
0.041255239 0.58507431 1.9690001
0.076884761 0.58694959 1.9690001
-0.082510479 0.59445047 1.9690001
-0.078760006 0.59445047 1.9690001
-0.0050006351 0.59507561 1.9690002
0.0018752381 0.59445053 1.9690001
0.045005716 0.59445047 1.9690001
-0.21002668 0.60570192 1.9690001
-0.20440096 0.6038267 1.9690001
-0.19752508 0.60257655 1.9690002
-0.076884761 0.6000762 1.9690001
-0.024378097 0.60757715 1.9690001
-0.013751746 0.6038267 1.9690002
-0.0056257145 0.60570192 1.9690001
0.0037504763 0.6000762 1.9690002
0.011251429 0.6000762 1.9690001
0.045005716 0.60195148 1.9690001
0.056257144 0.60570192 1.9690001
0.061882861 0.60757715 1.9690001
-0.21002668 0.61132765 1.9690001
-0.20346335 0.61414051 1.9690001
-0.19690001 0.61695337 1.9690001
-0.0075009526 0.61320287 1.9690001
0.045005716 0.61695337 1.9690001
0.053756829 0.6125778 1.9690002
0.046880953 0.62445432 1.9690001
0.056257144 0.62632954 1.9690001
-0.048756193 0.63008004 1.9690001
-0.0056257145 0.63195527 1.9690001
0.0037504763 0.63133019 1.9690002
0.016877143 0.63383049 1.9690001
0.022502858 0.63758099 1.9690001
0.048756193 0.63758099 1.9690001
0.054381907 0.63195527 1.9690001
0.023440478 0.64601952 1.9690001
0.03000381 0.64883238 1.9690001
0.048756193 0.64133143 1.9690001
0.018752381 0.65633339 1.9690001
0.022502858 0.65445817 1.9690001
0.018752381 0.66008383 1.9690001
0.022502858 0.66008383 1.9690001
-0.015001905 0.68258667 1.9690001
-0.015001905 0.69008762 1.9690001
0.026253335 0.72196668 1.9690001
0.031879049 0.72196668 1.9690001
0.2552 0.015085715 1.9800001
0.26148573 0.016342858 1.9800001
0.264 0.022628572 1.9800001
-0.015085715 0.39977145 1.9800001
-0.015085715 0.40542856 1.9800001
-0.0075428574 0.4073143 1.9800001
0.017600002 0.40605715 1.9800001
0.022628572 0.40542859 1.9800001
-0.0075428574 0.41485715 1.9800001
0.0037714287 0.41485715 1.9800001
0.015557143 0.41532856 1.9800003
0.024137145 0.41410285 1.9800001
0.016163265 0.42617145 1.9800003
0.022628572 0.42240003 1.9800001
0.0075428574 0.43748572 1.9800001
0.015085715 0.43748572 1.9800001
0.0075428574 0.44691432 1.9800001
0.015624491 0.4450286 1.9800003
0.022628572 0.44880003 1.9800001
0.0062857145 0.45382857 1.9800001
0.015085715 0.45483431 1.9800001
0.022628572 0.45445716 1.9800001
0.0050285715 0.46137142 1.9800001
0.0132 0.46200001 1.9800001
-0.0037714287 0.47897145 1.9800001
0.0075428574 0.47897145 1.9800001
-0.0050285715 0.484 1.9800001
0.0075428574 0.48462859 1.9800001
-0.0037714287 0.49405718 1.9800001
0.0018857144 0.49594286 1.9800001
0.025142858 0.49531427 1.9800001
0.032057144 0.49594286 1.9800001
0.0037714285 0.50537151 1.9800001
0.015085715 0.50914288 1.9800001
0.025142858 0.50662857 1.9800001
0.032685716 0.50474292 1.9800001
0.0037714287 0.51480001 1.9800001
0.011314286 0.5129143 1.9800001
0.031428572 0.5154286 1.9800001
-0.022628572 0.528 1.9800001
-0.0132 0.528 1.9800001
-0.0062857145 0.52674288 1.9800001
0.0022628573 0.52271998 1.9800001
0.035200004 0.52297145 1.9800001
0.041485716 0.528 1.9800001
-0.03017143 0.53931433 1.9800001
-0.022628572 0.53177142 1.9800001
-0.0037714287 0.53177142 1.9800001
0.0018857144 0.53931433 1.9800001
0.044785719 0.53601432 1.9800003
0.052800003 0.53554291 1.9800001
0.060342859 0.53931433 1.9800001
0.04274286 0.54434294 1.9800001
0.066 0.54308575 1.9800001
0.071657144 0.54685718 1.9800001
0.0050285715 0.55565715 1.9800001
0.015085715 0.55817145 1.9800001
0.025142858 0.55691433 1.9800001
0.031428572 0.55565715 1.9800001
0.041485716 0.5506286 1.9800001
-0.011314286 0.56760001 1.9800001
-0.005657143 0.56194288 1.9800001
0.0052800002 0.5664686 1.9800001
0.013577143 0.56420571 1.9800001
0.024514288 0.56194288 1.9800001
0.03017143 0.56194288 1.9800001
-0.12634286 0.57702857 1.9800001
-0.015085715 0.57702857 1.9800001
0.014331428 0.57551998 1.9800001
0.022628572 0.57702857 1.9800001
0.041485716 0.57702857 1.9800001
0.0045257146 0.58381712 1.9800001
0.014457143 0.58331424 1.9800001
0.037714288 0.58268571 1.9800001
0.046011429 0.58607996 1.9800001
0.054685719 0.5808 1.9800001
0.062228575 0.5808 1.9800001
-0.20365715 0.59965718 1.9800001
-0.19234286 0.59965718 1.9800001
-0.18857144 0.59965718 1.9800001
-0.012571429 0.59840006 1.9800001
-0.005657143 0.59400004 1.9800001
0.0037714287 0.59588575 1.9800001
0.018857144 0.59211433 1.9800001
0.024514288 0.59777147 1.9800001
0.034414288 0.59635717 1.9800003
0.043748572 0.59513152 1.9800001
-0.082971431 0.60531431 1.9800001
-0.0792 0.60720003 1.9800001
-0.016342858 0.6059429 1.9800001
0.0037714287 0.60720003 1.9800001
0.015085715 0.60531431 1.9800001
0.024514288 0.60531431 1.9800001
0.033188574 0.6049372 1.9800001
0.041485716 0.60531431 1.9800001
0.060342859 0.60720003 1.9800001
-0.20742857 0.6185143 1.9800001
-0.0792 0.61097145 1.9800001
-0.0037714287 0.61662859 1.9800001
0.0037714287 0.61474288 1.9800003
0.013828572 0.616 1.9800001
0.026400002 0.61474288 1.9800001
0.043371428 0.61380005 1.9800001
0.052800003 0.61097145 1.9800001
-0.20742857 0.62228572 1.9800001
-0.0060342858 0.62605715 1.9800001
0.003771429 0.62605715 1.9800001
0.015085716 0.62605715 1.9800001
0.024514288 0.62605715 1.9800001
0.032057144 0.62605715 1.9800001
0.041485716 0.62605715 1.9800001
-0.0037714287 0.6336 1.9800001
0.0037714287 0.6336 1.9800001
0.015085715 0.6336 1.9800001
0.023885714 0.63611436 1.9800001
0.032057144 0.63737148 1.9800001
0.046011426 0.63586295 1.9800001
-0.2904 0.6411429 1.9800001
-0.28285715 0.6411429 1.9800001
0.026400002 0.64491433 1.9800001
0.03394286 0.64491433 1.9800001
0.044179596 0.6454531 1.9800003
0.026400002 0.6562286 1.9800001
0.03394286 0.65434289 1.9800001
0.049028572 0.65434289 1.9800001
0.026400002 0.66000003 1.9800001
0.036457147 0.66125721 1.9800001
0.049028572 0.66000003 1.9800001
-0.0132 0.68451428 1.9800001
-0.005657143 0.6864 1.9800001
0.0037714287 0.6864 1.9800001
0.0132 0.6864 1.9800001
-0.015085715 0.69017148 1.9800001
0.0075428574 0.69582862 1.9800001
0.014614286 0.69347143 1.9800003
0.024891431 0.69318867 1.9800001
0.03017143 0.6939429 1.9800001
-0.015085715 0.7090286 1.9800001
0.026400002 0.70714289 1.9800001
0.03017143 0.70714289 1.9800001
0.026400002 0.71280003 1.9800001
0.03017143 0.71280003 1.9800001
0.022628572 0.72600001 1.9800001
0.024514288 0.73165715 1.9800001
-0.23145144 -0.022765715 1.9920001
0.25345829 0.0060708574 1.9920002
0.25295237 0.015177143 1.9920001
0.2561143 0.024662856 1.9920001
0.26180571 0.024662858 1.9920001
0.25421715 0.032251433 1.9920001
-0.013280001 0.39650288 1.9920001
-0.0056914287 0.39650285 1.9920001
0.0047428575 0.39650285 1.9920001
0.015177144 0.39612347 1.9920002
0.024030477 0.39587048 1.9920001
0.030354287 0.39460573 1.9920001
-0.011382857 0.40219429 1.9920001
-0.0053120004 0.40522972 1.9920002
0.0037942859 0.40646285 1.9920003
0.013912381 0.40472379 1.9920002
0.022765715 0.40219429 1.9920001
-0.0037942859 0.4154743 1.9920001
0.0037942859 0.41452575 1.9920001
0.011382857 0.41357717 1.9920001
-0.0037942859 0.42306286 1.9920001
0.0037942859 0.42496002 1.9920003
0.011382857 0.42496002 1.9920001
0.024662858 0.4287543 1.9920001
-0.0037942859 0.43634287 1.9920001
0.0037942857 0.43444574 1.9920002
0.014228571 0.43539429 1.9920001
0.024662858 0.43444571 1.9920001
0.030354287 0.43634287 1.9920001
-0.0037942857 0.44393143 1.9920001
0.0027102043 0.44393143 1.9920003
0.011382857 0.44393143 1.9920001
0.024662858 0.4420343 1.9920001
0.030354287 0.44013715 1.9920001
0.0015177144 0.45531431 1.9920002
0.002529524 0.46543241 1.9920001
0.01897143 0.4648 1.9920001
0.022765715 0.4648 1.9920001
-0.0037942859 0.47618288 1.9920001
0.0037942859 0.47428572 1.9920003
0.014702857 0.47428572 1.9920003
0.024662858 0.47808 1.9920001
0.030354287 0.47808 1.9920001
-0.011382857 0.48756576 1.9920001
-0.0075885719 0.4856686 1.9920001
0.0018971429 0.48566863 1.9920002
0.015177144 0.4856686 1.9920003
0.024662856 0.48756576 1.9920001
0.032251433 0.48756576 1.9920001
-0.011382857 0.49515432 1.9920001
-0.0075885719 0.49515432 1.9920001
0.0047428571 0.49420574 1.9920001
0.015177143 0.49515429 1.9920002
0.024662858 0.49325716 1.9920001
0.032251433 0.49325716 1.9920001
-0.011382857 0.50084573 1.9920001
-0.0060708574 0.50539887 1.9920002
0.0075885719 0.50084573 1.9920001
0.015177142 0.50463998 1.9920003
0.023714285 0.50558859 1.9920001
-0.012647619 0.51855236 1.9920001
-0.0056914291 0.51602286 1.9920002
0.036425143 0.51526403 1.9920002
0.041737143 0.51602292 1.9920001
-0.022765715 0.52550858 1.9920001
-0.015177143 0.52550864 1.9920002
-0.0050590481 0.52487618 1.9920001
0.03794286 0.52361143 1.9920001
0.044772573 0.52588809 1.9920002
-0.026560001 0.53309715 1.9920001
0.048060954 0.53246474 1.9920001
0.055017147 0.5349943 1.9920001
0.062605716 0.53878862 1.9920001
-0.034148574 0.54258287 1.9920001
0.064502858 0.54258287 1.9920001
0.07209143 0.54637718 1.9920001
0.075885721 0.55017143 1.9920001
0.087268576 0.55396575 1.9920001
0.091062859 0.55396575 1.9920001
-0.0056914287 0.56914288 1.9920001
0.0037942859 0.56534863 1.9920001
-0.12331429 0.57673144 1.9920001
-0.011382857 0.57673144 1.9920001
-0.0056914287 0.57483435 1.9920001
0.0037942857 0.57546669 1.9920001
-0.12141715 0.58052576 1.9920001
-0.022765715 0.58811432 1.9920001
-0.014635102 0.58540404 1.9920003
-0.0056914291 0.58432007 1.9920002
0.0022765715 0.58280236 1.9920002
0.055017143 0.58811432 1.9920001
0.068297148 0.58811432 1.9920001
-0.087268576 0.59759998 1.9920001
-0.023714285 0.59665143 1.9920001
-0.015651429 0.59522855 1.9920003
-0.0063238102 0.59317333 1.9920001
0.0075885719 0.59949714 1.9920001
0.014418286 0.59797943 1.9920002
0.049325716 0.59570289 1.9920001
0.053120002 0.59190857 1.9920001
-0.19730286 0.60329145 1.9920001
-0.087268576 0.60329145 1.9920001
-0.022765715 0.60518861 1.9920001
-0.01897143 0.60518861 1.9920001
0.015177143 0.60329145 1.9920001
0.055017143 0.60518861 1.9920001
-0.079680003 0.61846858 1.9920001
-0.022765715 0.61088002 1.9920001
0.0037942859 0.61846858 1.9920001
0.016441906 0.61593908 1.9920002
0.024030477 0.61720383 1.9920001
0.034690615 0.61575842 1.9920003
0.041737143 0.61846858 1.9920001
-0.0037942859 0.62985146 1.9920001
0.015177144 0.6222629 1.9920001
0.022765715 0.6222629 1.9920001
0.035666287 0.62453949 1.9920002
0.026560001 0.63744003 1.9920001
0.035097145 0.63649142 1.9920001
0.041737143 0.63744003 1.9920001
-0.29595429 0.6488229 1.9920001
-0.28457147 0.64730519 1.9920002
-0.27698287 0.64692575 1.9920001
0.03794286 0.64123434 1.9920001
0.03794286 0.65641147 1.9920001
0.043634288 0.65641147 1.9920001
0.032630861 0.66400003 1.9920002
0.043634284 0.66400003 1.9920002
-0.011382857 0.67917717 1.9920001
-0.0056914287 0.67917717 1.9920001
0.001897143 0.67917717 1.9920001
0.032251433 0.6715886 1.9920001
-0.011382857 0.68486857 1.9920001
-0.0056914287 0.68486857 1.9920001
0.0037942857 0.68486857 1.9920002
0.014228571 0.68581718 1.9920001
0.022765715 0.68676573 1.9920001
-0.011382857 0.69625145 1.9920001
-0.0056914287 0.69625151 1.9920001
0.0030354287 0.69587201 1.9920002
0.01897143 0.69056004 1.9920001
0.024662858 0.69056004 1.9920001
-0.022765715 0.70953143 1.9920001
-0.015177144 0.70573717 1.9920003
-0.0056914291 0.70573711 1.9920002
0.0033200001 0.70621145 1.9920003
0.015719185 0.70682114 1.9920003
0.023714285 0.70573711 1.9920001
0.030354287 0.70573717 1.9920001
-0.022765715 0.71712005 1.9920001
-0.016125714 0.7152229 1.9920001
-0.0056914287 0.7152229 1.9920001
0.0037942857 0.7152229 1.9920002
0.015177143 0.7152229 1.9920002
0.022765715 0.7152229 1.9920001
-0.0037942857 0.72470856 1.9920001
0.0037942859 0.72470856 1.9920003
0.016441906 0.72407621 1.9920002
0.024662858 0.72281146 1.9920001
0.030354287 0.72281146 1.9920001
-0.0047428571 0.73609143 1.9920001
0.0037942859 0.73609138 1.9920003
0.015177144 0.73609138 1.9920003
0.024662858 0.73988575 1.9920001
0.033389717 0.73836797 1.9920002
0.0075885719 0.74747431 1.9920001
0.015936 0.7459566 1.9920002
0.024662858 0.7455771 1.9920001
0.033200003 0.74462855 1.9920001
0.041737143 0.74368 1.9920001
-0.22319144 -0.030521905 2.003
-0.21746857 -0.030521905 2.003
-0.22509904 -0.024799049 2.003
-0.21556096 -0.026706668 2.003
-0.25180572 -0.015260953 2.003
-0.24369834 -0.014784048 2.003
-0.23463716 -0.015260953 2.003
-0.22509904 -0.019076191 2.003
-0.24226762 -0.0038152381 2.003
-0.23463716 -0.0038152381 2.003
-0.25180572 0.0038152381 2.003
-0.24608287 0.0019076191 2.003
0.21619684 0.005086984 2.003
0.23654477 0.017168572 2.003
0.24417526 0.015260953 2.003
0.25180572 0.015260953 2.003
0.24544699 0.024163177 2.003
0.25180572 0.024799049 2.003
0.24799049 0.034337144 2.003
0.25562096 0.03488218 2.003
0.26477754 0.035100192 2.003
0.25466716 0.044829048 2.003
0.26515907 0.057228573 2.003
0.27088192 0.057228573 2.003
0.27088192 0.06104381 2.003
0.26706669 0.16787048 2.003
0.27088192 0.16787048 2.003
-0.0057228571 0.39296955 2.003
0.019076191 0.39296955 2.003
0.024799049 0.39296955 2.003
0.030521905 0.39296955 2.003
0.0038152381 0.40250763 2.003
0.015260953 0.40060002 2.003
0.026706668 0.40441525 2.003
0.030521905 0.40441525 2.003
-0.0038152381 0.43302953 2.003
-0.0038152381 0.47308955 2.003
0.019076191 0.47690478 2.003
0.024799049 0.47499716 2.003
0.030521905 0.47499716 2.003
-0.015260953 0.48835048 2.003
0.024799049 0.48453525 2.003
0.030521905 0.48453525 2.003
-0.015260953 0.49979621 2.003
-0.013989207 0.50615495 2.003
-0.02289143 0.51505715 2.003
-0.015260952 0.51451206 2.003
0.04578286 0.51696479 2.003
-0.025434921 0.5239594 2.003
-0.019076191 0.52268761 2.003
0.047690481 0.52459526 2.003
-0.030521905 0.53794861 2.003
-0.026706668 0.53031814 2.003
0.055956829 0.53158987 2.003
0.064859048 0.53794861 2.003
-0.035290953 0.54462522 2.003
0.068674289 0.54367149 2.003
0.076304764 0.54939431 2.003
-0.038152382 0.55320954 2.003
0.083935246 0.55320954 2.003
-0.1297181 0.57800859 2.003
0 0.57991624 2.003
-0.19266953 0.58373147 2.003
-0.13353334 0.58563912 2.003
-0.12781048 0.58754671 2.003
-0.21365334 0.59517717 2.003
-0.20983811 0.59899241 2.003
-0.17550094 0.59708476 2.003
-0.13353334 0.59326959 2.003
-0.12781048 0.59326959 2.003
-0.026706668 0.59899241 2.003
0.055320956 0.59708476 2.003
0.062951431 0.59136194 2.003
0.074397147 0.59708476 2.003
-0.21365334 0.60280764 2.003
-0.20602286 0.60471529 2.003
-0.19457716 0.60280764 2.003
-0.18694668 0.60471523 2.003
-0.091565721 0.60471523 2.003
-0.026706668 0.60662287 2.003
0.055956826 0.60407937 2.003
0.080120005 0.60280764 2.003
-0.08775048 0.6123457 2.003
-0.030521905 0.61425334 2.003
-0.026706668 0.6123457 2.003
-0.20678592 0.63561875 2.003
-0.27469715 0.64859051 2.003
-0.30140382 0.65622097 2.003
-0.29504511 0.65494925 2.003
-0.28614286 0.65622097 2.003
-0.27851239 0.65622097 2.003
-0.02289143 0.72489524 2.003
-0.014715918 0.72598535 2.003
-0.0076304763 0.72680289 2.003
0.013353335 0.72871053 2.003
-0.02289143 0.73252577 2.003
-0.014497906 0.73405188 2.003
-0.0076304763 0.73443341 2.003
0.011445715 0.73252577 2.003
-0.014307144 0.74111003 2.003
-0.0063587301 0.74651498 2.003
0.0038152381 0.7477867 2.003
0.011445715 0.7477867 2.003
-0.2168524 -0.023028573 2.0150001
0.21877144 -0.023028573 2.0150001
0.22260953 -0.023028573 2.0150001
-0.25523335 -0.011514287 2.0150001
-0.23028572 -0.013433334 2.0150001
-0.22516827 -0.014073017 2.0150001
-0.21438503 -0.01644898 2.0150001
-0.20725715 -0.013433334 2.0150001
0.20725715 -0.011514287 2.0150001
0.21301429 -0.011514287 2.0150001
0.22260953 -0.019190477 2.0150001
-0.2609905 -0.0038380953 2.0150001
-0.25523335 -0.0057571428 2.0150001
-0.24659763 -0.0067166667 2.0150001
-0.23412383 -0.0076761902 2.0150001
-0.21301429 -0.0076761907 2.0150001
-0.20725715 -0.0076761907 2.0150001
0.20725715 -0.0057571428 2.0150001
0.21301427 -0.0057571433 2.0150001
-0.25523335 0 2.0150001
-0.24180001 0.0019190477 2.0150001
-0.23412383 0.0027414968 2.0150001
-0.22644763 0.0019190477 2.0150001
0.20725715 0.0038380951 2.0150001
0.21237461 0.0012793652 2.0150001
0.20725715 0.013433334 2.0150001
0.21109524 0.013433334 2.0150001
0.2168524 0.026866667 2.0150001
0.23796192 0.024947621 2.0150001
0.24435873 0.025587304 2.0150001
0.23796192 0.030704763 2.0150001
0.24371906 0.034542859 2.0150001
0.24947619 0.046057146 2.0150001
0.25331429 0.047976192 2.0150001
0.26482859 0.046057142 2.0150001
0.24947619 0.053733334 2.0150001
0.25523335 0.05565238 2.0150001
0.26386905 0.054692857 2.0150001
0.24180001 0.16695714 2.0150001
0.26482859 0.1688762 2.0150001
0.23796192 0.17463334 2.0150001
0.24180001 0.17271429 2.0150001
0.26866668 0.17463334 2.0150001
0.27250478 0.17463334 2.0150001
0.27250478 0.18039048 2.0150001
-0.016631747 0.49767303 2.0150001
-0.023028573 0.50470954 2.0150001
-0.019190477 0.50470954 2.0150001
-0.037101585 0.51558411 2.0150001
-0.025587304 0.51430476 2.0150001
-0.019190477 0.51430476 2.0150001
0.049895238 0.51814288 2.0150001
-0.061409526 0.52965719 2.0150001
-0.05565238 0.52581906 2.0150001
-0.035182539 0.52581906 2.0150001
-0.026866667 0.521981 2.0150001
0.049895238 0.52390003 2.0150001
0.054692857 0.52677858 2.0150001
0.063328579 0.52965719 2.0150001
-0.082519054 0.53541434 2.0150001
-0.07548254 0.53605402 2.0150001
-0.067806356 0.5347746 2.0150001
-0.03377524 0.53503048 2.0150001
0.064480007 0.53579807 2.0150001
-0.094033338 0.54117143 2.0150001
-0.082902864 0.54347432 2.0150001
-0.074842855 0.54500955 2.0150001
-0.065795921 0.54610616 2.0150001
-0.055652384 0.54500955 2.0150001
-0.046605442 0.54610616 2.0150001
-0.037101585 0.54245085 2.0150001
0.072923809 0.54500955 2.0150001
-0.080600001 0.55460477 2.0150001
-0.074842855 0.55460477 2.0150001
-0.065247625 0.55460477 2.0150001
-0.05565238 0.55460477 2.0150001
-0.046057146 0.55460477 2.0150001
0.082519054 0.55460477 2.0150001
0.094033338 0.55652386 2.0150001
-0.074842855 0.56036192 2.0150001
-0.049895238 0.56036192 2.0150001
-0.19190477 0.57763338 2.0150001
-0.18806668 0.57763338 2.0150001
-0.14200953 0.57763338 2.0150001
-0.13561271 0.57827306 2.0150001
-0.12665714 0.57955241 2.0150001
-0.19958095 0.5872286 2.0150001
-0.14392857 0.58339047 2.0150001
-0.13689207 0.58466983 2.0150001
-0.21109526 0.59490484 2.0150001
-0.2049543 0.59490478 2.0150001
-0.19622262 0.5953846 2.0150001
-0.18230954 0.59682381 2.0150001
-0.17655239 0.59490478 2.0150001
-0.14392857 0.59682381 2.0150001
-0.13817143 0.59682381 2.0150001
0.061409526 0.5987429 2.0150001
-0.2059778 0.60386032 2.0150001
-0.19574286 0.60258096 2.0150001
-0.18550795 0.60386032 2.0150001
0.05757143 0.60258096 2.0150001
-0.094033338 0.6160143 2.0150001
-0.092114292 0.62369049 2.0150001
-0.086357147 0.62560952 2.0150001
-0.21493334 0.63712382 2.0150001
-0.16580573 0.634821 2.0150001
-0.15736191 0.63328576 2.0150001
-0.12281905 0.63520479 2.0150001
-0.088276193 0.63328576 2.0150001
-0.22516827 0.64352065 2.0150001
-0.21109524 0.6467191 2.0150001
-0.2059778 0.64607936 2.0150001
-0.19958095 0.64480001 2.0150001
-0.16503809 0.64096195 2.0150001
-0.12281905 0.64096195 2.0150001
-0.27250478 0.65247619 2.0150001
-0.21109524 0.65439522 2.0150001
-0.20533812 0.65439522 2.0150001
-0.19766191 0.65439528 2.0150001
-0.30512857 0.66590953 2.0150001
-0.29553333 0.66590959 2.0150001
-0.28785715 0.6639905 2.0150001
-0.21109524 0.66782862 2.0150001
-0.20629764 0.66495001 2.0150001
-0.19958095 0.66782862 2.0150001
-0.25331429 0.67934287 2.0150001
-0.21109524 0.67358577 2.0150001
-0.20533811 0.67358577 2.0150001
-0.19670239 0.67454529 2.0150001
-0.30320954 0.72731906 2.0150001
-0.27634287 0.73691434 2.0150001
-0.023028573 0.73307621 2.0150001
-0.017271429 0.74459052 2.0150001
0.2277962 -0.13127239 2.0270002
0.23165715 -0.13127239 2.0270002
0.23165715 -0.12741144 2.0270002
0.22650921 -0.11454159 2.0270002
0.23358762 -0.1138981 2.0270002
0.22586572 -0.10810667 2.0270002
0.23423111 -0.10681969 2.0270002
0.22470744 -0.094979435 2.0270002
0.23358762 -0.092662863 2.0270002
0.2277962 -0.069497146 2.0270002
0.23165715 -0.069497146 2.0270002
0.22393525 -0.042470474 2.0270002
0.22490048 -0.037644289 2.0270002
0.20849143 -0.023165716 2.0270002
0.21428287 -0.023165716 2.0270002
-0.22200477 -0.011582858 2.0270002
-0.21621335 -0.011582858 2.0270002
0.20720445 -0.01544381 2.0270002
0.21428287 -0.017374286 2.0270002
0.2200743 -0.01544381 2.0270002
-0.23165715 -0.0038609526 2.0270002
-0.22470744 -0.0061775241 2.0270002
0.2033435 -0.0064349212 2.0270002
-0.2027 0.0077219051 2.0270002
0.20463048 0.0038609526 2.0270002
0.21428287 0.0077219051 2.0270002
0.20591746 0.01544381 2.0270002
0.21492636 0.016730795 2.0270002
0.20720445 0.025739685 2.0270002
0.21363938 0.024452701 2.0270002
0.2200743 0.038609527 2.0270002
0.23937906 0.038609527 2.0270002
0.24517049 0.044400953 2.0270002
0.2355181 0.054053336 2.0270002
0.24555659 0.054825526 2.0270002
0.2509619 0.057914287 2.0270002
0.25482285 0.061775241 2.0270002
0.26447526 0.061775241 2.0270002
0.27026668 0.061775241 2.0270002
0.2123524 0.081080005 2.0270002
0.25868383 0.10424571 2.0270002
0.26447526 0.10424571 2.0270002
0.23937906 0.16409048 2.0270002
0.24324001 0.16216001 2.0270002
0.25739685 0.16730793 2.0270002
0.26408917 0.16524878 2.0270002
0.27026668 0.16409048 2.0270002
0.12741144 0.17760381 2.0270002
0.24517049 0.17567334 2.0270002
0.25482288 0.17374286 2.0270002
0.26447526 0.17567334 2.0270002
0.12741144 0.18918668 2.0270002
0.24613573 0.18436047 2.0270002
0.25250629 0.18455353 2.0270002
-0.032174606 0.19433461 2.0270002
0.06756667 0.19690858 2.0270002
0.073358096 0.19690858 2.0270002
0.096523814 0.19690858 2.0270002
0.13320287 0.1949781 2.0270002
0.096523814 0.20076953 2.0270002
-0.026061431 0.50481951 2.0270002
-0.030887621 0.51736766 2.0270002
-0.027026668 0.51350671 2.0270002
-0.050192382 0.52895051 2.0270002
-0.044400956 0.52702004 2.0270002
-0.03185286 0.52412432 2.0270002
0.056949049 0.52412432 2.0270002
0.065153576 0.52508956 2.0270002
-0.061775241 0.53667241 2.0270002
-0.054053336 0.53474194 2.0270002
-0.044400953 0.53474194 2.0270002
-0.038609527 0.53281146 2.0270002
0.069497146 0.53474194 2.0270002
0.073358096 0.53474194 2.0270002
-0.092662863 0.54825526 2.0270002
-0.08687143 0.54825526 2.0270002
-0.06370572 0.54246384 2.0270002
-0.054053336 0.54053336 2.0270002
-0.044400953 0.54246384 2.0270002
-0.038609527 0.54053336 2.0270002
0.075932071 0.54439431 2.0270002
0.081080005 0.54439431 2.0270002
0.10038476 0.54246384 2.0270002
-0.092662863 0.55211622 2.0270002
-0.085906193 0.5569424 2.0270002
0.077219054 0.55211622 2.0270002
0.084940948 0.55469018 2.0270002
-0.092662863 0.56562954 2.0270002
-0.083975717 0.5646643 2.0270002
-0.075288579 0.56756002 2.0270002
-0.064670958 0.5646643 2.0270002
-0.055983812 0.56562954 2.0270002
-0.14542921 0.5765689 2.0270002
-0.13513334 0.57682627 2.0270002
-0.075288579 0.57142097 2.0270002
-0.19304763 0.58686477 2.0270002
-0.17760381 0.58493429 2.0270002
-0.16988191 0.58686477 2.0270002
-0.15186413 0.58557779 2.0270002
-0.14671619 0.58300382 2.0270002
-0.12355048 0.58300382 2.0270002
-0.20656095 0.59458667 2.0270002
-0.18532573 0.59394318 2.0270002
-0.17567334 0.59362143 2.0270002
-0.16988191 0.59844762 2.0270002
-0.14478572 0.5926562 2.0270002
-0.13899429 0.59458667 2.0270002
-0.18918668 0.60230857 2.0270002
-0.16988191 0.60230857 2.0270002
0.065636195 0.60423905 2.0270002
0.073358096 0.60616952 2.0270002
0.063319623 0.61311924 2.0270002
0.075932063 0.61260444 2.0270002
-0.15250763 0.62933528 2.0270002
-0.14542921 0.62676132 2.0270002
-0.13513334 0.62354392 2.0270002
-0.12741144 0.62354386 2.0270002
-0.10038475 0.62547433 2.0270002
-0.096523814 0.62740481 2.0270002
0.06756667 0.62354386 2.0270002
0.075932071 0.62418735 2.0270002
0.081080005 0.62933528 2.0270002
-0.15366592 0.63474065 2.0270002
-0.14478572 0.63512671 2.0270002
-0.13513334 0.63551283 2.0270002
-0.12612446 0.63448322 2.0270002
-0.11660077 0.63551283 2.0270002
-0.10810667 0.63512671 2.0270002
-0.092662863 0.63319623 2.0270002
-0.22136128 0.64606607 2.0270002
-0.21621335 0.64670956 2.0270002
-0.16216001 0.64284861 2.0270002
-0.15540335 0.64188337 2.0270002
-0.14478572 0.64091814 2.0270002
-0.13384636 0.64220512 2.0270002
-0.12612446 0.64477909 2.0270002
-0.11679381 0.64188337 2.0270002
-0.10488921 0.64542264 2.0270002
-0.096523814 0.64864004 2.0270002
-0.2200743 0.65250099 2.0270002
-0.21621335 0.65443146 2.0270002
-0.2027 0.65250099 2.0270002
-0.19690858 0.65250099 2.0270002
-0.12355048 0.65443146 2.0270002
-0.10810667 0.65250099 2.0270002
-0.096523814 0.65250099 2.0270002
-0.28378001 0.66794479 2.0270002
-0.27798858 0.66408384 2.0270002
-0.2200743 0.66794479 2.0270002
-0.21428287 0.66504908 2.0270002
-0.2027 0.66601431 2.0270002
-0.1872562 0.66794479 2.0270002
-0.12355048 0.66215336 2.0270002
-0.11196762 0.66601431 2.0270002
-0.10656229 0.66331166 2.0270002
-0.30308476 0.67566669 2.0270002
-0.25327846 0.67721111 2.0270002
-0.24324001 0.67952764 2.0270002
-0.21621335 0.67373621 2.0270002
-0.1872562 0.67180574 2.0270002
-0.25482285 0.68338859 2.0270002
-0.24517049 0.68338859 2.0270002
-0.30115429 0.72972006 2.0270002
-0.30115429 0.73551148 2.0270002
-0.29729334 0.73744196 2.0270002
-0.27605811 0.73744196 2.0270002
0.21749334 -0.19030668 2.039
0.22526096 -0.19030668 2.039
0.20390001 -0.18253906 2.039
0.21749334 -0.18448097 2.039
0.22526096 -0.18642287 2.039
0.20487095 -0.17574239 2.039
0.2165224 -0.17380047 2.039
0.22526096 -0.17282951 2.039
0.13722794 -0.1644146 2.039
0.14564286 -0.16312 2.039
0.21360953 -0.16700381 2.039
0.22137715 -0.16700381 2.039
0.14758477 -0.15535238 2.039
0.18642287 -0.15535238 2.039
0.19321953 -0.15243953 2.039
0.20778382 -0.15146858 2.039
0.21555144 -0.15146858 2.039
0.22914477 -0.15341048 2.039
0.23302858 -0.15341048 2.039
0.22720286 -0.14564286 2.039
0.22590826 -0.13593334 2.0389998
0.22526094 -0.12428191 2.0389998
0.23302858 -0.12234001 2.039
0.21749334 -0.11263048 2.039
0.22267175 -0.11392508 2.039
0.21555144 -0.10486286 2.0389998
0.22470614 -0.10375319 2.0389998
0.23432319 -0.10227365 2.039
0.20843112 -0.094506033 2.039
0.21555144 -0.095153339 2.039
0.22137715 -0.093211435 2.039
0.23497048 -0.097095244 2.039
0.2081722 -0.08544381 2.039
0.21555144 -0.085443817 2.0389998
0.22526097 -0.085443817 2.0389998
0.23497047 -0.085443817 2.0389998
0.24079619 -0.085443817 2.039
0.20843112 -0.076381586 2.039
0.21555144 -0.075734288 2.039
0.22526096 -0.075734288 2.0389998
0.23497048 -0.075734288 2.039
0.24079619 -0.075734288 2.039
0.21360953 -0.069908574 2.039
0.22526094 -0.064471245 2.039
0.23691238 -0.069908574 2.039
0.21619874 -0.051784128 2.039
0.22526097 -0.054373331 2.0389998
0.20972572 -0.044663809 2.039
0.21555144 -0.044663813 2.039
0.22526096 -0.046605717 2.039
0.19496724 -0.032623999 2.039
0.20639674 -0.033844624 2.0389998
0.21555144 -0.034954283 2.0389998
0.22331905 -0.033012383 2.039
0.19419049 -0.025244763 2.0389998
0.20506516 -0.025633145 2.039
0.21555144 -0.027186668 2.039
0.22331905 -0.027186668 2.039
0.18642287 -0.011651429 2.039
0.19419049 -0.015535237 2.0389998
0.20351163 -0.016311999 2.039
-0.22137715 -0.0038838098 2.039
-0.21555144 -0.0038838098 2.039
-0.20972572 -0.0038838098 2.039
0.19419049 -0.0058257147 2.0389998
0.2019581 -0.0038838098 2.039
-0.22331905 0 2.039
-0.21555144 0 2.039
-0.20843112 0.0025892064 2.039
0.19710335 0.0029128573 2.039
0.2019581 0.0038838098 2.039
-0.20390001 0.011651429 2.039
-0.1980743 0.011651429 2.039
0.1954851 0.014887936 2.0389998
0.20292905 0.016506191 2.039
0.1980743 0.027186668 2.039
0.20325272 0.02459746 2.039
0.2058419 0.034954283 2.0389998
0.21555145 0.034954283 2.0389998
0.22526094 0.035731047 2.039
0.23432319 0.037543494 2.039
0.24079619 0.034954287 2.039
0.20778382 0.044663809 2.039
0.21555144 0.044663809 2.039
0.22526097 0.044663806 2.0389998
0.23497048 0.044663813 2.039
0.24370906 0.044663813 2.039
0.20713651 0.05307873 2.039
0.2159398 0.054373335 2.039
0.22526094 0.054373331 2.0389998
0.2345821 0.054373335 2.039
0.24176715 0.053402383 2.039
0.1980743 0.06796667 2.039
0.20584191 0.066024758 2.0389998
0.21516307 0.065247998 2.039
0.22526097 0.066024758 2.0389998
0.23497047 0.066024758 2.0389998
0.24468 0.064082861 2.0389998
0.25374225 0.067319371 2.039
0.26487583 0.067578293 2.039
0.27186668 0.06796667 2.039
0.19613239 0.075734288 2.039
0.20584191 0.075734288 2.0389998
0.21555144 0.075734288 2.039
0.22526096 0.075734288 2.0389998
0.23497048 0.075734288 2.039
0.1980743 0.083501905 2.039
0.2058419 0.085443817 2.0389998
0.2159398 0.086220577 2.039
0.22526094 0.08544381 2.0389998
0.23497047 0.085443802 2.0389998
0.24468 0.087385714 2.039
0.25244763 0.087385714 2.039
0.20661867 0.094764963 2.039
0.21555144 0.095153339 2.039
0.22526096 0.095153339 2.0389998
0.23497048 0.095153339 2.039
0.25244763 0.095153339 2.039
0.20875476 0.10583381 2.039
0.21555142 0.10486286 2.0389998
0.22526097 0.10486285 2.0389998
0.23497047 0.10486286 2.0389998
0.24662192 0.10486286 2.0389998
0.25438952 0.10486286 2.0389998
0.26409903 0.10874667 2.039
0.20584191 0.11457238 2.0389998
0.21360953 0.11457238 2.039
0.24856383 0.11263048 2.039
0.25438952 0.11263048 2.039
0.26021525 0.11263048 2.039
0.2081722 0.12350515 2.039
0.073792383 0.15535238 2.039
0.24209081 0.15794159 2.039
0.26604098 0.15729429 2.039
0.2738086 0.15729429 2.039
0.24856383 0.16700381 2.039
0.25438952 0.16506191 2.039
0.26021525 0.16312 2.039
0.095153339 0.17865525 2.039
0.10486286 0.17088762 2.039
0.114184 0.1755482 2.039
0.12428191 0.17477143 2.039
0.13593334 0.17865525 2.039
0.24856383 0.17477143 2.039
0.25400114 0.17477144 2.039
0.26021525 0.17671335 2.039
-0.12234001 0.18642287 2.039
-0.034954287 0.18642287 2.039
0.095800638 0.18383366 2.039
0.10097905 0.18253906 2.039
0.13496238 0.18351001 2.039
0.14564286 0.18253906 2.039
0.15923619 0.18448097 2.039
0.16506191 0.18448097 2.039
0.26409903 0.18448097 2.0389998
0.27186668 0.18448097 2.039
-0.12234001 0.19030668 2.039
-0.034954287 0.19030668 2.039
-0.023302859 0.19613239 2.039
-0.017477144 0.19613239 2.039
-0.0038838098 0.1980743 2.039
0 0.1980743 2.039
0.065053813 0.19516145 2.039
0.095153339 0.19419049 2.039
0.1040861 0.19652078 2.039
0.114184 0.19496724 2.039
0.12428191 0.19613241 2.0389998
0.13748686 0.19263697 2.039
0.14525448 0.19496724 2.039
0.24856383 0.19613239 2.039
0.25438952 0.19419049 2.039
0.26604098 0.19030668 2.039
0.27186668 0.19224858 2.039
-0.023302859 0.2019581 2.039
-0.017477144 0.2019581 2.039
-0.0038838098 0.2019581 2.039
0 0.2019581 2.039
0.067134425 0.20528708 2.0389998
0.073792383 0.20584191 2.039
0.10563962 0.20351163 2.039
0.11457238 0.20390001 2.039
-0.031070478 0.50683713 2.039
-0.033012383 0.51654667 2.039
0.069908574 0.52819812 2.039
0.073792383 0.52819812 2.039
0.076381586 0.53596568 2.039
0.083501905 0.53596574 2.0389998
0.097095244 0.5379076 2.039
0.10389191 0.53887856 2.039
0.077676192 0.54373336 2.039
0.086220577 0.54528689 2.039
0.095153339 0.54567528 2.039
0.10680477 0.54567528 2.039
0.11457238 0.54567528 2.039
0.12169271 0.54502797 2.039
-0.10097905 0.55732667 2.039
-0.095153339 0.55732667 2.039
-0.089327626 0.55732667 2.039
0.086220577 0.55305445 2.039
0.095153339 0.55538476 2.0389998
0.10330933 0.55383128 2.039
-0.10097905 0.56703621 2.039
-0.095153339 0.56509429 2.039
0.097095244 0.56703621 2.039
0.10227365 0.56444699 2.039
-0.14564286 0.57480383 2.039
-0.13399144 0.57480383 2.039
-0.12622382 0.57674575 2.039
-0.11263048 0.57480383 2.039
-0.1040861 0.57325029 2.039
-0.095153339 0.57480383 2.039
-0.086091109 0.57415652 2.0389998
-0.077676192 0.57868767 2.039
-0.067578293 0.57402706 2.039
-0.1980743 0.58645529 2.039
-0.18383366 0.58516067 2.039
-0.17477143 0.58451337 2.039
-0.16312 0.58645529 2.039
