# .PCD v0.7 - Point Cloud Data file format
VERSION 0.7
FIELDS x y z
SIZE 4 4 4
TYPE F F F
COUNT 1 1 1
WIDTH 1509
HEIGHT 1
VIEWPOINT 0 0 0 1 0 0 0
POINTS 1509
DATA ascii
-0.10308572 0.26286858 1.8040001
-0.096213341 0.26360491 1.804
-0.089340955 0.26458669 1.8040001
-0.061851431 0.26802287 1.8040001
-0.084186673 0.27145904 1.8040001
-0.075596191 0.27145904 1.8040001
-0.068723813 0.27145904 1.8040001
-0.087622859 0.60820574 1.8040001
-0.087622866 0.61335999 1.8040001
-0.095526099 0.62676114 1.8040001
-0.089340955 0.62882286 1.8040001
-0.094838858 0.63638246 1.8040001
-0.089340955 0.63397717 1.8040001
-0.10308572 0.64600384 1.8040001
-0.09793143 0.64428574 1.8040001
-0.10308572 0.65974861 1.8040001
-0.09793143 0.65974861 1.8040001
-0.092777148 0.66318476 1.8040001
-0.089340955 0.66490287 1.8040001
-0.086592004 0.67418063 1.8040001
-0.079032384 0.67692953 1.8040001
0.21991619 0.67349339 1.8040001
0.22449778 0.67578411 1.8040003
-0.084186673 0.68036574 1.8040001
0.21991619 0.68552005 1.8040001
0.22507048 0.68380195 1.804
0.23228648 0.68448913 1.8040001
0.24053334 0.6872381 1.8040001
0.21991619 0.69239241 1.8040001
0.22507048 0.69239235 1.8040001
0.23297372 0.69342327 1.8040001
0.24568763 0.6906743 1.8040001
0.21991619 0.70270097 1.8040001
0.22507048 0.70270097 1.8040001
0.24568763 0.73878098 1.8040001
0.24654669 0.74479425 1.8040001
0.19234158 -0.0046069841 1.8140001
0.18658286 0 1.8140001
0.19349335 0 1.8140001
0.20385905 0.001151746 1.8140001
0.21249714 0.0034552382 1.8140001
0.10596064 0.16700317 1.8140001
0.11402286 0.16757904 1.8140001
0.12093334 0.16585143 1.8140001
0.10711239 0.17276192 1.8140001
0.11402285 0.17621715 1.8140001
0.10711239 0.18485525 1.8140001
0.11333181 0.18520078 1.8140001
0.12093334 0.18485525 1.8140001
0.11451647 0.19349334 1.8140001
0.12093334 0.19176573 1.8140001
0.11315905 0.20299524 1.8140001
0.11402286 0.21076953 1.8140001
-0.084653333 0.23841144 1.8140001
-0.10296609 0.24739507 1.8140001
-0.09559492 0.24417017 1.8140001
-0.089836195 0.24186668 1.8140001
-0.10266993 0.25568762 1.8140001
-0.1002019 0.26950857 1.8140001
-0.093291432 0.26950857 1.8140001
-0.053556193 0.26950857 1.8140001
-0.093291432 0.27296382 1.8140001
-0.086380959 0.27469143 1.8140001
-0.079470478 0.27641904 1.8140001
-0.09501905 0.6253981 1.8140001
-0.088454105 0.62539816 1.8140001
-0.086380959 0.63403618 1.8140001
-0.09444318 0.64612955 1.8140001
-0.089836203 0.64612955 1.8140001
-0.10250539 0.65707111 1.8140001
-0.094673529 0.65718633 1.8140001
-0.089836195 0.65822291 1.8140001
0.19579683 0.65649527 1.8140001
0.20155556 0.65879875 1.8140001
-0.093291432 0.66340572 1.8140001
-0.088108577 0.66513336 1.8140001
-0.079470478 0.66340572 1.8140001
0.20385905 0.666861 1.8140001
0.22113524 0.68240952 1.8140001
0.21768001 0.69450289 1.8140001
0.21768001 0.70486861 1.8140001
0.22459048 0.70141333 1.8140001
0.18761143 0.0034742858 1.8240001
0.19803429 0.0034742858 1.8240001
0.20428801 0.0055588572 1.8240001
0.21366858 0.0069485717 1.8240001
0.20845716 0.010422857 1.8240001
0.21366858 0.010422857 1.8240001
0.11117715 0.16676572 1.8240001
0.11812572 0.17197715 1.8240001
0.12464001 0.17414859 1.8240002
0.11812572 0.18413715 1.8240001
0.12606694 0.18364082 1.8240002
0.13433905 0.18529524 1.8240002
0.12606694 0.19505633 1.8240002
0.13506286 0.19412573 1.8240002
0.11812571 0.20498288 1.824
0.1239162 0.20382476 1.8240002
0.13549715 0.20150858 1.824
0.11812572 0.21193144 1.8240001
0.1216 0.21193144 1.8240001
-0.092068575 0.23972572 1.8240001
-0.10509714 0.24406858 1.8240001
-0.093805715 0.2432 1.8240001
-0.11117715 0.25362286 1.824
-0.10770286 0.25362286 1.8240001
-0.11117715 0.26057145 1.8240001
-0.10770286 0.26404572 1.824
-0.10596572 0.27099431 1.8240001
-0.093805708 0.27678478 1.824
-0.086857148 0.27794287 1.8240001
-0.064274289 0.27446857 1.8240001
-0.059062861 0.27446857 1.8240001
-0.093805715 0.28489143 1.8240001
-0.086857148 0.28141716 1.8240001
-0.10075429 0.62884575 1.8240001
-0.086857148 0.62884575 1.8240001
-0.079908572 0.62189716 1.8240001
-0.08338286 0.63579428 1.8240001
-0.079908572 0.63579428 1.824
0.18587428 0.64969146 1.8240001
0.19108573 0.64969146 1.8240001
-0.078171432 0.65664005 1.8240001
0.18587428 0.65490294 1.8240001
0.19369143 0.65490294 1.8240001
0.20150858 0.65664005 1.8240001
-0.08512 0.66358858 1.8240002
-0.078750484 0.66243047 1.824
-0.069485717 0.66358858 1.8240001
0.18622173 0.66358864 1.8240001
0.19356737 0.66408485 1.8240002
0.20324573 0.66706288 1.8240001
-0.084772572 0.67470634 1.8240001
-0.079908572 0.67401147 1.824
0.18587428 0.67227429 1.8240001
0.19456001 0.67227429 1.8240002
0.20498286 0.67574865 1.8240002
0.21471086 0.67609608 1.8240001
-0.08338286 0.68096 1.8240001
-0.078171432 0.68096 1.8240001
0.20671999 0.68443424 1.8240002
0.21540575 0.68443429 1.8240002
0.20671999 0.69485718 1.8240002
0.21497144 0.69442284 1.8240002
0.20672001 0.70180571 1.8240001
0.21540572 0.70354289 1.8240002
0.18679143 0.0069828574 1.8330001
0.19482175 0.0055862861 1.8329999
0.19901143 0.013965716 1.8330001
0.20555785 0.014402144 1.8330001
0.21472287 0.01571143 1.8330001
0.19901143 0.020948572 1.8330001
0.20599429 0.022694288 1.8330001
0.21646857 0.023276189 1.8330001
0.19668381 0.036078095 1.8330001
0.20424856 0.034914289 1.8330001
0.19552001 0.042769998 1.8330001
0.20424858 0.041897144 1.8330001
0.21996 0.048880003 1.8330001
0.21996 0.057608575 1.8330001
0.22577906 0.05819048 1.8330001
0.2304343 0.057608575 1.8330001
0.21996 0.06459143 1.8330001
0.22519715 0.06459143 1.8330001
0.2304343 0.062845714 1.8330001
0.22519715 0.080302857 1.8330001
0.2304343 0.083794288 1.8330001
0.12743714 0.16758858 1.8330001
0.12918286 0.17108001 1.8330001
0.13442001 0.17457144 1.8330001
0.13849334 0.1827181 1.8330001
0.14402142 0.18591857 1.8330001
0.13965715 0.19901143 1.8330001
0.14489429 0.19552 1.8330001
0.12801905 0.20832191 1.8330001
0.13529286 0.20686716 1.8330001
0.14431238 0.20366667 1.8330001
0.12743714 0.21297716 1.8330001
0.13267429 0.21297716 1.8330001
-0.12394571 0.24614573 1.8330001
-0.11521715 0.24614573 1.8330001
-0.10299715 0.24090858 1.8330001
-0.097760007 0.24090858 1.8330001
-0.13442001 0.25836572 1.8330001
-0.125255 0.25531071 1.8330001
-0.11696286 0.25487426 1.8330001
-0.13267429 0.26185715 1.8330001
-0.12569143 0.26534858 1.8329999
-0.11565357 0.26578501 1.8330001
-0.11172572 0.27233145 1.8330001
-0.10474285 0.27582288 1.8330001
-0.097760007 0.27931431 1.8330001
-0.075065717 0.27931431 1.8330001
-0.066337146 0.27931431 1.8330001
-0.055862859 0.27698669 1.8330001
-0.047134288 0.27233145 1.8330001
-0.13529286 0.28367856 1.8330001
-0.12743714 0.28629714 1.8330001
-0.10299715 0.28455144 1.8330001
-0.093769804 0.28579837 1.8330001
-0.083794288 0.28629711 1.8330001
-0.069828577 0.29502571 1.8330001
0.16758858 0.59005147 1.8330001
0.17108001 0.59005147 1.8330001
-0.082048573 0.62409288 1.8330001
-0.074483812 0.62380195 1.8330001
-0.056444764 0.62496573 1.8330001
-0.048880003 0.62845719 1.8330001
-0.082630478 0.63311237 1.8330001
-0.075065717 0.63718575 1.8330001
-0.069828577 0.63718575 1.8330001
-0.054117143 0.63194859 1.8330001
-0.048880003 0.63194859 1.8330001
-0.075065717 0.64242285 1.8330001
-0.069828577 0.64242285 1.8330001
-0.090777144 0.65988004 1.8330001
-0.086121909 0.65871626 1.8330001
-0.076811433 0.65289718 1.8330001
0.18155429 0.65813434 1.8330001
-0.074483812 0.66453522 1.8330001
-0.066337146 0.66569906 1.8330001
-0.059354287 0.66686291 1.8330001
0.1827181 0.66569906 1.8330001
-0.076811433 0.67035431 1.8330001
-0.066337146 0.67035431 1.8330001
0.18155427 0.67384577 1.8330001
0.18591857 0.68170142 1.8330001
0.19691657 0.68292344 1.8329999
0.20250286 0.68606573 1.8330001
0.19901143 0.6930486 1.8330001
0.20250286 0.69479436 1.8330001
0.18781048 0.010531429 1.8430001
0.19518247 0.01333981 1.8430001
0.19483143 0.024573334 1.8430001
0.20290554 0.025977526 1.8430001
0.21413906 0.025450952 1.8430001
0.22116001 0.024573334 1.8430001
0.19424635 0.032764446 1.8430001
0.21273486 0.035104763 1.8430001
0.22116001 0.035104763 1.8430001
0.20360763 0.045636192 1.8430001
0.21363758 0.045134697 1.8430002
0.22291525 0.043880954 1.8430001
0.21413906 0.053534765 1.8430001
0.22116001 0.052657146 1.8430001
0.2158943 0.063188575 1.8430001
0.2236675 0.074221499 1.8430002
0.22467048 0.084836513 1.8430001
0.23344667 0.087761909 1.8430001
0.22818096 0.094782859 1.8430001
0.23344667 0.093027622 1.8430001
0.13515334 0.16674763 1.8430001
0.14217429 0.16148192 1.8430001
0.14217429 0.17552382 1.8430001
0.14744 0.18430001 1.8430001
0.15212063 0.18839556 1.8430001
0.15270571 0.19483143 1.8430001
0.15329079 0.2012673 1.8430001
0.14392953 0.21062858 1.8430001
-0.11233524 0.23871239 1.8430001
-0.10882477 0.23871239 1.8430001
-0.1348023 0.24643543 1.8430001
-0.12778135 0.24432914 1.8430001
-0.11584572 0.24222286 1.8430001
-0.10882477 0.24222286 1.8430001
-0.14041905 0.25626478 1.8430001
-0.13515334 0.25450954 1.8430001
-0.12988763 0.2527543 1.8430001
-0.14041905 0.26504096 1.8430001
-0.13573842 0.26562604 1.8430001
-0.14041905 0.27381715 1.8430001
-0.13515334 0.27381715 1.8430001
-0.12637715 0.27557239 1.8430001
-0.11654781 0.27592343 1.8430001
-0.049146667 0.27732763 1.8430001
-0.15095048 0.28434858 1.8430001
-0.14392953 0.28317842 1.8430001
-0.13515334 0.2808381 1.8430001
-0.12520699 0.28317842 1.8430001
-0.11818603 0.28317842 1.8430001
-0.10619191 0.28171572 1.8430001
-0.073720001 0.28610381 1.8430001
-0.064943813 0.28610381 1.8430001
-0.056869715 0.28434858 1.8430001
-0.12286667 0.29312477 1.8430001
-0.11935619 0.29136953 1.8430001
-0.10180382 0.29136953 1.8430001
-0.094080761 0.29558212 1.8430001
-0.083749942 0.295883 1.8430002
-0.074722998 0.29437852 1.8430002
-0.064943813 0.29488 1.8430001
-0.056167625 0.295883 1.8430002
-0.075475238 0.30190095 1.8430001
0.16616255 0.5956108 1.8430001
0.17201334 0.59678096 1.8430001
-0.073720001 0.62661999 1.8430001
-0.064943813 0.62661999 1.8430001
-0.084251434 0.63188577 1.8430001
-0.074422099 0.63399208 1.8430001
-0.064943813 0.63715148 1.8430001
-0.05757181 0.63680041 1.8430001
-0.084251434 0.64856052 1.8430001
-0.073720001 0.64943814 1.8430001
-0.064943813 0.64417243 1.8430001
-0.055465527 0.64382136 1.8430001
-0.083812624 0.65602028 1.8430002
-0.073720001 0.65996957 1.8430001
-0.098293334 0.66348004 1.8430001
-0.071964763 0.66348004 1.8430001
-0.064943813 0.66699052 1.8430001
-0.059678096 0.66699052 1.8430001
-0.073720001 0.67664433 1.8430001
-0.06669905 0.67752194 1.8430001
0.17903429 0.67401147 1.8430001
-0.074422099 0.68243659 1.8430001
0.17786413 0.68220258 1.8430001
0.18430001 0.68805337 1.8430001
0.19483143 0.68805337 1.8430001
0.18745944 0.69367015 1.8430001
0.19483143 0.69507432 1.8430001
0.19658667 0.70209527 1.8430001
0.20009714 0.70209527 1.8430001
0.18706477 0.015882857 1.853
0.19177079 0.016471112 1.853
0.19324143 0.024706667 1.853
0.21530096 0.026471429 1.853
0.19059429 0.031765714 1.853
0.21706572 0.035295241 1.853
0.22236001 0.035295241 1.853
0.20471239 0.049413335 1.853
0.21706572 0.047648571 1.853
0.20559478 0.053825244 1.853
0.21530096 0.056472383 1.853
0.22706604 0.054119367 1.853
0.21479675 0.063531429 1.8529999
0.21580517 0.073111556 1.8529999
0.22941905 0.07412 1.853
0.21618333 0.082061432 1.853
0.22236001 0.088238098 1.853
0.22412477 0.095297135 1.853
0.23294859 0.098826669 1.853
0.2232424 0.10500334 1.853
0.24441953 0.12618047 1.853
0.2505962 0.1252981 1.853
0.24424306 0.13412191 1.853
0.2505962 0.13235715 1.853
0.25236094 0.14824 1.853
0.14294572 0.16765237 1.853
0.14824 0.17471144 1.853
0.15176953 0.1764762 1.853
0.14824 0.18000571 1.853
0.15574025 0.18309404 1.8529999
0.16235811 0.18530001 1.853
0.15882857 0.19412382 1.853
0.16235811 0.19059429 1.853
0.14824 0.20824191 1.853
0.15529904 0.20612419 1.853
0.15529905 0.21177144 1.853
-0.14118096 0.24530192 1.853
-0.13765143 0.24353716 1.853
-0.14588697 0.25412571 1.853
-0.14612229 0.26400837 1.853
-0.14471048 0.27530286 1.853
-0.12000381 0.28589144 1.853
-0.11435658 0.28659734 1.853
-0.10941524 0.28942096 1.853
-0.054119367 0.28706792 1.853
-0.11470953 0.29295048 1.853
-0.098826669 0.29648 1.853
-0.060001906 0.29295048 1.853
-0.052942861 0.29295048 1.853
-0.098826669 0.30000955 1.853
0.15882857 0.59648955 1.853
0.16235811 0.59648955 1.853
0.15882857 0.6000191 1.853
0.16659352 0.60425454 1.853
0.17294668 0.60531336 1.853
-0.070590481 0.62825525 1.853
-0.070590481 0.63531429 1.853
-0.065296188 0.63531429 1.853
-0.060001906 0.64943242 1.853
-0.049413335 0.64237338 1.853
-0.07412 0.65507966 1.853
-0.063531429 0.65472668 1.853
-0.072355241 0.66002095 1.853
-0.064413808 0.66443288 1.853
-0.056472383 0.6635505 1.853
0.18118222 0.6635505 1.853
0.17559381 0.67502141 1.853
0.18000571 0.67060953 1.853
0.16588762 0.68825716 1.853
0.17529969 0.68472767 1.853
0.1764762 0.69178671 1.853
0.18265286 0.69619858 1.853
0.19412382 0.70590478 1.853
0.18807429 0.026614286 1.863
0.19162287 0.024840001 1.863
0.22710858 0.049680002 1.863
0.23065715 0.049680002 1.863
0.20404287 0.056777146 1.863
0.20759143 0.063874282 1.863
0.20759143 0.074519999 1.863
0.21468857 0.078068577 1.863
0.23065715 0.070971429 1.863
0.20626071 0.085609287 1.863
0.21468857 0.086940005 1.863
0.22001144 0.088714287 1.863
0.20640856 0.094628572 1.863
0.21468858 0.095811434 1.863
0.22001143 0.095811434 1.863
0.2377543 0.099360004 1.863
0.24130286 0.099360004 1.863
0.20581715 0.10645714 1.863
0.21646287 0.10468285 1.863
0.22237714 0.10527428 1.863
0.233496 0.104328 1.8630002
0.24307716 0.10290857 1.863
0.20581715 0.11000572 1.863
0.21646287 0.11000572 1.863
0.22406696 0.11355429 1.863
0.23420572 0.11355429 1.863
0.24434449 0.11456817 1.863
0.2519486 0.11532858 1.863
0.22457388 0.12369306 1.863
0.23420572 0.12420002 1.863
0.24414173 0.12207086 1.8630002
0.2519486 0.12065143 1.863
0.22533429 0.13307142 1.863
0.23420572 0.13484573 1.863
0.24396428 0.13484572 1.863
0.2519486 0.1383943 1.863
0.24586532 0.14498448 1.863
0.2519486 0.14371714 1.863
0.24662572 0.15968572 1.863
0.25372288 0.15613714 1.863
0.14904 0.16678286 1.863
0.15542743 0.16465372 1.8630002
0.24721713 0.16441715 1.863
0.25313145 0.16441715 1.863
0.14904 0.17033143 1.863
0.15613715 0.17388 1.863
0.16500857 0.17742857 1.863
0.17269714 0.17506285 1.863
0.2519486 0.17033143 1.863
0.16589572 0.18363859 1.863
0.17388003 0.18452573 1.863
0.16500857 0.19517145 1.863
0.17388003 0.19162287 1.863
0.15968572 0.20581715 1.863
0.16323429 0.20226859 1.863
0.1383943 0.21468857 1.863
0.14637858 0.21468858 1.863
0.15613714 0.21504343 1.8630002
0.16323429 0.21468857 1.863
0.14904 0.22356002 1.863
0.154008 0.22285029 1.8630002
-0.16323429 0.24130286 1.863
-0.15377143 0.24721713 1.863
-0.14726572 0.24662572 1.863
0.22710858 0.2484 1.863
0.2352196 0.24535836 1.863
-0.15347572 0.25461 1.863
-0.14549144 0.2519486 1.863
0.22710858 0.2519486 1.863
0.23184001 0.25313145 1.863
-0.15258858 0.26436859 1.863
-0.14904 0.26969144 1.863
-0.14904 0.27501428 1.863
-0.14785714 0.28270286 1.863
-0.049680002 0.28566003 1.863
-0.049680002 0.29098287 1.863
0.15563022 0.59615999 1.863
0.16441715 0.59497714 1.863
0.17033143 0.59615999 1.863
0.15525001 0.60503149 1.863
0.16323429 0.60680574 1.863
0.15732001 0.61153716 1.863
0.16323429 0.6103543 1.863
0.16500857 0.64761436 1.863
0.17388 0.64938861 1.863
-0.055002861 0.65648574 1.863
0.15850286 0.65530294 1.863
0.16500857 0.65471148 1.863
0.17210571 0.65471148 1.863
-0.063874289 0.66358286 1.863
-0.055002861 0.66180861 1.863
-0.048497144 0.66121715 1.863
0.15968572 0.6600343 1.863
0.16500857 0.6635828 1.863
0.17388001 0.6635828 1.863
0.18363857 0.66092145 1.863
0.19162287 0.6600343 1.863
-0.062100001 0.67068005 1.863
-0.056777146 0.67068005 1.863
0.1383943 0.67777717 1.863
0.16678286 0.67422861 1.863
0.17286614 0.67372173 1.863
0.16678286 0.68309999 1.863
0.17121857 0.6848743 1.863
0.17388003 0.69433719 1.863
0.18452573 0.70498294 1.863
0.19889477 0.065109044 1.8730001
0.2033543 0.064217143 1.8730001
0.19800287 0.074919999 1.8730001
0.2033543 0.074920006 1.8730001
0.23724666 0.076703817 1.8730001
0.2443819 0.07848762 1.8730001
0.19859748 0.08324445 1.8730001
0.2033543 0.082055241 1.8730001
0.23724666 0.082055241 1.8730001
0.2443819 0.082055241 1.8730001
0.2033543 0.098109528 1.8730001
0.21048953 0.099893339 1.8730001
0.20692191 0.10346095 1.8730001
0.21227333 0.10524476 1.8730001
0.23903048 0.10702857 1.8730001
0.24616571 0.10702857 1.8730001
0.21465175 0.11416382 1.8730001
0.22119239 0.11773143 1.8730001
0.24794954 0.11059619 1.8730001
0.21584095 0.12486667 1.8730001
0.22119239 0.12665048 1.8730001
0.21762477 0.13200191 1.8730001
0.22333296 0.13699658 1.8730001
0.22476001 0.14270477 1.8730001
0.23903048 0.14448857 1.8730001
0.2425981 0.14805621 1.8730001
0.24616571 0.15519144 1.8730001
0.25508475 0.15697524 1.8730001
0.16411048 0.1676781 1.8730001
0.17481335 0.1676781 1.8730001
0.24616572 0.1676781 1.8730001
0.16482401 0.17267278 1.8730001
0.17540795 0.17421873 1.8730001
0.18373239 0.17481335 1.8730001
0.24794954 0.17302954 1.8730001
0.18408914 0.18408914 1.8730001
0.24854414 0.1867054 1.8730001
0.25330096 0.1873 1.8730001
0.1676781 0.19978668 1.8730001
0.17481335 0.19800286 1.8730001
0.18194859 0.19621904 1.8730001
0.24973334 0.19621904 1.8730001
0.25508475 0.19621904 1.8730001
0.1658943 0.2051381 1.8730001
0.17481335 0.2051381 1.8730001
0.14270477 0.21762477 1.8730001
0.16411048 0.21048953 1.8730001
0.17481335 0.21048953 1.8730001
0.24973334 0.21405715 1.8730001
0.25330096 0.21405715 1.8730001
0.24794954 0.22654381 1.8730001
0.25330096 0.22654381 1.8730001
0.22832763 0.23903048 1.8730001
0.23546286 0.23688991 1.8730001
0.24616572 0.23546287 1.8730003
0.25330096 0.23367906 1.8730001
-0.17267276 0.24687925 1.8730001
-0.16411048 0.24661168 1.8730001
-0.15578602 0.2437873 1.8730001
-0.14805621 0.2425981 1.8730001
0.22713841 0.24616571 1.8730001
0.23189525 0.2443819 1.8730001
0.2425981 0.2425981 1.8730001
-0.17124572 0.25330096 1.8730001
-0.16339695 0.25472799 1.8730001
-0.15697524 0.25686857 1.8730001
-0.0071352385 0.25686857 1.8730001
0.22476001 0.25597668 1.8730001
-0.16054286 0.26043621 1.8730001
-0.15697524 0.26400384 1.8730001
-0.0071352385 0.26043621 1.8730001
0.22832763 0.26043621 1.8730001
-0.15340762 0.27470669 1.8730001
-0.042811431 0.2782743 1.8730001
-0.035676192 0.27470669 1.8730001
-0.024973333 0.2782743 1.8730001
-0.017838096 0.2782743 1.8730001
-0.0053514289 0.27470669 1.8730001
-0.15340762 0.28362572 1.8730001
-0.044595242 0.28540954 1.8730001
-0.033892382 0.28630143 1.8730001
-0.025419286 0.28496358 1.8730001
-0.016411049 0.28469601 1.8730001
-0.11416382 0.29968002 1.8730001
-0.10583936 0.29849079 1.8730001
-0.045933094 0.29655835 1.8730001
-0.035676192 0.29560274 1.8730001
-0.026162542 0.29551777 1.8730001
-0.01664889 0.29730162 1.8730001
-0.10346095 0.30324763 1.8730001
-0.046379048 0.30324763 1.8730001
-0.034486983 0.30443683 1.8730001
-0.026757143 0.30503142 1.8730001
-0.016054288 0.30503145 1.8730001
-0.055298097 0.58865714 1.8730001
0.13913715 0.58687335 1.8730001
0.14582643 0.58553553 1.8730001
-0.060649525 0.59936005 1.8730001
-0.055298101 0.59579235 1.8730001
0.13913715 0.59400856 1.8730001
0.14627238 0.59579241 1.8730003
0.15697524 0.59579241 1.8730001
0.1676781 0.59579241 1.8730001
0.17124572 0.59579241 1.8730001
-0.061838731 0.60530609 1.8730001
-0.055298097 0.60471147 1.8730001
0.14805621 0.60471141 1.8730001
-0.07729841 0.61600888 1.8730001
-0.060649525 0.61363053 1.8730001
-0.055892702 0.61481971 1.8730001
0.14805621 0.61184669 1.8730001
0.15697524 0.61184669 1.8730001
-0.074920006 0.62076575 1.8730001
-0.060649525 0.62076575 1.8730001
-0.055298097 0.62076575 1.8730001
-0.082055241 0.63146859 1.8730001
-0.07848762 0.63146859 1.8730001
0.13735333 0.63503617 1.8730001
0.14627239 0.63682002 1.8730001
0.15519142 0.63860381 1.8730001
0.16232666 0.63860381 1.8730001
0.13913715 0.64573908 1.8730001
0.14627239 0.64573908 1.8730003
0.15519144 0.64573908 1.8730001
0.16360082 0.64471972 1.8730001
-0.049946669 0.65287429 1.8730001
0.14698592 0.65430129 1.8730001
0.15519142 0.65465808 1.8730001
0.16054286 0.65287429 1.8730001
0.17838097 0.65644193 1.8730001
0.18194857 0.65644193 1.8730001
0.14627238 0.66357714 1.8730003
0.15483467 0.66429067 1.8730001
0.16054286 0.66714478 1.8730001
0.17838097 0.66000956 1.8730001
0.18551619 0.66000956 1.8730001
0.13913715 0.67606384 1.8730001
0.14627239 0.67428005 1.8730003
0.15519144 0.67428011 1.8730001
0.1619699 0.67499363 1.8730001
0.13378572 0.68141526 1.8730001
0.1471643 0.68230718 1.8730001
0.15519142 0.68319905 1.8730001
0.16232666 0.68498284 1.8730001
0.1658943 0.69211811 1.8730001
0.19547333 0.064560004 1.8830001
0.23672001 0.071733333 1.8830001
0.24030668 0.071733333 1.8830001
0.24389334 0.086079992 1.883
0.21161334 0.11656667 1.8830001
0.22954668 0.14346667 1.8830001
0.23492667 0.14346667 1.8830001
0.24030668 0.15422668 1.883
0.19009334 0.17754 1.8830001
0.24389334 0.17395334 1.8830001
0.18650667 0.18650667 1.8830001
0.19248444 0.18531112 1.883
0.24568668 0.18471333 1.8830001
0.18650667 0.19188666 1.8830001
0.19188666 0.19368 1.8830001
0.24747999 0.19368 1.883
0.16857333 0.20802668 1.8830001
0.18411557 0.20444001 1.883
0.24747999 0.20444001 1.883
0.25465333 0.20623334 1.8830003
0.16857333 0.21161334 1.8830001
0.18292001 0.21161334 1.8830001
0.24748001 0.21520001 1.8830001
0.25465333 0.21400446 1.883
0.14526001 0.22416666 1.8830001
0.22954668 0.22775334 1.8830001
0.23582335 0.22685668 1.8830001
0.24389334 0.22596002 1.8830001
0.25286001 0.22237334 1.8830001
0.22775334 0.23492669 1.8830001
0.23313335 0.23492667 1.8830001
0.24030668 0.23492667 1.8830001
-0.17933334 0.24748001 1.8830001
0.22596 0.24389334 1.883
-0.18435466 0.25537068 1.8830001
-0.17694223 0.25584891 1.8830003
-0.16857333 0.25824001 1.8830001
-0.01076 0.25824001 1.8830001
-0.0035866669 0.25824001 1.8830001
0.0017933334 0.25824001 1.8830001
0.22237334 0.25286001 1.8830001
-0.18650667 0.26182666 1.8830001
-0.17574668 0.26182666 1.883
-0.16426934 0.26469603 1.8830001
-0.025106668 0.26900002 1.883
-0.014346667 0.26451668 1.8830001
-0.0050213337 0.26613066 1.8830001
0.0017933334 0.26541334 1.8830001
-0.15781334 0.27438003 1.8830001
-0.033475559 0.2773689 1.883
-0.025824001 0.2747387 1.8830001
-0.013629334 0.27760801 1.8830001
-0.0053800005 0.27617335 1.8830001
0 0.27438003 1.8830001
-0.15781334 0.28334668 1.8830001
-0.037660003 0.28514001 1.8830001
-0.01076 0.28514001 1.8830001
-0.0059777782 0.28454223 1.883
0 0.28334668 1.8830001
-0.11118667 0.29769334 1.8830001
-0.035866667 0.29410666 1.8830001
-0.022715556 0.29530224 1.883
-0.013321905 0.29461905 1.8830003
-0.0071733338 0.29769334 1.8830001
-0.12194667 0.30128002 1.8830001
-0.11477335 0.30343202 1.8830001
-0.035866667 0.30486667 1.883
-0.02152 0.30307335 1.8830001
-0.01076 0.30128002 1.8830001
-0.0071733338 0.30128002 1.8830001
-0.071733333 0.58821338 1.8830001
-0.064560004 0.58642006 1.8830003
-0.055593334 0.58642006 1.8830001
-0.04304 0.58462667 1.8830001
-0.039453335 0.58462667 1.8830001
0.13988 0.58283335 1.8830001
0.14346667 0.58104002 1.8830001
-0.074124448 0.59658223 1.8830003
-0.064560004 0.59538674 1.8830003
-0.044833332 0.59180003 1.8830001
0.13629334 0.59538668 1.883
-0.082493335 0.60973334 1.8830001
-0.075319998 0.60614669 1.8830003
-0.066712007 0.60542935 1.8830001
-0.050213337 0.60973334 1.8830001
0.13988 0.60614669 1.883
0.14346667 0.60794002 1.8830001
-0.082493335 0.61331999 1.8830001
-0.074602671 0.61475468 1.8830001
-0.065277338 0.61547196 1.8830001
-0.053800002 0.61601001 1.8830001
0.13988 0.61331999 1.8830001
0.14346667 0.61331999 1.8830001
-0.071733333 0.62228668 1.8830001
-0.066353336 0.62228668 1.8830001
-0.050213337 0.62049335 1.8830001
0.12912001 0.63842666 1.8830001
0.13270667 0.63842666 1.8830001
0.15602002 0.63842666 1.8830001
0.16140001 0.63842666 1.8830001
0.13509779 0.64560002 1.883
-0.050213337 0.65994668 1.8830001
-0.045431111 0.65396893 1.883
0.13808668 0.65636003 1.8830001
0.14346667 0.65994668 1.8830001
-0.050213337 0.66353333 1.8830001
0.13988 0.66532671 1.8830001
0.12912001 0.67788005 1.8830001
0.13719001 0.67519003 1.8830001
0.1345 0.6814667 1.8830001
0.20635581 -0.11688685 1.8940001
0.20683683 -0.093196832 1.8940001
0.21284953 -0.090190478 1.8940001
0.20743811 -0.084779054 1.8940001
0.21284953 -0.086582862 1.8940001
0.20743811 -0.079367623 1.8940001
0.19481143 0.073956192 1.8940001
0.24712192 0.091994286 1.8940001
0.24351428 0.16595048 1.8940001
0.19841905 0.17677334 1.8940001
0.20202668 0.17677334 1.8940001
0.24171048 0.17316572 1.8940001
0.19751716 0.18308666 1.8940001
0.20202668 0.18398857 1.8940001
0.23810287 0.1875962 1.8940001
0.24315353 0.18326704 1.8940001
0.25433713 0.18398857 1.8940001
0.1875962 0.19841905 1.8940001
0.19481142 0.19421017 1.8940001
0.23501062 0.19378069 1.8940001
0.2435143 0.19481145 1.8940001
0.1875962 0.2056343 1.8940001
0.19390953 0.20292859 1.8940001
0.23509653 0.20623557 1.8940001
0.24351428 0.2056343 1.8940001
0.22728001 0.21284953 1.8940001
0.23449527 0.21465333 1.8940001
0.24459657 0.2150141 1.8940001
0.22728001 0.22547621 1.8940001
0.23389399 0.22246985 1.8940001
0.24261239 0.22277048 1.8940001
0.21645714 0.23629907 1.8940001
0.22295086 0.23521677 1.8940001
-0.18579239 0.24892573 1.8940001
0.21645714 0.24531811 1.8940001
0.22186857 0.2453181 1.8940001
-0.19120382 0.25614095 1.8940001
-0.1875962 0.25253335 1.8940001
0.21645714 0.25253335 1.8940001
0.22006477 0.25253335 1.8940001
-0.19120382 0.26335621 1.8940001
-0.18398857 0.2660619 1.8940001
-0.17496952 0.26696381 1.8940001
-0.16955811 0.26696381 1.8940001
-0.021645715 0.26696381 1.8940001
-0.014430476 0.26696381 1.8940001
0.0018038095 0.26696381 1.8940001
-0.16595048 0.27237526 1.8940001
-0.021645715 0.27417907 1.8940001
-0.013708954 0.27273601 1.8940001
0.0054114284 0.27508098 1.8940001
-0.16234286 0.28860953 1.8940001
-0.15873525 0.28500193 1.8940001
-0.0036076191 0.28860953 1.8940001
0.0040585715 0.2850019 1.8940001
-0.16234286 0.29221717 1.8940001
-0.15873525 0.29221717 1.8940001
-0.0054114284 0.29492286 1.8940001
0.0036076191 0.29221717 1.8940001
0.12987429 0.57721907 1.8940001
0.13528572 0.57721907 1.8940001
-0.063133337 0.58443433 1.8940001
-0.053212382 0.58533621 1.8940001
-0.045696512 0.58563685 1.8940001
0.13528572 0.58443433 1.8940001
0.14069715 0.5808267 1.8940001
-0.05050667 0.59345335 1.8940001
-0.045095243 0.59164953 1.8940001
0.12987429 0.59706098 1.8940001
0.13438381 0.59435523 1.8940001
-0.05050667 0.60608 1.8940001
0.12987429 0.60608006 1.8940001
0.13588698 0.60608 1.8940001
-0.05050667 0.61690289 1.8940001
-0.04689905 0.61329526 1.8940001
0.12987429 0.61329526 1.8940001
0.13708954 0.61509907 1.8940001
0.12987429 0.64756763 1.8940001
0.1334819 0.64937145 1.8940001
0.12987429 0.65478289 1.8940001
0.1334819 0.65478289 1.8940001
-0.04689905 0.66560572 1.8940001
0.12987429 0.66199815 1.8940001
0.13492496 0.66452342 1.8940001
0.12987429 0.67823243 1.8940001
0.13528572 0.67462486 1.8940001
0.19946666 -0.11605334 1.9039999
0.20430224 -0.11484444 1.9039999
0.21034667 -0.11242667 1.904
0.19946668 -0.1088 1.904
0.20551111 -0.10638222 1.9039999
0.21034667 -0.10517333 1.904
0.19946668 -0.092480004 1.904
0.20430224 -0.09550222 1.9039999
0.21614933 -0.095018663 1.904
0.22122668 -0.096106663 1.904
0.19946668 -0.08522667 1.904
0.20309334 -0.08522667 1.904
0.19946668 -0.077973336 1.904
0.20454399 -0.07543467 1.904
0.21034667 -0.076160006 1.904
0.20672001 -0.061653335 1.904
0.21034667 -0.061653335 1.904
0.20672001 -0.056213334 1.904
0.21034667 -0.058026668 1.904
0.23573335 0.14869334 1.9039999
0.23618668 0.15594667 1.9040002
0.22848001 0.16501334 1.904
0.23573335 0.16501334 1.9040002
0.19765334 0.17589334 1.904
0.20672001 0.17770667 1.904
0.22848001 0.17226666 1.904
0.23573335 0.17408003 1.9040002
0.24298668 0.17770667 1.904
0.20581333 0.18495999 1.904
0.21034665 0.18496001 1.9039999
0.22848003 0.18496001 1.9039999
0.23528002 0.18450667 1.9040002
0.25386667 0.18133335 1.9039999
0.19946668 0.19946668 1.904
0.20490666 0.19584002 1.9040002
0.21034667 0.19584 1.904
0.22485334 0.19584 1.9040002
0.23392001 0.19946668 1.904
0.19765334 0.20672001 1.904
0.20490667 0.20309334 1.904
0.22848001 0.20490667 1.904
0.23392001 0.20309334 1.904
0.18858667 0.21216001 1.904
0.19493335 0.21125335 1.904
0.22848001 0.21397334 1.904
0.23573335 0.21034667 1.904
0.22412801 0.2255787 1.904
0.2176 0.23210667 1.904
0.22304001 0.23210667 1.904
-0.19402668 0.24661334 1.904
-0.19493334 0.25296 1.904
0.2176 0.25749335 1.904
0.22122668 0.25749335 1.904
-0.19463111 0.26474667 1.9039999
0.0072533335 0.26656002 1.904
0.21397334 0.26112002 1.904
0.22485334 0.26353779 1.9039999
-0.18586667 0.27290669 1.904
-0.17262934 0.27417603 1.904
-0.16440891 0.27804446 1.9039999
0.0072533335 0.27562669 1.904
0.011786667 0.27653334 1.904
0.18496001 0.27925333 1.904
0.22702932 0.27490133 1.904
0.23210667 0.27562669 1.9039999
-0.16561778 0.28529778 1.9039999
0.012088888 0.28408891 1.9039999
0.18496001 0.28288001 1.904
-0.16682667 0.29013336 1.904
-0.0036266667 0.29738668 1.904
0.0036266667 0.29648 1.904
0.012693333 0.29375997 1.9040002
0.18737777 0.29376003 1.9039999
0.19221334 0.29557335 1.904
-0.0036266667 0.30645335 1.904
0.0036266665 0.30464 1.9040002
0.01088 0.30101335 1.904
0.14869334 0.3028267 1.904
0.15413335 0.3028267 1.904
-0.058026668 0.57664001 1.904
0.12512 0.57482666 1.904
0.13328001 0.5757333 1.904
-0.058026668 0.58208001 1.904
-0.047146667 0.58389336 1.904
-0.039893337 0.58570671 1.904
0.12512 0.58389336 1.9040002
0.13056001 0.58570671 1.904
0.11968 0.5984 1.904
0.12602666 0.59568 1.904
0.13056001 0.59296 1.904
-0.050773334 0.6020267 1.904
-0.047146667 0.60565335 1.904
0.11968 0.6020267 1.904
0.12602666 0.6047467 1.904
0.13237333 0.60928005 1.904
-0.04472889 0.61411554 1.9039999
0.12693334 0.61471999 1.904
0.13418667 0.61471999 1.904
-0.04352 0.6219734 1.904
-0.039893337 0.6219734 1.904
0.13418667 0.62016004 1.904
0.12512 0.64917338 1.904
0.11968 0.65461338 1.904
0.12512 0.65461338 1.904
-0.04352 0.66549337 1.904
-0.038684446 0.66609782 1.9039999
0.11968 0.66186666 1.904
0.12512 0.66368002 1.9040002
-0.04352 0.67093337 1.904
-0.038080003 0.67093337 1.904
0.12602666 0.67365336 1.904
0.13056001 0.67456007 1.9039999
0.12693334 0.68181336 1.904
-0.025386667 0.70357335 1.904
0.19697143 -0.10213333 1.9150001
0.20353714 -0.10432191 1.9150002
0.20061906 -0.098485716 1.9150001
0.19697143 -0.083895244 1.9150001
0.19697143 -0.0766 1.9150001
0.20061906 -0.072952382 1.9150001
0.19697143 -0.062009525 1.9150001
0.20305081 -0.065049209 1.9150001
0.19514763 -0.058361907 1.9150001
0.20244285 -0.058361907 1.9150001
0.23344763 0.15684763 1.9150001
0.22615239 0.16779049 1.9150001
0.19697143 0.17508572 1.9150001
0.20791429 0.17508572 1.9150001
0.21338573 0.17690954 1.9150001
0.2279762 0.17508572 1.9150001
0.21703334 0.18602858 1.9150001
0.22432858 0.18602858 1.9150001
0.21593907 0.19478288 1.9150002
0.22615239 0.19514763 1.9150001
0.21593907 0.20353714 1.9150002
0.22372063 0.20426667 1.9150001
0.22432858 0.21703334 1.9150001
0.22432858 0.22250476 1.9150001
-0.20061906 0.2480381 1.9150001
-0.21156192 0.25898096 1.9150001
-0.20061906 0.25533333 1.9150001
0.20791429 0.25898096 1.9150001
0.21375048 0.25606287 1.9150002
-0.20061906 0.26627621 1.9150001
-0.19697143 0.26992381 1.9150001
0.010942858 0.26992381 1.9150001
0.14955239 0.26627621 1.9150001
0.15502381 0.26627621 1.9150001
0.17690954 0.26810002 1.9150001
0.18675812 0.26846477 1.9150002
0.19514763 0.26810002 1.9150001
0.20426668 0.26627621 1.9150001
0.21520953 0.2673184 1.9150001
0.2252405 0.26901191 1.9150001
0.23344763 0.26992381 1.9150001
-0.20061906 0.27357143 1.9150001
-0.19514763 0.27539524 1.9150001
-0.18420477 0.27721906 1.9150001
-0.17690954 0.27721906 1.9150001
0.014590477 0.27539524 1.9150001
0.16779049 0.27357143 1.9150001
0.17581525 0.27503046 1.9150002
0.18602858 0.27539527 1.9150001
0.19514763 0.27539524 1.9150001
0.20426667 0.27539527 1.9150001
0.21520953 0.27539524 1.9150001
0.22250476 0.27539524 1.9150001
-0.18359683 0.28208256 1.9150001
-0.17554167 0.28497022 1.9150001
-0.16414286 0.28451431 1.9150001
0.017326191 0.2854262 1.9150001
0.021885715 0.2826905 1.9150001
0.17782143 0.28360239 1.9150001
0.18602857 0.28503537 1.9150001
0.19514763 0.28451428 1.9150001
0.20426668 0.28451428 1.9150001
0.21448001 0.28232571 1.9150002
0.22432858 0.28086668 1.9150001
-0.1714381 0.29180953 1.9150001
0.018238096 0.29545715 1.9150001
0.15502381 0.29910478 1.9150001
0.17690954 0.29545715 1.9150001
0.18481271 0.29545715 1.9150001
0.19575556 0.2930254 1.9150001
0.20353714 0.29326856 1.9150002
0.014590477 0.30457622 1.9150001
-0.040123813 0.56720483 1.9150001
-0.03526032 0.56659693 1.9150001
-0.027721906 0.56611049 1.9150002
0.098485716 0.56538099 1.9150001
0.10578096 0.56538099 1.9150001
0.1130762 0.56720483 1.9150001
-0.05289048 0.57814765 1.9150001
-0.043315481 0.57677978 1.9150001
-0.034652382 0.57632375 1.9150001
-0.028269047 0.57541192 1.9150001
0.098485716 0.57632381 1.9150001
0.10578096 0.57632381 1.9150001
0.11490002 0.57632375 1.9150001
0.12128334 0.57541192 1.9150001
-0.062009525 0.5854429 1.9150001
-0.05289048 0.5854429 1.9150001
-0.043771431 0.58453095 1.9150001
-0.03526032 0.58605081 1.9150001
0.10578096 0.58507812 1.9150002
0.11490001 0.5854429 1.9150001
0.12037143 0.5854429 1.9150001
0.10578096 0.59091431 1.9150001
0.11490002 0.59456187 1.9150001
0.12183049 0.5952915 1.9150002
-0.047419049 0.60550481 1.9150001
0.11550794 0.60307306 1.9150001
-0.047419049 0.6128 1.9150001
-0.027357142 0.61644763 1.9150001
-0.047419049 0.62556672 1.9150001
0.098485716 0.62556672 1.9150001
0.10395715 0.62374288 1.9150001
0.10942858 0.65657145 1.9150001
0.11490001 0.65657145 1.9150001
0.12037143 0.65292382 1.9150001
0.10851668 0.66477859 1.9150001
0.11490002 0.6638667 1.9150001
0.10578096 0.67116195 1.9150001
0.11490001 0.67298579 1.9150001
0.12128334 0.67572153 1.9150001
0.12219524 0.68210477 1.9150001
0.22733334 -0.17233334 1.9250001
0.23100001 -0.17233334 1.9250001
0.22366667 -0.16133334 1.9250001
0.21633334 -0.15583333 1.9250001
0.22366667 -0.15583333 1.9250001
0.23100001 -0.15583333 1.9250001
0.19800001 -0.093500003 1.9250001
0.19800001 -0.084333338 1.9250001
0.19433334 -0.077 1.9250001
0.19616668 -0.064166665 1.9250001
0.21633334 0.17233334 1.9250001
0.22320834 0.17645833 1.9250001
0.21633334 0.2035 1.9250001
0.22733334 0.20716667 1.9250001
0.22733334 0.21266668 1.9250001
-0.22000001 0.24933334 1.9250001
-0.21450001 0.24933334 1.9250001
-0.20716667 0.24933334 1.9250001
-0.22000001 0.25483334 1.9250001
-0.21450001 0.25483334 1.9250001
-0.20716667 0.25483334 1.9250001
0.20900001 0.25666669 1.9250001
-0.22146669 0.26326665 1.925
-0.21486667 0.26473331 1.925
-0.20716667 0.26399997 1.9250001
0.012833334 0.26766667 1.9250001
0.14483334 0.26766667 1.9250001
0.16866668 0.26766667 1.9250001
0.17233334 0.26766667 1.9250001
0.18333334 0.26766667 1.9250001
0.19800001 0.264 1.9250001
0.20533334 0.26033333 1.9250001
-0.22000001 0.27133334 1.9250001
-0.21450001 0.27133334 1.9250001
-0.20655556 0.27255556 1.9250001
0.017111111 0.27500001 1.9250001
0.025666667 0.27866668 1.9250001
0.14483334 0.27133334 1.9250001
0.15491667 0.27225 1.9250001
0.16454168 0.27500001 1.9250001
0.17233334 0.27500001 1.9250001
0.026714286 0.28652382 1.9250001
0.033 0.28783333 1.9250001
0.16866668 0.28233334 1.9250001
0.17380002 0.28673333 1.925
0.023833334 0.29516667 1.9250001
0.15766667 0.29700002 1.9250001
0.16591667 0.29608336 1.9250001
0.17477779 0.29455557 1.9250001
0.018333334 0.308 1.9250001
0.023833334 0.30250001 1.9250001
0.16591667 0.30158335 1.9250001
0.17355557 0.30188891 1.9250001
0.014666667 0.31166667 1.9250001
0.069666669 0.53533334 1.9250001
0.075166672 0.53716671 1.9250001
0.08433333 0.53716671 1.9250001
0.077 0.54266667 1.9250001
-0.029333334 0.55733335 1.9250001
0.080666669 0.55733335 1.9250001
-0.042166665 0.56466669 1.9250001
-0.035444446 0.56344444 1.9250001
-0.025666669 0.56375003 1.9250001
0.096555561 0.56588888 1.9250001
-0.051333334 0.57566667 1.9250001
-0.045833334 0.57383335 1.9250001
-0.033 0.57200003 1.9250001
-0.022 0.57200003 1.9250001
0.097166672 0.57475001 1.9250001
-0.033 0.5866667 1.9250001
-0.029333334 0.5866667 1.9250001
0.096555561 0.58544451 1.9250001
0.095333338 0.59033334 1.9250001
0.10633334 0.59400004 1.9250001
0.11000001 0.59766668 1.9250001
0.11000001 0.60133338 1.9250001
-0.042777777 0.616 1.9250001
-0.0264 0.61526668 1.925
0.099000007 0.6196667 1.9250001
0.10266667 0.6196667 1.9250001
-0.040333334 0.62333333 1.9250001
-0.036666669 0.62516665 1.9250001
-0.0275 0.62516665 1.9250001
0.096555561 0.62455553 1.9250001
-0.0275 0.63066667 1.9250001
0.095333338 0.63066667 1.9250001
0.099000007 0.66366673 1.9250001
0.1045 0.66366673 1.9250001
0.097166672 0.67283332 1.9250001
0.10266667 0.671 1.9250001
0.11733334 0.68200004 1.9250001
0.21572572 -0.1733181 1.9360001
0.22420725 -0.17553067 1.9360001
0.21664762 -0.16502096 1.9360001
0.22494479 -0.16778667 1.936
0.23324192 -0.16594286 1.9360001
0.2120381 -0.15672381 1.9360001
0.19913143 -0.099565715 1.9360001
0.19728762 -0.073752381 1.9360001
0.19544382 -0.066377148 1.9360001
0.22494477 0.16963048 1.9360001
0.20650667 0.17700572 1.9360001
0.024891429 0.27564955 1.9360001
0.15303619 0.27657145 1.9360001
0.03503238 0.28302479 1.9360001
0.043513905 0.28320917 1.9360001
0.15856762 0.28025907 1.9360001
0.16717207 0.28640509 1.9360002
0.029500954 0.29685333 1.9360001
0.035401143 0.29574704 1.9360001
0.041485716 0.29408762 1.9360001
0.14381714 0.2913219 1.9360001
0.1539581 0.29685333 1.9360001
0.16520533 0.29279694 1.9360001
0.027288383 0.30754742 1.9360001
0.035032384 0.30607238 1.936
0.043197829 0.30659917 1.936
0.053470477 0.30976 1.9360001
0.014750477 0.31344762 1.9360001
0.023354923 0.31467685 1.9360002
0.035032384 0.31529143 1.9360001
0.043513905 0.31492266 1.9360001
0.051626667 0.31344762 1.9360001
0.035401143 0.32377297 1.9360001
0.043022227 0.32328126 1.936
0.055314288 0.32451048 1.9360001
0.064533338 0.32451048 1.9360001
0.043513905 0.33336076 1.9360001
0.059001908 0.53839242 1.9360001
0.064533338 0.53839242 1.9360001
-0.028271748 0.54699689 1.9360002
0.059001908 0.54576766 1.9360002
0.064533345 0.54576772 1.936
0.072523177 0.54699683 1.936
0.084077716 0.54724276 1.9360001
0.092190482 0.54576766 1.9360001
-0.027657144 0.55498672 1.9360001
-0.018438095 0.55683053 1.9360001
0.066377148 0.55683053 1.9360001
0.073752381 0.55498672 1.936
0.084815241 0.55498672 1.936
0.094034292 0.55314291 1.9360001
-0.042407621 0.56236196 1.9360001
-0.034417778 0.56174737 1.9360002
-0.025813334 0.56051815 1.9360001
-0.018438095 0.56051815 1.9360001
0.066377148 0.56051815 1.9360001
0.074674286 0.56144005 1.9360001
0.086044453 0.56359106 1.936
0.095878102 0.56543493 1.9360002
-0.047939051 0.57526857 1.9360001
0.087580957 0.57434666 1.9360001
0.092190482 0.57526857 1.9360002
0.094034292 0.58264381 1.9360001
0.099565715 0.59555048 1.9360001
-0.029500954 0.60661334 1.9360001
-0.040563811 0.6176762 1.9360001
-0.024891429 0.61491048 1.9360001
0.088502862 0.61952001 1.9360001
0.095878094 0.61952001 1.9360002
-0.033188574 0.62505144 1.9360001
-0.022125715 0.62689525 1.9360001
-0.018438095 0.62320763 1.9360001
0.088502862 0.62505144 1.9360001
0.093419693 0.62443686 1.9360002
-0.033188574 0.63242668 1.9360001
-0.022125715 0.63058287 1.9360001
0.066377148 0.63795811 1.9360001
0.088502862 0.63058287 1.9360001
0.092190482 0.63058287 1.9360001
0.066377148 0.64164573 1.9360001
0.10509714 0.66008383 1.9360001
0.11062858 0.66008383 1.9360001
-0.022125715 0.71539813 1.9360001
0.21509714 -0.18542856 1.9470003
0.22251429 -0.18357429 1.9470001
0.20768 -0.17430286 1.9470001
0.21386097 -0.17492096 1.9470001
0.20768 -0.16503143 1.9470001
0.21262477 -0.16564953 1.9470001
0.20768 -0.15761429 1.9470001
0.19655429 -0.10013143 1.9470001
0.19655429 -0.094568573 1.9470001
0.19655429 -0.085297145 1.9470001
0.19655429 -0.07046286 1.9470001
0.20026286 -0.07046286 1.9470001
0.018542858 0.2744343 1.9470001
0.027814288 0.2744343 1.9470001
0.03523143 0.2762886 1.9470001
0.044039287 0.2744343 1.9470003
0.05192 0.27814287 1.9470001
0.12980001 0.27628857 1.9470001
0.13474476 0.2756705 1.9470001
0.14315087 0.27591771 1.9470001
0.16688572 0.27072573 1.9470001
0.037085716 0.28556001 1.9470001
0.045430001 0.28648716 1.9470001
0.055165 0.28556001 1.9470003
0.063045718 0.28185144 1.9470001
0.12980001 0.28926858 1.9470001
0.134992 0.28481829 1.9470001
0.14509785 0.28602359 1.9470003
0.15529643 0.28602359 1.9470003
0.16317715 0.28741431 1.9470001
0.04697524 0.29544953 1.9470001
0.054886859 0.29520231 1.9470001
0.12980001 0.29483145 1.9470001
0.13350858 0.29483145 1.9470001
0.14463429 0.29520231 1.9470001
0.15576001 0.2939043 1.9470001
0.047284286 0.30317572 1.9470001
0.055628572 0.30410287 1.9470003
0.124608 0.30336118 1.9470001
0.14611772 0.30261946 1.9470001
0.15205143 0.30410287 1.9470001
0.0074171433 0.31893715 1.9470001
0.014834288 0.31893715 1.9470001
0.028432384 0.31770098 1.9470001
0.048211429 0.31893715 1.9470001
0.056864765 0.31646478 1.9470001
0.063972861 0.31430143 1.9470001
0.018542858 0.32264572 1.9470001
0.02596 0.32449999 1.9470001
0.048211429 0.3263543 1.9470001
0.055628575 0.32412916 1.9470001
0.064900003 0.32264572 1.9470001
0.074171431 0.32449999 1.9470001
0.02874143 0.33284432 1.9470001
0.034860574 0.33451319 1.9470001
0.04697524 0.33253524 1.9470001
0.054392383 0.33253527 1.9470001
0.064900003 0.33377144 1.9470001
0.074171431 0.33377144 1.9470003
0.081588574 0.33562571 1.9470001
0.048211429 0.34304285 1.9470001
0.05192 0.34304285 1.9470001
0.074171431 0.34118858 1.9470001
-0.016688572 0.53774285 1.9470001
0.058100957 0.53650665 1.9470001
0.064900003 0.53774285 1.9470001
0.074171431 0.53774285 1.9470001
0.081588574 0.53774285 1.9470001
-0.025430204 0.54410046 1.9470003
-0.015893878 0.54568988 1.9470003
0.046357144 0.5488686 1.9470001
0.054701429 0.54608721 1.9470001
-0.040794287 0.55814004 1.9470001
-0.035602286 0.55702746 1.9470001
-0.023178572 0.55535859 1.9470001
-0.016688572 0.55443144 1.9470001
0.046357144 0.55443144 1.9470001
0.055165 0.55674928 1.9470003
0.064281911 0.55752188 1.9470001
0.089005716 0.55257714 1.9470001
0.09395048 0.55752188 1.9470001
0.10013143 0.55999428 1.9470001
-0.044502858 0.56370288 1.9470001
-0.022251429 0.56555712 1.9470001
-0.018542858 0.56741142 1.9470001
0.046357144 0.56741142 1.9470001
0.059337147 0.56370288 1.9470001
0.064900003 0.56555712 1.9470001
0.072317146 0.56741142 1.9470001
0.09395048 0.56493908 1.9470001
0.10013143 0.56370288 1.9470001
-0.048211429 0.57482857 1.9470001
-0.022251429 0.57112002 1.9470001
0.046357144 0.57668287 1.9470001
0.077880003 0.57112002 1.9470001
0.083442859 0.57390141 1.9470001
0.087151431 0.58410001 1.9470001
0.092714287 0.58966285 1.9470001
-0.040794287 0.60820574 1.9470001
-0.024105715 0.60820574 1.9470001
-0.014834287 0.60820574 1.9470001
-0.04203048 0.61438674 1.9470001
-0.033377144 0.61933148 1.9470001
-0.02348762 0.61315054 1.9470001
-0.018542858 0.61933148 1.9470001
0.066754289 0.61933148 1.9470001
0.074171431 0.61933148 1.9470001
0.085915238 0.61685914 1.9470001
0.09395048 0.61809528 1.9470001
-0.035849527 0.62427622 1.9470001
-0.016688572 0.62489432 1.9470001
0.059337147 0.62674862 1.9470001
0.065518104 0.62551242 1.9470001
0.074171431 0.62489432 1.9470001
0.083442859 0.62489432 1.9470001
-0.014834286 0.63231146 1.9470001
0.059337147 0.63045716 1.9470001
0.065270856 0.63416576 1.9470001
0.074171431 0.63292956 1.9470001
0.084679045 0.63416576 1.9470001
0.092714287 0.63787431 1.9470001
0.063045718 0.64158291 1.9470001
0.087151431 0.64158291 1.9470001
0.092714287 0.64158291 1.9470001
0.10013143 0.66383433 1.9470001
0.20761018 -0.19144888 1.9580001
0.21444763 -0.19393525 1.9580001
0.22227962 -0.19468114 1.9579999
0.20512383 -0.18461144 1.9580001
0.20465763 -0.17528763 1.9580001
0.20325905 -0.16409905 1.9580001
0.1864762 -0.10629143 1.9580001
0.19346905 -0.10489286 1.9580001
0.20139429 -0.1081562 1.9580001
0.1864762 -0.095102862 1.9580001
0.19207048 -0.095102862 1.9580001
0.18647619 -0.085779049 1.9580001
0.19207048 -0.085779049 1.9580001
0.18498437 -0.073844567 1.9579999
0.19207048 -0.074590474 1.9580001
0.18461144 -0.06713143 1.9580001
0.19269209 -0.065888256 1.9580001
0.19318934 -0.057434667 1.9579999
0.20586972 -0.054451048 1.9579999
0.19020572 -0.044754289 1.9580001
0.17342286 0.042889524 1.9580001
0.10629143 0.25733715 1.9580001
0.033565715 0.26852572 1.9580001
0.089508578 0.26666096 1.9580001
0.095102869 0.26479617 1.9580001
0.10336109 0.26426342 1.9580001
0.12493905 0.26852572 1.9580001
0.1323981 0.26852572 1.9580001
0.027971428 0.27225524 1.9580001
0.035430476 0.27225524 1.9580001
0.048483811 0.27598476 1.9580001
0.055196952 0.27673069 1.9579999
0.065266669 0.27971429 1.9580001
0.072725713 0.27971429 1.9580001
0.088265397 0.27349842 1.9580001
0.095102862 0.27412 1.9580001
0.10442667 0.27412 1.9580001
0.11614803 0.27705032 1.9580001
0.12493905 0.27598476 1.9580001
0.13519524 0.27412 1.9580001
0.059672382 0.28717333 1.9580001
0.065888256 0.28593016 1.9580001
0.072104126 0.28468698 1.9580001
0.11636114 0.28568155 1.9579999
0.12493905 0.28530857 1.9580001
0.13053334 0.28530857 1.9580001
0.1417219 0.28344381 1.9580001
0.059672382 0.29463241 1.9580001
0.065266669 0.29463241 1.9580001
0.070860952 0.29463241 1.9580001
0.1081562 0.29463241 1.9580001
0.11561523 0.29463241 1.9579999
0.12493905 0.29463241 1.9580001
0.13799238 0.29463241 1.9580001
0.065266669 0.30582097 1.9580001
0.070860952 0.30582097 1.9580001
0.1081562 0.30582097 1.9580001
0.11561523 0.30582097 1.9579999
0.12307429 0.30955049 1.9580001
0.13319728 0.30528817 1.9580001
0.14358667 0.30582097 1.9580001
0.06713143 0.31700954 1.9580001
0.073844567 0.31551772 1.9579999
0.1081562 0.31328002 1.9580001
0.11561524 0.31421238 1.9580001
0.12307429 0.31328002 1.9580001
0.014918096 0.32571176 1.9580001
0.06713143 0.32073906 1.9580001
0.074590474 0.32073906 1.9580001
0.082049526 0.32633334 1.9580001
0.026106667 0.33752191 1.9580001
0.058429208 0.3381435 1.9580001
0.084535874 0.3331708 1.9580001
0.01864762 0.34498096 1.9580001
0.022377145 0.34498096 1.9580001
0.05594286 0.34311619 1.9580001
0.01864762 0.35057524 1.9580001
0.022377145 0.35057524 1.9580001
0.027971428 0.36922288 1.9580001
0.035430476 0.44754288 1.9580001
0.035430476 0.4512724 1.9580001
0.0037295239 0.48856765 1.9580001
-0.026106669 0.53705144 1.9580001
-0.014918096 0.53518665 1.9580001
-0.0074590477 0.53705144 1.9580001
0.055942856 0.53518665 1.9580001
0.064645082 0.53580827 1.9580001
0.072725713 0.53705144 1.9580001
-0.035057522 0.54525644 1.9579999
-0.026106665 0.54078096 1.9580001
-0.011188571 0.54451054 1.9580001
-0.0055942857 0.54451048 1.9580001
0.05221333 0.54451048 1.9580001
-0.041024763 0.55569905 1.9580001
-0.034808889 0.5532127 1.9580001
-0.011188572 0.55569905 1.9580001
-0.0074590477 0.55196953 1.9580001
-0.044754289 0.56315809 1.9580001
-0.014918095 0.56502283 1.9580001
0.037295241 0.56688762 1.9580001
0.045500197 0.56539577 1.9579999
0.054078095 0.56688762 1.9580001
0.029836191 0.57061714 1.9580001
0.035430476 0.57434666 1.9580001
0.043262478 0.57434666 1.9579999
0.05594286 0.57061714 1.9580001
0.065266669 0.57248187 1.9580001
0.074590482 0.57558984 1.9580001
0.029836191 0.58180571 1.9580001
0.035430476 0.58180571 1.9580001
0.044754285 0.58429211 1.9580001
0.0832927 0.58553529 1.9580001
-0.035430476 0.60604763 1.9580001
-0.026852572 0.60642064 1.9579999
-0.014918096 0.60698003 1.9580001
-0.0074590477 0.6041829 1.9580001
0.06713143 0.60791242 1.9580001
0.070860952 0.60791242 1.9580001
0.085779049 0.60791242 1.9580001
-0.035430476 0.61537147 1.9580001
-0.01616127 0.61537147 1.9580001
0.059672382 0.61537147 1.9580001
0.065266669 0.61537147 1.9580001
0.074124292 0.61583763 1.9580001
0.085157461 0.61412829 1.9580001
0.0932381 0.61537147 1.9580001
-0.037295241 0.62283051 1.9580001
-0.013053333 0.6246953 1.9580001
0.05687524 0.62562764 1.9580001
0.063401908 0.6246953 1.9580001
-0.011188572 0.63028955 1.9580001
0.055321272 0.63401914 1.9580001
0.063401908 0.6377486 1.9580001
0.070860952 0.6377486 1.9580001
0.057807621 0.64334285 1.9580001
0.074590482 0.6452077 1.9580001
0.084287241 0.64669949 1.9579999
0.0932381 0.64893717 1.9580001
0.085779049 0.65266669 1.9580001
0.0932381 0.65266669 1.9580001
0.19877525 -0.19127429 1.9690001
0.20440096 -0.19314954 1.9690001
