# .PCD v0.7 - Point Cloud Data file format
VERSION 0.7
FIELDS x y z
SIZE 4 4 4
TYPE F F F
COUNT 1 1 1
WIDTH 1493
HEIGHT 1
VIEWPOINT 0 0 0 1 0 0 0
POINTS 1493
DATA ascii
-0.36310858 -0.1937743 1.8330001
-0.35961714 -0.19726571 1.8330001
-0.36398143 -0.18504572 1.8330001
-0.35961714 -0.18504572 1.8330001
-0.36660001 -0.17631716 1.8330001
-0.35961714 -0.17631716 1.8330001
-0.24440001 0.17457144 1.8330001
-0.23392574 0.17631716 1.8330001
-0.22519715 0.17806287 1.8330001
-0.21879619 0.17689906 1.8330001
-0.23392572 0.18504572 1.8329999
-0.22519717 0.1833 1.8330001
-0.24207239 0.19784762 1.8330001
-0.23348929 0.19508359 1.8330001
-0.22607002 0.19639286 1.8330001
-0.24230516 0.20529601 1.8329999
-0.23392572 0.20599429 1.8329999
-0.22694285 0.20599429 1.8330001
-0.23392573 0.21297716 1.8330001
0.13965715 0.23741715 1.8330001
0.19726571 0.23741715 1.8330001
0.16409715 0.24440001 1.8330001
0.17457144 0.24090858 1.8330001
0.18504572 0.24090858 1.8330001
0.19901143 0.24090858 1.8330001
0.20599429 0.24440001 1.8330001
0.21646857 0.24672763 1.8330001
0.22519715 0.24789144 1.8330001
0.23218001 0.24789144 1.8330001
-0.14314857 0.25836572 1.8330001
-0.13791144 0.25487429 1.8330001
-0.12918286 0.25487429 1.8330001
-0.11870857 0.25487429 1.8330001
0.24352714 0.25487429 1.8330001
-0.15292458 0.26604688 1.8329999
-0.14664 0.26185715 1.8330001
0.25138286 0.26709431 1.8330001
-0.16176952 0.2781505 1.8330001
-0.15624145 0.27495003 1.8330001
0.2560381 0.27465907 1.8330001
0.26534858 0.27756858 1.8330001
-0.16549371 0.28699544 1.8329999
-0.17224382 0.2956076 1.8330001
-0.16642477 0.29444382 1.8330001
-0.17108001 0.3037543 1.8330001
-0.16758858 0.30200857 1.8330001
-0.17108001 0.31248289 1.8330001
-0.16467905 0.31422859 1.8330001
-0.15536858 0.31772003 1.8330001
-0.16060571 0.32121143 1.8330001
-0.15292458 0.32260802 1.8329999
0.12743714 0.57957715 1.8330001
0.12918286 0.58656001 1.8330001
0.14454515 0.60471547 1.8329999
0.15362287 0.6057629 1.8330001
0.16060571 0.60576284 1.8330001
0.12918286 0.61623716 1.8330001
0.13566694 0.61349392 1.8330001
0.14489429 0.611 1.8330001
-0.36508954 -0.20185238 1.8430001
-0.35280287 -0.20536287 1.8430001
-0.36860001 -0.19658667 1.8430001
-0.36860001 -0.18254477 1.8430001
-0.3633343 -0.17201334 1.8430001
-0.3633343 -0.16850287 1.8430001
-0.24222286 0.17727906 1.8430001
-0.24473037 0.18655674 1.8430002
-0.22326629 0.18745944 1.8430001
-0.21457788 0.18649405 1.8430002
-0.24456318 0.19424635 1.8430001
-0.22291525 0.19483143 1.8430001
-0.2158943 0.19483143 1.8430001
-0.24924383 0.20711811 1.8430001
-0.22256419 0.20430973 1.8430001
-0.21530922 0.2012673 1.8430001
-0.24573334 0.21179874 1.8430001
-0.23520191 0.21624534 1.8430001
-0.22525556 0.21413906 1.8430001
-0.21413906 0.21238382 1.8430001
-0.23607953 0.22291525 1.8430001
-0.22818096 0.22116001 1.8430001
0.11233524 0.22818096 1.8430001
-0.24222286 0.23169143 1.8430001
0.11409048 0.23169143 1.8430001
0.18605524 0.23871239 1.8430001
0.19307619 0.23871239 1.8430001
0.20360763 0.23871239 1.8430001
0.18605524 0.24222286 1.8430001
0.20711811 0.24222286 1.8430001
0.21413906 0.24573334 1.8430001
0.22291525 0.24573334 1.8430001
0.23695715 0.24748859 1.8430001
-0.15095048 0.25977525 1.8430001
-0.14480714 0.25626478 1.8430001
-0.13515334 0.2527543 1.8430001
-0.12549953 0.25450954 1.8430001
-0.11760096 0.2527543 1.8430001
0.24748859 0.25450954 1.8430001
0.2527543 0.25977525 1.8430001
-0.16148192 0.2667962 1.8430001
-0.15680128 0.26445588 1.8430001
0.25626478 0.26504096 1.8430001
-0.16265208 0.27381715 1.8430001
0.25802001 0.27030668 1.8430001
0.26504096 0.27381715 1.8430001
-0.17201334 0.28785905 1.8430001
-0.16850287 0.28434858 1.8430001
-0.17552382 0.29312477 1.8430001
-0.18254477 0.30365619 1.8430001
-0.17727906 0.30541143 1.8430001
0.16148192 0.35806859 1.8430001
0.16148192 0.36157906 1.8430001
0.12286667 0.58273906 1.8430001
0.13456826 0.60614222 1.8430001
0.14392953 0.60239774 1.8430001
0.15446097 0.60380191 1.8430001
0.12813239 0.61608857 1.8430001
0.13515334 0.61082286 1.8430001
0.14041905 0.61082286 1.8430001
-0.24706668 0.1764762 1.853
-0.2505962 0.18706477 1.853
-0.2505962 0.19412382 1.853
-0.21765397 0.2070654 1.853
-0.2505962 0.21706572 1.853
-0.24589019 0.21765397 1.853
-0.22236001 0.21706572 1.853
-0.21530095 0.21580517 1.8529999
-0.20824191 0.21883048 1.853
-0.2505962 0.22588952 1.853
-0.24454559 0.22588952 1.8529999
-0.23471335 0.22765431 1.853
-0.22647779 0.22588955 1.853
-0.21177144 0.22236001 1.853
-0.20824191 0.22236001 1.853
-0.24353716 0.23506629 1.853
-0.23471335 0.23294859 1.853
-0.22824256 0.23412509 1.853
0.12353334 0.23294859 1.853
-0.24494895 0.24283123 1.853
0.15882857 0.24353716 1.853
0.16588762 0.24353714 1.853
0.17471144 0.24000762 1.853
0.18177047 0.24000762 1.853
0.19059429 0.24000762 1.853
0.20824191 0.24000762 1.853
0.21459505 0.24212535 1.853
0.22588952 0.24471366 1.853
0.23294859 0.24706668 1.853
0.24000762 0.24706668 1.853
-0.24353716 0.2505962 1.853
-0.22765429 0.2505962 1.853
-0.15353429 0.25765523 1.853
-0.14647524 0.25412571 1.853
-0.13588667 0.2505962 1.853
-0.12706286 0.25412571 1.853
0.24530192 0.2505962 1.853
0.25341982 0.25483161 1.853
-0.16235811 0.2647143 1.853
-0.15706381 0.26118478 1.853
0.25765523 0.26118478 1.853
0.26236129 0.26471427 1.853
-0.16706413 0.27530289 1.853
0.26647907 0.27177334 1.853
0.27177334 0.27353811 1.853
-0.17471144 0.28589144 1.853
-0.16941714 0.28236192 1.853
-0.18177047 0.30000955 1.853
0.16588762 0.35648191 1.853
0.15882857 0.3617762 1.853
0.16588762 0.3617762 1.853
0.11412128 0.58707744 1.853
0.13588667 0.59648955 1.853
0.14118096 0.59648955 1.853
0.097061902 0.60354859 1.853
0.10412096 0.60354859 1.853
0.12706286 0.60531336 1.853
0.13412191 0.60310739 1.8529999
0.14235747 0.60237211 1.853
0.12706286 0.61413717 1.853
0.13059239 0.6123724 1.853
-0.2519486 0.19872001 1.863
-0.25313145 0.20581716 1.863
-0.25549716 0.21291429 1.863
-0.22119431 0.22592573 1.863
-0.21646287 0.22356001 1.863
-0.23598 0.2377543 1.863
-0.22356001 0.23420572 1.8630002
-0.24130286 0.24485143 1.863
-0.23302285 0.24366857 1.863
-0.22533429 0.24485143 1.863
0.14549144 0.24307716 1.863
0.15436286 0.24662572 1.863
0.16500857 0.24130286 1.863
0.17033143 0.24130286 1.863
0.22178572 0.24130286 1.863
0.23243144 0.24485144 1.863
0.24662572 0.2484 1.863
0.2519486 0.2484 1.863
-0.24130286 0.25549716 1.863
-0.2346493 0.25594074 1.863
-0.22415143 0.25549719 1.863
-0.15613714 0.25727144 1.863
-0.14194286 0.2519486 1.863
-0.13129714 0.2519486 1.863
0.25786287 0.25313145 1.863
0.26377717 0.25668001 1.863
-0.22710858 0.26259428 1.863
-0.18097715 0.26969144 1.863
-0.17033143 0.26969144 1.863
-0.16678286 0.26969144 1.863
0.26827201 0.26543313 1.8630002
0.27324 0.26791716 1.863
-0.18275145 0.27324 1.863
-0.17388 0.27501431 1.863
-0.19162287 0.28743431 1.863
-0.18452573 0.28743431 1.863
-0.17624573 0.28152001 1.863
-0.1831063 0.29382175 1.8630002
0.19872001 0.34066287 1.863
0.20226859 0.34243715 1.863
0.15968572 0.35840574 1.863
0.16500857 0.35663146 1.863
0.17033143 0.35840574 1.863
0.15554573 0.36668575 1.863
0.16500857 0.36905146 1.863
0.17210571 0.36550286 1.863
-0.23065715 0.37614858 1.863
-0.22710858 0.37614858 1.863
0.10468284 0.57486862 1.863
0.11355429 0.57664287 1.863
0.10432799 0.58622402 1.8630002
0.11355429 0.58492285 1.863
0.12065143 0.58551431 1.863
0.097940579 0.59686977 1.8630002
0.10468284 0.59615999 1.863
0.1135543 0.59660357 1.863
0.1242 0.59615999 1.863
0.13129714 0.59616005 1.863
0.099360004 0.60325718 1.863
0.10468285 0.60325718 1.863
0.11355429 0.60503149 1.863
0.12349029 0.6046766 1.8630002
0.11473715 0.61272001 1.863
0.12242571 0.61390287 1.863
0.12331286 0.62454861 1.863
-0.21584097 0.22832763 1.8730001
-0.22119239 0.23724666 1.8730001
-0.21584098 0.23546286 1.8730001
0.13913715 0.23903048 1.8730001
0.14627238 0.23903048 1.8730001
0.15340762 0.23903048 1.8730001
0.1652997 0.23665208 1.8730001
0.17481335 0.23903048 1.8730001
0.18373239 0.23903048 1.8730001
0.21048953 0.23903048 1.8730001
-0.23784126 0.24854414 1.8730001
-0.2211924 0.24616571 1.8730001
-0.21673286 0.24616572 1.8730001
-0.14270477 0.24973334 1.8730001
-0.13735333 0.24973334 1.8730001
0.14984001 0.2443819 1.8730001
0.15519142 0.2425981 1.8730001
0.16054286 0.2425981 1.8730001
0.24973334 0.24616572 1.8730001
0.25508475 0.24794954 1.8730001
-0.22119239 0.25686857 1.8730001
-0.21762477 0.25330096 1.8730001
-0.16054286 0.25686857 1.8730001
-0.15697524 0.25686857 1.8730001
-0.14805621 0.25330096 1.8730001
-0.12843429 0.25330096 1.8730001
0.26578763 0.25330096 1.8730001
-0.2425981 0.26578763 1.8730001
-0.23546286 0.2657876 1.8730001
-0.22476001 0.26400381 1.8730001
-0.17124572 0.26757145 1.8730001
-0.1658943 0.26578763 1.8730001
0.26757145 0.26043621 1.8730001
0.27113906 0.26043621 1.8730001
-0.24794954 0.27470669 1.8730001
-0.23903048 0.27113906 1.8730001
-0.19265144 0.2782743 1.8730001
-0.18551619 0.2782743 1.8730001
-0.17659715 0.27113906 1.8730001
-0.24497652 0.28778794 1.8730001
-0.23189525 0.28362572 1.8730001
-0.22832763 0.28362572 1.8730001
-0.21405715 0.28897715 1.8730001
-0.19265144 0.28362572 1.8730001
-0.18551619 0.28362569 1.8730001
-0.25330096 0.29789621 1.8730001
-0.24667537 0.29713172 1.8730001
-0.23495319 0.29713172 1.8730001
-0.22526968 0.29713172 1.8730001
-0.21405715 0.29611242 1.8730003
-0.18908381 0.29432857 1.8730001
-0.24616571 0.30503145 1.8730001
-0.23635477 0.30413952 1.8730001
-0.22565192 0.30413955 1.8730001
-0.21584097 0.30324763 1.8730001
-0.24794954 0.31038287 1.8730001
-0.25330096 0.33535621 1.8730001
0.1976461 0.34677261 1.8730001
0.16411048 0.35497811 1.8730001
0.17481335 0.35533488 1.8730001
0.19800287 0.35497811 1.8730001
-0.23367906 0.36389714 1.8730001
0.15697524 0.36032954 1.8730001
0.17748906 0.36300522 1.8730001
0.19859748 0.36151874 1.8730001
-0.23457095 0.3737081 1.8730001
0.17532299 0.37561935 1.8730001
0.18194857 0.37638384 1.8730001
-0.23546286 0.38173527 1.8730001
0.07848762 0.57438666 1.8730001
0.082055241 0.57438672 1.8730001
0.098109536 0.57438666 1.8730001
0.10346095 0.57081908 1.8730001
0.089190483 0.58152193 1.8730001
0.098109521 0.58508956 1.8730001
0.10702857 0.58508956 1.8730001
0.11059619 0.58330572 1.8730001
0.085622869 0.5975762 1.8730001
0.095612191 0.59507883 1.8730001
0.087406673 0.60292763 1.8730001
0.093947299 0.60530603 1.8730001
0.11773143 0.62433338 1.8730001
0.12129905 0.62433338 1.8730001
0.12843429 0.63146859 1.8730001
-0.25824001 0.19726667 1.8830001
-0.26182666 0.20623335 1.8830001
-0.25824001 0.20444 1.883
0.14526001 0.23672001 1.8830001
0.15422668 0.23672001 1.8830001
-0.14346667 0.24748001 1.8830001
-0.13808668 0.24748001 1.8830001
-0.12912001 0.24748001 1.8830001
0.15781334 0.24030668 1.8830001
0.16140001 0.24030668 1.8830001
0.19009334 0.24030668 1.8830001
0.21699333 0.24030668 1.8830001
-0.15422668 0.25465333 1.8830001
-0.14705335 0.25106668 1.8830001
-0.13270667 0.25106668 1.8830001
-0.12732667 0.25286001 1.8830001
-0.22356887 0.26780447 1.883
-0.17646401 0.26684803 1.8830001
-0.16677999 0.26362002 1.8830001
-0.24245867 0.2768907 1.8830001
-0.23492669 0.27617335 1.8830003
-0.22775334 0.27707002 1.8830001
-0.21878667 0.27976 1.8830001
-0.25106668 0.28514001 1.8830001
-0.24389334 0.28478134 1.8830001
-0.23672001 0.28514001 1.8830001
-0.22416666 0.28514001 1.8830001
-0.21591735 0.28549868 1.8830001
-0.24389334 0.29267201 1.8830001
-0.23552446 0.29171559 1.883
-0.22524269 0.2919547 1.8830001
-0.23492667 0.30845335 1.8830001
-0.22416666 0.30845335 1.8830001
-0.21699333 0.30845335 1.8830001
-0.24150223 0.31323555 1.883
-0.23492667 0.31204 1.8830001
-0.22596002 0.31293666 1.8830001
-0.21699333 0.31204 1.8830001
0.16857333 0.33714667 1.8830001
0.18471333 0.33714667 1.8830001
-0.25465333 0.34073335 1.8830001
0.16857333 0.34790668 1.8830001
0.17843667 0.34432003 1.8830001
0.18381667 0.34432003 1.8830001
-0.23492669 0.35687336 1.8830001
0.15781334 0.35866669 1.8830001
0.16409001 0.35239002 1.8830001
0.17694223 0.35268891 1.883
0.18471335 0.35508004 1.8830003
0.19128889 0.35388446 1.883
-0.24389334 0.36942664 1.883
-0.23492667 0.36584002 1.8830001
0.18435466 0.36512265 1.8830001
0.19368 0.36404666 1.8830001
-0.24389334 0.37301335 1.883
0.18292001 0.37301335 1.8830001
0.076344766 0.53492576 1.8830003
0.082493335 0.53262001 1.8830001
0.07890667 0.56669337 1.8830001
0.095046669 0.56669337 1.8830001
0.077113338 0.57028002 1.8830001
0.087514661 0.57314932 1.8830001
0.094150007 0.57297003 1.8830001
0.087514676 0.58462667 1.8830001
0.093253337 0.58462673 1.883
0.087873332 0.59359336 1.8830001
0.093253337 0.59359336 1.8830001
0.15512761 0.23810287 1.8940001
0.16685238 0.23720098 1.8940001
0.17677334 0.23810287 1.8940001
0.18398857 0.23810287 1.8940001
-0.14791238 0.24892573 1.8940001
-0.1334819 0.24892573 1.8940001
0.19841905 0.24171048 1.8940001
0.2056343 0.24171048 1.8940001
-0.16595048 0.25974858 1.8940001
-0.15152 0.25253335 1.8940001
0.26335621 0.25253335 1.8940001
-0.16955811 0.26335621 1.8940001
-0.22367239 0.27598286 1.8940001
-0.22728001 0.2813943 1.8940001
-0.2453181 0.31747049 1.8940001
-0.23449524 0.31747049 1.8940001
-0.22186857 0.31747049 1.8940001
-0.24291302 0.3234832 1.8940001
-0.23449524 0.32107812 1.8940001
-0.22315702 0.32365498 1.8940001
0.17677334 0.32829335 1.8940001
0.18038096 0.32829335 1.8940001
-0.25614095 0.33911622 1.8940001
0.15873525 0.33550858 1.8940001
0.16414666 0.33550858 1.8940001
0.17587143 0.33641049 1.8940001
0.181824 0.33478707 1.8940001
-0.26335621 0.34272382 1.8940001
-0.25614095 0.34678242 1.8940001
-0.24576904 0.34678239 1.8940001
-0.23810287 0.34993905 1.8940001
0.16543511 0.34633142 1.8940001
0.17496954 0.34723333 1.8940001
0.1875962 0.34633142 1.8940001
0.19264686 0.34705296 1.8940001
-0.25794476 0.35354668 1.8940001
0.15873525 0.35715431 1.8940001
0.17316572 0.35354668 1.8940001
0.19481143 0.35354668 1.8940001
-0.24411555 0.36557207 1.8940001
0.19240636 0.36316696 1.8940001
0.1875962 0.3751924 1.8940001
0.19481142 0.37158477 1.8940001
0.04689905 0.3968381 1.8940001
0.05050667 0.3968381 1.8940001
0.068544768 0.53573143 1.8940001
0.072152384 0.53573143 1.8940001
0.075759999 0.54655433 1.8940001
0.075759999 0.55376953 1.8940001
0.068544768 0.57000381 1.8940001
0.074557461 0.57240891 1.8940001
0.085380316 0.57120633 1.8940001
0.090190478 0.57000381 1.8940001
0.076962538 0.58443433 1.8940001
0.084779054 0.58443427 1.8940001
0.079367623 0.59525716 1.8940001
0.082975239 0.59525716 1.8940001
0.11968 0.23573335 1.904
0.12330667 0.23573335 1.904
0.15957335 0.23573335 1.904
0.16320001 0.23573335 1.904
0.17589334 0.23754668 1.904
0.19221334 0.23936 1.904
0.19584 0.24298668 1.904
0.20672001 0.24298668 1.904
-0.16320001 0.25749335 1.904
-0.15776001 0.25568002 1.904
-0.12330667 0.25749335 1.904
0.26112002 0.25024 1.904
-0.17589334 0.26474667 1.904
-0.22848001 0.27744001 1.904
-0.24298668 0.32640001 1.904
-0.23573335 0.32640001 1.9039999
-0.24298668 0.33546668 1.904
-0.23645869 0.33147734 1.904
-0.22606222 0.33123556 1.9039999
0.17262933 0.33437866 1.904
-0.27200001 0.34634668 1.904
-0.26716447 0.34695113 1.9039999
-0.25024 0.34090668 1.904
-0.24419557 0.34211555 1.9039999
-0.23936 0.34634668 1.904
0.15957335 0.34816 1.904
0.16682667 0.34453335 1.904
0.17408 0.34453335 1.904
0.19765334 0.34453335 1.904
-0.26474667 0.35178667 1.904
-0.25144887 0.35662222 1.9039999
-0.2448 0.35722667 1.904
-0.23452447 0.3548089 1.9040002
0.15594669 0.3560178 1.9040002
-0.25144887 0.36387554 1.9039999
-0.24661334 0.36266667 1.904
0.15594667 0.36266667 1.904
0.19584 0.37717333 1.9039999
0.025386667 0.38805333 1.9039999
0.03626667 0.38805333 1.9039999
0.19221334 0.38080001 1.904
0.0272 0.39168 1.904
0.037302859 0.39478856 1.9040002
0.044426668 0.39530668 1.904
0.056213334 0.39893335 1.904
0.046239998 0.40527999 1.904
0.052949332 0.40473598 1.904
0.047146667 0.42794669 1.904
0.054400001 0.42794669 1.9039999
0.03626667 0.43701333 1.904
0.045333337 0.43520007 1.9040002
0.054400001 0.43520004 1.9040002
0.045333333 0.44245335 1.904
0.050773334 0.44245335 1.904
0.065280005 0.53674668 1.904
0.067093343 0.54400003 1.904
0.076160006 0.54762667 1.904
0.083413333 0.54762667 1.904
0.068906672 0.55488002 1.9039999
0.076160006 0.55488008 1.9040002
0.083413333 0.55125338 1.904
0.058026668 0.56757331 1.904
0.065733343 0.56621337 1.9040002
0.076159999 0.56576002 1.9040002
0.08522667 0.56757331 1.904
0.092480004 0.56757331 1.904
0.055306666 0.5757333 1.904
0.064554676 0.57518941 1.904
0.072533339 0.57664001 1.904
0.054400001 0.58026671 1.9039999
0.065280005 0.58026671 1.9039999
0.072533339 0.58389336 1.9039999
-0.22250476 0.12766667 1.9150001
-0.21885715 0.12766667 1.9150001
-0.22250476 0.13131429 1.9150001
-0.21885715 0.13131429 1.9150001
0.10942858 0.22980002 1.9150001
0.10760477 0.23344763 1.9150001
0.11490001 0.23344763 1.9150001
0.12766667 0.23709525 1.9150001
0.13131429 0.23709525 1.9150001
0.15684763 0.23709525 1.9150001
0.16049525 0.23344763 1.9150001
0.17508572 0.23709525 1.9150001
0.18420477 0.23709525 1.9150001
-0.1532 0.2480381 1.9150001
-0.14955239 0.2480381 1.9150001
0.058361907 0.24439049 1.9150001
0.065657146 0.24439049 1.9150001
0.074776188 0.24256667 1.9150001
0.08316572 0.24220189 1.9150002
0.1349619 0.24074286 1.9150001
0.19697143 0.24074286 1.9150001
0.25898096 0.2480381 1.9150001
-0.16414288 0.25715715 1.9150001
-0.15502381 0.25168571 1.9150001
-0.17326191 0.26262859 1.9150001
-0.24074286 0.33922857 1.9150001
-0.2346635 0.3380127 1.9150001
-0.22980002 0.33740479 1.9150001
-0.24074286 0.3428762 1.9150001
-0.23709525 0.3428762 1.9150001
0.15684763 0.34470001 1.9150001
0.16049525 0.34652382 1.9150001
-0.23527144 0.35017145 1.9150001
0.10760477 0.35746667 1.9150001
0.11490001 0.35746667 1.9150001
0.12219524 0.35564288 1.9150001
0.15684763 0.35199526 1.9150001
-0.25715715 0.36385 1.9150001
0.10760477 0.36476192 1.9150001
0.11581191 0.36385 1.9150001
0.12401904 0.36371973 1.9150001
-0.25533333 0.37205717 1.9150001
0.098485716 0.37935239 1.9150001
0.10395715 0.37570477 1.9150001
0.12401905 0.37205717 1.9150001
0.14772858 0.37388098 1.9150001
0.15441588 0.37327304 1.9150001
0.025533333 0.38664761 1.9150001
0.03526032 0.38543177 1.9150001
0.040123813 0.38664764 1.9150001
0.10578096 0.38518864 1.9150002
0.1130762 0.38664764 1.9150001
-0.014590479 0.39394286 1.9150001
0.018238096 0.39029527 1.9150001
0.024621429 0.3966786 1.9150001
0.032828573 0.39759049 1.9150001
0.043771431 0.39029527 1.9150001
0.083895244 0.39759049 1.9150001
0.09119048 0.39759049 1.9150001
0.10578096 0.39029527 1.9150001
-0.012766667 0.40123811 1.9150001
0.026445238 0.40215003 1.9150001
0.034044445 0.40366986 1.9150001
0.041947622 0.40670955 1.9150001
0.083895244 0.40123811 1.9150001
0.09119048 0.40123811 1.9150001
0.036476191 0.4176524 1.9150001
0.045595236 0.41582859 1.9150001
0.051066667 0.4176524 1.9150001
0.029180953 0.42677143 1.9150001
0.034652382 0.42494762 1.9150001
0.044987302 0.42433968 1.9150001
0.051066667 0.42494762 1.9150001
0.028269047 0.43497857 1.9150001
0.03428762 0.43333715 1.9150002
0.041035719 0.43315476 1.9150001
0.027357144 0.4450095 1.9150001
0.03428762 0.44573909 1.9150002
0.040123813 0.44500956 1.9150001
0.058361907 0.54714286 1.9150001
0.062009525 0.54531908 1.9150001
-0.072952382 0.5562619 1.9150001
-0.065657139 0.5554803 1.9150001
-0.058361907 0.5562619 1.9150001
0.058361907 0.55443811 1.9150001
0.063833334 0.55443811 1.9150001
0.085719049 0.55808574 1.9150001
-0.067480952 0.56173337 1.9150001
0.056538098 0.56538105 1.9150001
0.063225396 0.56294924 1.9150001
0.085111111 0.56294924 1.9150001
0.09119048 0.56173337 1.9150001
0.05289048 0.57449996 1.9150001
-0.21633334 0.12833335 1.9250001
-0.22183335 0.1375 1.9250001
-0.21633334 0.13566667 1.9250001
-0.22183335 0.14300001 1.9250001
0.075166672 0.23833334 1.9250001
0.084333338 0.23833334 1.9250001
0.1045 0.23283334 1.9250001
0.12283334 0.23466668 1.9250001
0.154 0.23833334 1.9250001
0.19250001 0.23833334 1.9250001
-0.15766667 0.24933334 1.9250001
0.066 0.24200001 1.9250001
0.13933334 0.24200001 1.9250001
0.20533334 0.24200003 1.9250001
0.21633334 0.24200001 1.9250001
0.22366667 0.24383335 1.9250001
-0.16316667 0.25483334 1.9250001
0.018333334 0.25300002 1.9250001
0.27316666 0.25666669 1.9250001
-0.17233334 0.26033333 1.9250001
-0.1155 0.264 1.9250001
-0.21633334 0.28966668 1.9250001
-0.23393336 0.3468667 1.925
0.12833335 0.35750002 1.9250001
0.13322222 0.35688889 1.9250001
0.154 0.35566667 1.9250001
0.095333338 0.36666667 1.9250001
0.10266667 0.36483335 1.9250001
0.11366667 0.36666667 1.9250001
0.132 0.36483335 1.9250001
0.14666668 0.36300001 1.9250001
0.15216666 0.36666667 1.9250001
0.084857151 0.37504765 1.9250001
0.095333338 0.37400004 1.9250001
0.10266667 0.37033334 1.9250001
0.11366667 0.37504765 1.9250001
0.12466667 0.37452382 1.9250001
0.13493332 0.37473336 1.925
0.14300001 0.37583333 1.9250001
0.154 0.37033334 1.9250001
-0.015714286 0.38552383 1.9250001
-0.0055 0.38866669 1.9250001
0 0.38866669 1.9250001
0.0165 0.38866669 1.9250001
0.025666667 0.38500002 1.9250001
0.034833334 0.38316667 1.9250001
0.043083332 0.38499999 1.9250001
0.077 0.38499999 1.9250001
0.083875 0.38500002 1.9250001
0.095333338 0.38552383 1.9250001
0.10633334 0.38500002 1.9250001
0.11440001 0.38426667 1.925
0.12393334 0.38720003 1.925
0.13566667 0.38866669 1.9250001
0.14446667 0.38426667 1.925
0.15216666 0.38133335 1.9250001
-0.022 0.39966667 1.9250001
-0.014666667 0.39600003 1.9250001
-0.0055000004 0.39600003 1.9250001
0.0032083334 0.39554173 1.9250001
0.013933334 0.39453337 1.925
0.047666669 0.39600003 1.9250001
0.077 0.39966667 1.9250001
0.08433333 0.39233336 1.9250001
0.095333338 0.39416671 1.9250001
0.10413333 0.39673334 1.925
0.11366668 0.39416671 1.9250001
0.12283333 0.39416671 1.9250001
-0.022 0.40516669 1.9250001
-0.015583334 0.40608332 1.9250001
-0.0055 0.40333334 1.9250001
0.0036666666 0.40333334 1.9250001
0.014666667 0.40700001 1.9250001
0.025666667 0.40700001 1.9250001
0.095333338 0.40333334 1.9250001
0.10266667 0.40333334 1.9250001
-0.018333334 0.41066667 1.9250001
0.029333334 0.41066667 1.9250001
0.034833334 0.41250002 1.9250001
0.040333334 0.41250002 1.9250001
0.043083332 0.42441669 1.9250001
-0.011 0.43450004 1.9250001
-0.0055 0.43450001 1.9250001
0 0.43633336 1.9250001
0.011 0.43450004 1.9250001
-0.011 0.4436667 1.9250001
-0.0055 0.4436667 1.9250001
0.0055 0.44000003 1.9250001
0.014666666 0.44488892 1.9250001
0.0058666668 0.45393333 1.925
0.014208334 0.45420831 1.9250001
0.058666669 0.54633337 1.9250001
-0.073333338 0.55366671 1.9250001
-0.066 0.55366671 1.9250001
0.055916667 0.55458337 1.9250001
0.05377778 0.56466669 1.9250001
0.088 0.56833333 1.9250001
0.093500003 0.56833333 1.9250001
0.051333334 0.57200003 1.9250001
-0.21511112 0.13398351 1.9360002
-0.22310096 0.14750476 1.9360001
-0.21609449 0.14381716 1.9360001
0.070064768 0.23969525 1.9360001
0.088502862 0.23600763 1.9360001
0.095878094 0.23600763 1.9360002
0.10325333 0.23232001 1.9360001
0.12722287 0.23416382 1.9360001
0.13644192 0.23969525 1.9360001
0.14381716 0.23969525 1.9360001
0.15488 0.23723684 1.9360002
0.16778667 0.23600763 1.9360001
0.17516191 0.23600763 1.9360001
0.18438096 0.23600763 1.9360001
0.19913143 0.23969525 1.9360001
0.20281905 0.23969525 1.9360001
0.21388191 0.23969525 1.9360001
0.059001908 0.24338287 1.9360001
0.066377148 0.24338287 1.9360001
0.14381714 0.24338287 1.9360001
0.21388191 0.24338287 1.9360001
0.22678858 0.24338287 1.9360001
0.23600763 0.24707049 1.9360002
0.25813335 0.24707049 1.9360001
0.26182097 0.24707049 1.9360001
-0.1733181 0.25813335 1.9360001
-0.16963048 0.25813335 1.9360001
0.23785144 0.25075811 1.9360001
0.24707049 0.25444573 1.9360001
0.25444573 0.25260192 1.9360001
0.26796702 0.25198731 1.9360002
-0.22494477 0.28394666 1.9360001
0.15856762 0.33926097 1.9360001
0.15488 0.3447924 1.9360001
0.12722287 0.35401145 1.9360001
0.13398351 0.35278225 1.9360002
0.14381714 0.35769907 1.9360002
0.15242159 0.35524067 1.9360002
0.066377148 0.36507431 1.9360001
0.086659051 0.36876193 1.9360001
0.097721905 0.36507431 1.9360001
0.13644192 0.36507431 1.9360002
0.1433562 0.36507434 1.936
0.15119238 0.3632305 1.9360001
0.065147944 0.37859559 1.9360002
0.074981593 0.37859559 1.9360002
0.084815241 0.37244955 1.9360001
0.13644192 0.37613717 1.9360002
0.14381714 0.37244955 1.9360002
-0.022125715 0.38535622 1.9360001
-0.011062858 0.38535622 1.9360001
-0.0055314288 0.38720003 1.9360001
0.0036876192 0.38720003 1.9360002
0.014750476 0.38720003 1.9360002
0.025813334 0.38443431 1.9360001
0.045480639 0.38474163 1.9360002
0.059001908 0.38351241 1.9360001
0.064533338 0.38535622 1.9360001
0.071908578 0.38535622 1.9360001
0.088502862 0.38720003 1.9360001
0.092190482 0.38720003 1.9360001
0.11800382 0.38351241 1.9360001
0.12630096 0.38443431 1.9360001
0.13459811 0.38535622 1.9360001
0.14012954 0.38535622 1.9360001
-0.023600761 0.39383775 1.9360001
0.0055314288 0.39088765 1.9360001
0.011062858 0.39088765 1.9360001
0.047939051 0.39273143 1.9360001
0.051626667 0.39826286 1.9360001
0.064533338 0.39088765 1.9360001
0.074489906 0.39383772 1.9360001
0.084815241 0.39826286 1.9360002
0.095878102 0.39826286 1.9360002
0.12906668 0.39457524 1.9360001
0.1352127 0.39334604 1.9360002
-0.025813334 0.4056381 1.9360002
-0.0055314288 0.40932572 1.9360001
0.0046095243 0.40748191 1.9360001
0.014750476 0.40517718 1.936
0.022125715 0.40932572 1.9360001
0.062689528 0.40748191 1.9360001
0.073752388 0.40669176 1.936
0.099565715 0.40379429 1.9360001
-0.012906668 0.41485715 1.9360001
-0.0073752385 0.41485715 1.9360001
0.02704254 0.41547176 1.9360002
-0.012537906 0.42333871 1.9360001
-0.0059001907 0.42481375 1.9360001
0.012906667 0.42776382 1.9360001
0.028579049 0.4249981 1.9360001
0.033188574 0.42223239 1.9360001
0.040563811 0.42038858 1.9360001
-0.011062858 0.43145144 1.9360001
-0.0055314288 0.43145144 1.9360001
0.0044251429 0.43661413 1.9360001
0.015365082 0.43513909 1.936
0.024338286 0.43587655 1.9360001
0.040563811 0.43145144 1.9360001
0.0031608169 0.44725555 1.936
0.014750477 0.4437435 1.9360002
0.022125715 0.44620192 1.9360002
0 0.45357716 1.9360001
0.022125715 0.45357716 1.9360001
-0.047939051 0.54945529 1.9360001
0.056051813 0.54650515 1.9360001
0.062689528 0.54392385 1.9360001
0.051626667 0.55498672 1.9360001
0.051626667 0.56420571 1.9360002
0.047939051 0.57711238 1.9360001
0.047939051 0.58264381 1.9360001
0.0055314288 0.59370667 1.936
0.011062858 0.59370667 1.9360002
-0.30410287 -0.10013143 1.9470001
-0.21324286 0.14648858 1.9470001
0.076025717 0.23734859 1.9470001
0.083442859 0.23734859 1.9470001
0.10013143 0.23364002 1.9470001
0.11682001 0.23364002 1.9470001
0.12609144 0.23364002 1.9470001
0.13536286 0.23734859 1.9470001
0.14463429 0.2373486 1.9470001
0.15576001 0.2354943 1.9470001
0.16503143 0.23364002 1.9470001
0.18172 0.23734859 1.9470001
0.1947 0.23734859 1.9470001
0.20211715 0.23734859 1.9470001
0.21138857 0.23734859 1.9470001
0.016688572 0.24662001 1.9470001
0.027814288 0.2484743 1.9470001
0.03523143 0.24662001 1.9470001
0.040794287 0.24476573 1.9470001
0.059337147 0.24105716 1.9470001
0.064900003 0.24105716 1.9470001
0.14463429 0.24105716 1.9470001
0.20768 0.24105716 1.9470001
0.21509714 0.24105716 1.9470001
0.22622287 0.24105716 1.9470001
0.2354943 0.24476573 1.9470001
0.24476571 0.24723811 1.9470001
0.25403714 0.2484743 1.9470001
-0.11682001 0.25960001 1.9470001
0.018542858 0.25218287 1.9470001
0.24662001 0.25218287 1.9470001
0.25218287 0.25218287 1.9470001
0.27628857 0.25589144 1.9470001
-0.12238286 0.26330858 1.9470001
-0.11496571 0.26330858 1.9470001
-0.22622287 0.27628857 1.9470001
-0.22622287 0.28185144 1.9470001
0.13536286 0.34675145 1.9470001
0.14339809 0.34613335 1.9470001
0.15328763 0.34242475 1.9470001
0.12980001 0.35231429 1.9470001
0.13721715 0.35231429 1.9470001
0.14463429 0.35416856 1.9470001
0.15390572 0.35231429 1.9470001
0.087151431 0.36714858 1.9470001
0.09395048 0.36467621 1.9470001
0.10384 0.36344001 1.9470001
0.059337147 0.37827429 1.9470001
0.064529143 0.373824 1.9470001
0.074171431 0.37518382 1.9470001
0.081588574 0.37271142 1.9470001
-0.02596 0.38940001 1.9470001
-0.012980001 0.38198286 1.9470001
-0.0055628577 0.38569143 1.9470001
0.0046357149 0.38476428 1.9470001
0.014834288 0.38569143 1.9470001
0.024105715 0.38198286 1.9470001
0.033377144 0.38569143 1.9470001
0.048211429 0.38198286 1.9470001
0.055628572 0.3862212 1.9470003
0.074171431 0.38198286 1.9470001
0.055628572 0.39496288 1.9470001
0.064900003 0.39681715 1.9470001
0.07046286 0.39681715 1.9470001
-0.028432384 0.40423429 1.9470001
0.056370288 0.40275088 1.9470001
0.065270856 0.4034926 1.9470001
0.071699053 0.40176189 1.9470001
-0.0037085717 0.41721427 1.9470001
0.0037085719 0.41721427 1.9470001
0.014834286 0.41721427 1.9470001
0.022251429 0.41721427 1.9470001
0.066754289 0.41165143 1.9470001
-0.0037085717 0.42277715 1.9470001
0.0037085719 0.42463145 1.9470001
0.014834286 0.42463145 1.9470001
0.024105715 0.42463142 1.9470001
0.0037085719 0.43204856 1.9470001
0.018542858 0.43204856 1.9470001
0.022251429 0.43204856 1.9470001
-0.054886859 0.54738516 1.9470001
-0.047284286 0.54608715 1.9470001
-0.0051920004 0.54590178 1.9470001
0.0012361906 0.54516006 1.9470001
0.011125715 0.5488686 1.9470001
0.037085716 0.5470143 1.9470001
0.044502858 0.5470143 1.9470001
0.053156193 0.5463962 1.9470001
-0.055628572 0.55628568 1.9470003
-0.04697524 0.55628568 1.9470001
-0.0055628577 0.55257714 1.9470001
0.0014834286 0.55702746 1.9470001
0.014834287 0.55628574 1.9470001
0.024105715 0.55628574 1.9470001
0.037085716 0.55628568 1.9470001
0.044502858 0.55628568 1.9470003
-0.048211429 0.56370288 1.9470001
0.018542858 0.56555712 1.9470001
0.022251429 0.56555712 1.9470001
0.046357144 0.56555712 1.9470001
0.045986287 0.57408684 1.9470001
0.0055628577 0.58966285 1.9470001
0.044502858 0.58224571 1.9470001
0 0.59337145 1.9470001
0.0055628577 0.60449719 1.9470001
-0.31328002 -0.1081562 1.9580001
-0.30768573 -0.10442667 1.9580001
-0.30209145 -0.096967623 1.9580001
-0.27822247 -0.025360763 1.9579999
-0.23247366 0.085779049 1.9580001
-0.23123048 0.095102862 1.9580001
-0.22750096 0.095102862 1.9580001
-0.23123048 0.10069714 1.9580001
-0.21631239 0.13053334 1.9580001
-0.21258287 0.14545143 1.9580001
-0.22190668 0.15291049 1.9580001
-0.21631239 0.15291049 1.9580001
0.06713143 0.23868953 1.9580001
0.070860952 0.23868953 1.9580001
0.087643817 0.23496 1.9580001
0.095102862 0.23496 1.9580001
0.13612762 0.23496 1.9580001
0.14545143 0.23496 1.9580001
0.15477525 0.23496 1.9580001
0.17528762 0.23496 1.9580001
0.18274668 0.23496 1.9580001
0.19020572 0.23868953 1.9580001
0.20698857 0.23682477 1.9580001
0.22004192 0.23868953 1.9580001
0.011188572 0.24987811 1.9580001
0.025174286 0.24708097 1.9580001
0.04661905 0.24614859 1.9580001
0.053456511 0.24490541 1.9580001
0.23682477 0.24241905 1.9580001
0.24614859 0.24490541 1.9580001
0.25547239 0.24614859 1.9580001
0.2647962 0.24801335 1.9580001
0.27598476 0.24987811 1.9580001
-0.12493905 0.25733715 1.9580001
-0.11748 0.25733715 1.9580001
-0.10442667 0.25733715 1.9580001
-0.096967623 0.25733715 1.9580001
-0.011188572 0.25547239 1.9580001
-0.0055942857 0.25547239 1.9580001
0.0024863493 0.25609398 1.9580001
0.013053333 0.25733715 1.9580001
0.026106669 0.25360763 1.9580001
0.27598476 0.25360763 1.9580001
-0.22750096 0.26852572 1.9580001
-0.13053334 0.26106668 1.9580001
-0.12493905 0.26106668 1.9580001
-0.11188572 0.26106668 1.9580001
-0.10442667 0.26106668 1.9580001
-0.096967623 0.26106668 1.9580001
0.0074590477 0.26106668 1.9580001
-0.22750096 0.27225524 1.9580001
-0.22377144 0.29090285 1.9580001
0.13799238 0.34311619 1.9580001
0.14793779 0.34435937 1.9580001
0.073658094 0.36829048 1.9580001
0.085779049 0.36673653 1.9580001
0.10069714 0.36549336 1.9580001
0.0074590477 0.37668192 1.9580001
0.011188572 0.37668192 1.9580001
0.022377145 0.37668192 1.9580001
0.059672382 0.37668192 1.9580001
0.072725713 0.3729524 1.9580001
-0.013053333 0.38041145 1.9580001
-0.0049726986 0.38289776 1.9580001
0.002983619 0.38190326 1.9579999
0.014918096 0.38227621 1.9580001
0.026106667 0.38227621 1.9580001
0.044754289 0.38414097 1.9580001
0.054078095 0.38227621 1.9580001
-0.033565715 0.3971943 1.9580001
-0.029836191 0.39532956 1.9580001
-0.033565715 0.40465334 1.9580001
-0.029836191 0.40278858 1.9580001
-0.022377145 0.49789146 1.9580001
-0.01864762 0.49602669 1.9580001
-0.022377145 0.50348574 1.9580001
-0.024863491 0.51716065 1.9580001
-0.0055942857 0.51840383 1.9580001
0.011188572 0.51840383 1.9580001
-0.0037295239 0.52586287 1.9580001
0 0.52959239 1.9580001
0.016782857 0.52586287 1.9580001
-0.054078095 0.53705144 1.9580001
-0.045500193 0.53555959 1.9579999
-0.016782857 0.53332192 1.9580001
-0.0037295239 0.53332192 1.9580001
0.0012431747 0.53580827 1.9580001
-0.05594286 0.54388887 1.9580001
-0.043688711 0.54397768 1.9580001
-0.011188572 0.54637527 1.9580001
-0.0074590477 0.54451048 1.9580001
0.0037295239 0.54451042 1.9580001
0.014172192 0.54674816 1.9579999
0.026852572 0.54674816 1.9579999
0.035430476 0.54637527 1.9580001
0.044754285 0.54451048 1.9580001
0.05594286 0.54451048 1.9580001
-0.070860952 0.55942857 1.9580001
-0.064893715 0.556445 1.9579999
-0.042267937 0.5581854 1.9580001
-0.037295241 0.55569905 1.9580001
-0.024241906 0.55196953 1.9580001
-0.014451905 0.55523288 1.9580001
-0.0055942857 0.55942857 1.9580001
0.0049726986 0.5532127 1.9580001
0.015539683 0.55507749 1.9580001
0.026106669 0.55445594 1.9580001
0.033565715 0.55569905 1.9580001
-0.054078095 0.56688762 1.9580001
-0.043511111 0.56440127 1.9580001
-0.012431745 0.56440121 1.9580001
-0.0055942857 0.56502283 1.9580001
0.014918096 0.56502283 1.9580001
0.026852572 0.56464988 1.9579999
0.034808889 0.56564444 1.9580001
0.041024763 0.56688762 1.9580001
-0.054078095 0.57061714 1.9580001
-0.044754289 0.57061714 1.9580001
0.013053333 0.57061714 1.9580001
0.035430476 0.57434666 1.9580001
0.041024763 0.57621145 1.9580001
0.0055942857 0.58926481 1.9580001
0.041024763 0.5836705 1.9580001
-0.014918095 0.59672385 1.9580001
-0.0055942857 0.59672385 1.9580001
-0.012431747 0.60169655 1.9580001
-0.0055942857 0.60231817 1.9580001
0 0.6041829 1.9580001
0.0044754287 0.61313373 1.9579999
-0.32254097 -0.12376573 1.9690002
-0.31785285 -0.1228281 1.9690001
-0.32254097 -0.11626477 1.9690001
-0.31504002 -0.11438952 1.9690001
-0.31128955 -0.10876381 1.9690001
-0.30378854 -0.10407572 1.9690001
-0.3000381 -0.093761913 1.9690002
-0.3000381 -0.084385715 1.9690001
-0.29628763 -0.084385715 1.9690001
-0.3000381 -0.078760006 1.9690001
-0.27628511 -0.031253967 1.9690002
-0.27253461 -0.025003174 1.9690002
-0.25503239 0.018752381 1.9690001
-0.24753144 0.018752381 1.9690001
-0.25503239 0.024378097 1.969
-0.24753144 0.022502858 1.9690001
-0.25565746 0.03250413 1.969
-0.24003048 0.067508571 1.9690001
-0.24003048 0.071259052 1.9690001
-0.23502986 0.077509843 1.9690002
-0.23252954 0.082510479 1.9690001
-0.22690383 0.086260952 1.9690001
-0.2259662 0.092824295 1.9690001
-0.2269038 0.10501333 1.969
-0.22690381 0.11438952 1.9690001
-0.2244035 0.12376573 1.969
-0.21752763 0.1275162 1.9690001
-0.22502857 0.15752001 1.9690001
-0.21377715 0.15376952 1.9690001
-0.21377715 0.16689619 1.9690001
-0.21377715 0.1725219 1.9690001
-0.22502857 0.18377334 1.9690001
-0.22502857 0.20627619 1.9690001
-0.22502857 0.21002668 1.9690001
-0.22502857 0.2212781 1.9690001
0.078760006 0.23628001 1.9690001
0.084385715 0.23440477 1.9690001
0.090011433 0.23252954 1.9690001
0.10501333 0.23252954 1.9690001
0.16502096 0.23252954 1.9690002
0.17439714 0.23252954 1.9690001
0.20440096 0.23440477 1.9690001
0.21190192 0.23628001 1.9690001
0.0075009526 0.24753144 1.9690001
0.011251429 0.24753144 1.9690001
0.033754285 0.24378096 1.9690002
0.046880953 0.24378096 1.9690001
0.056257144 0.24378096 1.9690001
0.21752763 0.24003048 1.9690001
0.22690383 0.24003048 1.9690001
0.23440477 0.24003048 1.9690001
0.24378097 0.24128063 1.9690002
0.25315714 0.24378096 1.9690001
0.26628381 0.24753144 1.9690001
0.27566004 0.24753144 1.9690001
0.28128573 0.24753144 1.9690001
-0.13126667 0.25878286 1.9690001
-0.11376444 0.25628257 1.9690002
-0.10501334 0.25503239 1.9690002
-0.097512387 0.25503239 1.9690001
-0.016877143 0.25503239 1.9690001
0.0075009526 0.25315714 1.9690001
0.013126668 0.25503239 1.9690001
0.28128573 0.25503239 1.9690001
-0.22502857 0.27753526 1.9690001
-0.22502857 0.28503621 1.9690002
0.076884761 0.36754668 1.9690001
0.082510479 0.36754668 1.9690001
-0.011251429 0.3787981 1.9690001
-0.0056257145 0.3787981 1.9690001
0.0037504763 0.37754795 1.9690002
0.015001904 0.37692285 1.9690001
0.024378097 0.37692285 1.9690001
0.056257144 0.3787981 1.9690001
-0.0075009526 0.38254857 1.9690001
0.026253335 0.38254857 1.9690001
0.033754285 0.38442382 1.9690001
0.041255239 0.38629907 1.9690001
0.05250667 0.38254857 1.9690001
-0.037504762 0.40505144 1.9690002
-0.026253335 0.50631428 1.9690001
-0.017502222 0.50381398 1.9690002
-0.03000381 0.51569051 1.9690001
-0.023440477 0.51381528 1.9690001
-0.015752001 0.5160656 1.9690001
-0.0056257145 0.51569051 1.9690001
0.0018752381 0.51569051 1.9690001
-0.041255239 0.52506667 1.9690001
-0.03000381 0.52506667 1.9690002
-0.024378097 0.5269419 1.9690001
-0.015001906 0.52506667 1.9690001
-0.0075009526 0.5269419 1.9690001
0.0032816669 0.52506667 1.969
0.011251429 0.5269419 1.9690001
-0.03000381 0.5344429 1.9690001
-0.024378095 0.5344429 1.9690001
-0.014064286 0.5335052 1.9690001
-0.0075009526 0.5344429 1.9690001
0.0037504763 0.5344429 1.9690001
0.015001905 0.53444284 1.969
0.023753017 0.53506798 1.9690002
-0.06125778 0.54381901 1.9690002
-0.037504762 0.54756957 1.9690001
-0.026253335 0.54006857 1.9690001
-0.015001905 0.54006857 1.9690002
-0.0056257145 0.54194385 1.9690001
0.015001905 0.54100621 1.9690001
0.024003047 0.54306901 1.9690001
0.032816667 0.54381907 1.9690001
0.04313048 0.54381907 1.9690001
-0.071259052 0.55694574 1.9690001
-0.065633334 0.55319524 1.9690001
-0.041255239 0.55507052 1.9690001
-0.037504762 0.55132002 1.9690001
-0.024378097 0.55882096 1.9690001
0.0075009526 0.55882096 1.9690001
0.03000381 0.55882096 1.9690001
-0.075009525 0.56257147 1.9690001
-0.026253335 0.56444669 1.9690001
-0.018752381 0.56444669 1.9690001
0.0075009526 0.56257147 1.9690001
0.011251429 0.56632191 1.9690001
-0.041255239 0.57194763 1.9690001
-0.033754285 0.57194763 1.9690001
-0.026253335 0.57194763 1.9690001
-0.015001906 0.57382292 1.969
-0.0062507936 0.57507306 1.9690002
0.0018752381 0.57194763 1.9690001
0.037504762 0.57569814 1.9690001
0.041255239 0.57382286 1.9690001
-0.015001905 0.58882481 1.9690001
0.0056257145 0.58882481 1.9690001
0.037504762 0.58694959 1.9690001
-0.013126667 0.59445047 1.9690001
-0.0075009526 0.59445047 1.9690001
0 0.59445047 1.9690001
-0.011251429 0.6000762 1.9690001
-0.36205715 -0.20742857 1.9800001
-0.35828573 -0.20742857 1.9800001
-0.32434288 -0.14520001 1.9800001
-0.32434288 -0.13954286 1.9800001
-0.31491429 -0.12445715 1.9800001
-0.30774859 -0.12370286 1.9800001
-0.31302857 -0.11691429 1.9800001
-0.30737144 -0.11502858 1.9800001
-0.30360001 -0.10748572 1.9800001
-0.29794288 -0.10182858 1.9800001
-0.29794288 -0.094285719 1.9800001
-0.3017143 -0.073542863 1.9800001
-0.29794288 -0.075428575 1.9800001
-0.3017143 -0.067885719 1.9800001
-0.29794288 -0.066 1.9800001
-0.27657142 -0.036457147 1.9800001
-0.2753143 -0.01697143 1.9800001
-0.25394288 0.016342858 1.9800001
-0.2489143 0.015085715 1.9800001
-0.24640001 0.025142858 1.9800001
-0.25268573 0.035828575 1.9800001
-0.24577142 0.033314288 1.9800001
-0.25645715 0.041485716 1.9800001
-0.24514286 0.063485712 1.9800001
-0.23382859 0.075428575 1.9800001
-0.22628573 0.0792 1.9800001
-0.23005715 0.082971431 1.9800001
-0.22440001 0.084857151 1.9800001
-0.22251429 0.094285719 1.9800001
-0.22251429 0.10560001 1.9800001
-0.22251429 0.11691429 1.9800001
-0.22251429 0.12068572 1.9800001
-0.21874286 0.12445715 1.9800001
-0.21497144 0.13954286 1.9800001
-0.21497144 0.14331429 1.9800001
-0.22251429 0.1584 1.9800001
-0.21497144 0.15714286 1.9800001
-0.22377144 0.16342859 1.9800001
-0.21648002 0.16594286 1.9800001
-0.21591429 0.17537144 1.9800001
-0.22440001 0.18385714 1.9800001
-0.21780001 0.18385714 1.9800001
-0.22251429 0.20742857 1.9800001
-0.21874286 0.20742857 1.9800001
-0.22502859 0.21497144 1.9800001
-0.21874286 0.21120001 1.9800001
0.067885719 0.23760001 1.9800001
0.075428575 0.23571429 1.9800001
0.084228575 0.2313143 1.9800001
0.094285719 0.23257144 1.9800001
0.10560001 0.23382857 1.9800001
0.11502858 0.23382857 1.9800001
0.12445715 0.23382857 1.9800001
0.14708573 0.23382857 1.9800001
0.18668573 0.23571429 1.9800001
0.20365715 0.23382857 1.9800001
0.21591429 0.23477145 1.9800001
0.22377144 0.23634286 1.9800001
0.23382859 0.23760001 1.9800001
0.24137144 0.23760001 1.9800001
-0.22251429 0.24137144 1.9800001
-0.011314286 0.2489143 1.9800001
-0.0075428574 0.2489143 1.9800001
0.0018857144 0.2489143 1.9800001
0.015085715 0.24514286 1.9800001
0.026400002 0.24514286 1.9800001
0.041485716 0.24514286 1.9800001
0.054685719 0.24137144 1.9800001
0.064114287 0.24137144 1.9800001
0.2489143 0.24137144 1.9800001
0.25268573 0.24137144 1.9800001
0.26211429 0.24514286 1.9800001
0.2753143 0.24640001 1.9800001
0.28285715 0.24514286 1.9800001
-0.12068572 0.25645715 1.9800001
0.28662857 0.25645715 1.9800001
0.2904 0.25645715 1.9800001
0.28662857 0.26022857 1.9800001
0.2904 0.26022857 1.9800001
-0.22251429 0.27908573 1.9800001
-0.22251429 0.28474286 1.9800001
-0.22251429 0.29228574 1.9800001
-0.0037714287 0.3545143 1.9800001
0.0037714287 0.35640004 1.9800001
0.011314286 0.3545143 1.9800001
-0.0062857145 0.3633143 1.9800001
0.0018857144 0.36205715 1.9800001
0.082971431 0.36582857 1.9800001
-0.011314286 0.37714288 1.9800001
-0.005657143 0.37525716 1.9800001
0.0030171429 0.37488002 1.9800001
0.016028572 0.37431431 1.9800001
0.026400002 0.37714288 1.9800001
0.060342859 0.37714288 1.9800001
0.03394286 0.38468572 1.9800001
0.045257147 0.38468572 1.9800001
0.052800003 0.3809143 1.9800001
-0.0132 0.50725716 1.9800001
-0.0062857145 0.50662857 1.9800001
-0.043371432 0.51668572 1.9800001
-0.03394286 0.51480001 1.9800001
-0.014142858 0.51385713 1.9800001
-0.005657143 0.5129143 1.9800001
0.0018857144 0.5129143 1.9800001
-0.043748569 0.52347434 1.9800001
-0.035828575 0.52422857 1.9800001
0.0075428574 0.52422857 1.9800001
0.015085716 0.52422857 1.9800001
-0.043371432 0.53554285 1.9800001
-0.035828575 0.53554291 1.9800001
0.0075428574 0.53742862 1.9800001
-0.064114287 0.54497147 1.9800001
-0.03017143 0.54308575 1.9800001
-0.022628572 0.54308575 1.9800001
-0.015085715 0.54685718 1.9800001
0.0075428574 0.54308575 1.9800001
0.015085715 0.54685718 1.9800001
0.035200004 0.54434294 1.9800001
-0.071657144 0.55440003 1.9800001
-0.067885719 0.55251431 1.9800001
-0.03394286 0.55817145 1.9800001
-0.015085715 0.5506286 1.9800001
0.018857144 0.5506286 1.9800001
-0.078257143 0.56477147 1.9800001
-0.032865308 0.5657143 1.9800003
-0.022628572 0.56760001 1.9800001
-0.03394286 0.57514286 1.9800001
-0.022628572 0.57514286 1.9800001
-0.025457144 0.58551431 1.9800001
-0.015624491 0.58564901 1.9800003
-0.0062857145 0.58457142 1.9800001
0.0030171429 0.58532578 1.9800001
0.03394286 0.58834291 1.9800001
-0.01697143 0.59494293 1.9800001
-0.004714286 0.59494293 1.9800001
0 0.59211433 1.9800001
0.03394286 0.59211433 1.9800001
-0.36235428 -0.20489144 1.9920001
-0.34528002 -0.17833143 1.9920001
-0.33769143 -0.17074287 1.9920001
-0.33389714 -0.16568381 1.9920001
-0.3316206 -0.15480687 1.9920002
-0.32441145 -0.15366858 1.9920001
-0.3225143 -0.14418286 1.9920001
-0.3225143 -0.13469714 1.9920001
-0.31113145 -0.1328 1.9920001
-0.31492573 -0.12900572 1.9920001
-0.30480763 -0.12521143 1.9920001
-0.30354288 -0.11382857 1.9920001
-0.29595429 -0.073988572 1.9920001
-0.29405713 -0.064502865 1.9920002
-0.28836572 -0.062605716 1.9920001
-0.28457144 -0.055017143 1.9920001
-0.28077716 -0.041737143 1.9920001
-0.27698287 -0.041737143 1.9920001
-0.27318859 -0.032251433 1.9920001
-0.26939431 -0.030354287 1.9920001
-0.27318859 -0.022765715 1.9920001
-0.26939431 -0.024662858 1.9920001
-0.27318859 -0.01897143 1.9920001
-0.26812956 -0.013912383 1.9920001
-0.26749715 -0.0075885719 1.9920001
-0.24662858 0.01897143 1.9920001
-0.24536383 0.035413336 1.9920001
-0.25231999 0.045531433 1.9920002
-0.24473147 0.045531426 1.9920002
-0.25168762 0.054384764 1.9920001
-0.24473144 0.055017143 1.9920001
-0.24662858 0.060708575 1.9920001
-0.23904 0.066400006 1.9920001
-0.2327162 0.073356189 1.9920001
-0.22765715 0.075885721 1.9920001
-0.22006857 0.098651432 1.9920001
-0.22006857 0.10434286 1.9920001
-0.22133334 0.11382857 1.9920001
-0.22006857 0.12141715 1.9920001
-0.21627429 0.1365943 1.9920001
-0.21248001 0.14608 1.9920001
-0.21248001 0.15556572 1.9920001
-0.21248001 0.16505143 1.9920001
-0.22386287 0.17453714 1.9920001
-0.21248001 0.17833143 1.9920001
-0.22386287 0.1897143 1.9920001
-0.21437715 0.18592 1.9920001
-0.22006857 0.19540572 1.9920001
-0.22259812 0.20362668 1.9920001
-0.22386287 0.22196573 1.9920001
0.083474286 0.22765715 1.9920001
0.055017143 0.23904 1.9920001
0.064502865 0.23714286 1.9920001
0.075885713 0.2327162 1.9920001
0.09675429 0.23145144 1.9920001
0.11382858 0.23145144 1.9920001
0.12647618 0.2327162 1.9920001
0.13469714 0.23524572 1.9920001
0.14418286 0.23524572 1.9920001
0.15936001 0.23524572 1.9920001
0.18212572 0.23524572 1.9920001
0.19540572 0.23904 1.9920001
0.20109715 0.23904 1.9920001
0.21437715 0.23145144 1.9920001
0.22765715 0.23524572 1.9920001
0.23524572 0.23524572 1.9920001
0.24662858 0.23904 1.9920001
-0.22386287 0.24662858 1.9920001
-0.011382857 0.24662858 1.9920001
-0.0037942859 0.24662858 1.9920001
0.0037942857 0.24662858 1.9920001
0.011382857 0.24662858 1.9920001
0.024662858 0.24473144 1.9920001
0.034148574 0.24283428 1.9920001
0.045531426 0.24283428 1.9920001
0.060708575 0.2428343 1.9920001
0.25801143 0.2428343 1.9920001
0.26939431 0.24662858 1.9920001
0.27508575 0.24473144 1.9920001
0.28077716 0.2428343 1.9920001
-0.22386287 0.25042287 1.9920001
-0.14165334 0.25674668 1.9920001
-0.12616 0.2561143 1.9920001
-0.11762286 0.25421715 1.9920001
-0.10434286 0.25421715 1.9920001
-0.098651432 0.25421715 1.9920001
-0.015936 0.25269943 1.9920002
-0.0050590481 0.25295237 1.9920001
0.002529524 0.25548193 1.9920001
-0.22765715 0.27508575 1.9920001
-0.22006857 0.28646857 1.9920001
-0.22006857 0.29595426 1.9920001
0.017074287 0.35666287 1.9920001
-0.0037942859 0.36425143 1.9920001
0.0047428575 0.36709714 1.9920001
0.013659428 0.36273372 1.9920002
0.079680003 0.36804572 1.9920001
-0.0056914287 0.37184 1.9920001
0.0037942857 0.37184 1.9920001
0.013280001 0.37184 1.9920001
0.024662858 0.37563431 1.9920001
0.034148574 0.3794286 1.9920001
0.047428571 0.3794286 1.9920001
0.055017143 0.3794286 1.9920001
0.036045715 0.38322288 1.9920001
0.045531433 0.38322291 1.9920001
-0.049325716 0.51981717 1.9920001
-0.026560001 0.51602286 1.9920001
-0.011382857 0.51222861 1.9920001
-0.0037942859 0.51222861 1.9920001
0.001897143 0.51222861 1.9920001
-0.049325716 0.52550858 1.9920001
0.092327617 0.52487618 1.9920001
-0.046163809 0.53625911 1.9920002
-0.03794286 0.5349943 1.9920001
0.01897143 0.53119999 1.9920001
0.024662858 0.5349943 1.9920001
0.031619053 0.53752381 1.9920001
-0.035413336 0.54511243 1.9920001
0.034148574 0.54258287 1.9920001
0.045531433 0.54637718 1.9920001
0.053120002 0.54637718 1.9920001
-0.07209143 0.55396575 1.9920001
-0.068297148 0.55017143 1.9920001
-0.030354287 0.55206859 1.9920001
-0.024662858 0.55396575 1.9920002
-0.017706668 0.55649525 1.9920001
0.0075885719 0.55017143 1.9920001
0.049325716 0.55017143 1.9920001
-0.075885721 0.56155431 1.9920001
-0.03794286 0.57293719 1.9920001
-0.022765715 0.58621716 1.9920001
-0.0037942859 0.58811432 1.9920001
0.001897143 0.58811432 1.9920001
-0.024662856 0.59759998 1.9920001
-0.0037942859 0.59190857 1.9920001
-0.024030477 0.60455626 1.9920001
-0.01897143 0.60708576 1.9920001
-0.022765715 0.61088002 1.9920001
-0.01897143 0.61088002 1.9920001
-0.36244762 -0.20220762 2.003
-0.35481715 -0.20602287 2.003
-0.35863239 -0.19839239 2.003
-0.33637682 -0.17550097 2.003
-0.3344692 -0.16405524 2.003
-0.32683873 -0.16151176 2.003
-0.32048002 -0.14116381 2.003
-0.32048002 -0.13544096 2.003
-0.31539303 -0.13607682 2.003
-0.30140382 -0.11254953 2.003
-0.29758859 -0.10301143 2.003
-0.29758859 -0.091565721 2.003
-0.29663479 -0.08298143 2.003
-0.29377335 -0.074397147 2.003
-0.28995812 -0.074397147 2.003
