# .PCD v0.7 - Point Cloud Data file format
VERSION 0.7
FIELDS x y z
SIZE 4 4 4
TYPE F F F
COUNT 1 1 1
WIDTH 1515
HEIGHT 1
VIEWPOINT 0 0 0 1 0 0 0
POINTS 1515
DATA ascii
0.17610477 0.053365082 1.6810001
0.18571049 0.054432381 1.6810001
0.14568667 0.060836192 1.6810001
0.15529239 0.060836192 1.6810001
0.16009524 0.060836192 1.6810001
0.0064038099 0.24974859 1.6810001
-0.026255619 0.25807351 1.6810001
-0.016009524 0.2585538 1.6810001
-0.0059463955 0.2570672 1.681
0.004802858 0.25615242 1.6809999
0.014408572 0.25935429 1.6810001
-0.062437147 0.26896 1.6810001
-0.053792 0.26767924 1.6810001
-0.044826668 0.26629174 1.6810001
-0.034763537 0.26484326 1.681
-0.02561524 0.2625562 1.6810001
-0.01555211 0.26484326 1.681
-0.0064038103 0.2657581 1.681
0.0046573165 0.26546699 1.6809999
0.015209048 0.26495761 1.6810001
0.025615238 0.26896 1.6810001
-0.083249524 0.27696478 1.6810001
-0.073643811 0.2721619 1.6810001
-0.064038098 0.27344269 1.6810001
-0.05523286 0.27296239 1.6810001
0.004802858 0.27536383 1.6809999
0.016409762 0.27576405 1.681
0.02561524 0.2753638 1.681
0.03362 0.2753638 1.6810001
-0.10406191 0.28817144 1.6810001
-0.095142312 0.28542694 1.681
-0.088372573 0.28432915 1.6810001
0.0088052386 0.28496954 1.6810001
0.016009524 0.28496951 1.681
0.02561524 0.28496957 1.681
0.036821909 0.28817144 1.6810001
-0.1146282 0.29521561 1.6810001
-0.10612028 0.2936604 1.681
-0.099259049 0.29137334 1.6810001
0.0083249528 0.29521564 1.6810001
0.013608095 0.29377478 1.6810001
0.028817143 0.29297429 1.6810001
0.034580573 0.2926541 1.6810001
-0.11566882 0.3045812 1.681
-0.10758401 0.30482131 1.6810001
-0.089653336 0.30738288 1.6810001
-0.070441909 0.30418095 1.6810001
0.0080047622 0.30097905 1.6810001
0.01280762 0.30097905 1.6810001
-0.11313397 0.31165209 1.6810001
-0.10512921 0.31378669 1.6810001
-0.095416769 0.31442708 1.6810001
-0.084316827 0.31218576 1.6810001
-0.074284196 0.31570783 1.6810001
-0.051230479 0.31538764 1.6810001
-0.044026189 0.3129862 1.6810001
-0.036288258 0.31378669 1.6810001
-0.10406191 0.32019049 1.6810001
-0.097886801 0.32522205 1.681
-0.07204286 0.32019049 1.6810001
-0.041624762 0.32019049 1.6810001
-0.03842286 0.32019049 1.6810001
0.18553714 0.029040001 1.694
0.02897143 0.035409525 1.6900001
0.033799998 0.033799998 1.6900001
0.18538983 0.03546286 1.6926666
0.19082287 0.03881143 1.6980001
0.02897143 0.04184762 1.6900001
0.18670475 0.045066666 1.6900002
0.19221145 0.045222856 1.6960001
0.17704763 0.05794286 1.6900001
0.18524253 0.05476445 1.6913334
0.19555716 0.052309524 1.6900001
0.12937143 0.064685717 1.6980001
0.13622782 0.065857522 1.6948
0.14448458 0.065796569 1.6931999
0.1542581 0.065418094 1.6960001
0.16509652 0.063999362 1.6939999
0.17322572 0.062042858 1.692
0.1834857 0.061161906 1.6900001
-0.016171429 0.24904001 1.6980001
-0.0064380956 0.24786668 1.6900001
0.0048400005 0.24683619 1.6940002
0.016133333 0.2468362 1.6940001
0.025856508 0.24722731 1.6966667
0.03396 0.24904001 1.6980001
-0.080857143 0.25874287 1.6980001
-0.071154289 0.25874287 1.6980001
-0.064685717 0.25874287 1.6980001
-0.05498286 0.25874287 1.6980001
-0.044550858 0.25696152 1.6948
-0.035493333 0.25651619 1.6940002
-0.024702227 0.25396889 1.6913334
-0.016095238 0.25390238 1.6900003
-0.0070819049 0.25237337 1.6900002
0.0042920639 0.25108573 1.6900001
0.01609524 0.25430477 1.6900003
0.025811642 0.25483978 1.6935556
0.035577144 0.25550857 1.6980001
0.042045716 0.25550857 1.6980001
-0.1142781 0.26736763 1.6980001
-0.10479085 0.26585826 1.6980002
-0.093694396 0.26493037 1.6962222
-0.083917044 0.264651 1.6944444
-0.074154921 0.26437333 1.6926668
-0.064416498 0.26409906 1.6908891
-0.055222861 0.26321852 1.691143
-0.045710482 0.26203048 1.6900002
-0.035409525 0.26074287 1.6900001
0.017704764 0.26476666 1.6900001
0.025752382 0.26396191 1.6900003
0.035467088 0.26437503 1.6926668
0.042045716 0.26521146 1.6980001
-0.13260572 0.27814859 1.6980001
-0.12567511 0.2758384 1.6980001
-0.11625651 0.27448255 1.6953335
-0.10622858 0.27361906 1.6900003
-0.094961904 0.27361909 1.6900004
-0.084155098 0.27269933 1.6900003
-0.074038096 0.27040002 1.6900001
-0.067600004 0.27040002 1.6900001
0.0064380956 0.27040002 1.6900001
0.015022223 0.27147305 1.6900001
0.025752382 0.27040002 1.6900001
0.035409525 0.27361906 1.6900003
0.044850953 0.27434811 1.697
-0.14461878 0.28507921 1.6980001
-0.13543101 0.28554392 1.6965455
-0.12569396 0.28521842 1.6920003
-0.11588571 0.28488573 1.6900004
-0.10655048 0.28392002 1.6900003
-0.096571423 0.28166667 1.6900002
0.035409525 0.2843492 1.6900003
0.044789661 0.28442779 1.6968572
0.051748574 0.28785145 1.6980001
-0.15201144 0.29270285 1.6980001
-0.14546667 0.29416594 1.6971111
-0.13541843 0.29554158 1.6926668
-0.12554285 0.29615244 1.6900003
-0.11803176 0.29400635 1.6900001
0.018026667 0.2967962 1.6900002
0.024142858 0.29454285 1.6900001
0.045280006 0.29108572 1.6980001
0.051748574 0.29108572 1.6980001
-0.14513858 0.30361861 1.6980001
-0.13541844 0.30521399 1.6926668
-0.12554286 0.30580956 1.6900003
-0.14311714 0.31291717 1.6980001
-0.13584 0.31426474 1.6980001
-0.12584509 0.31460127 1.6939999
-0.11695874 0.3165397 1.6900002
-0.10944762 0.31707621 1.6900001
-0.091206349 0.31761274 1.6900001
-0.083695233 0.31868574 1.6900001
-0.046676196 0.31707621 1.6900001
-0.033799998 0.31707621 1.6900001
-0.13260572 0.3201943 1.6980001
-0.12567511 0.32250449 1.6980001
-0.11576143 0.32549095 1.694
-0.10676245 0.3262634 1.691143
-0.092815876 0.32458732 1.6900002
-0.08369524 0.32351428 1.6900002
-0.077257149 0.32351428 1.6900001
-0.04506667 0.32190478 1.6900001
-0.11455048 0.33234668 1.694
-0.10622858 0.33156192 1.6900001
-0.21022858 0.70507431 1.6980001
-0.20591621 0.70399618 1.6980001
0.19562134 0.037044574 1.7060001
0.19713779 0.044410158 1.706
0.20472001 0.048742861 1.706
0.13323048 0.068240002 1.7060001
0.14947811 0.068240002 1.7060001
0.15760191 0.068240002 1.7060001
0.16572572 0.068240002 1.7060001
0.17612419 0.066940188 1.7060001
0.1835981 0.066615239 1.7060001
0.13810477 0.071489528 1.7060001
0.14460382 0.071489528 1.7060001
0.15516476 0.072301909 1.7060001
0.16572572 0.071489528 1.7060001
0.11698286 0.084487624 1.7060001
0.12185715 0.084487624 1.7060001
-0.0056866668 0.24615143 1.7060001
0.005849143 0.24306437 1.7060001
0.016247621 0.24371429 1.706
0.022746667 0.24371429 1.7060001
0.035744764 0.24696381 1.706
0.042243812 0.24696381 1.7060001
-0.094236195 0.2599619 1.706
-0.08611238 0.2599619 1.7060001
-0.074739046 0.25887874 1.706
-0.064990476 0.25671238 1.706
-0.055241901 0.25671238 1.706
-0.045493335 0.25454605 1.706
-0.03574476 0.25346288 1.706
-0.025996191 0.25129652 1.706
0.038994286 0.25021335 1.7060001
0.045132276 0.25562921 1.7060002
0.051992383 0.2599619 1.7060001
-0.12239874 0.26754415 1.7060002
-0.11454572 0.26402381 1.7060001
-0.10398477 0.26321143 1.7060001
0.047118098 0.26646098 1.7060002
0.051992383 0.26646096 1.706
-0.14622857 0.2778343 1.7060002
-0.13647999 0.27675113 1.7060002
-0.12835619 0.27296001 1.7060001
0.048742861 0.27945906 1.7060001
0.051992383 0.27620953 1.706
-0.15354 0.28677049 1.7060001
-0.14947811 0.28433335 1.7060001
0.047118098 0.28595811 1.7060001
0.051992383 0.28433335 1.7060001
-0.1624762 0.29570669 1.7060001
-0.15690558 0.29617089 1.7060002
-0.15504871 0.30499101 1.7060002
-0.14947811 0.30870476 1.7060001
-0.15272762 0.31195429 1.7060001
-0.14785334 0.31520382 1.7060001
-0.13972953 0.31845334 1.7060001
-0.15272762 0.32170287 1.7060001
-0.14568698 0.3238692 1.7060002
-0.13810477 0.32170287 1.7060001
-0.17547429 0.67915052 1.706
0.19497144 0.69864762 1.7060001
-0.21446858 0.70677143 1.7060001
-0.20255364 0.70622987 1.706
-0.19822095 0.70677143 1.7060001
-0.2060198 0.71359551 1.7060001
0.19600002 0.0294 1.715
0.20253333 0.0294 1.715
0.19600002 0.032666668 1.715
0.20580001 0.035933331 1.715
0.21233334 0.035933334 1.715
0.19926667 0.045733336 1.715
0.20253333 0.042466667 1.715
0.12631112 0.066422224 1.715
0.13066667 0.068599999 1.715
0.13611111 0.075133331 1.715
0.14373334 0.07676667 1.715
0.1529889 0.076222226 1.715
0.16478519 0.075496301 1.715
0.17593335 0.074199997 1.715
0.18293335 0.073500007 1.715
0.1176 0.081666671 1.715
0.12413334 0.082755558 1.715
0.13393334 0.085341662 1.715
0.143325 0.084524997 1.715
0.15484001 0.084280007 1.7149999
0.16006668 0.083300002 1.715
0.1372 0.091466673 1.715
0.14046668 0.091466673 1.715
0.15484002 0.095386669 1.7149999
0.16566667 0.096133344 1.715
0.17422223 0.095822223 1.715
0.15516667 0.10453334 1.715
0.16594668 0.10257334 1.7149999
0.17313334 0.10126667 1.715
0.15462223 0.11324444 1.715
0.16333334 0.14373334 1.715
0.0043555559 0.23846668 1.715
0.013066667 0.23846668 1.715
-0.022866668 0.24826668 1.715
-0.015516668 0.24745001 1.715
-0.0065333336 0.24336667 1.715
0.0032666668 0.24173336 1.715
0.016333334 0.24173336 1.715
0.026786666 0.24304001 1.7149999
0.035933334 0.245 1.715
0.047366671 0.24826668 1.715
0.053900003 0.24826668 1.715
-0.091466673 0.25806668 1.715
-0.084933341 0.25806668 1.715
-0.07676667 0.25806668 1.715
-0.055533335 0.25480002 1.715
-0.049000002 0.25480002 1.715
-0.0294 0.25153333 1.715
0.049000002 0.25316668 1.715
0.053573333 0.25545335 1.7149999
-0.13066667 0.26786667 1.715
-0.12478669 0.26394668 1.7149999
-0.11433333 0.26133335 1.715
-0.10453334 0.26133335 1.715
0.057166666 0.26460001 1.715
0.062066671 0.26460001 1.715
-0.15353334 0.2765778 1.715
-0.14373334 0.2744 1.715
-0.13393334 0.27222222 1.715
0.05716667 0.2744 1.715
0.063373342 0.27505332 1.7149999
-0.16006668 0.28583336 1.715
-0.15598333 0.28338334 1.715
0.056840003 0.28354666 1.7149999
0.064244449 0.28474447 1.715
-0.16398667 0.29334667 1.7149999
0.057166666 0.29236668 1.715
0.063700005 0.29073334 1.715
-0.16387779 0.30380002 1.715
-0.16006668 0.31196666 1.715
-0.15571111 0.31577778 1.715
-0.15462224 0.32285556 1.715
-0.14373334 0.3283 1.715
-0.13556667 0.3283 1.715
-0.18456668 0.67946666 1.715
-0.17966667 0.67946666 1.715
-0.18526669 0.6855334 1.715
-0.17640001 0.68600005 1.715
0.18293335 0.68926668 1.715
0.1970889 0.68817782 1.715
0.20253333 0.68926668 1.715
-0.20253333 0.69416666 1.715
-0.19600001 0.69384003 1.7149999
-0.18620001 0.69416672 1.715
-0.17640001 0.69416672 1.715
0.18620001 0.69580007 1.715
0.19600001 0.69580007 1.715
0.20486668 0.69533342 1.715
0.21396667 0.69253337 1.715
-0.21451111 0.70560002 1.715
-0.20498334 0.70478338 1.715
-0.19600002 0.70614439 1.715
-0.18946667 0.70886672 1.715
-0.18946667 0.71213335 1.715
0.2034781 0.045946669 1.723
0.12690032 0.076577783 1.723
0.13258895 0.076140195 1.7229999
0.17394096 0.07876572 1.723
0.18214571 0.07876572 1.723
0.12799428 0.082047619 1.723
0.1345581 0.082047619 1.723
0.14768572 0.088611431 1.723
0.15260857 0.086150005 1.723
0.16475162 0.084673151 1.7229999
0.17459734 0.084016763 1.7229999
0.18214573 0.083688572 1.723
0.13414785 0.09558548 1.7229998
0.14374743 0.094518863 1.7229999
0.15260857 0.094354771 1.723
0.16190732 0.094081275 1.723
0.1345581 0.10173905 1.723
0.15096763 0.10338001 1.723
0.16737714 0.10830286 1.723
0.17230001 0.10666192 1.723
0.15424953 0.11617943 1.7229999
0.16450548 0.11445644 1.7229998
0.17065905 0.11158477 1.723
0.15589049 0.12635334 1.723
0.16081335 0.12799428 1.723
0.14440382 0.13784 1.723
0.1553435 0.13510509 1.7229999
0.16327477 0.13209666 1.723
0.17065905 0.13127619 1.723
0.14440382 0.14112191 1.723
0.15753144 0.14276287 1.723
0.16081335 0.14276287 1.723
0.16409524 0.17394096 1.723
0.037741907 0.21988763 1.723
0.042664763 0.21988763 1.723
0.037741907 0.22316954 1.723
0.044305716 0.22316954 1.723
-0.0065638092 0.23957904 1.723
0.0041023809 0.23711762 1.723
0.016409524 0.2384851 1.723
0.026255241 0.23957904 1.723
0.034460001 0.23957905 1.723
-0.024614286 0.24778381 1.723
-0.016409524 0.2450489 1.723
-0.009845715 0.24286096 1.723
0.036100954 0.24286096 1.723
0.045946669 0.2445019 1.7229999
0.056612857 0.24696334 1.723
0.064981714 0.24745563 1.7229999
-0.073842861 0.25598857 1.723
-0.065638095 0.25598857 1.723
-0.05579238 0.25270668 1.723
-0.045946669 0.25270668 1.723
-0.036100954 0.25270668 1.723
0.05825381 0.25516811 1.723
0.065227859 0.25639883 1.7229998
0.072201908 0.25927049 1.723
-0.15342906 0.26829571 1.723
-0.1450602 0.26780346 1.7229999
-0.13390172 0.26649067 1.7229999
-0.12799428 0.26255238 1.723
0.067279048 0.2658343 1.7229999
0.072201908 0.2658343 1.723
-0.16190732 0.27786794 1.723
-0.15490592 0.27371088 1.7229999
-0.14440382 0.27239811 1.723
-0.13784 0.27239811 1.723
0.068099529 0.27485955 1.723
0.072201908 0.27732098 1.723
-0.17065905 0.28880763 1.723
-0.16464223 0.28552574 1.7229999
0.059074286 0.28880763 1.723
0.067826033 0.28443176 1.723
0.072201908 0.28552571 1.723
-0.17147954 0.29619193 1.723
-0.16737714 0.29208952 1.723
0.068920001 0.29208952 1.723
0.072201908 0.29208952 1.723
-0.18214571 0.30521715 1.7229999
-0.17394096 0.30521715 1.7229998
-0.16737714 0.30849907 1.723
-0.18247391 0.31506288 1.7229999
-0.17394094 0.31459403 1.7229998
-0.16503294 0.31553173 1.7229998
-0.18378668 0.32490858 1.723
-0.16315755 0.32537743 1.7229998
-0.16327477 0.33229285 1.723
-0.15424953 0.33311331 1.7229999
0.18050477 0.67935431 1.723
-0.21168286 0.68920004 1.723
-0.20511904 0.68920004 1.723
-0.19363238 0.6892001 1.723
0.1829662 0.68755913 1.723
0.19363241 0.68810606 1.723
0.20129018 0.68810606 1.723
-0.22316954 0.69412291 1.723
-0.2133238 0.69707662 1.7229999
-0.20479086 0.69445109 1.7229999
-0.19445288 0.69412285 1.723
-0.18050477 0.69248194 1.723
-0.1755819 0.69248194 1.723
0.17722286 0.69576383 1.723
0.18378668 0.69576383 1.7229999
0.19199145 0.69248194 1.723
0.20676 0.69248194 1.723
0.21332383 0.69576383 1.7229999
-0.2133238 0.70495319 1.7229999
-0.20429857 0.70314813 1.723
-0.19316354 0.70467186 1.7229998
-0.1841969 0.70560956 1.7229998
0.20784001 0.046186667 1.7320001
0.21278858 0.046186667 1.7320001
0.12206477 0.079177149 1.7320001
0.16660191 0.089074291 1.7320001
0.17265017 0.086874925 1.732
0.14735746 0.097871751 1.732
0.16825144 0.092373334 1.7320001
0.17484953 0.092373334 1.732
0.13526095 0.10666921 1.732
0.14433335 0.10392 1.7320001
0.1624781 0.10639429 1.7320001
0.13856001 0.11876572 1.7320001
0.14474572 0.11587904 1.7320002
0.1517562 0.11216763 1.7320001
0.16165334 0.11876572 1.7320001
0.17526191 0.11587904 1.7320002
0.13773525 0.12536381 1.7320001
0.1451581 0.12536381 1.7320002
0.15373562 0.12404419 1.7320001
0.17484953 0.12866285 1.732
0.18309715 0.12866285 1.7320001
0.13856001 0.13196191 1.7320001
0.14515811 0.13361143 1.7320002
0.15285589 0.13416128 1.732
0.17649905 0.13196191 1.7320001
0.18309715 0.13526097 1.7320001
0.15505524 0.14405842 1.732
0.18309715 0.14350858 1.7320001
0.16495238 0.1517562 1.7320001
0.18309715 0.1517562 1.7320001
0.16660191 0.16825144 1.7320001
0.17320001 0.16825144 1.7320001
0.18309715 0.16825144 1.7320001
0.16561219 0.17484953 1.7320001
0.17484954 0.17352991 1.7320001
0.18419683 0.17484953 1.7320002
0.16454001 0.18515906 1.7320002
0.17374985 0.18254732 1.732
0.18427539 0.18380408 1.7320002
0.1929943 0.18804573 1.7320001
0.16330287 0.19134477 1.7320001
0.18474667 0.19134477 1.7320001
0.02969143 0.22598478 1.7320001
0.034969907 0.22565489 1.7320001
0.047011428 0.22680953 1.7320001
-0.0043987301 0.23643176 1.732
0.0049485718 0.23505718 1.7320001
0.018144764 0.23753144 1.7320001
0.027217144 0.23588191 1.7320001
0.033815239 0.23505715 1.7320001
0.046599045 0.23423238 1.7320002
-0.037939049 0.24742858 1.7320001
-0.026392382 0.24742858 1.7320001
-0.016495239 0.24302985 1.732
0.039588574 0.24083048 1.7320001
0.046186667 0.24083048 1.732
0.056083817 0.24280992 1.7320001
0.064331427 0.24412954 1.7320001
0.07422857 0.24742858 1.7320001
-0.075878099 0.25567621 1.7320001
-0.065980949 0.25402668 1.732
-0.056083813 0.25072762 1.732
-0.046186671 0.25072762 1.732
-0.036289524 0.25072762 1.732
-0.02969143 0.25072762 1.7320001
0.069280006 0.25237715 1.7320001
0.074558482 0.25534624 1.7320001
-0.15505524 0.26722288 1.7320001
-0.14185905 0.26557335 1.7320001
-0.13691048 0.26557335 1.7320001
-0.097321913 0.26062477 1.7320001
0.07752762 0.26392382 1.7320002
-0.17155048 0.27712002 1.7320001
-0.16429257 0.27448076 1.7320001
0.074778415 0.27382097 1.732
-0.18144763 0.28536764 1.7320001
-0.17390694 0.28418943 1.7320002
-0.16825144 0.28206858 1.7320001
0.077197716 0.28305832 1.7320001
0.082476191 0.28371811 1.7320001
-0.1929943 0.29691431 1.7320001
-0.18433429 0.2940276 1.7320002
-0.17649905 0.29361525 1.7320002
0.075878099 0.29031619 1.7320001
-0.20124191 0.30516192 1.7320001
-0.1946438 0.30351239 1.7320002
-0.1860663 0.30219278 1.7320001
-0.17814858 0.30021334 1.7320001
-0.19464381 0.31340957 1.7320002
-0.18639621 0.31423429 1.7320001
-0.17484953 0.31670859 1.7320001
-0.19464381 0.32330668 1.7320002
-0.18521798 0.32566315 1.7320002
-0.17484954 0.32594591 1.7320001
-0.16825144 0.32495621 1.7320001
-0.17155048 0.33320382 1.7320001
0.17814858 0.66640764 1.7320001
0.18144763 0.66640764 1.7320001
0.18144763 0.67960382 1.7320001
0.19794287 0.67960382 1.7320001
0.20289144 0.67960382 1.7320001
0.21773715 0.67960382 1.7320001
0.2210362 0.67960382 1.7320001
0.17814858 0.68455243 1.7320001
0.18568926 0.68667322 1.7320002
0.19423144 0.68578959 1.7320002
0.20399112 0.68620187 1.7320002
0.21553779 0.68620199 1.732
-0.2210362 0.6960991 1.7320001
-0.21575773 0.69609904 1.7320001
0.17814858 0.69280005 1.7320001
0.20784001 0.69280005 1.7320001
0.2144381 0.69280005 1.732
-0.23093334 0.70269716 1.7320001
-0.22339268 0.70552492 1.7320002
-0.21773715 0.70434666 1.7320001
-0.18144763 0.70929527 1.7320001
-0.17567429 0.70682102 1.7320001
0.20892 0.043110479 1.7410001
0.21389429 0.043110479 1.7410001
0.12767334 0.076272383 1.7410001
0.17907429 0.089537144 1.7410001
0.18239048 0.089537144 1.7410001
0.13928001 0.1061181 1.7410001
0.14657561 0.10744457 1.7409999
0.15254477 0.10943429 1.7410001
0.13679285 0.11689572 1.7410001
0.14922857 0.11275048 1.7410001
0.16622405 0.12560073 1.7410001
0.17509487 0.12468877 1.7409999
0.18239048 0.12601525 1.7410001
0.16647276 0.13795353 1.7409999
0.17575811 0.13762191 1.7410001
0.18404858 0.13596381 1.7410001
0.14591239 0.14591238 1.7410001
0.15254477 0.14757048 1.7410001
0.16691492 0.14646508 1.7410001
0.17575811 0.14591238 1.7410001
0.18404858 0.14922857 1.7410001
0.15917715 0.15586096 1.7410001
0.16580953 0.15627548 1.7410001
0.17534359 0.15544643 1.7410001
0.18404858 0.15751906 1.7410001
0.15917715 0.16580953 1.7410001
0.16533579 0.16486204 1.7410001
0.17623185 0.16486205 1.7410001
0.18404856 0.16415143 1.7410001
0.15917715 0.17575811 1.7410001
0.16470413 0.17575811 1.7410001
0.17575811 0.17741621 1.7410001
0.18239048 0.17907429 1.7410001
0.15917715 0.18570668 1.7410001
0.16912572 0.18239048 1.7410001
0.17410001 0.18570668 1.7410001
0.18736477 0.18902287 1.7410001
0.15917715 0.19233905 1.7410001
0.16514629 0.19631848 1.7409999
0.17575809 0.19233905 1.7410001
0.18570668 0.19344445 1.7410001
0.19499201 0.19432877 1.7409999
0.14757048 0.20892 1.7410001
0.15669 0.20809096 1.7410001
0.16580951 0.20601836 1.7410001
0.17244191 0.20560382 1.7410001
0.14591239 0.21223621 1.7410001
0.15834811 0.21472335 1.7410001
0.16580953 0.21555239 1.7410001
0.057480633 0.22771175 1.7410001
0.15917715 0.22218478 1.7410001
0.16580953 0.22301382 1.7410001
0.029845715 0.23544954 1.7410001
0.038467813 0.2347863 1.7409999
0.043110479 0.23544954 1.7410001
0.056789763 0.23544954 1.7410001
0.066323809 0.23876572 1.7410001
-0.054717146 0.2470562 1.7410001
-0.046426669 0.2470562 1.7410001
-0.036478095 0.24650352 1.7410001
-0.026529526 0.24650352 1.7410001
-0.016580952 0.24208191 1.7410001
0.056375239 0.24208191 1.7410001
0.066323817 0.24318731 1.7410001
0.077101432 0.24622716 1.7410001
0.08456286 0.2487143 1.7410001
-0.092853338 0.25866288 1.7410001
-0.086220957 0.25866288 1.7410001
-0.07793048 0.25534669 1.7410001
-0.06466572 0.25203049 1.7410001
0.07793048 0.25368857 1.7410001
0.083733812 0.25617573 1.7410001
-0.15586096 0.26640064 1.7410001
-0.14757048 0.26529524 1.7410001
-0.13928001 0.26529524 1.7410001
-0.12435715 0.26197904 1.7410001
-0.11440857 0.26197904 1.7410001
-0.10611811 0.26197904 1.7410001
0.08456286 0.26529524 1.7410001
-0.18239048 0.27856001 1.7410001
-0.17741621 0.27856001 1.7410001
-0.16802032 0.27303302 1.7410001
0.078759529 0.27524382 1.7410001
0.083733812 0.27441478 1.7410001
-0.1948262 0.28767955 1.7410001
-0.18665417 0.28471866 1.7410001
-0.17907429 0.28353429 1.7410001
0.079588577 0.28850859 1.7410001
0.084010161 0.2851924 1.7410001
-0.20228763 0.29845715 1.7410001
-0.19612898 0.29419348 1.7410001
-0.18902287 0.29182476 1.7410001
0.079588577 0.29182476 1.7410001
0.082904764 0.29182476 1.7410001
-0.20449843 0.30508956 1.7410001
-0.20228763 0.31503811 1.7410001
-0.20228763 0.32332858 1.7410001
0.18570668 0.6698705 1.7410001
0.17907429 0.67318672 1.7410001
0.18523292 0.67697662 1.7410001
0.1948262 0.67816097 1.7410001
0.20560381 0.67849261 1.7409999
0.21555239 0.67981905 1.7410001
0.22218478 0.67981905 1.7410001
0.17907429 0.68313527 1.7410001
0.18736477 0.68313527 1.7410001
0.19399714 0.68313527 1.7410001
0.20892 0.68645144 1.7410001
0.21389429 0.68645144 1.7410001
0.22384286 0.68810952 1.7410001
0.21721049 0.69308382 1.7410001
0.22351125 0.69573677 1.7409999
-0.23213334 0.70966476 1.7410001
-0.22881715 0.70966476 1.7410001
0.12333333 0.076666668 1.7500001
0.13066858 0.10721524 1.7590001
0.1273181 0.11726667 1.7590001
0.13350262 0.1143081 1.7522501
0.18166667 0.12333333 1.7500001
0.15666667 0.14666668 1.7500001
0.14666668 0.15333334 1.7500001
0.15333332 0.15374999 1.7500001
0.14502776 0.16417335 1.7589999
0.15376571 0.16380192 1.755
0.18000001 0.16000001 1.7500001
0.1356943 0.17757525 1.7590001
0.14448929 0.17422476 1.7589999
0.15368 0.17372951 1.7540001
0.13458204 0.18421361 1.7538573
0.14398667 0.18416955 1.7579999
0.15333332 0.18333334 1.7500001
0.17666668 0.18666667 1.7500001
0.18000001 0.18666667 1.7500001
0.1338819 0.19279201 1.7572
0.14481016 0.19271366 1.7545
0.15333332 0.19333336 1.7500001
0.16000001 0.19666667 1.7500001
0.17466667 0.19466667 1.7500002
0.18111111 0.19444446 1.7500001
0.19000001 0.19666667 1.7500001
0.1356943 0.20102859 1.7590001
0.14430073 0.20370097 1.75675
0.15333332 0.20333336 1.7500001
0.16222222 0.20222223 1.7500001
0.17444445 0.20222223 1.7500001
0.18333334 0.20333336 1.7500001
0.19333336 0.20333336 1.7500001
0.20133336 0.20400003 1.7500002
0.14333335 0.21222222 1.7500001
0.15333334 0.21583334 1.7500001
0.17500001 0.21333335 1.7500001
0.18333334 0.21333335 1.7500001
0.19274428 0.21110764 1.7522501
0.02680381 0.22783239 1.7590001
0.055 0.22666667 1.7500001
0.064999998 0.22500001 1.7500001
0.073008806 0.22403288 1.7522501
0.083240241 0.22461145 1.75675
0.091579683 0.22559874 1.7590002
0.14666668 0.22000001 1.7500001
0.15372761 0.22224097 1.7545
0.16166668 0.22666667 1.7500001
0.17428572 0.22380953 1.7500001
0.18315454 0.22361834 1.7522501
-0.012267936 0.23468889 1.756
-0.0053436188 0.23313983 1.7536001
0.013820713 0.23495214 1.7589999
0.023398098 0.23399428 1.755
0.055 0.23333335 1.7500001
0.064999998 0.23333335 1.7500001
0.07333333 0.23333335 1.7500001
0.083624758 0.23413335 1.756
0.090462863 0.23453335 1.7590002
0.16342476 0.23346859 1.751
0.17358737 0.23381667 1.75675
0.18494628 0.23252305 1.7590001
0.19265237 0.23285809 1.7590001
-0.060308572 0.24793525 1.7590001
-0.050257146 0.24458477 1.7590001
-0.043556195 0.24458475 1.7590002
-0.032330796 0.24639557 1.756
-0.022525715 0.24280858 1.7522501
-0.013333333 0.24000001 1.7500001
0.063333333 0.24000001 1.7500001
0.07333333 0.24166667 1.7500001
0.08380571 0.24307096 1.7511251
0.093268581 0.24536082 1.7577143
0.16351619 0.24360953 1.7520001
0.17362122 0.24536084 1.7577143
-0.1139162 0.25798666 1.7590002
-0.10386477 0.25798666 1.7590002
-0.092954665 0.25611848 1.7554001
-0.083547622 0.25453746 1.7545
-0.073581904 0.25252667 1.756
-0.063333333 0.25 1.7500001
0.086666673 0.255 1.7500001
0.093333334 0.25333336 1.7500001
0.10344596 0.25505501 1.7589999
0.15747239 0.25128573 1.7590001
0.16370857 0.25391808 1.7540001
0.1740499 0.25236878 1.7572
0.18092573 0.25128573 1.7590001
-0.16082287 0.26803809 1.7590001
-0.14135112 0.26266792 1.7530001
-0.1336762 0.26233527 1.7545
-0.125 0.26000002 1.7500001
-0.116 0.26066667 1.7500002
-0.10333333 0.26000002 1.7500001
-0.096666671 0.26000002 1.7500001
0.093333334 0.26333335 1.7500001
0.10386476 0.26468763 1.7589999
0.16417333 0.26468763 1.7590002
0.1708743 0.26133716 1.7590001
-0.20437907 0.27808952 1.7590002
-0.19349 0.2772519 1.7590001
-0.18412192 0.27617714 1.7575001
-0.17454286 0.27325389 1.7525715
-0.16500001 0.27000001 1.7500001
0.086666673 0.27666667 1.7500001
0.093333334 0.27333334 1.7500001
0.10386477 0.27473906 1.7589999
0.16166668 0.27166668 1.7500001
0.17254953 0.27138859 1.7590001
-0.21191762 0.28562808 1.7590001
-0.2040343 0.28430095 1.756
-0.19461302 0.28246221 1.7515001
-0.18666667 0.28 1.7500001
0.086666673 0.28166667 1.7500001
0.093443818 0.28365526 1.7520001
0.10274795 0.28534889 1.7589999
0.16752382 0.28479049 1.7590001
0.17666668 0.28166667 1.7500001
0.18166667 0.28333333 1.7500001
-0.21387668 0.29423666 1.757875
-0.20500003 0.29333332 1.7500001
0.086666673 0.29166669 1.7500001
0.093333334 0.29166666 1.7500001
0.10218953 0.29149145 1.7590001
0.1139162 0.2931667 1.7590001
0.12061714 0.2931667 1.7590001
0.18333334 0.29333335 1.7500001
-0.21401167 0.30531216 1.7589999
-0.20666668 0.30166668 1.7500001
-0.21275525 0.31494477 1.7589999
-0.20666668 0.315 1.7500001
-0.21275525 0.32164574 1.7590001
-0.20666666 0.32333335 1.7500001
0.16752382 0.59303433 1.7590001
0.17254953 0.59303433 1.7590001
0.20605431 0.63659048 1.7589999
0.21376038 0.63525027 1.7590001
0.19656128 0.64887553 1.7590002
0.20437905 0.64664197 1.7589999
0.21387208 0.64664191 1.7589999
0.19533333 0.65266669 1.7500002
0.20331022 0.6538161 1.7538573
0.21443048 0.65585572 1.7590001
0.19375002 0.66374999 1.7500001
0.2046693 0.66338879 1.757875
0.21252437 0.66288954 1.7551429
0.18666667 0.67000002 1.7500001
0.19333336 0.67291671 1.7500001
0.2037705 0.67309809 1.7537502
0.21310802 0.67300951 1.7509
0.22000001 0.67666668 1.7500001
0.18666667 0.68000001 1.7500001
0.19500001 0.68000001 1.7500001
0.20333335 0.68000001 1.7500001
0.21555555 0.6811111 1.7500001
0.22000001 0.68000001 1.7500001
0.17666668 0.69666672 1.7500001
0.18000001 0.69666672 1.7500001
0.12628572 0.072403811 1.7680001
0.13302097 0.11449905 1.7680001
0.13807239 0.16669714 1.7680001
0.14144 0.16838096 1.7680001
0.13807239 0.17343238 1.7680001
0.14144 0.1751162 1.7680001
0.13807239 0.19700572 1.7680001
0.14256255 0.19756699 1.7680001
0.14144 0.20879239 1.7680001
0.094293334 0.22899811 1.7680001
0.15659429 0.22899811 1.7680001
-0.023573333 0.23910096 1.7680001
-0.013470476 0.23573335 1.7680001
0.095415868 0.23685588 1.7680001
0.15693106 0.23505983 1.768
0.17848381 0.23910096 1.7680001
0.18437715 0.23825905 1.7680001
0.19363812 0.23910096 1.7680001
-0.082506672 0.24920382 1.7680001
-0.07408762 0.24920382 1.7680001
-0.063984767 0.24808128 1.7680001
-0.05388191 0.24471366 1.7680001
-0.043779049 0.24246858 1.7680001
-0.033676192 0.2458362 1.7680001
-0.025257144 0.24246858 1.7680001
0.095977142 0.24246858 1.7680001
0.10355428 0.24836192 1.7680001
0.15827811 0.24920382 1.7680001
0.17680001 0.24246858 1.7680001
0.18479811 0.24541527 1.7679999
0.19363812 0.2441524 1.7680001
-0.12460191 0.25930667 1.7680001
-0.10271238 0.25593907 1.7680001
-0.094293341 0.25425524 1.7680001
-0.085874289 0.25257143 1.7680001
0.10776381 0.25257143 1.7680001
0.11113143 0.25930667 1.7680001
0.15827811 0.25593907 1.7680001
0.17511618 0.25846475 1.7680001
0.18564001 0.25635999 1.7679999
-0.17174858 0.26940954 1.7680001
-0.16669714 0.26940954 1.7680001
-0.15154286 0.2660419 1.7680001
-0.14649144 0.2643581 1.7680001
0.11197333 0.2660419 1.7680001
0.16501334 0.2660419 1.768
0.17553714 0.26646286 1.7679999
0.18319848 0.2653684 1.768
-0.21216001 0.27951241 1.7680001
-0.20374095 0.27614477 1.7680001
-0.19700572 0.27614477 1.7680001
-0.18521905 0.27277714 1.7680001
0.11247847 0.27681828 1.768
0.16838096 0.27446097 1.7680001
0.1755973 0.27710694 1.7679999
0.18353526 0.27614477 1.768
-0.21754818 0.28557411 1.768
0.10664127 0.28512511 1.7680001
0.11449905 0.28624764 1.7679999
0.12123429 0.28793144 1.7680001
0.17511618 0.28540573 1.7680001
-0.21889524 0.29971811 1.7680001
0.10776381 0.29466668 1.7680001
0.11786667 0.29466668 1.7680001
0.12628572 0.29466668 1.7680001
0.18606095 0.29635048 1.7680001
-0.21889524 0.30308571 1.7680001
-0.21889524 0.31655622 1.7680001
-0.21636954 0.32581717 1.7680001
-0.21552761 0.33002669 1.7680001
0.16613588 0.59382349 1.7680001
0.20542479 0.62974477 1.7680001
0.19644445 0.6387251 1.7680001
0.20407772 0.63513303 1.768
0.19700572 0.64489907 1.7680001
0.20205715 0.64321524 1.7680001
0.21552761 0.64321524 1.7680001
0.21216001 0.65500188 1.7680001
0.19800858 0.21662477 1.7770001
0.10154286 0.22677906 1.7770001
0.18954667 0.22677906 1.7770001
0.19534911 0.22291076 1.7770002
-0.025385715 0.23693334 1.7770001
-0.016923809 0.23693334 1.7770001
0.097311914 0.23439477 1.7770001
0.10154286 0.23524097 1.7770001
0.19462381 0.23016381 1.7770001
-0.081234291 0.24708763 1.7770001
-0.072772384 0.24708763 1.7770001
-0.066002861 0.24708763 1.7770001
-0.054156192 0.24370286 1.7770001
-0.044001907 0.2403181 1.7770001
-0.033847619 0.24370284 1.7770001
-0.023693334 0.2403181 1.7770001
0.10408143 0.24454907 1.7770001
0.15795556 0.24370284 1.7770001
-0.12185143 0.2572419 1.7770001
-0.11508191 0.2572419 1.7770001
-0.10408144 0.25385714 1.7770001
-0.096465722 0.25385717 1.7770001
-0.088003814 0.2504724 1.7770001
0.11338952 0.25385717 1.7770001
0.18954667 0.2504724 1.7770001
0.19293143 0.25216478 1.7770001
-0.17262286 0.26739621 1.7770001
-0.16754572 0.26739621 1.7770001
-0.15569906 0.26739621 1.7770001
-0.14892954 0.26401144 1.7770001
-0.13369811 0.26062667 1.7770001
0.11677429 0.26401144 1.7770001
-0.21324001 0.27755049 1.7770001
-0.20647049 0.27529398 1.7770001
-0.1963162 0.27416572 1.7770001
-0.18446952 0.27078095 1.7770001
-0.17770001 0.27078095 1.7770001
0.11711277 0.27348876 1.7770001
-0.22339429 0.28544825 1.7770001
-0.21662477 0.28093526 1.7770001
0.11846667 0.28093526 1.7770001
0.12354381 0.28601238 1.7770001
0.15908381 0.28601238 1.7770001
0.16536979 0.28335294 1.7770002
0.17262286 0.28770477 1.7770001
-0.22508669 0.29447433 1.7770001
0.11169714 0.29616669 1.7770001
0.12692857 0.29108953 1.7770001
0.17558452 0.29489744 1.7770002
0.18277715 0.29785907 1.7770001
-0.22339429 0.30462858 1.7770001
0.17375112 0.30237207 1.7770001
0.18700811 0.30547476 1.7770001
-0.23524097 0.31647524 1.7770001
-0.22508669 0.31478289 1.7770001
0.17431524 0.3130905 1.7770001
-0.2403181 0.32324478 1.7770001
-0.23354858 0.32324478 1.7770001
-0.22508667 0.32493713 1.7770001
0.16810985 0.60361582 1.7770001
0.17600763 0.60530823 1.7770001
0.18277715 0.60756481 1.7770001
0.17939238 0.61264193 1.7770001
0.18446954 0.61433434 1.7770001
0.19699314 0.6282118 1.7770001
0.20308572 0.62956572 1.7770001
0.17431524 0.63295048 1.7770001
0.18954667 0.63633525 1.7770001
0.1963162 0.63591218 1.7770002
0.18785429 0.64310479 1.7770001
0.19293143 0.64479721 1.7770001
-0.013607619 0.22792763 1.7860001
-0.021772191 0.23405106 1.786
-0.015875556 0.23246349 1.7860001
0.10460857 0.23388097 1.7860001
0.15308572 0.23132953 1.7860001
-0.085047625 0.24833906 1.7860001
-0.078243814 0.24833906 1.7860001
-0.064636193 0.24493714 1.7860001
-0.054430477 0.2432362 1.7860001
-0.032318097 0.24153525 1.7860001
0.10716 0.2432362 1.7860001
0.11481428 0.24748859 1.7860001
0.12246858 0.24833906 1.7860001
-0.13267429 0.25854477 1.7860001
-0.12757143 0.25854477 1.7860001
-0.11566477 0.25514287 1.7860001
-0.093552381 0.25174096 1.7860001
0.11906668 0.25514284 1.7860001
0.12473652 0.25400889 1.7860001
-0.17689906 0.26875049 1.7860001
-0.16329144 0.26875049 1.7860001
-0.15648763 0.26704955 1.7860001
-0.1394781 0.26194668 1.7860001
0.11906667 0.26194668 1.7860001
0.12382934 0.26602894 1.786
0.15988953 0.26364762 1.7860001
-0.22112381 0.2789562 1.7860001
-0.21432 0.27668825 1.7860001
-0.20581524 0.27215239 1.7860001
-0.19390857 0.27215239 1.7860001
0.12331906 0.27470383 1.7860001
0.15903905 0.27640477 1.7860001
-0.23132953 0.28916192 1.7860001
-0.22622667 0.28405905 1.7860001
0.12587048 0.28576002 1.7860001
0.13267429 0.28916192 1.7860001
0.16669334 0.28916192 1.7860001
-0.23132952 0.29596576 1.7860001
0.13267429 0.29256383 1.7860001
0.16533259 0.29664609 1.786
0.17009525 0.2959657 1.7860001
-0.22792763 0.30617145 1.7860001
0.16669334 0.30617145 1.7860001
0.17293018 0.30730543 1.7860001
0.1823421 0.30753222 1.786
-0.2432362 0.31977907 1.7860001
-0.23132953 0.3180781 1.7860001
0.17009525 0.31297526 1.7860001
0.18370287 0.31297526 1.7860001
-0.24493715 0.32488191 1.7860001
0.16499239 0.59533334 1.7860001
0.16669334 0.60894096 1.7860001
0.17485793 0.614384 1.786
0.18030097 0.6191467 1.7860001
0.19220762 0.6191467 1.7860001
0.1755383 0.6266309 1.786
0.18370286 0.62595057 1.7860001
0.19293661 0.62595046 1.7860001
0.16669334 0.63275433 1.7860001
0.17349716 0.63275433 1.7860001
0.18370287 0.63615626 1.7860001
0.19050667 0.6361562 1.7860001
0.18540382 0.64296001 1.7860001
-0.017095238 0.22907619 1.7950001
0.10770001 0.22907619 1.7950001
-0.046157144 0.23933335 1.7950001
-0.032480955 0.23933335 1.7950001
0.10940953 0.23591429 1.7950001
0.11396826 0.23819368 1.7950001
0.15385714 0.23933335 1.7950001
-0.082057148 0.24617144 1.7950001
-0.07436429 0.24531668 1.7950001
-0.06496191 0.24275239 1.7950001
-0.056414288 0.24275239 1.7950001
-0.037609525 0.24275239 1.7950001
0.11693144 0.24412 1.7950001
0.12650478 0.24788097 1.7950001
0.1572762 0.24788097 1.7950001
-0.14018096 0.25984764 1.7950001
-0.1367619 0.25984764 1.7950001
-0.12650476 0.25642857 1.7950001
-0.11624762 0.25642857 1.7950001
-0.10770001 0.25471905 1.7950001
-0.099152386 0.25300953 1.7950001
0.12878413 0.25870797 1.7950001
0.13334286 0.25642857 1.7950001
-0.17437144 0.26668572 1.7950001
-0.1641143 0.26668572 1.7950001
-0.15385714 0.2649762 1.7950001
-0.14530954 0.26326668 1.7950001
0.12878413 0.26440635 1.7950001
0.13505238 0.2649762 1.7950001
-0.22223811 0.27694288 1.7950001
-0.2154 0.27295396 1.7950001
-0.20514286 0.27124444 1.7950001
-0.19488573 0.27010477 1.7950001
-0.18462859 0.27010477 1.7950001
0.12906906 0.27437857 1.7950001
0.13471048 0.27283999 1.7950001
0.16069524 0.27010477 1.7950001
-0.23363493 0.28606033 1.7950001
-0.22565715 0.28036192 1.7950001
0.12855621 0.28309715 1.7950001
0.13334286 0.28378096 1.7950001
0.1572762 0.28378096 1.7950001
0.16069524 0.28378096 1.7950001
-0.24275239 0.29403812 1.7950001
-0.23762381 0.29403812 1.7950001
-0.24360715 0.30515 1.7950001
-0.23634169 0.30472261 1.7950001
0.16753334 0.30429524 1.7950001
-0.25300953 0.31797144 1.7950001
-0.24446194 0.3145524 1.7950001
-0.23591428 0.31284288 1.7950001
0.16753334 0.31284288 1.7950001
-0.2541492 0.32253015 1.7950001
-0.24959049 0.32139048 1.7950001
0.1572762 0.59662384 1.7950001
0.16069524 0.59662384 1.7950001
0.1572762 0.6017524 1.7950001
0.16325954 0.60431671 1.7950001
0.16753334 0.61713815 1.7950001
0.17266192 0.61884767 1.7950001
0.16667858 0.62654054 1.7950001
0.17232001 0.62500197 1.7950001
0.16582382 0.63252383 1.7950001
0.17095239 0.63252383 1.7950001
-0.030925715 0.23709716 1.8040001
-0.027489524 0.23709716 1.8040001
0.11453968 0.23366098 1.8040003
0.12026667 0.23537907 1.8040001
-0.084186673 0.24568763 1.8040001
-0.077314287 0.24396953 1.8040001
-0.05154286 0.24053334 1.8040001
-0.037798095 0.24053334 1.8040001
0.1243901 0.24190781 1.8040001
0.13057524 0.24568763 1.8040001
0.15462857 0.24396953 1.8040001
-0.13401143 0.25656891 1.8040003
-0.12713905 0.25427809 1.8040001
-0.11683048 0.25427809 1.8040001
-0.1099581 0.25427809 1.8040001
-0.094495237 0.25084192 1.8040001
-0.089340955 0.25084192 1.8040001
0.13630222 0.25427809 1.8040003
0.14088382 0.2577143 1.8040001
-0.21648002 0.26802287 1.8040003
-0.20788953 0.26802287 1.8040001
-0.19586287 0.26802287 1.8040003
-0.18555428 0.26802287 1.8040003
-0.17524572 0.26458669 1.8040003
-0.16493715 0.26458669 1.8040003
-0.15462857 0.26344129 1.8040003
-0.1460381 0.26115048 1.8040001
0.13744763 0.26115048 1.8040001
0.14088382 0.26458669 1.8040003
-0.22449778 0.27489525 1.8040003
-0.21991619 0.27145904 1.8040001
-0.20273525 0.27145904 1.8040001
0.13744763 0.27833143 1.8040001
0.14225829 0.27420801 1.8040001
-0.25256002 0.28692192 1.8040001
-0.24354002 0.28563333 1.804
-0.23452 0.28262669 1.8040001
0.13744763 0.28520381 1.8040003
0.14088382 0.28176764 1.8040001
-0.25384858 0.29594192 1.804
-0.24654667 0.29551238 1.8040001
-0.26115048 0.30753905 1.8040001
-0.25427809 0.30582094 1.804
-0.24740572 0.30410287 1.8040001
-0.26115048 0.31612954 1.8040003
-0.25427809 0.31570002 1.804
-0.26115048 0.32300192 1.8040001
-0.25084192 0.3281562 1.8040001
0.15462857 0.59789717 1.8040001
0.15462857 0.60545677 1.8040001
0.16150096 0.60820574 1.8040001
0.15634668 0.61507803 1.804
0.16321906 0.61507809 1.8040001
0.1174781 0.23322859 1.8140001
0.12438858 0.23582001 1.8140001
-0.055283811 0.24186668 1.8140001
0.13533016 0.24532191 1.8140001
0.15548572 0.24877715 1.8140001
-0.14339238 0.25914288 1.8140001
-0.13475429 0.25568762 1.8140001
-0.12266096 0.25568762 1.8140001
-0.11402286 0.25568762 1.8140001
-0.1002019 0.2522324 1.8140001
0.13820952 0.2522324 1.8140001
0.14339238 0.25568762 1.8140001
0.15548572 0.2522324 1.8140001
-0.22286287 0.26778096 1.8140001
-0.21422477 0.26605335 1.8140001
-0.20385906 0.26691714 1.8140001
-0.19349332 0.26605335 1.8140001
-0.18485525 0.26605335 1.8140001
-0.17621715 0.2625981 1.8140001
-0.16585143 0.2625981 1.8140001
-0.15721333 0.2625981 1.8140001
0.14512001 0.26605335 1.8140001
0.15894096 0.26605335 1.8140001
-0.26374987 0.27872255 1.8140001
-0.25525573 0.27685097 1.8140001
-0.24532191 0.27814668 1.8140001
-0.2349562 0.27814665 1.8140001
-0.22804572 0.27469143 1.8140001
0.14742351 0.27641904 1.8140001
0.15894096 0.27641904 1.8140001
-0.27296382 0.28678477 1.8140001
-0.26605335 0.28505716 1.8140001
-0.25655144 0.28419334 1.8140001
-0.24877715 0.28332955 1.8140001
0.14339238 0.28505716 1.8140001
-0.27469143 0.29369524 1.8140001
-0.26605332 0.29369527 1.814
-0.25914288 0.29196763 1.8140001
0.13820952 0.29542285 1.8140001
0.14304686 0.2943863 1.8140001
-0.27641904 0.30406097 1.814
-0.26648524 0.30362907 1.8140001
-0.27641904 0.31442666 1.814
-0.26778096 0.31442669 1.8140001
-0.27434593 0.32410136 1.8140001
-0.26662922 0.32479241 1.8140001
-0.25914288 0.32824764 1.8140001
-0.26432574 0.33170286 1.8140001
-0.25914288 0.33170286 1.8140001
0.1554857 0.59775621 1.8140001
0.14771144 0.6055305 1.8140001
0.15203048 0.60293907 1.8140001
0.13705778 0.61618418 1.8140001
0.14512001 0.61503243 1.814
0.15203048 0.61503237 1.8140001
0.14857525 0.62194288 1.8140001
0.15499212 0.62638533 1.8140001
0.16377828 0.62608916 1.8140001
0.15721333 0.6323086 1.8140001
0.1641238 0.6323086 1.8140001
0.14383543 0.22513373 1.8240001
0.12739049 0.23393524 1.824
0.13593143 0.23668572 1.8240002
0.14244571 0.23625143 1.824
-0.085120007 0.24493715 1.8240001
-0.079908572 0.2432 1.8240001
0.13897143 0.2432 1.8240001
0.14505143 0.24580573 1.8240001
0.15286858 0.2466743 1.8240001
-0.14418286 0.25709715 1.8240001
-0.13549715 0.25478098 1.824
-0.12854858 0.25362286 1.8240001
-0.10596572 0.25362286 1.8240001
-0.090331435 0.25014859 1.8240001
0.14641634 0.25263023 1.8240002
0.15495315 0.25501257 1.8240001
-0.22467048 0.2652038 1.824
-0.21540573 0.26404572 1.8240001
-0.19456001 0.26404572 1.824
-0.18587428 0.26404572 1.8240001
-0.16329144 0.26057145 1.8240001
-0.15634286 0.26057145 1.824
-0.14939429 0.26057145 1.8240001
0.14852571 0.26317716 1.8240001
0.15634286 0.26317716 1.8240001
-0.27099431 0.27794287 1.8240001
-0.2649143 0.27533713 1.8240001
-0.25362289 0.27215239 1.824
-0.24493715 0.27446857 1.8240001
-0.23555657 0.27307886 1.8240001
-0.22930287 0.27099431 1.8240001
0.14939429 0.27099431 1.8240001
0.15564802 0.27377373 1.8240001
-0.27516344 0.28419656 1.8240001
0.14852571 0.28576002 1.8240001
0.15495315 0.28489143 1.8240001
-0.28141716 0.29531428 1.824
0.14852571 0.29444572 1.8240001
0.15286858 0.29531431 1.824
-0.28489143 0.30573714 1.8240001
-0.28489143 0.31268573 1.8240001
-0.28141716 0.32484573 1.8240001
-0.27099431 0.33179429 1.8240001
0.1482362 0.59641904 1.824
0.15286858 0.59583998 1.8240001
0.12854858 0.60800004 1.8240001
0.13897143 0.60452574 1.8240001
0.14592001 0.60452574 1.8240001
0.12576917 0.61286402 1.8240001
0.13549715 0.61355889 1.8240001
0.14244571 0.61147434 1.8240001
0.11870857 0.22694287 1.8330001
0.12569143 0.22519715 1.8330001
0.13616572 0.22519715 1.8330001
0.15013143 0.22694287 1.8330001
0.11870857 0.2304343 1.8330001
0.12569143 0.2304343 1.8330001
0.13529286 0.23130715 1.8330001
0.14664 0.23392574 1.8330001
0.15187715 0.23479858 1.8330001
-0.090777144 0.24789144 1.8330001
0.14664 0.24265429 1.8330001
0.15362287 0.24265429 1.8330001
-0.19202858 0.25836572 1.8330001
-0.1833 0.25836572 1.8330001
-0.17457144 0.25836572 1.8330001
-0.16409715 0.25836572 1.8330001
-0.15362287 0.25836572 1.8330001
-0.14489429 0.25487429 1.8330001
-0.13616572 0.25254667 1.8330001
-0.12569143 0.25312859 1.8330001
-0.11521715 0.25487429 1.8330001
-0.10125143 0.25138286 1.8330001
-0.096014291 0.25138286 1.8330001
-0.25661999 0.26884001 1.8330001
-0.24090858 0.26884001 1.8330001
-0.23305288 0.26796716 1.8330001
-0.21821429 0.26360285 1.8330001
-0.20512143 0.26447573 1.8330001
-0.19552 0.26185715 1.8330001
-0.18504572 0.26185715 1.8330001
-0.17457144 0.26185715 1.8330001
-0.16758858 0.26185715 1.8330001
0.15478668 0.26534858 1.8330001
0.16060571 0.26534858 1.8330001
-0.27582288 0.27582288 1.8330001
-0.26534858 0.27233145 1.8330001
-0.25138286 0.27233145 1.8330001
-0.24440001 0.27233145 1.8330001
0.1571143 0.27582288 1.8330001
-0.28367856 0.28716999 1.8330001
-0.27931431 0.28280571 1.8330001
0.1571143 0.28455144 1.8330001
-0.28629714 0.29502571 1.8330001
0.1571143 0.29502571 1.8330001
0.16060571 0.29502571 1.8330001
-0.28629714 0.3037543 1.8330001
0.1571143 0.30026287 1.8330001
0.16060571 0.30026287 1.8330001
-0.28629714 0.31772003 1.8330001
-0.28629714 0.32295716 1.8330001
0.13716327 0.59354287 1.8330001
0.14454515 0.5942412 1.8329999
0.15013143 0.59354287 1.8330001
0.12918286 0.60576284 1.8330001
0.1357293 0.6040172 1.8330001
0.14314857 0.60401714 1.8330001
0.12569143 0.611 1.8330001
0.13500191 0.61216384 1.8330001
0.15095048 0.23520191 1.8430001
-0.1333981 0.24924383 1.8430001
-0.12637715 0.24924381 1.8430001
-0.11935619 0.24924383 1.8430001
-0.094782859 0.24924383 1.8430001
-0.087761909 0.24573334 1.8430001
0.15095048 0.24222286 1.8430001
-0.20185238 0.25977525 1.8430001
-0.19541651 0.25743493 1.8430001
-0.18693286 0.25714239 1.8430001
-0.17903429 0.25626478 1.8430001
-0.16411477 0.25802001 1.8430001
-0.15446095 0.25626478 1.8430001
-0.14041905 0.2527543 1.8430001
-0.12286667 0.2527543 1.8430001
-0.11584572 0.2527543 1.8430001
-0.10706953 0.2527543 1.8430001
-0.26504096 0.2667962 1.8430001
-0.25802001 0.2667962 1.8430001
-0.2439781 0.2667962 1.8430001
-0.23695715 0.2667962 1.8430001
-0.22642572 0.26328573 1.8430001
-0.21413906 0.26328573 1.8430001
-0.20711811 0.26328573 1.8430001
-0.28259334 0.27557239 1.8430001
-0.27381715 0.27030668 1.8430001
-0.26504096 0.27030668 1.8430001
-0.2527543 0.27030668 1.8430001
-0.24748859 0.27030668 1.8430001
-0.29136953 0.28610381 1.8430001
-0.28668889 0.28434858 1.8430001
-0.30190095 0.29839048 1.8430001
-0.29444119 0.29531881 1.8430002
-0.30190095 0.30541143 1.8430001
-0.29488 0.30541143 1.8430002
-0.30190095 0.31243238 1.8430001
-0.29444119 0.31550407 1.8430002
0.096538097 0.55465525 1.8430001
0.10180382 0.55465525 1.8430001
0.12988763 0.58976001 1.8430001
0.13515334 0.58976001 1.8430001
0.12988763 0.59502572 1.8430001
0.1333981 0.59327048 1.8430001
0.12871747 0.60380191 1.8430001
0.1333981 0.60029143 1.8430001
0.12462191 0.61257809 1.8430001
-0.13412191 0.24706668 1.853
-0.12353334 0.24706668 1.853
-0.093532383 0.24706668 1.853
-0.084708571 0.24353714 1.853
-0.20294762 0.25765523 1.853
-0.19588858 0.25412571 1.853
-0.17471144 0.25765523 1.853
-0.16941714 0.25765523 1.853
-0.14647524 0.25412571 1.853
-0.13765143 0.2505962 1.853
-0.11647429 0.2505962 1.853
-0.10588572 0.2505962 1.853
-0.098826669 0.2505962 1.853
-0.28236192 0.26824382 1.853
-0.2744205 0.26736143 1.853
-0.26471433 0.2647143 1.853
-0.25236094 0.26824382 1.853
-0.24000762 0.2647143 1.853
-0.23471335 0.2647143 1.853
-0.22588952 0.26118478 1.853
-0.2135362 0.26118478 1.853
-0.20824191 0.26118478 1.853
-0.29471523 0.27883241 1.853
-0.28659734 0.27459699 1.853
-0.30089194 0.2867738 1.853
-0.29559761 0.28500906 1.853
-0.28942096 0.28236192 1.853
-0.31059811 0.29471523 1.853
-0.30424494 0.29436231 1.853
-0.31059811 0.30353907 1.853
-0.30706859 0.30353907 1.853
-0.31059811 0.31412759 1.853
-0.30589208 0.31412759 1.853
-0.30118605 0.3223632 1.853
-0.29648 0.32648098 1.853
0.098826669 0.55413526 1.853
0.10412096 0.55413526 1.853
0.12706286 0.59648955 1.853
0.12706286 0.60354859 1.853
0.11647429 0.61590195 1.853
0.12176858 0.61413717 1.853
-0.14194286 0.2484 1.863
-0.13129714 0.24485144 1.863
-0.12420001 0.24485143 1.863
-0.11444144 0.24751285 1.863
-0.10290857 0.2484 1.863
-0.095811434 0.24603431 1.863
-0.086940005 0.24130286 1.863
-0.22710858 0.25904572 1.863
-0.21468857 0.25904572 1.863
-0.20581715 0.25668001 1.863
-0.19517143 0.25313145 1.863
-0.18452573 0.25549716 1.863
-0.17388003 0.25549716 1.863
-0.16500857 0.25549716 1.863
-0.15613715 0.25549716 1.863
-0.14549144 0.2519486 1.863
-0.11355429 0.2519486 1.863
-0.10645714 0.2519486 1.863
-0.28299859 0.26614287 1.863
-0.27560571 0.26377717 1.863
-0.26614287 0.26259428 1.863
-0.25549716 0.26614287 1.863
-0.24662572 0.26614287 1.863
-0.23598 0.26259428 1.863
-0.22001144 0.26259428 1.863
-0.29630572 0.27678859 1.863
-0.31227431 0.28743431 1.863
-0.30588686 0.28459543 1.8630002
-0.31464002 0.29453143 1.863
-0.30872571 0.29098287 1.863
-0.31582287 0.30517715 1.863
-0.31582287 0.31404859 1.863
-0.30872571 0.31937143 1.863
-0.30872571 0.32292002 1.863
-0.29453143 0.32646859 1.863
-0.29453143 0.33001715 1.863
0.095811434 0.5553515 1.863
0.10290857 0.55357718 1.863
0.11710286 0.59970862 1.863
0.12490971 0.59686971 1.8630002
0.13129714 0.59261143 1.863
0.11710286 0.60503149 1.863
0.12242571 0.60503149 1.863
0.11592001 0.61153716 1.863
0.12183429 0.61153716 1.863
-0.19443524 0.24973334 1.8730001
-0.18551619 0.24973334 1.8730001
-0.17481335 0.24973334 1.8730001
-0.15340762 0.24973334 1.8730001
-0.14805621 0.24973334 1.8730001
-0.13556953 0.24616572 1.8730001
-0.12486666 0.2425981 1.8730001
-0.11238001 0.24616572 1.8730001
-0.10583936 0.24735492 1.8730001
-0.096325718 0.2437873 1.8730001
-0.23189525 0.25686857 1.8730001
-0.21405715 0.25686857 1.8730001
-0.2033543 0.25330096 1.8730001
-0.19265144 0.25330096 1.8730001
-0.18551619 0.25330096 1.8730001
-0.17481335 0.25330096 1.8730001
-0.16411048 0.25330096 1.8730001
-0.15519142 0.25330096 1.8730001
-0.28719336 0.26578763 1.8730001
-0.27470669 0.26043621 1.8730001
-0.26400381 0.26222003 1.8730001
-0.25508475 0.26400381 1.8730001
-0.24616574 0.26400381 1.8730001
-0.23546287 0.26043621 1.8730001
-0.22297621 0.26043621 1.8730001
-0.30443683 0.2770851 1.8730001
-0.29522049 0.2738148 1.8730001
-0.31466401 0.28469601 1.8730001
-0.30681524 0.2818419 1.8730001
-0.32108572 0.29789621 1.8730001
-0.31751812 0.29254478 1.8730001
-0.32286954 0.30503142 1.8730001
-0.32286954 0.31216669 1.8730001
0.096325718 0.55417013 1.8730001
0.10346095 0.55298096 1.8730001
0.095433809 0.56635952 1.8730001
0.10346095 0.56725144 1.8730001
0.10346095 0.57081908 1.8730001
0.089190483 0.59757626 1.8730001
0.094541907 0.59936005 1.8730001
0.11594763 0.59579235 1.8730001
0.12367747 0.59460318 1.8730001
0.088001274 0.60411686 1.8730001
0.095612191 0.60435468 1.8730001
0.11238001 0.60471141 1.8730001
0.10524476 0.6100629 1.8730001
0.11238001 0.6100629 1.8730001
0.30414933 -0.12409867 1.8830001
0.27617335 0.016140001 1.8830003
0.27438003 0.025106668 1.8830003
0.27438003 0.032280002 1.8830001
-0.15064001 0.24748001 1.8830001
-0.14526001 0.24748001 1.8830001
-0.13988 0.24748001 1.8830001
-0.12374 0.2421 1.8830001
-0.11405601 0.24245867 1.8830001
-0.10401333 0.24389334 1.883
-0.27438003 0.25824001 1.8830001
-0.26900002 0.25824001 1.8830001
-0.24030668 0.25824001 1.8830001
-0.23492667 0.25644666 1.8830001
