# .PCD v0.7 - Point Cloud Data file format
VERSION 0.7
FIELDS x y z
SIZE 4 4 4
TYPE F F F
COUNT 1 1 1
WIDTH 1502
HEIGHT 1
VIEWPOINT 0 0 0 1 0 0 0
POINTS 1502
DATA ascii
-0.10241524 0.2676762 1.8330001
-0.095141426 0.26534858 1.8330001
-0.08728572 0.26185715 1.8330001
0.24539755 0.26584738 1.8330001
0.25138286 0.26360285 1.8330001
-0.12394571 0.27582288 1.8330001
-0.11521715 0.27931431 1.8330001
-0.10517929 0.27538645 1.8330001
0.24614573 0.27582288 1.8330001
-0.125255 0.28673354 1.8330001
-0.11521713 0.28629711 1.8329999
-0.10648858 0.28629717 1.8330001
0.23392573 0.28455144 1.8330001
0.24090858 0.28280571 1.8330001
-0.12499315 0.29467657 1.8329999
-0.11434429 0.29415286 1.8330001
-0.10648857 0.29502571 1.8330001
0.19726571 0.29502571 1.8330001
0.20599429 0.29328001 1.8330001
0.21996 0.29328001 1.8330001
0.22519715 0.29328001 1.8330001
-0.12656429 0.30288142 1.8330001
-0.11172572 0.3037543 1.8330001
-0.10574041 0.30325553 1.8330001
0.1943562 0.3037543 1.8330001
-0.11172572 0.31422856 1.8330001
-0.10736143 0.31335574 1.8330001
0.036660001 0.31772003 1.8330001
0.18679143 0.31073716 1.8330001
0.19464715 0.3159743 1.8330001
0.20250286 0.31772003 1.8330001
-0.11172572 0.32121143 1.8330001
-0.10823429 0.32121143 1.8330001
0.027931429 0.32644856 1.8330001
0.03549619 0.32470286 1.8330001
0.042770002 0.32383001 1.8330001
0.017457144 0.33866858 1.8330001
0.02444 0.33517715 1.8329999
0.034914289 0.33343145 1.8330001
0.041897144 0.33168572 1.8330001
0.24090858 0.33866858 1.8330001
0.020948572 0.34216002 1.8330001
0.23450762 0.34565148 1.8330001
0.24090858 0.34216002 1.8330001
0.25487429 0.34565142 1.8329999
0.26491216 0.34608784 1.8330001
0.27582288 0.34495315 1.8329999
0.23741715 0.35612571 1.8330001
0.24440001 0.35787144 1.8330001
0.25487429 0.35612574 1.8329999
0.26534858 0.3549619 1.8330001
0.27349529 0.3549619 1.8330001
0.24789144 0.36310858 1.8330001
0.25487429 0.36427236 1.8330001
0.26465029 0.36450514 1.8329999
0.27582288 0.36427236 1.8330001
0.28455144 0.36660001 1.8330001
0.24789144 0.37009144 1.8330001
0.25531071 0.37358287 1.8330001
0.26185715 0.3753286 1.8330001
0.27756858 0.37358284 1.8330001
0.28367856 0.37445572 1.8330001
0.24440001 0.38231146 1.8330001
0.25661999 0.38056573 1.8330001
0.28629714 0.38056573 1.8330001
-0.066337146 0.39104003 1.8330001
0.17806287 0.39104003 1.8330001
0.097760007 0.58656001 1.8330001
0.10299715 0.58656001 1.8330001
0.12743714 0.58656001 1.8330001
0.096014291 0.59179717 1.8330001
0.10430643 0.5939793 1.8330001
0.11172572 0.59354287 1.8330001
0.12918286 0.59005147 1.8330001
0.13965715 0.59703434 1.8330001
0.14431238 0.59470671 1.8330001
0.15013143 0.59354287 1.8330001
0.10474286 0.60052574 1.8330001
0.1131223 0.60471547 1.8329999
0.12656429 0.60663569 1.8330001
0.13686401 0.606112 1.8329999
0.14402142 0.60314429 1.8330001
0.11451886 0.6123966 1.8329999
0.12656429 0.61187285 1.8330001
0.13616572 0.611 1.8330001
0.13616572 0.62147433 1.8330001
-0.36274922 -0.18605524 1.8430001
-0.32296383 -0.17552382 1.8430001
-0.31945336 -0.17201334 1.8430001
-0.31506526 -0.16499239 1.8430001
-0.30658159 -0.15446095 1.8430001
-0.30365619 -0.14744 1.8430001
-0.29751286 -0.14392953 1.8430001
-0.29488 -0.13515334 1.8430001
-0.29312477 -0.12813239 1.8430001
-0.28785905 -0.12462191 1.8430001
-0.28434858 -0.11584572 1.8430001
-0.27732763 -0.10180382 1.8430001
-0.27498731 -0.094782859 1.8430001
-0.27206191 -0.086006671 1.8430001
-0.2667962 -0.082496196 1.8430001
-0.26328573 -0.075475238 1.8430001
-0.25860509 -0.071379684 1.8430001
-0.25450954 -0.064943813 1.8430001
-0.2527543 -0.056167621 1.8430001
-0.24924383 -0.052657146 1.8430001
-0.2527543 -0.04739143 1.8430001
-0.24807365 -0.043295875 1.8430001
-0.2439781 -0.03686 1.8430001
-0.23871239 -0.031594288 1.8430001
-0.23520191 -0.021062858 1.8430001
-0.23379771 -0.01333981 1.8430001
-0.23169143 -0.0052657146 1.8430001
-0.22818096 -0.0070209526 1.8430001
-0.2270108 0.0035104763 1.8430001
-0.22233017 0.011701588 1.8430001
-0.21677192 0.014919525 1.8430001
-0.21238382 0.024573334 1.8430001
-0.21062858 0.031594288 1.8430001
-0.20571391 0.035806857 1.8430001
-0.20150132 0.044934098 1.8430001
-0.19658667 0.049146667 1.8430001
-0.20009714 0.052657146 1.8430001
-0.19483143 0.056167621 1.8430001
-0.18956572 0.059678096 1.8430001
-0.18781048 0.063188575 1.8430001
-0.18254477 0.073720001 1.8430001
-0.17903429 0.084251434 1.8430001
-0.17552382 0.096538097 1.8430001
-0.17435366 0.10531429 1.8430001
-0.17201334 0.11584572 1.8430001
-0.16850287 0.11935619 1.8430001
-0.17201334 0.12286667 1.8430001
-0.16850287 0.12637715 1.8430001
-0.16850287 0.13515334 1.8430001
-0.16616255 0.14158921 1.8430001
-0.16148192 0.15446097 1.8430001
-0.1562162 0.1562162 1.8430001
-0.16148192 0.16148192 1.8430001
-0.15797144 0.16148192 1.8430001
-0.21413906 0.21764953 1.8430001
-0.20711811 0.21764953 1.8430001
0.25450954 0.21764953 1.8430001
-0.23169143 0.22818096 1.8430001
-0.22350033 0.22584064 1.8430001
-0.21647938 0.22233017 1.8430001
-0.20711811 0.22467048 1.8430001
0.14744 0.22818096 1.8430001
0.15563112 0.22467048 1.8430001
0.16499239 0.22291525 1.8430001
0.17376858 0.22116001 1.8430001
0.19307619 0.22116001 1.8430001
0.20536287 0.22467048 1.8430001
0.21413906 0.22467048 1.8430001
0.22291525 0.22642572 1.8430001
-0.23169143 0.23344667 1.8430001
-0.22642572 0.23520191 1.8430001
0.22818096 0.23169143 1.8430001
0.23449981 0.23590401 1.8430001
-0.071964763 0.24748859 1.8430001
-0.065528892 0.24807365 1.8430001
0.010531429 0.24924383 1.8430001
0.24573334 0.24339302 1.8430001
0.25714239 0.24661097 1.8430001
0.26504096 0.24924383 1.8430001
-0.094782859 0.25977525 1.8430001
-0.086006671 0.25626478 1.8430001
-0.075475238 0.2527543 1.8430001
0.24924383 0.25626478 1.8430001
0.25626478 0.25626478 1.8430002
0.26328573 0.25626478 1.8430001
-0.11233524 0.2667962 1.8430001
-0.10601638 0.26468992 1.8430001
-0.096538097 0.26328573 1.8430001
0.25802001 0.26504096 1.8430001
0.26445588 0.26562604 1.8430001
-0.11584572 0.27381715 1.8430002
-0.10882477 0.27030668 1.8430001
0.25626478 0.27381715 1.8430002
0.26504096 0.27381715 1.8430001
0.23695715 0.28785905 1.8430001
0.24643543 0.28645486 1.8430001
0.25626478 0.28259334 1.8430001
0.26504096 0.28434858 1.8430001
0.27030668 0.28434858 1.8430001
-0.11760096 0.29839048 1.8430001
0.20360762 0.29839048 1.8430001
0.21484116 0.29698628 1.8430001
0.22467048 0.29839048 1.8430001
0.23449981 0.29558212 1.8430001
0.24222286 0.29136953 1.8430001
0.26504096 0.29136953 1.8430001
-0.12286667 0.30541143 1.8430001
-0.11760096 0.30541143 1.8430001
0.19658667 0.3089219 1.8430001
0.20360763 0.30541143 1.8430002
0.21413906 0.30190095 1.8430001
0.22467048 0.30190095 1.8430001
0.23344667 0.30190095 1.8430001
-0.11760096 0.31594288 1.8430001
0.18956572 0.31594288 1.8430001
0.19541651 0.31477273 1.8430001
0.20410912 0.31493989 1.8430002
0.21062858 0.31594288 1.8430001
0.20185238 0.32471907 1.8430001
0.27381715 0.34227145 1.8430001
0.2808381 0.34753716 1.8430001
0.23344667 0.35280287 1.8430001
0.26504096 0.35806859 1.8430001
0.27311507 0.35596231 1.8430001
0.28434858 0.35499692 1.8430002
0.29224715 0.35543573 1.8430001
0.24573334 0.36684477 1.8430001
0.25626478 0.36742985 1.8430001
0.26504096 0.36157906 1.8430001
0.27732763 0.36157906 1.8430001
0.28434858 0.3633343 1.8430001
0.29312477 0.36508954 1.8430001
0.24713752 0.37632304 1.8430001
0.28785905 0.37386572 1.8430001
0.29224715 0.37474334 1.8430001
0.17903429 0.38615239 1.8430001
-0.063188575 0.39492857 1.8430001
0.10882477 0.58976001 1.8430001
0.11233524 0.58976001 1.8430001
0.10882477 0.59327048 1.8430001
0.11584572 0.5956108 1.8430001
0.12637715 0.59678096 1.8430001
0.13515334 0.59678096 1.8430001
0.14041905 0.59678096 1.8430001
0.11654781 0.60309982 1.8430001
0.12637715 0.60380191 1.8430002
0.1348023 0.60309982 1.8430001
0.14041905 0.60380191 1.8430001
0.11935619 0.61082286 1.8430001
-0.3670705 -0.18530001 1.853
-0.32706925 -0.17412318 1.853
-0.32259849 -0.16588762 1.853
-0.31342173 -0.15600495 1.853
-0.31059811 -0.14824 1.853
-0.30530381 -0.14294572 1.853
-0.30118605 -0.13647492 1.853
-0.29471523 -0.1252981 1.853
-0.28942096 -0.12000381 1.853
-0.28765619 -0.11470953 1.853
-0.28353843 -0.10588572 1.853
-0.28236192 -0.098826669 1.853
-0.27883241 -0.093532383 1.853
-0.27294984 -0.084708571 1.853
-0.27177334 -0.077649526 1.853
-0.26706731 -0.074120007 1.853
-0.26259661 -0.064237334 1.853
-0.25765523 -0.061766669 1.853
-0.26118478 -0.056472383 1.853
-0.25765523 -0.054707624 1.853
-0.25647876 -0.045883816 1.853
-0.2505962 -0.038824763 1.853
-0.24530192 -0.033530477 1.853
-0.24089001 -0.025589049 1.853
-0.23647811 -0.0052942857 1.853
-0.23412509 0.001176508 1.853
-0.22412477 0.015882857 1.853
-0.21765397 0.024706667 1.853
-0.21294795 0.035295241 1.853
-0.20735952 0.046766192 1.853
-0.20471239 0.052942861 1.853
-0.19530033 0.061178416 1.853
-0.18706477 0.067060955 1.853
-0.18706477 0.07412 1.853
-0.18441764 0.084708571 1.853
-0.1808881 0.094414771 1.853
-0.18000571 0.1023562 1.853
-0.1764762 0.10941524 1.853
-0.1764762 0.11470953 1.853
-0.17294668 0.12706286 1.853
-0.17294668 0.13412191 1.853
-0.17294668 0.14118096 1.853
-0.16765238 0.14647524 1.853
-0.16588762 0.15529905 1.853
-0.16588762 0.16235811 1.853
0.15882857 0.21883048 1.853
0.16235811 0.21883048 1.853
0.24706668 0.21883048 1.853
0.2505962 0.21883048 1.853
-0.23471335 0.22765429 1.853
-0.22824256 0.22353654 1.853
0.13588667 0.22941905 1.853
0.14471048 0.22824256 1.853
0.15353429 0.22412477 1.853
0.16412286 0.22236001 1.853
0.19765334 0.22236001 1.853
0.20471239 0.22236001 1.853
0.21530096 0.22353654 1.853
0.22659545 0.22518364 1.853
0.23294859 0.22941905 1.853
0.25765523 0.22236001 1.853
0.26471433 0.22471303 1.853
0.27177334 0.22941905 1.853
-0.23647811 0.23294859 1.853
0.23647811 0.23294859 1.853
0.24353714 0.23471333 1.853
0.25412571 0.23647811 1.853
-0.081179053 0.24530192 1.853
-0.077649526 0.24530192 1.853
0.24530192 0.24000762 1.853
0.25412571 0.2417724 1.853
0.26471427 0.24353716 1.8529999
0.27177334 0.24706668 1.853
-0.095297135 0.25765523 1.853
-0.083826192 0.25324333 1.853
-0.077649526 0.2505962 1.853
0.0035295237 0.2505962 1.853
0.26824382 0.25589049 1.853
0.27353811 0.25412571 1.853
-0.12000381 0.26824382 1.853
-0.11470953 0.26647907 1.853
-0.10588572 0.26118478 1.853
0.26824382 0.26294953 1.853
0.27530289 0.26471427 1.853
0.27530289 0.27530289 1.853
0.28324431 0.2744205 1.853
0.25589049 0.28942096 1.853
0.26118478 0.28942096 1.853
0.28236192 0.28236192 1.853
0.24706668 0.29471523 1.853
0.25236094 0.29471523 1.853
0.21530096 0.30706859 1.853
0.22588952 0.30706859 1.853
0.23294859 0.30706859 1.853
-0.12353334 0.3158924 1.853
0.21600688 0.3120099 1.853
0.22588955 0.31236288 1.853
0.23294859 0.31059811 1.853
0.20824191 0.32648098 1.853
0.21177144 0.32648098 1.853
0.28765619 0.34942287 1.853
0.23294859 0.35648191 1.853
0.28589144 0.35295239 1.853
0.18177047 0.3670705 1.853
0.19059429 0.3670705 1.853
0.23471335 0.3617762 1.853
0.18353523 0.37412953 1.853
0.19412382 0.37412953 1.853
0.20471239 0.37765905 1.853
0.24212535 0.37483543 1.853
0.18454365 0.38421392 1.8529999
0.19368263 0.38427696 1.8529999
0.20294762 0.38118857 1.853
0.24353716 0.38295335 1.853
-0.063531429 0.39177716 1.853
0.14471048 0.39354193 1.853
0.17506438 0.3960126 1.853
0.18454368 0.39581087 1.8529999
0.19059429 0.39354193 1.853
0.14824 0.40413049 1.853
0.15176953 0.40413049 1.853
0.16941714 0.40413049 1.853
0.17471144 0.40413049 1.853
0.18000571 0.40413049 1.853
0.11470953 0.57884192 1.853
0.12000381 0.57884192 1.853
0.10659163 0.58731282 1.853
0.11470953 0.58590096 1.853
0.12309214 0.58634216 1.8529999
0.13059239 0.58943051 1.853
0.11647429 0.59472477 1.853
0.12282743 0.59507769 1.853
0.13412191 0.59648955 1.853
0.12176858 0.60354859 1.853
-0.37260002 -0.18630001 1.863
-0.33356571 -0.18097715 1.863
-0.33356571 -0.17565429 1.863
-0.32646859 -0.16678286 1.863
-0.32469431 -0.15702429 1.863
-0.31818858 -0.15377145 1.863
-0.32292002 -0.14904 1.863
-0.31582287 -0.14620113 1.8630002
-0.30606431 -0.13484572 1.863
-0.30162859 -0.12774858 1.863
-0.29630572 -0.12242572 1.863
-0.29216573 -0.11355429 1.863
-0.28743431 -0.10468285 1.863
-0.28388572 -0.094037145 1.863
-0.27678859 -0.081617147 1.863
-0.27501428 -0.076294288 1.863
-0.26969144 -0.070971429 1.863
-0.26850858 -0.063874289 1.863
-0.26259428 -0.053228572 1.863
-0.25904572 -0.042582858 1.863
-0.25313145 -0.035485715 1.863
-0.2484 -0.031937145 1.863
-0.24485144 -0.023065716 1.863
-0.24219 -0.015081429 1.863
-0.23420572 0.0059142858 1.863
-0.23065715 0.010645715 1.863
-0.22237714 0.024839999 1.863
-0.22001144 0.031937145 1.863
-0.21646287 0.035485715 1.863
-0.21291429 0.044357143 1.863
-0.20581716 0.055002861 1.863
-0.20226859 0.062100001 1.863
-0.19605857 0.066535719 1.863
-0.19251001 0.073632859 1.863
-0.18807429 0.085165717 1.863
-0.18665487 0.096521154 1.8630002
-0.18275145 0.10468285 1.863
-0.18097715 0.11355429 1.863
-0.18097715 0.12242572 1.863
-0.17742856 0.12420001 1.863
-0.17742856 0.13484572 1.863
-0.17210573 0.14726572 1.863
-0.17033143 0.15613715 1.863
-0.17033143 0.16323429 1.863
-0.16500857 0.16678286 1.863
-0.15968572 0.16678286 1.863
-0.17033143 0.17210573 1.863
-0.16678286 0.17210573 1.863
0.22178572 0.21646287 1.863
0.14549144 0.22710858 1.863
0.15436286 0.22178572 1.863
0.20759144 0.22178572 1.863
0.21468857 0.22178572 1.863
0.22178572 0.22001144 1.863
0.23491545 0.22497945 1.8630002
0.24485144 0.2245739 1.863
0.25478745 0.22568914 1.8630002
0.26614287 0.22710858 1.863
0.2377543 0.23065715 1.863
0.24485143 0.23065715 1.863
0.25549716 0.23319185 1.863
0.2656993 0.2346493 1.863
0.27442285 0.23538858 1.863
0.014194286 0.2484 1.863
0.023065716 0.24662572 1.863
0.031937145 0.24485144 1.863
0.26969144 0.24130286 1.863
0.27501428 0.24485144 1.863
0.28299856 0.24307714 1.863
-0.11000572 0.25904572 1.863
-0.10468285 0.25904572 1.863
-0.092262864 0.25549716 1.863
-0.086940005 0.2519486 1.863
0.28344214 0.25594074 1.863
0.29630572 0.25904572 1.863
0.30162859 0.25904572 1.863
-0.1242 0.26614287 1.863
-0.11355429 0.26259428 1.863
0.28566003 0.26614287 1.863
0.29453143 0.26614285 1.863
0.30162859 0.26614287 1.863
0.28743431 0.27678859 1.863
0.29382172 0.27465945 1.8630002
0.28743431 0.28033715 1.863
0.29098287 0.28033715 1.863
0.18807429 0.35840574 1.863
0.19162287 0.35840574 1.863
0.18807429 0.36550286 1.863
0.19446173 0.36621258 1.8630002
0.20404287 0.36905146 1.863
0.17565429 0.37614858 1.863
0.20581715 0.3743743 1.863
0.21468857 0.37792286 1.863
0.14785714 0.38561144 1.863
0.15732001 0.38561144 1.863
0.16323429 0.3867943 1.863
0.17388 0.38502002 1.863
-0.060325716 0.39744002 1.863
-0.055002861 0.39744002 1.863
0.14815286 0.3930043 1.863
0.15613715 0.39433503 1.863
0.16500857 0.39389145 1.863
0.17269714 0.39270857 1.863
-0.060325716 0.40098858 1.863
-0.055002861 0.40098858 1.863
0.14904 0.40098858 1.863
0.15715103 0.40403026 1.863
0.16500857 0.40453717 1.863
0.17033143 0.40098858 1.863
0.15968572 0.4116343 1.863
0.10290857 0.57486862 1.863
0.11532858 0.57841718 1.863
0.10527428 0.58433145 1.863
0.11000572 0.58374 1.863
0.096994288 0.59379429 1.863
0.10290857 0.59261143 1.863
0.1383943 0.59970862 1.863
0.14194286 0.59970862 1.863
-0.32465336 -0.15697524 1.8730001
-0.31751812 -0.14448857 1.8730001
-0.31395048 -0.13913715 1.8730001
-0.30681524 -0.13200191 1.8730001
-0.30324763 -0.12486667 1.8730001
-0.29968002 -0.12129905 1.8730001
-0.29789621 -0.11594763 1.8730001
-0.29254478 -0.10524476 1.8730001
-0.29254478 -0.094541907 1.8730001
-0.28897715 -0.096325718 1.8730001
-0.29254478 -0.089190483 1.8730001
-0.2818419 -0.089190483 1.8730001
-0.27470669 -0.071352385 1.8730001
-0.27470669 -0.067784764 1.8730001
-0.26757145 -0.057081908 1.8730001
-0.26400381 -0.048162859 1.8730001
-0.26043621 -0.03924381 1.8730001
-0.25686857 -0.035676192 1.8730001
-0.25330096 -0.028540954 1.8730001
-0.24973334 -0.024973335 1.8730001
-0.24616572 -0.012486667 1.8730001
-0.2425981 -0.0053514289 1.8730001
-0.2425981 0 1.8730001
-0.23903048 0.0071352385 1.8730001
-0.23367906 0.012486667 1.8730001
-0.22119239 0.037459999 1.8730001
-0.21762477 0.03924381 1.8730001
-0.21673286 0.047270954 1.8730001
-0.21405715 0.054703493 1.8730001
-0.20692191 0.057081908 1.8730001
-0.21048953 0.060649525 1.8730001
-0.20603001 0.065109044 1.8730001
-0.2033543 0.073136196 1.8730001
-0.19835964 0.075633526 1.8730001
-0.19443524 0.085622855 1.8730001
-0.19265144 0.096325718 1.8730001
-0.19265144 0.10524476 1.8730001
-0.1878946 0.10583936 1.8730001
-0.19265144 0.11059619 1.8730001
-0.18694323 0.11345029 1.8730001
-0.18432699 0.12486667 1.8730001
-0.18194859 0.13556953 1.8730001
-0.18194857 0.14270477 1.8730001
-0.17748906 0.1471643 1.8730001
-0.17659715 0.15519144 1.8730001
-0.17583266 0.16462015 1.8730001
-0.17392144 0.17570525 1.8730001
0.14627239 0.22654381 1.8730001
0.15340762 0.22119239 1.8730001
0.1676781 0.22119239 1.8730001
0.22832763 0.22119239 1.8730001
0.23724666 0.22119239 1.8730001
0.2425981 0.22119239 1.8730001
0.2782743 0.23903048 1.8730001
0.28362572 0.23903048 1.8730001
0.0071352385 0.24973334 1.8730001
0.015459684 0.24854414 1.8730001
0.024973333 0.24497652 1.8730001
0.032108571 0.2425981 1.8730001
0.2782743 0.2425981 1.8730001
0.28540954 0.24794954 1.8730001
-0.10346095 0.25686857 1.8730001
-0.096325718 0.25567937 1.8730001
0.28897715 0.25330096 1.8730001
0.29522049 0.25597668 1.8730001
-0.12129905 0.26757145 1.8730001
-0.11773143 0.26578763 1.8730001
0.29254478 0.26043621 1.8730001
0.19859748 0.36508635 1.8730001
0.2051381 0.36746478 1.8730001
0.21405715 0.36746478 1.8730001
0.22832763 0.36032954 1.8730001
0.23189525 0.36211336 1.8730001
0.17124572 0.37816763 1.8730001
0.21477067 0.37245944 1.8730001
0.22119239 0.37281621 1.8730001
-0.062433332 0.38887048 1.8730001
-0.055892702 0.38768128 1.8730001
-0.048162859 0.38887048 1.8730001
0.15578604 0.3864921 1.8730001
0.16678621 0.38530287 1.8730001
0.17124572 0.38173527 1.8730001
-0.061838731 0.39362732 1.8730001
-0.055298097 0.3942219 1.8730001
-0.046379048 0.39600572 1.8730003
-0.037460003 0.39600575 1.8730001
0.15697524 0.39243811 1.8730001
-0.046379048 0.40314093 1.8730001
-0.03924381 0.40314096 1.8730001
0.098109528 0.5654676 1.8730001
0.10346095 0.5654676 1.8730001
0.098109536 0.57438666 1.8730001
0.10524476 0.57438672 1.8730001
0.11416382 0.57795429 1.8730001
0.098109536 0.58508956 1.8730001
0.10465016 0.58271116 1.8730001
0.11059619 0.58152193 1.8730001
0.095433809 0.5931167 1.8730001
-0.33356002 -0.17216 1.8830001
-0.33356002 -0.16857333 1.8830001
-0.31634399 -0.13557601 1.8830001
-0.30666 -0.12553334 1.8830001
-0.30247557 -0.11477333 1.883
-0.29769334 -0.11118667 1.8830001
-0.29679668 -0.10311667 1.8830001
-0.29769334 -0.095046669 1.8830001
-0.28454223 -0.086079992 1.883
-0.28334668 -0.07890667 1.8830001
-0.27976 -0.073526666 1.8830001
-0.27258667 -0.060973335 1.8830001
-0.27258667 -0.053800002 1.883
-0.26900002 -0.052006669 1.8830001
-0.27258667 -0.046626668 1.8830001
-0.26720667 -0.044833332 1.8830001
-0.26182666 -0.035866667 1.8830001
-0.25824001 -0.032280002 1.8830001
-0.25465333 -0.023313334 1.8830001
-0.25196335 -0.015243333 1.8830001
-0.24748001 -0.0053800005 1.8830001
-0.24568668 0.0017933334 1.8830001
-0.24030668 0.01076 1.8830001
-0.23672001 0.014346668 1.8830001
-0.22954668 0.017933333 1.8830001
-0.22775334 0.025106668 1.8830001
-0.22237334 0.04304 1.8830001
-0.21699333 0.05738667 1.8830001
-0.21448267 0.063842669 1.8830001
-0.21161334 0.071733333 1.8830001
-0.20713001 0.076216668 1.8830001
-0.20175001 0.085183337 1.8830001
-0.19726667 0.095046669 1.8830001
-0.19726665 0.10401335 1.883
-0.19439733 0.11549067 1.8830001
-0.19152799 0.12481602 1.8830001
-0.18650667 0.12912001 1.8830001
-0.19009334 0.13270667 1.8830001
-0.18650667 0.13629334 1.883
-0.18531112 0.1458578 1.883
-0.18471332 0.15422668 1.8830003
-0.18381669 0.16498667 1.8830001
-0.18292001 0.17216 1.8830001
-0.17933334 0.17574668 1.883
0.20444001 0.22237332 1.883
0.0071733338 0.24748001 1.8830001
0.012553334 0.24748001 1.8830001
0.29052001 0.24748001 1.8830001
-0.11118667 0.25824001 1.8830001
-0.1076 0.25824001 1.8830001
-0.095046669 0.25286001 1.8830001
-0.08787334 0.25106668 1.8830001
0.0035866669 0.25106668 1.8830001
0.29649779 0.25226223 1.883
0.30128002 0.25465333 1.8830001
-0.12553333 0.26541334 1.883
-0.11656667 0.26182666 1.8830001
0.22775334 0.35687336 1.8830001
0.19726667 0.36225334 1.8830001
0.20444 0.36404669 1.8830001
0.2157978 0.36643779 1.8830003
0.22655779 0.3670356 1.8830003
0.22775334 0.37301335 1.8830001
-0.060973335 0.38556668 1.8830001
-0.052903336 0.38556668 1.8830001
-0.045431111 0.38616446 1.883
-0.035866667 0.38736001 1.883
-0.028693335 0.38736001 1.8830001
0.16319335 0.38377336 1.8830001
-0.04304 0.39094669 1.8830001
-0.03497 0.39184338 1.8830001
-0.028693335 0.39094669 1.8830001
0.093253337 0.56669337 1.8830001
0.093253337 0.57386667 1.883
0.089666672 0.58283335 1.8830001
0.093253337 0.58462667 1.883
0.093253337 0.59180003 1.8830001
-0.32107812 -0.1334819 1.8940001
-0.32107812 -0.12987429 1.8940001
-0.31314135 -0.1269882 1.8940001
-0.31025526 -0.11905143 1.8940001
-0.30664763 -0.11364 1.8940001
-0.30304 -0.10462096 1.8940001
-0.29221717 -0.090190478 1.8940001
-0.29221717 -0.086582862 1.8940001
-0.28860953 -0.084779054 1.8940001
-0.29221717 -0.079367623 1.8940001
-0.28620446 -0.075760007 1.8940001
-0.28440067 -0.064335875 1.8940001
-0.27778667 -0.063133337 1.8940001
-0.2813943 -0.057721905 1.8940001
-0.27057144 -0.043291431 1.8940001
-0.27057144 -0.039683811 1.8940001
-0.26516002 -0.036076192 1.8940001
-0.25974858 -0.025253335 1.8940001
-0.25614095 -0.012626667 1.8940001
-0.25253335 -0.0054114284 1.8940001
-0.24171048 0.014430476 1.8940001
-0.23449525 0.018038096 1.8940001
-0.23088762 0.025253335 1.8940001
-0.22728001 0.032468572 1.8940001
-0.22367239 0.04689905 1.8940001
-0.22367239 0.052310478 1.8940001
-0.21645714 0.068544768 1.8940001
-0.21465334 0.075760007 1.8940001
-0.20803939 0.085380323 1.8940001
-0.2032292 0.093798101 1.8940001
-0.20202668 0.10462096 1.8940001
-0.20202668 0.11364 1.8940001
-0.19841905 0.11905143 1.8940001
-0.19721651 0.12626667 1.8940001
-0.19120382 0.13708954 1.8940001
-0.19120382 0.14430477 1.8940001
-0.19120382 0.15332381 1.8940001
-0.1875962 0.16595048 1.8940001
-0.18579239 0.17496952 1.8940001
0.0054114284 0.24712192 1.8940001
0.014430476 0.2453181 1.8940001
0.025253333 0.2453181 1.8940001
0.036076192 0.2453181 1.8940001
0.29762858 0.24892573 1.8940001
-0.11544381 0.25974858 1.8940001
-0.10281715 0.25614095 1.8940001
-0.12446286 0.26335621 1.8940001
0.22728001 0.34993905 1.8940001
0.23088762 0.34993905 1.8940001
0.19841905 0.35715431 1.8940001
0.21645714 0.35715431 1.8940001
0.22367239 0.35535049 1.8940001
0.23088762 0.35354668 1.8940001
0.19841905 0.36076191 1.8940001
0.2065362 0.36166382 1.8940001
0.21465334 0.36256573 1.8940001
0.22277048 0.36346763 1.8940001
-0.05050667 0.3788 1.8940001
-0.04689905 0.3788 1.8940001
-0.036076192 0.3788 1.8940001
-0.061329525 0.38240764 1.8940001
-0.05411429 0.38330954 1.8940001
-0.044493973 0.38361016 1.8940001
-0.036076192 0.38421145 1.8940001
0.086582862 0.57541525 1.8940001
0.090190478 0.57541525 1.8940001
0.086582862 0.58443433 1.8940001
0.090190478 0.5808267 1.8940001
0.086582862 0.59164953 1.8940001
0.090190478 0.59345335 1.8940001
-0.31793779 -0.12451556 1.9039999
-0.3137067 -0.11605334 1.904
-0.30826667 -0.10698666 1.904
-0.29376 -0.083413333 1.904
-0.29194668 -0.074346676 1.904
-0.29194668 -0.068906672 1.904
-0.28650668 -0.065280005 1.904
-0.28469336 -0.054400001 1.904
-0.27925333 -0.054400001 1.9039999
-0.27925333 -0.047146667 1.904
-0.26837334 -0.034453336 1.904
-0.26474667 -0.025386667 1.904
-0.26112002 -0.014506668 1.9039999
-0.26112002 -0.0072533335 1.904
-0.25749335 -0.00544 1.904
-0.25205332 0.0018133334 1.904
-0.24661334 0.0072533335 1.904
-0.23936 0.018133335 1.904
-0.23452444 0.025386667 1.9039999
-0.23210667 0.032640003 1.904
-0.22848001 0.038080003 1.904
-0.22848001 0.045333333 1.904
-0.22666667 0.054400001 1.904
-0.22122668 0.065280005 1.904
-0.21397334 0.08522667 1.904
-0.21155556 0.091875553 1.9039999
-0.20672001 0.096106663 1.904
-0.20672001 0.10517333 1.9039999
-0.20490667 0.11605334 1.904
-0.20309334 0.12512 1.904
-0.19765334 0.13418667 1.904
-0.19729067 0.14434135 1.904
-0.19221334 0.15957335 1.904
-0.19221334 0.16501334 1.904
-0.19221334 0.17226666 1.904
-0.18858667 0.17770667 1.904
-0.18496001 0.18314667 1.904
-0.17589334 0.18496001 1.904
0.14688 0.22848001 1.904
0.23573335 0.22485334 1.904
0.061653335 0.23936 1.904
0.14144 0.23210667 1.904
0.016320001 0.2448 1.904
0.025386667 0.24298668 1.904
0.037173338 0.24389334 1.904
0.04352 0.2448 1.904
-0.11242667 0.25749335 1.904
-0.1088 0.25749335 1.904
-0.097920001 0.25386667 1.904
0 0.25386667 1.904
-0.13056001 0.26112002 1.904
-0.12512 0.26112002 1.904
-0.11968 0.26112002 1.904
-0.19765334 0.31914669 1.904
-0.19765334 0.32458669 1.904
-0.20490667 0.33002669 1.904
-0.19629335 0.33410668 1.9040002
0.22848001 0.34816 1.904
0.23210667 0.34816 1.904
-0.052586667 0.35541335 1.904
0.20490667 0.35904002 1.904
0.21324801 0.35686401 1.904
0.22122668 0.35541335 1.904
-0.054400001 0.36992002 1.904
-0.047146667 0.36992002 1.904
-0.053493336 0.37626669 1.904
-0.045333333 0.37536001 1.904
-0.03626667 0.37717333 1.904
-0.061653335 0.38080001 1.904
-0.056213334 0.38080001 1.904
-0.04352 0.38080001 1.904
-0.03626667 0.38080001 1.904
-0.0272 0.38624004 1.904
-0.025386667 0.39168 1.904
0.077973336 0.53674668 1.904
0.076160006 0.54400003 1.9040002
0.072533339 0.55125338 1.904
0.12693334 0.55306673 1.904
0.13237333 0.55306673 1.904
0.077610672 0.56721073 1.904
0.08522667 0.56938666 1.904
0.094293334 0.56938666 1.9039999
0.10154667 0.56938666 1.904
0.076160006 0.57482672 1.9040002
0.084622227 0.57422227 1.9039999
0.090666667 0.57301337 1.904
0.066730671 0.58534402 1.904
0.076160006 0.58389342 1.9040002
0.083413333 0.58389336 1.9039999
0.066186674 0.59205335 1.904
0.076160006 0.59296 1.9040002
0.084320001 0.59568 1.904
0.079786673 0.60928005 1.904
0.08522667 0.60928005 1.904
0.090666667 0.60928005 1.904
0.079786673 0.61290669 1.904
0.083413333 0.61290669 1.904
-0.32342222 -0.12401905 1.9150001
-0.31734288 -0.1130762 1.9150001
-0.29910478 -0.080247626 1.9150001
-0.29910478 -0.0766 1.9150001
-0.27357143 -0.021885715 1.9150001
-0.26901191 -0.025533333 1.9150001
-0.27357143 -0.016414287 1.9150001
-0.26773527 -0.01532 1.9150002
-0.25533333 0.0036476192 1.9150001
-0.24682224 0.014590477 1.9150001
-0.24165477 0.024621429 1.9150001
-0.23709525 0.029180953 1.9150001
-0.24074286 0.034652382 1.9150001
-0.23587938 0.03526032 1.9150001
-0.23344763 0.043771431 1.9150001
-0.23344763 0.051066667 1.9150001
-0.22980002 0.056538098 1.9150001
-0.22493653 0.065657146 1.9150001
-0.22250476 0.072952382 1.9150001
-0.21885715 0.080247626 1.9150001
-0.21338573 0.09666191 1.9150001
-0.21156192 0.10578096 1.9150001
-0.21156192 0.1130762 1.9150001
-0.20791429 0.11672381 1.9150001
-0.20791429 0.12401905 1.9150001
-0.20305079 0.1349619 1.9150001
-0.20335476 0.14681669 1.9150001
-0.20061906 0.15502381 1.9150001
-0.19697143 0.15502381 1.9150001
-0.20061906 0.16049525 1.9150001
-0.19697143 0.16414286 1.9150001
-0.19575556 0.17508572 1.9150001
-0.19332381 0.18602858 1.9150001
-0.18694049 0.1887643 1.9150001
-0.17873333 0.1896762 1.9150001
-0.18359683 0.19453971 1.9150001
0.069304764 0.23709525 1.9150001
0.13860953 0.23344763 1.9150001
0.0036476192 0.24682224 1.9150001
0.012766667 0.24439049 1.9150001
0.025533333 0.24439049 1.9150001
0.040123813 0.24074286 1.9150001
0.058361907 0.24074286 1.9150001
0.067480952 0.24074286 1.9150001
0.072952382 0.24074286 1.9150001
-0.13131429 0.25715715 1.9150001
-0.12401905 0.25715718 1.9150001
-0.11672381 0.25715715 1.9150001
-0.10942858 0.25533333 1.9150001
-0.036476191 0.25533333 1.9150001
-0.024621429 0.25442141 1.9150001
-0.013678572 0.25350952 1.9150001
-0.0054714289 0.25533333 1.9150001
0 0.25168571 1.9150001
-0.20244285 0.31734288 1.9150001
-0.21277779 0.32585397 1.9150001
-0.20609049 0.3246381 1.9150001
-0.21156192 0.33558097 1.9150001
-0.20609048 0.33740479 1.9150001
-0.21156192 0.3428762 1.9150001
-0.20609048 0.3428762 1.9150001
0.21703334 0.35381907 1.9150001
0.22432858 0.35199529 1.9150001
-0.063833334 0.36840954 1.9150001
-0.054258335 0.36521786 1.9150001
-0.046507142 0.36476192 1.9150001
-0.063468568 0.37497526 1.9150002
-0.055930164 0.37448892 1.9150001
-0.041339684 0.37570477 1.9150001
-0.034652382 0.37752858 1.9150001
-0.027357142 0.38300002 1.9150001
0.066699319 0.53672111 1.9150001
0.072952382 0.53620005 1.9150001
0.058361907 0.54531908 1.9150001
0.065657146 0.54531908 1.9150001
0.074776188 0.54714286 1.9150001
0.083895244 0.54714286 1.9150001
0.056902856 0.55516762 1.9150002
0.065657146 0.55443817 1.9150001
0.075384133 0.5568698 1.9150001
0.082983345 0.55352622 1.9150001
0.12280318 0.55565399 1.9150001
0.056538098 0.56173337 1.9150001
0.065657139 0.56538099 1.9150001
0.074776195 0.56538099 1.9150001
0.084937416 0.56485993 1.9150001
0.093795918 0.56590211 1.9150001
0.056538098 0.57997143 1.9150001
0.065657146 0.57632381 1.9150001
0.047419049 0.58361906 1.9150001
0.054714289 0.5854429 1.9150001
0.063833334 0.5854429 1.9150001
0.069304764 0.60185719 1.9150001
0.075140953 0.60477525 1.9150002
0.083374158 0.60654694 1.9150001
0.09119048 0.60732859 1.9150001
-0.32266667 -0.11733334 1.9250001
-0.30066669 -0.084333338 1.9250001
-0.27500001 -0.034833334 1.9250001
-0.27622223 -0.025666667 1.9250001
-0.27500001 -0.014666667 1.9250001
-0.264 -0.0036666668 1.9250001
-0.264 0 1.9250001
-0.25666669 0.0073333336 1.9250001
-0.25300002 0.012833334 1.9250001
-0.24566668 0.0275 1.9250001
-0.24566668 0.034833334 1.9250001
-0.24200003 0.044 1.9250001
-0.23833334 0.044 1.9250001
-0.24383335 0.051333334 1.9250001
-0.23650002 0.055 1.9250001
-0.23100001 0.064166665 1.9250001
-0.22733334 0.069666669 1.9250001
-0.2255 0.075166672 1.9250001
-0.22220001 0.085066661 1.925
-0.22122224 0.092888892 1.9250001
-0.21633334 0.099000007 1.9250001
-0.21633334 0.10633334 1.9250001
-0.20808333 0.13658333 1.9250001
-0.20900001 0.14483334 1.9250001
-0.20655556 0.154 1.9250001
-0.20386668 0.16573334 1.925
-0.20166667 0.17416668 1.9250001
-0.19800001 0.17966667 1.9250001
-0.19800001 0.18516667 1.9250001
-0.19433336 0.19494446 1.9250001
-0.18700001 0.19800001 1.9250001
-0.19066668 0.20166667 1.9250001
-0.18700001 0.2035 1.9250001
0.069666669 0.23466668 1.9250001
0.075166672 0.23466668 1.9250001
0.0018333334 0.24566668 1.9250001
0.018333334 0.24200001 1.9250001
0.034833334 0.24200001 1.9250001
0.047666669 0.24933334 1.9250001
0.051333334 0.24933334 1.9250001
-0.12283334 0.25300002 1.9250001
-0.11366667 0.25483334 1.9250001
-0.1045 0.25666669 1.9250001
-0.040333334 0.25666669 1.9250001
-0.033 0.25666669 1.9250001
-0.0275 0.25300002 1.9250001
-0.018333334 0.25300002 1.9250001
-0.0036666668 0.25300002 1.9250001
-0.20533334 0.308 1.9250001
-0.21266668 0.31900001 1.9250001
-0.20533334 0.31472221 1.9250001
-0.22183335 0.32633334 1.9250001
-0.21266668 0.32266667 1.9250001
-0.22000001 0.33366668 1.9250001
-0.21633334 0.33366668 1.9250001
-0.21633334 0.34100002 1.9250001
0.21633334 0.34833336 1.9250001
0.22183335 0.34833336 1.9250001
-0.058666669 0.35933334 1.9250001
0.19800001 0.35933334 1.9250001
0.20533334 0.35933334 1.9250001
0.21450001 0.35383332 1.9250001
0.22000001 0.352 1.9250001
-0.063555554 0.36544445 1.9250001
-0.058666669 0.36300001 1.9250001
0.19800001 0.36300001 1.9250001
-0.042166665 0.37216669 1.9250001
-0.034833334 0.37583333 1.9250001
-0.0275 0.38133335 1.9250001
0.056833334 0.53900003 1.9250001
0.062333334 0.53900003 1.9250001
0.055000003 0.54449999 1.9250001
0.0528 0.55293339 1.925
0.053533334 0.56613338 1.925
0.055458337 0.57612503 1.9250001
-0.32328129 -0.11185779 1.9360002
-0.31713524 -0.11062858 1.9360001
-0.32082286 -0.10694095 1.9360001
-0.31713524 -0.10694095 1.9360001
-0.28025907 -0.025813334 1.9360001
-0.26182097 0.0055314288 1.9360001
-0.26182097 0.014750477 1.9360001
-0.25567493 0.015979683 1.9360002
-0.25168002 0.026735239 1.9360001
-0.25260192 0.033188574 1.9360001
-0.25075811 0.044251431 1.9360002
-0.24707049 0.044251431 1.9360002
-0.24522668 0.055314288 1.9360001
-0.23969525 0.059001908 1.9360001
-0.23600763 0.064533338 1.9360001
-0.23232001 0.071908578 1.9360001
-0.22863239 0.077440001 1.9360001
-0.22863239 0.081127621 1.9360001
-0.22310096 0.097721905 1.9360001
-0.22125715 0.10694095 1.9360001
-0.21756953 0.10325333 1.9360001
-0.21572572 0.1143162 1.9360001
-0.21388191 0.12169144 1.9360001
-0.20281905 0.18438096 1.9360002
-0.20281905 0.19360001 1.9360001
-0.19913143 0.19913143 1.9360001
-0.19618133 0.20503163 1.9360001
-0.1917562 0.21019429 1.9360001
0.23785144 0.22494477 1.9360001
0.24522668 0.22494477 1.9360001
0.062689528 0.23969525 1.9360001
0.073752381 0.23969525 1.9360001
-0.0036876192 0.24707049 1.9360001
0.014750477 0.24338287 1.9360001
0.025813334 0.24338287 1.9360002
0.055314288 0.24707049 1.9360002
0.064533338 0.24707049 1.9360001
-0.1143162 0.25321653 1.9360002
-0.042407621 0.25628954 1.9360001
-0.035032384 0.25444573 1.9360001
-0.025813334 0.25075811 1.9360001
-0.018438095 0.25075811 1.9360001
-0.0061460324 0.25198731 1.9360002
-0.2120381 0.31529143 1.9360001
-0.21756953 0.32451048 1.9360001
0.20466286 0.35769907 1.9360001
0.2120381 0.35401145 1.9360001
-0.066377148 0.36507431 1.9360001
0.20650667 0.36138669 1.9360001
-0.033188574 0.37613717 1.9360001
-0.029500954 0.37982479 1.9360001
0.0073752385 0.38720003 1.9360001
0.03687619 0.39826286 1.9360001
0.042407621 0.39457524 1.936
0.035646986 0.40317968 1.9360002
0.044251431 0.40342551 1.9360001
0.10694095 0.41670096 1.9360001
0.11062858 0.41670096 1.9360001
0.11062858 0.42038858 1.9360001
0.029500954 0.43513906 1.9360001
0.029500954 0.4425143 1.9360001
0.055314288 0.53839242 1.9360002
0.062689528 0.53839242 1.9360001
0.047017146 0.54668957 1.9360001
0.051626667 0.54392385 1.9360001
0.046095241 0.55498672 1.9360001
0.046095241 0.56420571 1.936
0.046464004 0.57453102 1.9360001
0.051626667 0.57526857 1.9360001
0.047939051 0.58264381 1.9360001
0.051626667 0.58633143 1.9360001
-0.26330858 0.014834287 1.9470001
-0.25774574 0.016688572 1.9470001
-0.25774574 0.024105715 1.9470001
-0.25403714 0.037085716 1.9470001
-0.24662001 0.059337147 1.9470001
-0.24105716 0.063045718 1.9470001
-0.2354943 0.074171431 1.9470001
-0.23456715 0.084370002 1.9470001
-0.22993144 0.087151431 1.9470001
-0.23364002 0.092714287 1.9470001
-0.22993144 0.094568573 1.9470001
-0.22436857 0.10198572 1.9470001
-0.21880572 0.11496572 1.9470001
-0.21509714 0.12794572 1.9470001
-0.21509714 0.13350858 1.9470001
-0.20768 0.17615715 1.9470001
-0.20397143 0.20397143 1.9470001
-0.20211715 0.21138857 1.9470001
-0.19655429 0.21138857 1.9470001
0.076025717 0.22993144 1.9470001
0.064900003 0.23734859 1.9470001
0.076025717 0.23364002 1.9470001
0.14463429 0.23364002 1.9470001
-0.024105715 0.2484743 1.9470001
-0.014834287 0.2484743 1.9470001
-0.0074171433 0.2484743 1.9470001
0 0.24476573 1.9470001
0.033377144 0.24105716 1.9470001
0.048211429 0.2484743 1.9470001
0.055628572 0.24352954 1.9470001
0.066754289 0.24105716 1.9470001
-0.10384 0.25589144 1.9470001
-0.094568573 0.25589144 1.9470001
-0.089005716 0.25589144 1.9470001
-0.055628572 0.25960001 1.9470001
-0.046357144 0.25774574 1.9470001
-0.03523143 0.25218287 1.9470001
-0.025960002 0.25218287 1.9470001
-0.012980001 0.25218287 1.9470001
-0.21138857 0.30410287 1.9470001
-0.20768 0.30595714 1.9470001
-0.21695143 0.31522858 1.9470001
-0.21880572 0.32264572 1.9470001
0.20582572 0.34860572 1.9470001
0.21324286 0.34860572 1.9470001
0.19655429 0.35973144 1.9470001
0.20344163 0.35496324 1.9470003
0.21138857 0.35231429 1.9470001
0.19655429 0.36344001 1.9470001
-0.040794287 0.37456572 1.9470001
-0.037085716 0.37456572 1.9470001
-0.02596 0.38198286 1.9470001
0.0074171433 0.38569143 1.9470001
0.014092572 0.38791656 1.9470001
0.024105715 0.3875457 1.9470001
0.042648572 0.38940001 1.9470001
0.0074171433 0.39496285 1.9470001
0.013907144 0.3940357 1.9470001
0.02596 0.39496288 1.9470001
0.03523143 0.39496285 1.9470001
0.016688572 0.40608859 1.9470001
0.026489796 0.40529388 1.9470003
0.033377144 0.40423429 1.9470001
0.044502858 0.40794286 1.9470001
0.055628575 0.40701574 1.9470001
0.064900003 0.40794286 1.9470001
0.018542858 0.41536 1.9470001
0.024723811 0.41474187 1.9470001
0.03523143 0.41536 1.9470001
0.043019429 0.41387659 1.9470001
0.10384 0.41906857 1.9470001
0.11372953 0.41659617 1.9470001
0.027814288 0.42463142 1.9470001
0.03523143 0.42463142 1.9470001
0.040794287 0.42277715 1.9470001
0.02596 0.43443269 1.9470003
0.03523143 0.43390286 1.9470001
0.040794287 0.43575716 1.9470001
0.024723811 0.44255617 1.9470001
0.03523143 0.44502854 1.9470001
0.043443266 0.54463023 1.9470003
0.040794287 0.55628574 1.9470001
0.040794287 0.56555712 1.9470001
0.087151431 0.56555712 1.9470001
0.092714287 0.56555712 1.9470001
0.03523143 0.57668287 1.9470001
0.040794287 0.57297432 1.9470001
0.033377144 0.58224571 1.9470001
0.045739051 0.58719045 1.9470001
-0.27971429 -0.011188572 1.9580001
-0.27598476 -0.0055942857 1.9580001
-0.24614859 0.065266669 1.9580001
-0.24391086 0.073844574 1.9579999
-0.23868953 0.076455243 1.9580001
-0.22750096 0.10442667 1.9580001
-0.22252826 0.11561524 1.9580001
-0.22004192 0.12307429 1.9580001
-0.21631239 0.13799238 1.9580001
-0.21631239 0.14358667 1.9580001
-0.21258287 0.15664001 1.9580001
-0.21258287 0.16409905 1.9580001
-0.21258287 0.17528762 1.9580001
-0.20885333 0.18461144 1.9580001
-0.20885332 0.19393523 1.9580001
-0.20885332 0.20512383 1.9580001
-0.20512383 0.21506922 1.9580001
-0.19766477 0.21631239 1.9580001
0.076455243 0.2256362 1.9580001
0.059672382 0.23868953 1.9580001
0.06713143 0.23496 1.9580001
0.070860952 0.23309524 1.9580001
0.13799238 0.23868953 1.9580001
-0.033565715 0.24987811 1.9580001
-0.029836191 0.24987811 1.9580001
-0.013053333 0.24801335 1.9580001
-0.0055942857 0.24614859 1.9580001
0.0055942857 0.24614859 1.9580001
0.014918096 0.24428383 1.9580001
0.026106669 0.24241905 1.9580001
0.037295241 0.24241905 1.9580001
0.04661905 0.24614859 1.9580001
0.054078095 0.24241905 1.9580001
-0.13053334 0.25733715 1.9580001
-0.1081562 0.25360763 1.9580001
-0.063401908 0.25733715 1.9580001
-0.05594286 0.25733715 1.9580001
-0.045686666 0.25454003 1.9580001
-0.065266669 0.26106668 1.9580001
-0.055010475 0.26293144 1.9580001
-0.048483811 0.2647962 1.9580001
-0.21444763 0.29836193 1.9580001
-0.20885333 0.29836193 1.9580001
-0.21482058 0.30582097 1.9579999
-0.20885333 0.30209145 1.9580001
-0.22004192 0.31514478 1.9580001
-0.21631239 0.31700954 1.9580001
-0.22377144 0.32260382 1.9580001
0.19393525 0.33938667 1.9580001
0.19580001 0.34498096 1.9580001
0.20586972 0.3453539 1.9579999
0.19617298 0.35505071 1.9579999
0.20139429 0.35057524 1.9580001
0.19207048 0.36549333 1.9580001
-0.033565715 0.37668192 1.9580001
-0.025174286 0.38320857 1.9580001
0.0055942857 0.38414097 1.9580001
0.014918096 0.38351938 1.9580001
0.025174286 0.38507336 1.9580001
-0.022377145 0.39160001 1.9580001
0.0037295239 0.39160001 1.9580001
0.016782857 0.39905906 1.9580001
0.027971428 0.39160001 1.9580001
0.035430476 0.39160001 1.9580001
0.013985716 0.40372095 1.9580001
0.024241906 0.40278858 1.9580001
0.059672382 0.4065181 1.9580001
0.063401908 0.4065181 1.9580001
0.074590474 0.4065181 1.9580001
0.083914287 0.4065181 1.9580001
0.10442667 0.4065181 1.9580001
0.014918095 0.41584191 1.9580001
0.027971428 0.41770667 1.9580001
0.04661905 0.41770667 1.9580001
0.05594286 0.41584191 1.9580001
0.064645082 0.41646349 1.9580001
0.074590482 0.41397718 1.9579999
0.084287241 0.41397715 1.9579999
0.094481267 0.41646349 1.9580001
0.10629143 0.41770667 1.9580001
0.11654762 0.41490954 1.9580001
0.029836191 0.42143622 1.9580001
0.04537588 0.42516577 1.9580001
0.078320004 0.42330098 1.9580001
0.085779056 0.42330098 1.9580001
0.095102869 0.42516574 1.9580001
0.10389388 0.42623132 1.9580001
0.044754289 0.43448955 1.9580001
0.10069714 0.43262479 1.9580001
0.045220479 0.44427952 1.9580001
0.05221333 0.44381335 1.9580001
0.044754285 0.4512724 1.9580001
0.052213334 0.4512724 1.9580001
-0.04661905 0.51840383 1.9580001
-0.04661905 0.52213335 1.9580001
-0.045500197 0.53555959 1.9579999
-0.035430476 0.53705144 1.9580001
-0.044221498 0.54344493 1.9580001
-0.035430476 0.54078096 1.9580001
0.04661905 0.54078096 1.9580001
0.054078095 0.54078096 1.9580001
0.037295241 0.58926481 1.9580001
0.042267937 0.58677846 1.9580001
0.041024763 0.59299433 1.9580001
-0.27566004 0 1.9690001
-0.23252954 0.1031381 1.9690001
-0.22877906 0.10876381 1.9690001
-0.22877906 0.11438952 1.9690001
-0.22377841 0.12376573 1.9690002
-0.2212781 0.13314191 1.9690001
-0.21752763 0.15189429 1.9690001
-0.21377715 0.18564858 1.9690001
-0.21377714 0.19502477 1.9690002
-0.21377715 0.20440096 1.9690001
-0.21283954 0.21471477 1.9690001
0.076884761 0.21565241 1.9690001
0.071259052 0.22877906 1.9690001
0.24565619 0.22502857 1.9690001
0.25128192 0.22502857 1.9690001
0.065633334 0.23440477 1.9690001
-0.022502858 0.24753144 1.9690001
-0.016877143 0.24753144 1.9690001
0.04313048 0.24378096 1.9690001
-0.11251429 0.25503239 1.9690001
-0.1031381 0.25503239 1.9690001
-0.075009525 0.25878286 1.9690002
-0.064695716 0.25597003 1.9690001
-0.054381907 0.25503239 1.9690001
-0.045005716 0.25128192 1.9690001
-0.037504762 0.25128192 1.9690001
-0.2212781 0.29441237 1.9690001
-0.21452728 0.29478747 1.9690001
-0.22127812 0.30378857 1.9690002
-0.22377841 0.31504002 1.9690002
-0.22690383 0.33004192 1.9690001
0.18564858 0.33754286 1.9690001
0.19502477 0.33754286 1.9690002
0.18602364 0.34429371 1.9690001
0.19314952 0.3441062 1.9690001
0.20252572 0.34316856 1.9690001
0.18752381 0.35629526 1.9690001
0.19252445 0.35379493 1.9690002
0.18752381 0.36192095 1.9690001
0.19127429 0.36004573 1.9690001
-0.022502858 0.38254857 1.9690001
-0.0037504763 0.38629907 1.9690001
0.0012501588 0.38379875 1.9690002
-0.018752381 0.3919248 1.9690001
-0.0037504763 0.39004955 1.9690001
0 0.39004955 1.9690001
0.033754285 0.39004955 1.9690002
0.041255239 0.39004955 1.9690001
0.075009525 0.40880191 1.9690001
0.095637143 0.40880191 1.9690001
0.10501333 0.40880191 1.9690001
0.11251429 0.40880191 1.9690001
0.067508571 0.41630286 1.9690001
0.086260952 0.41630286 1.9690001
0.093761906 0.41405258 1.9690001
0.10501334 0.41536528 1.9690001
0.054381907 0.42567909 1.9690001
0.061882861 0.42567906 1.9690001
0.073134288 0.42567906 1.9690001
0.086260952 0.42380384 1.9690002
0.10126286 0.42005336 1.9690001
0.048756193 0.43318003 1.9690001
0.054006863 0.43430519 1.9690001
0.060007621 0.43505526 1.9690002
0.076884761 0.43130478 1.9690001
0.082510479 0.43130478 1.9690001
0.090011433 0.43130478 1.9690001
0.056257144 0.4425562 1.9690001
0.061882857 0.44443142 1.9690001
0.061882861 0.45005715 1.9690001
-0.060007621 0.52131623 1.9690001
-0.054381907 0.52319145 1.9690001
-0.045005713 0.52881718 1.9690002
-0.05250667 0.53631812 1.9690001
-0.04500572 0.53381783 1.9690002
-0.037504762 0.53631812 1.9690001
-0.05250667 0.54381907 1.9690002
0.044068094 0.54100621 1.9690001
-0.046255875 0.55257016 1.9690002
0.037504762 0.58882481 1.9690001
0.041255239 0.58882481 1.9690001
-0.23382857 0.10937143 1.9800001
-0.23382857 0.11314286 1.9800001
-0.23005715 0.12068572 1.9800001
-0.22628573 0.12822857 1.9800001
-0.22440001 0.13577142 1.9800001
-0.22251429 0.14331429 1.9800001
-0.21874286 0.1584 1.9800001
-0.21874286 0.16594286 1.9800001
-0.21874286 0.17537144 1.9800001
-0.21874286 0.18480001 1.9800001
-0.21874286 0.1961143 1.9800001
-0.22251429 0.20742857 1.9800001
-0.21874286 0.20554286 1.9800001
-0.22251429 0.21497144 1.9800001
-0.21874286 0.21497144 1.9800001
-0.21308573 0.22251429 1.9800001
-0.20742857 0.22440001 1.9800001
0.24137144 0.22628573 1.9800001
0.066 0.23194286 1.9800001
-0.026400002 0.2489143 1.9800001
0.015085715 0.24514286 1.9800001
0.049028572 0.24514286 1.9800001
0.054685719 0.24137144 1.9800001
-0.12445715 0.25645715 1.9800001
-0.094285719 0.25645715 1.9800001
-0.084857151 0.25645715 1.9800001
-0.074485719 0.25551429 1.9800001
-0.064114295 0.25268573 1.9800001
-0.054685719 0.25268573 1.9800001
-0.045257144 0.25268573 1.9800001
-0.22251429 0.2904 1.9800001
-0.21874286 0.2904 1.9800001
-0.22628573 0.30548573 1.9800001
-0.22628573 0.31302857 1.9800001
-0.23005715 0.32622859 1.9800001
0.17537144 0.34697145 1.9800001
0.18102857 0.34697145 1.9800001
0.15368572 0.35545713 1.9800001
0.18605715 0.35451427 1.9800001
0.18605715 0.3658286 1.9800001
-0.024514288 0.37714288 1.9800001
-0.0037714287 0.37714288 1.9800001
0.0018857144 0.37714288 1.9800001
0.18857144 0.37337145 1.9800001
-0.03017143 0.3809143 1.9800001
-0.024514288 0.3809143 1.9800001
-0.015085715 0.38657144 1.9800001
-0.0050285715 0.38468572 1.9800001
0.0037714287 0.3809143 1.9800001
0.12068572 0.38657144 1.9800001
-0.0132 0.39411432 1.9800001
-0.0075428574 0.39222857 1.9800001
0.090514287 0.41108572 1.9800001
0.10560001 0.41485715 1.9800001
0.11565715 0.4136 1.9800001
0.12257144 0.41297144 1.9800001
0.067885719 0.42805716 1.9800001
0.066000007 0.43560001 1.9800001
0.075428575 0.4362286 1.9800001
0.086742863 0.4337143 1.9800001
0.094285719 0.43748572 1.9800001
0.056571431 0.4450286 1.9800001
0.064114287 0.44125715 1.9800001
0.056571431 0.45257145 1.9800001
-0.056571431 0.528 1.9800001
-0.060342859 0.53931433 1.9800001
-0.054057147 0.53554291 1.9800001
-0.041485716 0.53554291 1.9800001
-0.035200004 0.53680009 1.9800001
0.045257144 0.53931433 1.9800001
-0.060342859 0.54308575 1.9800001
-0.056571431 0.54497147 1.9800001
-0.056571431 0.55440003 1.9800001
-0.062228575 0.56382859 1.9800001
-0.054685716 0.5657143 1.9800001
-0.049028572 0.56194288 1.9800001
-0.054057147 0.57451433 1.9800001
-0.052800003 0.5808 1.9800001
-0.23334858 0.12331429 1.9920001
-0.22765715 0.1365943 1.9920001
-0.22386287 0.14797714 1.9920001
-0.22196573 0.19540572 1.9920001
-0.22576001 0.20489144 1.9920001
-0.22765715 0.21437715 1.9920001
0.07209143 0.21627429 1.9920001
-0.22440492 0.22494696 1.9920003
0.07209143 0.22006857 1.9920001
0.23904 0.22765715 1.9920001
-0.22006857 0.23145144 1.9920001
0.055017143 0.23904 1.9920001
0.062605716 0.23524572 1.9920001
-0.024662858 0.24662858 1.9920001
-0.014228571 0.24568002 1.9920001
-0.0056914287 0.24662858 1.9920001
0.0047428575 0.24568002 1.9920001
0.015177143 0.24409907 1.9920001
0.024662858 0.2428343 1.9920001
0.034148574 0.24283428 1.9920001
0.045531433 0.24283428 1.9920001
-0.1328 0.25801143 1.9920001
-0.12521143 0.25801143 1.9920001
-0.10624 0.25421715 1.9920001
-0.091062859 0.25421715 1.9920001
-0.085371435 0.25421715 1.9920001
-0.077782862 0.25421715 1.9920001
-0.22765715 0.29595429 1.9920001
-0.23145144 0.30354288 1.9920001
-0.22765715 0.30354288 1.9920001
-0.23145144 0.31492576 1.9920001
-0.22765715 0.31113145 1.9920001
-0.23145144 0.3225143 1.9920001
0.1365943 0.3490743 1.9920001
0.14228572 0.3490743 1.9920001
0.15556572 0.34907427 1.9920001
0.13469714 0.35476571 1.9920001
0.14418286 0.35476574 1.9920002
0.15556572 0.35476574 1.9920001
0.17643429 0.35286859 1.9920001
0.18402286 0.35476571 1.9920001
0.14608 0.36425146 1.9920002
0.15651429 0.36330289 1.9920001
-0.036045715 0.3794286 1.9920001
-0.015177143 0.3794286 1.9920001
-0.0050590481 0.37563431 1.9920001
0.001897143 0.37373716 1.9920001
0.12900572 0.3794286 1.9920001
0.18592 0.37184 1.9920001
-0.015177143 0.38322291 1.9920001
-0.0075885719 0.38512003 1.9920001
0.036045715 0.39081144 1.9920001
0.044266671 0.39207622 1.9920001
0.10624 0.39840001 1.9920001
0.11491265 0.39514777 1.9920003
0.12331429 0.39650288 1.9920001
0.10624 0.40598857 1.9920001
0.11382857 0.40598857 1.9920003
0.12473715 0.4055143 1.9920003
0.13507657 0.40522972 1.9920002
0.12900572 0.41357717 1.9920001
0.068297148 0.44582859 1.9920001
0.075343676 0.44501552 1.9920003
0.085371435 0.44013715 1.9920001
0.094857149 0.44582859 1.9920002
0.10244572 0.44582859 1.9920001
-0.062226288 0.53423542 1.9920002
-0.056914289 0.53689146 1.9920001
0.047428571 0.53878862 1.9920001
-0.064502858 0.54258287 1.9920001
0.045531429 0.54258287 1.9920001
0.053120002 0.54258287 1.9920001
-0.060708571 0.55396575 1.9920001
-0.055017143 0.55776 1.9920001
-0.062605716 0.56155431 1.9920001
-0.053120002 0.56155431 1.9920001
-0.045531433 0.56661338 1.9920002
-0.045531433 0.57483429 1.9920002
-0.046290286 0.58204347 1.9920002
