# .PCD v0.7 - Point Cloud Data file format
VERSION 0.7
FIELDS x y z
SIZE 4 4 4
TYPE F F F
COUNT 1 1 1
WIDTH 1449
HEIGHT 1
VIEWPOINT 0 0 0 1 0 0 0
POINTS 1449
DATA ascii
0.062356193 0.0065638097 1.723
-0.0061535719 0.016409524 1.7229998
0.0047736801 0.016111171 1.7229997
0.016409524 0.016409524 1.7229998
0.026255237 0.016409524 1.7229998
0.034460001 0.01969143 1.723
0.047587622 0.016409524 1.7229999
0.055792376 0.016409524 1.7229998
0.06516926 0.017347211 1.7229998
0.072201908 0.018050477 1.723
-0.0043758731 0.025161272 1.723
0.017722286 0.025598859 1.7229999
0.026255237 0.026255237 1.7229998
0.033639524 0.026255239 1.723
0.045946669 0.026255237 1.7229998
0.055792376 0.026255239 1.7229998
0.06470041 0.025786394 1.7229998
0.075483814 0.027075715 1.723
0.082047619 0.029537143 1.723
0.14276287 0.029537143 1.723
0.027896192 0.032819048 1.723
0.036100954 0.036100954 1.7229998
0.046356905 0.03651119 1.7229998
0.056612857 0.033639524 1.723
0.084235556 0.037194923 1.7229999
0.09845715 0.03938286 1.723
0.10502096 0.038562384 1.723
0.11486667 0.037741907 1.723
0.12799428 0.036100954 1.723
0.1345581 0.037741907 1.723
0.14276287 0.036100954 1.7229999
0.037741907 0.042664763 1.723
0.044305716 0.042664763 1.723
0.087790959 0.045126192 1.723
0.095644094 0.046884358 1.7229998
0.10502096 0.045946673 1.7229998
0.11486667 0.046884358 1.7229998
0.12799428 0.042664763 1.723
0.1345581 0.047259431 1.7229999
0.076577783 0.053604443 1.723
0.085798368 0.054854698 1.7229998
0.0932061 0.056448765 1.7229999
0.10502095 0.055792384 1.7229998
0.11486667 0.055792384 1.7229998
0.12471239 0.055792384 1.7229998
0.1345581 0.055792376 1.7229998
0.14112191 0.052510478 1.723
0.085876502 0.065091111 1.7229999
0.094765007 0.066048339 1.7229998
0.10502096 0.065638095 1.7229998
0.11486667 0.065638095 1.7229998
0.12471239 0.065227859 1.7229998
0.1345581 0.065638095 1.7229998
0.14309105 0.066950858 1.7229999
0.15096763 0.068920001 1.723
0.095995724 0.07302238 1.723
0.10543119 0.075073577 1.7229998
0.11439783 0.074546121 1.7229998
0.12525937 0.075483814 1.7229999
0.13701953 0.074663341 1.723
0.14440382 0.075073577 1.7229998
0.15096763 0.075483814 1.723
0.12602514 0.084016755 1.7229999
0.13291714 0.086970478 1.723
0.15096763 0.082047619 1.723
0.12799428 0.096816197 1.723
0.1345581 0.095175244 1.7229998
0.14112191 0.093534291 1.723
0.095175244 0.10666191 1.7229999
0.10502096 0.10666191 1.7229999
0.067279048 0.11814857 1.723
0.076140195 0.11552306 1.7229999
0.085329525 0.11486667 1.7229998
0.095175244 0.11486667 1.7229998
0.10461072 0.11445644 1.7229998
0.11541364 0.11486667 1.7229999
0.066048339 0.12512262 1.7229998
0.07302238 0.12553287 1.723
0.086423494 0.12252445 1.723
0.095175244 0.12143048 1.723
0.10392699 0.12252445 1.723
0.11814857 0.12143048 1.723
0.067279048 0.1345581 1.7229999
0.075483814 0.1345581 1.7229998
0.085329525 0.1345581 1.7229998
0.091893338 0.1345581 1.723
0.059074286 0.14440382 1.723
0.066048339 0.14481404 1.7229998
0.075483806 0.14440382 1.7229998
0.085329525 0.1444038 1.7229998
0.095175244 0.14440383 1.7229999
0.057105143 0.15556231 1.7229999
0.065638095 0.15424953 1.7229998
0.075483814 0.15424953 1.7229998
0.084860682 0.15331183 1.7229998
0.094354771 0.1517881 1.723
0.03938286 0.16737714 1.723
0.047040638 0.16518921 1.7229999
0.055792384 0.16409522 1.7229998
0.065638095 0.16409522 1.7229998
0.074389845 0.16300127 1.7229999
0.046884358 0.17347212 1.7229998
0.05579238 0.17353071 1.7229998
0.064544126 0.171753 1.723
0.073842861 0.17065905 1.723
0.036100954 0.18542762 1.7229999
0.045290288 0.18509945 1.7229999
0.029537143 0.19035049 1.723
0.044305716 0.1969143 1.723
0 0.20676 1.723
0.045946669 0.20019619 1.723
0 0.23957905 1.723
-0.0032819049 0.24778381 1.723
0 0.24614286 1.723
0.065638095 0.32326764 1.723
0.19363239 0.63668954 1.723
-0.17394096 0.64872319 1.723
-0.1657362 0.64981717 1.723
-0.17722286 0.65309906 1.723
0.20676 0.66294479 1.723
0.21113588 0.66732067 1.723
-0.18050477 0.67607242 1.723
-0.1755819 0.67607242 1.723
0.19035049 0.67935431 1.723
0.21660572 0.67771333 1.723
0.22316954 0.67935431 1.723
-0.19363241 0.6892001 1.723
-0.18509944 0.68723089 1.7229999
-0.1755819 0.68920004 1.723
0.18597461 0.68810606 1.723
0.19363241 0.68755913 1.7229999
0.20300926 0.68685573 1.7229998
0.21660571 0.68673861 1.7229998
0.22316952 0.68591815 1.723
-0.22316954 0.69904572 1.723
-0.21578524 0.69535363 1.7229998
-0.2034781 0.69576383 1.723
-0.19363241 0.69412285 1.7229999
-0.18337643 0.69535357 1.7229998
-0.17558192 0.69576383 1.7229999
0.18542764 0.69248194 1.723
0.19363241 0.6946699 1.723
0.20293112 0.69685775 1.7229999
0.21387081 0.69685775 1.7229999
-0.21332383 0.70451564 1.723
-0.20676 0.70232767 1.723
-0.19035049 0.70396864 1.723
-0.18542762 0.70560956 1.7229999
-0.32264686 -0.21245869 1.7320001
-0.31505907 -0.21278858 1.7320001
-0.32165715 -0.20784001 1.7320001
-0.31230983 -0.20564063 1.7320002
-0.30571178 -0.2023416 1.732
-0.31011048 -0.19794287 1.7320001
-0.30285257 -0.19530362 1.7320001
-0.29361525 -0.19134478 1.732
-0.28701717 -0.19134477 1.7320001
-0.29229563 -0.18540648 1.7320001
-0.28536764 -0.18474667 1.7320001
-0.29031619 -0.17814858 1.7320001
-0.28536764 -0.17814858 1.7320001
-0.26557335 -0.17484953 1.7320001
-0.25320193 -0.17402476 1.7320001
-0.24346972 -0.17287011 1.7320001
-0.23423238 -0.17320001 1.7320002
-0.22516002 -0.17237523 1.7320001
-0.24083048 -0.16825144 1.7320001
-0.23328981 -0.16542368 1.7320002
-0.22433525 -0.16495238 1.7320002
-0.23093334 -0.1583543 1.7320001
-0.22351049 -0.15670477 1.7320001
-0.21526286 -0.14268382 1.7320001
-0.21443811 -0.13526097 1.7320002
-0.20454097 -0.13361144 1.7320002
-0.19794287 -0.13361144 1.7320001
-0.21333843 -0.12591366 1.7320002
-0.20454097 -0.12536381 1.7320002
-0.1951151 -0.12442123 1.7320002
-0.18557143 -0.12288953 1.7320001
-0.17484954 -0.12288953 1.7320001
-0.21113905 -0.1171162 1.7320001
-0.20344126 -0.11656635 1.7320002
-0.1946438 -0.11546668 1.7320002
-0.18474667 -0.11546668 1.7320002
-0.17484954 -0.11546668 1.7320002
-0.16825144 -0.11381715 1.7320001
-0.19370124 -0.10604083 1.7320002
-0.18474667 -0.10598192 1.7320002
-0.17484954 -0.10556953 1.7320002
-0.16605207 -0.10446984 1.7320002
-0.15505524 -0.10227048 1.732
-0.1451581 -0.10227048 1.732
-0.13526097 -0.10227048 1.7320001
-0.12866285 -0.10227048 1.7320001
-0.19134477 -0.097321913 1.7320001
-0.17594922 -0.096772075 1.732
-0.15258096 -0.096497148 1.7320001
-0.14515811 -0.095672376 1.7320002
-0.13526095 -0.095259994 1.7320002
-0.1278381 -0.094847627 1.7320001
-0.1517562 -0.08742477 1.7320001
-0.14515811 -0.087424763 1.7320002
-0.13484858 -0.086187631 1.7320002
-0.12536381 -0.085775249 1.7320002
-0.11452409 -0.085775249 1.7320002
-0.10754895 -0.085115433 1.7320001
-0.13278668 -0.076702863 1.7320001
-0.1263064 -0.075406805 1.7320002
-0.11491682 -0.075328261 1.7320002
-0.10556953 -0.074558482 1.7320001
-0.097321913 -0.072579049 1.7320001
-0.056083813 -0.072579049 1.7320001
-0.13361144 -0.067630485 1.7320001
-0.12536383 -0.065980956 1.7320002
-0.11546668 -0.065980956 1.7320002
-0.10556953 -0.065980956 1.7320002
-0.095672384 -0.065980963 1.7320002
-0.086600006 -0.065156192 1.7320001
-0.075878099 -0.065038368 1.7320002
-0.067300573 -0.065980956 1.7320001
-0.05938286 -0.069280006 1.7320001
-0.11546668 -0.05938286 1.732
-0.10501969 -0.057183493 1.7320002
-0.09520109 -0.055141218 1.7320002
-0.084125713 -0.056083813 1.7320001
-0.074558474 -0.056743622 1.7320001
-0.069280006 -0.05938286 1.7320001
-0.10359009 -0.046846479 1.7320001
-0.096084759 -0.045774285 1.7320002
-0.089074291 -0.044537142 1.7320001
-0.034639999 -0.042887621 1.7320001
-0.10227048 -0.036289524 1.732
-0.09614367 -0.036289532 1.7320002
-0.088249527 -0.035464764 1.7320001
-0.079177149 -0.032990478 1.7320001
-0.034310095 -0.036289524 1.7320001
-0.085775249 -0.02969143 1.732
-0.075878106 -0.02969143 1.732
-0.066640772 -0.024412954 1.7320001
-0.05938286 -0.023093333 1.7320001
-0.032990478 -0.02969143 1.7320001
-0.062681906 -0.019794287 1.7320001
-0.055424005 -0.017155049 1.7320001
-0.046186667 -0.014515812 1.7320001
-0.032990478 -0.014845715 1.7320001
-0.044537142 -0.0065980949 1.7320002
-0.036289528 -0.0065980954 1.7320002
-0.045086984 0.0010996825 1.732
-0.036760818 0.0023564626 1.7320002
-0.026025819 0.0058649736 1.7320002
-0.014020953 0.0074228575 1.7320001
0.036289524 0.0098971436 1.732
-0.025732573 0.014515812 1.7320001
-0.016495239 0.016495239 1.7320002
-0.0098971436 0.016495239 1.7320001
0.0065980954 0.019794287 1.7320001
0.036289524 0.014845717 1.7320002
0.042887617 0.016495241 1.732
-0.013196191 0.023093333 1.7320001
-0.0072579049 0.026392382 1.7320001
0.0049485713 0.026392384 1.7320002
0.014845715 0.027217142 1.7320001
0.069280006 0.028041907 1.7320001
0.072579049 0.028041907 1.7320001
0.016495239 0.032990478 1.732
0.025921088 0.037232112 1.7320002
0.032990478 0.039588574 1.7320001
0.055424005 0.038268954 1.7320001
0.065509662 0.037232108 1.7320002
0.076820679 0.036289524 1.7320002
0.027492063 0.045086991 1.732
0.035818238 0.047129251 1.7320002
0.047011428 0.045361906 1.7320001
0.05690857 0.043712385 1.7320001
0.065980963 0.042887617 1.732
0.07752762 0.046186671 1.7320002
0.083795808 0.046846475 1.7320001
0.026392382 0.052784763 1.7320001
0.036289524 0.052784763 1.7320001
0.078077465 0.058283176 1.732
0.084125713 0.05938286 1.7320001
0.075878099 0.064331435 1.7320001
0.085775241 0.062681906 1.7320001
0.12536381 0.069280006 1.7320001
0.089074291 0.07422857 1.7320001
0.095012575 0.077857532 1.7320001
0.10227048 0.079177149 1.7320001
0.1171162 0.079177149 1.7320001
0.12426413 0.075878106 1.732
0.13328154 0.076537915 1.7320001
0.092373334 0.084125713 1.7320001
0.10604082 0.084832653 1.7320002
0.11546668 0.085775241 1.7320002
0.12371429 0.08742477 1.7320001
0.13196191 0.082476191 1.7320001
0.089074291 0.097321913 1.7320001
0.093692958 0.0963322 1.7320001
0.10804381 0.095672384 1.7320001
0.11499538 0.094729796 1.7320002
0.12442123 0.09520109 1.7320002
0.13196191 0.092373334 1.7320001
0.078077465 0.10776889 1.732
0.086246535 0.10651212 1.7320002
0.095672391 0.10227048 1.732
0.10556953 0.10227048 1.732
0.11505429 0.10556953 1.7320002
0.069280006 0.11546667 1.7320001
0.07422857 0.11381715 1.7320001
0.10886858 0.11876572 1.7320001
0.11436699 0.11546668 1.732
0.05938286 0.12866285 1.7320001
0.10886858 0.12371429 1.7320001
0.11348724 0.124704 1.7320001
0.05938286 0.13526095 1.732
0.062681906 0.13526095 1.732
0.055259053 0.14598288 1.7320001
0.062681906 0.14185905 1.7320001
0.095672376 0.1451581 1.732
0.047836192 0.1583543 1.7320001
0.054434292 0.15340573 1.7320001
0.08742477 0.1583543 1.7320001
0.092373334 0.1583543 1.7320001
0.039588574 0.16495238 1.7320001
0.044537142 0.16330287 1.7320001
0.078077465 0.16715175 1.732
0.085775234 0.16165334 1.732
0.092373334 0.16165334 1.7320001
0.038268954 0.17484954 1.7320001
0.042887621 0.17649905 1.7320001
0.056083813 0.17814858 1.7320001
0.066530801 0.17594922 1.7320002
0.076702863 0.17402476 1.7320001
0.084950484 0.17237523 1.7320001
0.02969143 0.18804573 1.7320001
0.036289524 0.18144763 1.732
0.047011428 0.18309715 1.7320001
0.055423997 0.18276724 1.7320001
0.062681906 0.18474667 1.732
0.02969143 0.19629334 1.7320001
0.036289524 0.19464383 1.7320002
0.046657957 0.19370122 1.7320002
-0.014845715 0.20454095 1.7320001
-0.0065980954 0.20619048 1.7320001
0.027334968 0.20454097 1.7320002
0.035346936 0.20406964 1.7320002
0.042887621 0.20124191 1.7320001
-0.017814856 0.2150979 1.7320001
0.027711999 0.2137783 1.7320001
0.032990478 0.21443811 1.7320001
0.0065980954 0.22598478 1.7320001
0.016495239 0.22527783 1.7320002
0.02639238 0.22433525 1.732
0.032990478 0.2210362 1.7320001
-0.0059382855 0.23621182 1.7320001
0.0019794286 0.235552 1.7320001
0.032990478 0.23588192 1.7320001
-0.013196191 0.24412954 1.7320001
-0.0070104762 0.24371716 1.7320002
0.0042416332 0.24412952 1.7320002
0.013196191 0.24083048 1.7320001
0.032990478 0.24248001 1.7320001
-0.013196191 0.25237715 1.7320001
-0.0072579049 0.25270706 1.7320001
0.0024742857 0.2515524 1.7320001
0.032990478 0.25402668 1.7320001
0.062681906 0.32825524 1.7320001
0.1929943 0.63506669 1.7320001
-0.17567429 0.64826286 1.7320001
-0.16660191 0.64991242 1.7320001
-0.15670477 0.6433143 1.7320001
0.1957435 0.6433143 1.732
0.20124191 0.64001524 1.7320001
-0.18144763 0.65651053 1.732
0.20454095 0.65980953 1.7320001
-0.19134477 0.6680572 1.7320001
-0.18427537 0.66735023 1.7320002
0.20586057 0.6664077 1.7320001
0.21113905 0.66640764 1.7320001
-0.19134477 0.67960382 1.7320001
-0.18515904 0.6763047 1.7320002
-0.17649905 0.67960382 1.7320001
0.19629334 0.67960382 1.7320001
0.20564063 0.67740446 1.7320002
0.21361333 0.67712957 1.7320001
-0.19244444 0.68840128 1.732
-0.18557143 0.68537712 1.7320001
0.18380408 0.68620193 1.7320002
0.19530362 0.68488234 1.7320001
0.20520076 0.68422252 1.7320001
0.21278858 0.68620187 1.7320002
-0.2210362 0.6993981 1.7320001
-0.21113905 0.6960991 1.7320001
-0.2037162 0.69527429 1.7320001
0.17814858 0.69280005 1.7320001
0.18144763 0.69609904 1.732
0.2210362 0.6977486 1.7320001
-0.22268572 0.70764577 1.7320001
-0.21773715 0.70764577 1.7320001
-0.18144763 0.70764577 1.7320001
-0.17567429 0.70682102 1.7320001
-0.22268572 0.71259433 1.7320001
-0.33161905 -0.20726192 1.7410001
-0.3249867 -0.20505112 1.7410001
-0.31724891 -0.20339303 1.7410001
-0.3216705 -0.19897144 1.7410001
-0.31503814 -0.19565524 1.7410001
-0.30730033 -0.19344445 1.7410001
-0.31304839 -0.18636993 1.7409999
-0.3050895 -0.18570668 1.7410001
-0.29679906 -0.18487763 1.7410001
-0.28850859 -0.18239048 1.7410001
-0.31172192 -0.17907429 1.7410001
-0.30591857 -0.17824525 1.7410001
-0.29624638 -0.1779689 1.7410001
-0.28187621 -0.17575811 1.7410001
-0.2769019 -0.17575811 1.7410001
-0.26197904 -0.17244191 1.7410001
-0.2570048 -0.17244191 1.7410001
-0.25335696 -0.16580954 1.7409999
-0.24581265 -0.16539501 1.7410001
-0.23876572 -0.16415143 1.7410001
-0.25203049 -0.15917715 1.7410001
-0.24498355 -0.15627548 1.7410001
-0.23586407 -0.15544644 1.7410001
-0.22616419 -0.15453449 1.7409999
-0.23462048 -0.14839953 1.7410001
-0.22455347 -0.14638613 1.7410001
-0.22550096 -0.13596381 1.7410001
-0.22550096 -0.12601525 1.7410001
-0.21776319 -0.12490985 1.7410001
-0.21649988 -0.11559293 1.7410001
-0.20781462 -0.11385588 1.7410001
-0.21306524 -0.10694715 1.7410001
-0.20607756 -0.10564436 1.7410001
-0.19897144 -0.10446 1.7410001
-0.18570668 -0.10280191 1.7410001
-0.19454984 -0.096169531 1.7410001
-0.1843802 -0.096169531 1.7409999
-0.17520541 -0.09561684 1.7410001
-0.16580953 -0.096169531 1.7410001
-0.15785067 -0.095506296 1.7409999
-0.19233905 -0.089537144 1.7410001
-0.17575811 -0.089537144 1.7410001
-0.16249333 -0.08622095 1.7410001
-0.15680845 -0.08574722 1.7410001
-0.14591239 -0.082904764 1.7410001
-0.13928001 -0.082904764 1.7410001
-0.18570668 -0.079588577 1.7410001
-0.16249333 -0.079588577 1.7410001
-0.15420286 -0.079588577 1.7410001
-0.14632691 -0.076686911 1.7410001
-0.13795352 -0.075609148 1.7409999
-0.14674142 -0.067152865 1.7410001
-0.1372903 -0.064997338 1.7409999
-0.13596381 -0.058033332 1.7410001
-0.12684429 -0.058862381 1.7410001
-0.11540344 -0.055048764 1.7409999
-0.10722349 -0.054164443 1.7410001
-0.11551398 -0.047532067 1.7410001
-0.10860524 -0.04559762 1.7410001
-0.10611811 -0.036478098 1.7410001
-0.094511434 -0.036478095 1.7410001
-0.10446 -0.029845715 1.7410001
-0.096832767 -0.028519237 1.7409999
-0.08622095 -0.024871429 1.7410001
-0.076272376 -0.024871429 1.7410001
-0.07295619 -0.019897144 1.7410001
-0.066738337 -0.016166428 1.7410001
-0.058586031 -0.014370158 1.7410001
-0.067429215 -0.0088431751 1.7410001
-0.055269837 -0.0077377781 1.7410001
-0.049742859 -0.0066323816 1.7410001
-0.055269841 0.0011053969 1.7410001
-0.046426669 0.0039794287 1.7409999
-0.035814859 0.0086220959 1.7409999
-0.046426669 0.013264762 1.7410001
-0.034819998 0.013264762 1.7410001
-0.027358573 0.019068096 1.7410001
-0.023213334 0.023213334 1.7410001
-0.015917715 0.025866289 1.7409999
-0.0099485721 0.029845715 1.7410001
-0.005969143 0.03448838 1.7409999
0.003789932 0.03505687 1.7410001
0.016580952 0.038136195 1.7410001
0.067981906 0.033161905 1.7410001
0.07295619 0.036478095 1.7410001
0.0077377781 0.045321271 1.7410001
0.016580954 0.046426669 1.7410001
0.025976827 0.046979368 1.7410001
0.046426669 0.049742859 1.7410001
0.055712003 0.048416384 1.7409999
0.066323809 0.048084762 1.7410001
0.07295619 0.046426669 1.7410001
0.0099485721 0.053059049 1.7410001
0.017409999 0.053888097 1.7410001
0.027192762 0.055711996 1.7409999
0.035814859 0.055712003 1.7409999
0.046426669 0.053059053 1.7410001
0.057322722 0.055901494 1.7410001
0.066323809 0.056375239 1.7410001
0.07295619 0.056375239 1.7410001
0.058033332 0.06466572 1.7410001
0.066323809 0.066323809 1.7410001
0.07295619 0.063007623 1.7410001
0.086220957 0.069640003 1.7410001
0.066323809 0.07295619 1.7410001
0.08622095 0.077598855 1.7409999
0.049742859 0.08622095 1.7410001
0.053059049 0.082904764 1.7410001
0.063007623 0.089537144 1.7410001
0.087326348 0.085115552 1.7410001
0.097117014 0.086694695 1.7410001
0.10446 0.089537144 1.7410001
0.064113021 0.093958735 1.7410001
0.079588577 0.092853338 1.7410001
0.085273482 0.095695786 1.7410001
0.098656669 0.095340483 1.7410001
0.10412838 0.096169531 1.7409999
0.11772476 0.099485718 1.7410001
0.07793048 0.10446 1.7410001
0.08456286 0.10280191 1.7410001
0.11938286 0.1061181 1.7410001
0.1235281 0.10528906 1.7410001
0.13430572 0.10280191 1.7410001
0.067429207 0.11385588 1.7410001
0.07295619 0.11275048 1.7410001
0.12402554 0.1167299 1.7409999
0.056375239 0.13928001 1.7410001
0.049742859 0.14922857 1.7410001
0.053059049 0.1425962 1.7410001
0.049742859 0.15420286 1.7410001
0.038136192 0.16580953 1.7410001
0.043110479 0.16249333 1.7410001
0.08622095 0.16746764 1.7410001
0.033990953 0.17575811 1.7410001
0.076272383 0.17907429 1.7410001
0.087879047 0.17575811 1.7410001
0.092853338 0.17575811 1.7410001
0.019897144 0.18902287 1.7410001
0.026529526 0.18625939 1.7410001
0.057204287 0.18819381 1.7410001
0.067981906 0.18239048 1.7410001
0.074614286 0.18239048 1.7410001
0.018570667 0.19565524 1.7409999
0.024871429 0.19565524 1.7410001
0.053888097 0.1948262 1.7410001
0.066323809 0.19233905 1.7410001
-0.016580952 0.20892 1.7410001
-0.0060796826 0.20560382 1.7410001
0.0037307143 0.20518932 1.7410001
0.018239049 0.20560382 1.7410001
0.023213334 0.20560381 1.7410001
0.039794289 0.20726192 1.7410001
0.046426669 0.20615654 1.7410001
0.053059049 0.20228763 1.7410001
-0.02431873 0.2166578 1.7410001
-0.014922858 0.21472335 1.7410001
-0.0066323816 0.21555239 1.7410001
0.0023687074 0.21507864 1.7410001
0.01724419 0.21621564 1.7409999
0.024871429 0.21638143 1.7410001
0.037425581 0.2155524 1.7410001
0.044436954 0.21488914 1.7409999
-0.016166428 0.22508642 1.7410001
-0.0066323811 0.22550099 1.7410001
0.0033161906 0.22550096 1.7410001
0.016580954 0.22218478 1.7410001
0.026529526 0.22550096 1.7410001
0.0359254 0.22605366 1.7410001
0.043110479 0.22550096 1.7410001
-0.016166428 0.23503502 1.7410001
-0.0074614291 0.23296238 1.7410001
0.0071061226 0.23450206 1.7410001
0.01616643 0.23586406 1.7410001
0.026115 0.23503502 1.7410001
0.035649046 0.23462048 1.7410001
-0.017133653 0.24484541 1.7410001
0.0099485721 0.2453981 1.7410001
0.016995477 0.24581262 1.7410001
0.026944049 0.24498358 1.7410001
0.035649046 0.24622716 1.7410001
-0.016580952 0.25368857 1.7410001
-0.0066323816 0.25866288 1.7410001
0.0062178569 0.25659028 1.7410001
0.01768635 0.25534669 1.7410001
0.026944045 0.25576124 1.7410001
0.035151619 0.25534669 1.7409999
0.0060796831 0.26308444 1.7410001
0.019897144 0.26529524 1.7410001
0.025700476 0.26280808 1.7410001
0.033161905 0.26197904 1.7410001
0.0099485721 0.27524385 1.7410001
0.014922857 0.27856001 1.7410001
0.0091195246 0.28436333 1.7410001
0.013264762 0.28353429 1.7410001
0.026529524 0.31669623 1.7410001
0.036478098 0.3166962 1.7410001
0.043110479 0.31503811 1.7410001
0.027358573 0.3249867 1.7410001
0.036478098 0.32332858 1.7410001
0.0099485721 0.37638766 1.7410001
0.19731334 0.63670862 1.7410001
0.20560382 0.63670862 1.7410001
-0.17244191 0.64997333 1.7410001
-0.16580953 0.64776254 1.7410001
-0.15751906 0.643341 1.7410001
0.19897144 0.64831525 1.7410001
0.20560382 0.64624262 1.7410001
0.21555239 0.64665717 1.7410001
-0.18239048 0.65328956 1.7410001
0.19565524 0.65605301 1.7410001
0.20311667 0.65743482 1.7410001
0.18736477 0.66655433 1.7410001
0.19620794 0.66710705 1.7410001
0.20228763 0.66655433 1.7410001
0.18239048 0.67318672 1.7410001
0.19620794 0.67595023 1.7410001
0.20311667 0.67650288 1.7410001
0.18570668 0.68424064 1.7410001
0.19233905 0.68313527 1.7410001
0.17907429 0.69971621 1.7410001
-0.22881715 0.70966476 1.7410001
-0.3322483 -0.20179684 1.756
-0.32666668 -0.2 1.7500001
-0.33169717 -0.1976781 1.7590001
-0.32416999 -0.19316313 1.7522501
-0.32249811 -0.18380477 1.7545
-0.31666669 -0.18166667 1.7500001
-0.32332098 -0.17757525 1.7590001
-0.31413478 -0.17544572 1.7545002
-0.30349737 -0.17408001 1.7533751
-0.29278952 -0.17567287 1.7567501
-0.28505853 -0.17313768 1.7577143
-0.2737149 -0.17336635 1.756
-0.26450953 -0.17105192 1.7522501
-0.27138859 -0.1624981 1.7590001
-0.26394093 -0.16370858 1.7540001
-0.25666669 -0.16333334 1.7500001
-0.26376739 -0.15424499 1.755625
-0.255 -0.15333332 1.7500001
-0.2475 -0.15083334 1.7500001
-0.26301241 -0.14574572 1.7590001
-0.25472715 -0.1434631 1.75675
-0.24450402 -0.14395981 1.7536001
-0.23333335 -0.14291666 1.7500001
-0.22500001 -0.14 1.7500001
-0.24257448 -0.13468914 1.7590001
-0.23346859 -0.13340762 1.751
-0.22416668 -0.13333334 1.7500001
-0.24123429 -0.12564287 1.7590001
-0.2336688 -0.12414429 1.755625
-0.22333334 -0.125 1.7500001
-0.23252305 -0.11458629 1.7590001
-0.22474311 -0.11529358 1.7545
-0.20333335 -0.11000001 1.7500001
-0.2216862 -0.10456524 1.7567501
-0.21488953 -0.10210285 1.7518002
-0.20416668 -0.10166667 1.7500001
-0.19000001 -0.1 1.7500001
-0.18666667 -0.1 1.7500001
-0.16666667 -0.1 1.7500001
-0.2144305 -0.093813337 1.7590001
-0.20380193 -0.093542866 1.7540001
-0.19333334 -0.091666669 1.7500001
-0.18416667 -0.090833336 1.7500001
-0.17166668 -0.090000004 1.7500001
-0.16666667 -0.091666669 1.7500001
-0.21443048 -0.083761908 1.7590001
-0.20426479 -0.083712392 1.7579999
-0.19355051 -0.083426677 1.7520001
-0.18303454 -0.083803579 1.7511251
-0.17353334 -0.083428577 1.7520001
-0.16500001 -0.082500011 1.7500001
-0.22113144 -0.070360005 1.7590001
-0.21395183 -0.072753198 1.7589999
-0.20396025 -0.074129283 1.7589999
-0.19388573 -0.073537141 1.755
-0.18322897 -0.075563051 1.7554001
-0.17422478 -0.073710479 1.7589999
-0.16380191 -0.073537141 1.755
-0.15499999 -0.07333333 1.7500001
-0.14333335 -0.071666673 1.7500001
-0.22113144 -0.067009524 1.7590001
-0.21610573 -0.067009524 1.7590001
-0.20326222 -0.065892704 1.7590002
-0.19466422 -0.063612513 1.7577143
-0.18427619 -0.06432914 1.7590001
-0.17199111 -0.065892704 1.7590002
-0.16417333 -0.063659042 1.7589999
-0.15385905 -0.063544765 1.756
-0.14333335 -0.061999999 1.7500002
-0.13333334 -0.060000002 1.7500001
-0.1708743 -0.056958098 1.7590001
-0.16417335 -0.053607624 1.7589999
-0.1540343 -0.053575236 1.7579999
-0.14374477 -0.053480003 1.755
-0.13362721 -0.052491162 1.7538573
-0.12510857 -0.053376194 1.7515001
-0.12 -0.053333335 1.7500001
-0.16305651 -0.044673014 1.7589999
-0.15412191 -0.043974999 1.7589999
-0.14448929 -0.043556191 1.7589999
-0.13267887 -0.044896383 1.7590001
-0.12564287 -0.043556195 1.7589999
-0.11619048 -0.041904766 1.7500001
-0.16082287 -0.036855239 1.7590001
-0.14407048 -0.036855239 1.7590001
-0.12145476 -0.034342382 1.7590001
-0.11352953 -0.033390477 1.753
-0.12061714 -0.025128573 1.7590001
-0.11385335 -0.023438096 1.7579999
-0.10375001 -0.022916667 1.7500001
-0.093888886 -0.022222223 1.7500001
-0.083333336 -0.020000001 1.7500001
-0.076666668 -0.020000001 1.7500001
-0.11349739 -0.013820714 1.7589999
-0.10380763 -0.01339238 1.7579999
-0.093653336 -0.013373334 1.756
-0.083624758 -0.013379049 1.756
-0.074999996 -0.013333333 1.7500001
-0.06666667 -0.010000001 1.7500001
-0.1139162 -0.0067009525 1.7590001
-0.083761908 -0.0050257142 1.7589999
-0.074000001 -0.004666667 1.7500002
-0.063333333 -0.0050000004 1.7500001
-0.056666669 -0.0033333334 1.7500001
-0.083761908 0.003350476 1.7589999
-0.073502861 0.0033466665 1.7540001
-0.063441902 0.0033447619 1.753
-0.053333335 0.0058333334 1.7500001
-0.087112382 0.010051429 1.7590001
-0.072753198 0.012923266 1.7589999
-0.063659042 0.013401905 1.7589999
-0.053453337 0.013369525 1.7540001
-0.043365173 0.01382177 1.7512858
-0.035000004 0.016666668 1.7500001
-0.070360005 0.021778096 1.7590001
-0.064077862 0.023872143 1.7589999
-0.05360762 0.023453334 1.7589999
-0.043556195 0.023453332 1.7589999
-0.033884998 0.023840001 1.75675
-0.024166668 0.025833335 1.7500001
-0.061425399 0.032387938 1.7590002
-0.05304921 0.034063172 1.7589999
-0.043556195 0.033504762 1.7589999
-0.033470478 0.033468574 1.757
-0.023398098 0.033434287 1.755
-0.014473016 0.034504447 1.7530001
0.0066666668 0.036666669 1.7500001
0.010000001 0.036666669 1.7500001
-0.050257146 0.040205717 1.7590001
-0.043077555 0.042598911 1.7589999
-0.033470478 0.043508571 1.757
-0.023453334 0.043556195 1.7589999
-0.01338476 0.043481905 1.756
-0.0050000004 0.043333337 1.7500001
0.0033333334 0.043333333 1.7500001
0.010000001 0.040000003 1.7500001
-0.040205717 0.051932383 1.7590001
-0.032946348 0.052490797 1.7589999
-0.023453334 0.053607624 1.7589999
-0.013390476 0.053546667 1.757
-0.0050142859 0.05346762 1.7545
0.0033333334 0.053333338 1.7500001
0.0125 0.055 1.7500001
0.023333333 0.056666669 1.7500001
0.043333337 0.056666669 1.7500001
0.05166667 0.056666669 1.7500001
-0.030154286 0.06365905 1.7590002
-0.023453334 0.063659042 1.7589999
-0.013390477 0.063588575 1.757
-0.0050171432 0.063550472 1.756
0.0033466667 0.063516185 1.755
0.01336 0.063481905 1.7540001
0.022916667 0.063749999 1.7500001
0.032916669 0.063749999 1.7500001
0.043333337 0.063333333 1.7500001
0.051666673 0.063333333 1.7500001
0.080000006 0.06666667 1.7500001
-0.030154286 0.072035238 1.7590001
-0.023453334 0.072593652 1.7590002
-0.013401905 0.072035238 1.7590001
-0.0044673015 0.072593652 1.7590002
0.0029316668 0.073291674 1.7589999
0.013820714 0.073291667 1.7589999
0.023424765 0.073630482 1.757
0.03337143 0.073420949 1.7520001
0.043333337 0.07333333 1.7500001
0.053333335 0.07333333 1.7500001
0.062222224 0.074444443 1.7500001
0.073749997 0.073749997 1.7500001
0.081666671 0.07333333 1.7500001
-0.013401905 0.080411434 1.7590001
-0.0050257142 0.083761901 1.7589999
0.0013401905 0.084431998 1.7590001
0.013401904 0.083761908 1.7589999
0.023453334 0.083761916 1.7589999
0.033430476 0.083571427 1.755
0.043401912 0.083476193 1.753
0.054444447 0.082777791 1.7500001
0.063333333 0.083333336 1.7500001
0.07333333 0.083333336 1.7500001
0.080833338 0.084166676 1.7500001
-0.0041880952 0.093813337 1.7590001
0.0037692855 0.094232149 1.7589999
0.013401904 0.093813345 1.7589999
0.023453334 0.09381333 1.7589999
0.033485718 0.093761913 1.7579999
0.043478098 0.093657151 1.756
0.053750005 0.09375 1.7500001
0.062666669 0.093333341 1.7500002
0.07333333 0.093333334 1.7500001
0.082500011 0.091666669 1.7500001
0.003350476 0.10218953 1.7589999
0.013820714 0.10344596 1.7589999
0.022496056 0.10434341 1.7589999
0.032667141 0.10302714 1.7590001
0.044513471 0.10386477 1.7589999
0.053483814 0.10363429 1.755
0.063333333 0.10333335 1.7500001
0.072961666 0.10298096 1.7511251
0.080000006 0.1 1.7500001
0.12666667 0.10666667 1.7500001
0.13250001 0.10583334 1.7500001
0.0033504763 0.11224097 1.7590001
0.010051429 0.11056572 1.7590001
0.045231432 0.1139162 1.7589999
0.054947812 0.1139162 1.7590001
0.062471747 0.11489587 1.757
0.071846671 0.11028287 1.7545002
0.12666667 0.11166667 1.7500001
0.13333881 0.11328311 1.755625
0.044673022 0.12452605 1.7589999
0.054564901 0.12396763 1.7589999
0.06121397 0.12466159 1.7530001
0.016752381 0.13401905 1.7590001
0.020102859 0.13401905 1.7590001
0.035515048 0.13334897 1.7590001
0.043556191 0.13401905 1.7589999
0.053500481 0.13375762 1.755625
0.025686985 0.1451873 1.7590002
0.03417486 0.14273028 1.7590001
0.043556191 0.14407048 1.7589999
0.051384766 0.14347735 1.7518002
0.036855239 0.15747239 1.7590001
0.04350286 0.15394476 1.757
0.033855002 0.16427286 1.755625
0.041666672 0.16000001 1.7500001
0.02680381 0.17590001 1.7590001
0.030871905 0.17271858 1.7522501
0.016752381 0.18595144 1.7590001
0.023370476 0.18308921 1.7530001
0.030000001 0.18000001 1.7500001
0.06666667 0.18666667 1.7500001
0.073333338 0.18666667 1.7500001
-0.010051429 0.1976781 1.7590001
-0.0050171427 0.19717239 1.7545002
0.0041752383 0.19608191 1.7522501
0.013353333 0.19477588 1.7530001
0.056666669 0.19666667 1.7500001
0.063333333 0.19444446 1.7500001
0.071480758 0.19306438 1.7536001
-0.022942858 0.20503268 1.7564286
-0.013359047 0.20200954 1.7530001
-0.0049999999 0.2 1.7500001
0.0033333332 0.2 1.7500001
0.011666668 0.20333336 1.7500001
0.055906191 0.2044324 1.7522501
0.063371427 0.20345145 1.751
0.071628198 0.20484345 1.7572
-0.053607624 0.21778096 1.7590002
-0.043556195 0.21778096 1.7590002
-0.033419047 0.21554857 1.7545
-0.025034286 0.21193668 1.7522501
0.0066666668 0.21666667 1.7500001
0.012380953 0.21380953 1.7500001
0.020000001 0.21666667 1.7500001
0.053430483 0.21369906 1.753
0.063405715 0.21357907 1.7520001
0.071789525 0.21370478 1.7530001
-0.081528254 0.22671556 1.7590002
-0.073710479 0.22615714 1.7589999
-0.063081659 0.22432216 1.7545
-0.053453341 0.22384003 1.7540001
-0.043455243 0.22396953 1.755
-0.033504762 0.2244819 1.7589999
-0.025333334 0.22400001 1.7500002
0.0049999999 0.22166668 1.7500001
0.010000001 0.22166668 1.7500001
0.045000002 0.22333334 1.7500001
0.053428575 0.22371429 1.753
0.061425399 0.22224827 1.7590002
-0.082086667 0.23453332 1.7589999
-0.073710479 0.23453334 1.7589999
-0.06365905 0.23453334 1.7589999
-0.053607624 0.23453334 1.7589999
-0.043529525 0.2343981 1.7579999
-0.033504765 0.23453334 1.7589999
-0.024285715 0.23285715 1.7500001
0.010000001 0.23 1.7500001
0.020000001 0.23333335 1.7500001
0.043333337 0.23375002 1.7500001
0.050000001 0.23166668 1.7500001
-0.1273181 0.24793525 1.7590001
-0.080411434 0.24123429 1.7590001
-0.072370291 0.24391468 1.7590001
-0.06365905 0.24290954 1.7589999
-0.054026432 0.24416597 1.7589999
-0.043556195 0.24290954 1.7589999
-0.033983402 0.2436275 1.7589999
-0.02430531 0.24303839 1.7512858
0.030000001 0.24000001 1.7500001
0.042952653 0.24291973 1.7538573
-0.022742096 0.25210819 1.7554001
0.015555556 0.25555554 1.7500001
0.022222223 0.25222221 1.7500001
0.041778099 0.25398478 1.7545
-0.012245079 0.26267365 1.7530001
-0.0050128577 0.26568574 1.7545002
0.0016666667 0.26666668 1.7500001
0.015000001 0.26333335 1.7500001
0.026666667 0.26666668 1.7500001
0.034166671 0.26583335 1.7500001
0.041846666 0.26446477 1.7575001
-0.0033504763 0.27306384 1.7590001
0.0033333334 0.27333334 1.7500001
0.014285714 0.27285713 1.7500001
0.02375 0.27375001 1.7500001
0.033392385 0.27380571 1.753
0.04132254 0.2725054 1.7590002
0.0029209526 0.28424406 1.755625
0.016666668 0.28500003 1.7500001
0.023333333 0.28333333 1.7500001
0.033396192 0.28381905 1.753
0.0033371428 0.29417145 1.755
0.013750001 0.29374999 1.7500001
0.023333333 0.29333332 1.7500001
0.032940239 0.29393858 1.7511251
0.040205717 0.29819238 1.7590001
0.0037607143 0.30408666 1.75675
0.013333333 0.30333331 1.7500001
0.023333335 0.30333331 1.7500001
0.033333331 0.30333331 1.7500001
0.042947758 0.30495185 1.7538573
0.050000001 0.30500001 1.7500001
0.006700953 0.31494477 1.7590002
0.01338857 0.31459048 1.757
0.022916667 0.31291664 1.7500001
0.032857142 0.31238094 1.7500001
0.043809526 0.31238094 1.7500001
0.050833333 0.31416667 1.7500001
0.0067009525 0.32164574 1.7590001
0.013401905 0.3249962 1.7589999
0.021666668 0.32333335 1.7500001
0.030000001 0.32166669 1.7500001
0.045000002 0.32333335 1.7500001
0.052380957 0.32380956 1.7500001
0.060000002 0.32666668 1.7500001
0.013820714 0.33462888 1.7589999
0.022985239 0.33482358 1.755625
0.033333335 0.33333331 1.7500001
0.043533336 0.33485904 1.7579999
0.053607624 0.3350476 1.7589999
0.060000002 0.33166668 1.7500001
0.0055841268 0.34733272 1.7590002
0.012061715 0.34576917 1.7590001
0.02680381 0.34342384 1.7590001
0.032834668 0.34308878 1.7590001
0.044393811 0.34258622 1.7590001
0.0037671428 0.3548857 1.755625
0.012983096 0.35556927 1.7589999
0.00502 0.36489049 1.7575001
0.013382857 0.36457717 1.756
0.023931975 0.3661592 1.7589999
0.032387938 0.36631873 1.7589999
0.0050142859 0.37461051 1.756
0.01375 0.3729167 1.7500001
0.023438098 0.37503812 1.7579999
0.033434287 0.37439811 1.755
0.04188095 0.37525335 1.7589999
0.0066666668 0.38666669 1.7500001
0.014285714 0.38380957 1.7500001
0.023426669 0.38486284 1.757
0.033354286 0.38355052 1.751
0.041880954 0.38362956 1.7590001
0.0066666668 0.39000002 1.7500001
0.013333333 0.39000002 1.7500001
0.023848709 0.39296135 1.7525715
0.030910477 0.39351571 1.7545
-0.14239524 0.62988955 1.7590001
-0.17366634 0.63659048 1.7589999
-0.16417333 0.63793069 1.7590001
-0.15579714 0.63659048 1.7589999
-0.14239524 0.63659048 1.7590001
0.19432764 0.63994098 1.7590002
0.20437907 0.63994098 1.7590002
0.21108001 0.63994098 1.7590001
-0.18427619 0.64999241 1.7590001
-0.17337207 0.64609176 1.756
-0.16403334 0.64664608 1.7575001
-0.15463428 0.64463663 1.7572
-0.14742096 0.64329147 1.7590001
0.20222223 0.64222223 1.7500001
0.21277779 0.64333338 1.7500001
-0.18315937 0.65445971 1.7590002
-0.17392762 0.65222859 1.7560002
0.20333335 0.6566667 1.7500001
0.21277779 0.65333337 1.7500001
0.19333334 0.66500002 1.7500001
0.20666668 0.66000003 1.7500001
0.21166669 0.66333336 1.7500001
0.18555556 0.67444444 1.7500001
0.19222224 0.67444444 1.7500001
0.17666668 0.68833333 1.7500001
0.18333334 0.68388891 1.7500001
0.19133334 0.68266666 1.7500002
0.2 0.68000001 1.7500001
0.17712095 0.69678289 1.7545002
0.18000001 0.69500005 1.7500001
-0.34012952 -0.19868954 1.7680001
-0.33507812 -0.19532192 1.7680001
-0.33002669 -0.18521905 1.7680001
-0.33002669 -0.17848381 1.7680001
-0.32441399 -0.17399365 1.7680001
-0.3173981 -0.17259048 1.7680001
-0.30982095 -0.17174858 1.7680001
-0.29719239 -0.17259048 1.7680001
-0.27951241 -0.17174858 1.7680001
-0.32329145 -0.16838096 1.7680001
-0.31655622 -0.16838096 1.7680001
-0.30645335 -0.16838096 1.7680001
-0.29298288 -0.16838096 1.7680001
-0.28576657 -0.16597553 1.7679999
-0.27710694 -0.16549444 1.7679999
-0.27614477 -0.15491049 1.7679999
-0.26940954 -0.15154286 1.7680001
-0.27446097 -0.14649144 1.7680001
-0.26738897 -0.14346059 1.768
-0.2549769 -0.13518585 1.7679999
-0.24836192 -0.13386287 1.7680001
-0.25257143 -0.12460191 1.7680001
-0.24679838 -0.12412082 1.7679999
-0.23910096 -0.12123429 1.7680001
-0.2433105 -0.11449905 1.7680001
-0.23825905 -0.11365715 1.7680001
-0.22899811 -0.11113143 1.7680001
-0.2343863 -0.10574323 1.768
-0.22731429 -0.10355429 1.7680001
-0.22226286 -0.097660959 1.7680001
-0.21552762 -0.094293334 1.768
-0.22226286 -0.08419048 1.7680001
-0.21552762 -0.08419048 1.7679999
-0.22226286 -0.075771429 1.7680001
-0.21721143 -0.077455238 1.7680001
-0.20879239 -0.070720002 1.7680001
-0.18606095 -0.071561903 1.7680001
-0.23236573 -0.067352384 1.7680001
-0.22563049 -0.065668575 1.7680001
-0.21468572 -0.064826667 1.7680001
-0.20598602 -0.062862225 1.768
-0.19363812 -0.063984767 1.7680001
-0.18409652 -0.061739687 1.7680001
-0.17623873 -0.062862225 1.768
-0.20205717 -0.053881902 1.7680001
-0.19532192 -0.053881902 1.7679999
-0.18521905 -0.053881906 1.7679999
-0.17553717 -0.053460956 1.7679999
-0.18479809 -0.043358099 1.7679999
-0.17511621 -0.043779049 1.7679999
-0.16725843 -0.041533973 1.7680001
-0.15491048 -0.040411431 1.7680001
-0.14144 -0.043779049 1.7680001
-0.13638857 -0.04209524 1.7680001
-0.18465777 -0.03479873 1.768
-0.17511621 -0.033676192 1.7679999
-0.1654343 -0.033255242 1.7679999
-0.15491049 -0.033676192 1.7679999
-0.14424635 -0.034237463 1.768
-0.13518585 -0.034638368 1.7679999
-0.12662248 -0.033002667 1.768
-0.17287111 -0.025818413 1.7680001
-0.16585524 -0.026099047 1.7680001
-0.15491048 -0.026940953 1.7680001
-0.14144 -0.023573333 1.7680001
-0.13428381 -0.023994289 1.7679999
-0.12556408 -0.023092246 1.7679999
-0.1326842 -0.013470476 1.768
-0.12460192 -0.013470477 1.7679999
-0.11786667 -0.010102858 1.7680001
-0.13358223 -0.0056126988 1.7680001
-0.12460191 -0.0050514289 1.768
-0.11449905 -0.0047146669 1.768
-0.10439619 -0.0050514289 1.768
-0.094293334 -0.0050514289 1.768
-0.11353687 0.0028865305 1.7679999
-0.10439619 0.0033676191 1.7679999
-0.094293334 0.0033676191 1.7679999
-0.11113143 0.011786667 1.7680001
-0.1039151 0.0125083 1.7679999
-0.094293326 0.013470477 1.7679999
-0.08376953 0.01389143 1.7679999
-0.077455238 0.015154285 1.7680001
-0.090925716 0.020205716 1.7680001
-0.08419048 0.022611158 1.7679999
-0.075049803 0.024054423 1.7679999
-0.060617145 0.020205716 1.7680001
-0.07408762 0.033676192 1.7679999
-0.065107308 0.034237463 1.768
-0.055004448 0.032553654 1.7680001
-0.072965078 0.043779049 1.7680001
-0.063563809 0.043358099 1.7679999
-0.054302856 0.044199999 1.7679999
-0.045462858 0.047146667 1.7680001
-0.053460952 0.053460952 1.7679999
-0.044741224 0.054362994 1.7679999
-0.03479873 0.056126986 1.7680001
-0.043779053 0.063984767 1.7679999
-0.035360001 0.063984767 1.768
-0.033676192 0.072403811 1.7680001
-0.023573333 0.074648887 1.768
-0.013470476 0.07543467 1.768
-0.0056126988 0.075210162 1.7680001
0.0067352382 0.077455238 1.7680001
0.010102858 0.077455238 1.7680001
-0.020205716 0.080822863 1.7680001
-0.012347937 0.08419048 1.768
0.0058933338 0.08334858 1.7680001
-0.011786667 0.094293334 1.768
-0.0067352382 0.094293341 1.7680001
0 0.090925716 1.7680001
-0.013470476 0.10102858 1.7680001
-0.004209524 0.10355429 1.7680001
0.0033676189 0.1077638 1.7680001
0.010102858 0.10776381 1.7680001
0.026940953 0.10271238 1.7680001
0.034349717 0.10506972 1.768
0.040411431 0.10439619 1.7680001
-0.010102858 0.11449905 1.7680001
-0.004490159 0.11337651 1.7680001
0.0011225397 0.11562159 1.7680001
0.015154285 0.11113143 1.7680001
0.023573333 0.11197333 1.7680001
0.033676192 0.11449905 1.7679999
0.040411431 0.11449905 1.7680001
0.052198097 0.11449905 1.7680001
0.0033676191 0.12123429 1.7680001
0.010102858 0.12123429 1.7680001
0.034097143 0.12418096 1.7679999
0.041533973 0.12347937 1.7680001
0.050514288 0.12460192 1.7680001
0.013470476 0.1358273 1.7680001
0.02441524 0.13723049 1.7680001
0.031150479 0.13554667 1.7680001
0.053881906 0.13470477 1.7680001
0.015491048 0.14548114 1.768
0.022450795 0.14424635 1.768
0.032834288 0.14649144 1.7680001
-0.004490159 0.15603302 1.7680001
0.0016838096 0.15491048 1.7680001
0.014593015 0.15266539 1.7680001
0.025593903 0.15423696 1.768
0.033255242 0.15448953 1.7679999
-0.0033676191 0.16669714 1.7680001
0.0016838096 0.16669714 1.7680001
0.026940951 0.16501333 1.7680001
0.030308573 0.16164573 1.7680001
-0.0050514285 0.17174858 1.7680001
0.0033676191 0.17259048 1.7680001
0.025257144 0.1751162 1.7680001
0.0067352382 0.18858667 1.7680001
0.011786667 0.18858667 1.7680001
-0.020205716 0.19868954 1.7680001
-0.015154285 0.19868954 1.7680001
-0.0033676191 0.19532192 1.7680001
0.0033676191 0.19532192 1.7680001
0.011786667 0.1919543 1.7680001
-0.031992383 0.20879239 1.7680001
-0.023573333 0.20205715 1.7680001
-0.074761137 0.21754821 1.768
-0.062300958 0.21889524 1.7680001
-0.043779049 0.21552761 1.7680001
-0.033676192 0.21216001 1.7680001
-0.10776381 0.22899811 1.7680001
-0.090925716 0.22899811 1.7680001
-0.084864005 0.22495696 1.768
-0.07408762 0.22226286 1.7680001
-0.067352384 0.22226286 1.7680001
-0.13217905 0.23657525 1.7680001
-0.12460191 0.23573333 1.7679999
-0.11449905 0.23573335 1.7679999
-0.10439619 0.23573335 1.7679999
-0.093331151 0.23621443 1.7679999
-0.087558098 0.23573335 1.7680001
-0.13470477 0.24583618 1.7679999
-0.12418096 0.24541527 1.7679999
-0.11449904 0.2458362 1.7679999
-0.10439619 0.24541524 1.7679999
-0.094293341 0.2458362 1.7679999
-0.084611431 0.24625716 1.7679999
-0.075771429 0.24667811 1.7680001
-0.063984767 0.24920382 1.7680001
-0.050514288 0.24920382 1.7680001
-0.043779049 0.24920382 1.7680001
-0.031992383 0.24920382 1.7680001
0.043779049 0.24920382 1.7680001
-0.13133715 0.25257143 1.7680001
-0.12460192 0.25425526 1.768
-0.11449904 0.25425526 1.768
-0.10439619 0.25257143 1.7680001
-0.095977142 0.25257143 1.7680001
-0.080822863 0.25257143 1.7680001
-0.07408762 0.25257143 1.7680001
-0.063984767 0.25257143 1.7680001
-0.053039998 0.25341332 1.7680001
-0.044620954 0.25341332 1.7680001
-0.034518097 0.25341335 1.7680001
-0.023573335 0.25762287 1.7680001
-0.010102858 0.26940954 1.7680001
0.047146667 0.26940954 1.7680001
-0.0056126988 0.27614477 1.7680001
0.043779049 0.27698669 1.7680001
-0.0033676191 0.28961524 1.7680001
0.041253336 0.28540573 1.7680001
-0.0033676191 0.29466668 1.7680001
0.03704381 0.29298288 1.7680001
0.040411431 0.29298288 1.7680001
0 0.30982095 1.7680001
0.0025257142 0.3157143 1.7680001
0.0050514285 0.32497525 1.7680001
0.0053881905 0.33406782 1.768
0.0047146669 0.34282365 1.768
0.013470476 0.34349713 1.7680001
0.021889525 0.34518093 1.7680001
0.03704381 0.34686476 1.7680001
0.04209524 0.34686476 1.7680001
0.016838096 0.35191619 1.7680001
0.023573335 0.35360003 1.7679999
0.031992383 0.35360003 1.768
0.02289981 0.36168233 1.768
0.032553654 0.36145779 1.7680001
0.04209524 0.3704381 1.7680001
-0.15154286 0.60617143 1.7680001
-0.14817524 0.60617143 1.7680001
0.17848381 0.60953909 1.7680001
-0.15491048 0.62974477 1.7680001
-0.14144 0.62806094 1.7680001
-0.13694984 0.6274997 1.7680001
0.17848381 0.62974477 1.7680001
0.18606095 0.62890285 1.7680001
-0.16276826 0.6353575 1.7680001
-0.15356342 0.63513303 1.768
-0.14615467 0.63782704 1.768
-0.13807239 0.63311243 1.7680001
0.18606095 0.63732195 1.7680001
0.19532192 0.63900572 1.7680001
0.20542479 0.63816386 1.768
0.21216001 0.63984764 1.7680001
-0.17399366 0.64546037 1.7680001
-0.16613589 0.64546037 1.7680001
-0.15154286 0.64321524 1.7680001
-0.14817524 0.64321524 1.7680001
-0.18185143 0.65331811 1.7680001
-0.17848381 0.65331811 1.7680001
-0.34298924 -0.19518794 1.7770001
-0.33847621 -0.19293143 1.7770001
-0.33644536 -0.18683887 1.7770001
-0.33424526 -0.17685382 1.7770001
-0.3283219 -0.17262286 1.7770001
-0.33255285 -0.16500714 1.7770001
-0.32542068 -0.16488627 1.7770002
-0.31703937 -0.16472508 1.7770001
-0.30124381 -0.16923811 1.7770001
-0.29616669 -0.16754572 1.7770001
-0.28770477 -0.16246858 1.7770001
-0.33170667 -0.15908381 1.7770001
-0.32493716 -0.15823762 1.7770001
-0.28567392 -0.156376 1.7770001
-0.28228915 -0.14622173 1.7770001
-0.2758581 -0.14216 1.7770001
-0.28093526 -0.13708286 1.7770001
-0.27416572 -0.13635756 1.7770002
-0.26449499 -0.13539048 1.7770002
-0.28093526 -0.12862095 1.7770001
-0.27416572 -0.12777476 1.7770001
-0.26265755 -0.1265901 1.7770001
-0.2572419 -0.1252362 1.7770001
-0.2758581 -0.11846667 1.7770001
-0.26062667 -0.11508191 1.7770001
-0.25385714 -0.11508191 1.7770002
-0.24708763 -0.11508191 1.7770001
-0.24370286 -0.10492761 1.7770002
-0.23467684 -0.10379937 1.7770001
-0.2403181 -0.096465722 1.7770001
-0.23258151 -0.095256872 1.7770002
-0.22452255 -0.09477333 1.7770001
-0.23185618 -0.084619053 1.7770001
-0.22677906 -0.082926676 1.7770001
-0.2403181 -0.07784953 1.7770001
-0.23312549 -0.074464768 1.7770002
-0.22677906 -0.074464768 1.7770001
-0.23354858 -0.065438733 1.7770001
-0.22424048 -0.063464284 1.7770001
-0.21493238 -0.060925715 1.7770001
-0.18954667 -0.067695238 1.7770001
-0.20782439 -0.054833144 1.7770001
-0.20308572 -0.047386669 1.7770001
-0.19575207 -0.045130163 1.7770001
-0.18954667 -0.047386669 1.7770001
-0.18729018 -0.031591114 1.7770001
-0.14723715 -0.030462857 1.7770001
-0.13369811 -0.030462857 1.7770001
-0.18616192 -0.025385715 1.7770001
-0.17713588 -0.02256508 1.7770001
-0.16517639 -0.021662477 1.7770001
-0.15569906 -0.023270238 1.7770002
-0.14723715 -0.023693332 1.7770001
-0.13877524 -0.020308573 1.7770001
-0.17431524 -0.016923809 1.7770001
-0.16585334 -0.015231428 1.7770001
-0.1545708 -0.013539047 1.7770001
-0.14554477 -0.013539047 1.7770002
-0.13792905 -0.013539048 1.7770001
-0.14554477 -0.0067695244 1.7770001
-0.13651873 -0.004513016 1.7770001
-0.1248131 0.003384762 1.7770002
-0.11846667 0.0050771432 1.7770001
-0.11395365 0.013539049 1.7770001
-0.10662 0.016923809 1.7770001
-0.10408143 0.021154763 1.7770001
-0.094773345 0.023693334 1.7770002
-0.084619053 0.027078096 1.7770001
-0.091388576 0.032155238 1.7770001
-0.084619045 0.033847623 1.7770002
-0.083490796 0.042873655 1.7770001
-0.075028896 0.044001907 1.7770001
-0.067695238 0.047386669 1.7770001
-0.072772384 0.05077143 1.7770001
-0.063887388 0.053733096 1.7770002
-0.057540953 0.057540953 1.7770001
-0.062618092 0.060925715 1.7770001
-0.054156192 0.064310476 1.7770002
-0.044001907 0.074464761 1.7770002
-0.035201527 0.075818673 1.7770001
-0.024116429 0.085042149 1.7770002
-0.016923809 0.08631143 1.7770001
-0.022000954 0.09477333 1.7770001
-0.016923809 0.09477333 1.7770001
-0.020308573 0.10492762 1.7770001
-0.013539047 0.10535071 1.7770002
-0.006769524 0.10662 1.7770001
-0.020308573 0.11169714 1.7770001
-0.013539047 0.11459837 1.7770002
-0.0056412704 0.11621016 1.7770001
0.006769524 0.11677429 1.7770001
0.013539047 0.11677429 1.7770001
0.021436825 0.11733842 1.7770001
-0.011846667 0.12354381 1.7770001
-0.0050771432 0.12354381 1.7770001
0.003384762 0.12565929 1.7770002
0.013962142 0.12565929 1.7770002
0.02256508 0.12467208 1.7770001
0.030462857 0.12862095 1.7770001
-0.010154286 0.13539048 1.7770001
-0.00564127 0.13651873 1.7770001
0.003384762 0.13539046 1.7770002
0.012862096 0.13471353 1.7770001
0.023693334 0.13285191 1.7770001
-0.010154286 0.14892954 1.7770001
-0.0050771432 0.14892954 1.7770001
0.003384762 0.14554477 1.7770002
0.011000477 0.14469858 1.7770001
-0.011508191 0.15637602 1.7770001
-0.0056412704 0.1545708 1.7770001
0.0038682993 0.15569906 1.7770002
0.012974921 0.15682732 1.7770001
0.021154763 0.15654525 1.7770001
-0.012410793 0.16641746 1.7770001
-0.0059233336 0.16500714 1.7770001
0.0042309524 0.16500714 1.7770001
0.013539048 0.16754572 1.7770001
0.021436825 0.16359684 1.7770001
-0.011282541 0.17375112 1.7770001
-0.0050771432 0.17770001 1.7770001
0.0033847622 0.17803849 1.7770001
0.013539047 0.17558452 1.7770002
0.021662477 0.17533067 1.7770001
-0.011282541 0.18841843 1.7770001
-0.004738667 0.18683887 1.7770001
0.0020308574 0.18616191 1.7770001
0.013539049 0.18503363 1.7770001
0.020308573 0.18277715 1.7770001
-0.023693334 0.19970097 1.7770001
-0.012692858 0.19547001 1.7770001
-0.0056412704 0.19405968 1.7770001
0.0033847622 0.19405968 1.7770001
-0.033847619 0.20759875 1.7770001
-0.027078096 0.20308572 1.7770001
-0.081234291 0.21662477 1.7770001
-0.072772384 0.21493238 1.7770001
-0.064310476 0.21662477 1.7770001
-0.052463811 0.21662477 1.7770001
-0.042309526 0.21324001 1.7770001
-0.12862095 0.22677906 1.7770001
-0.093080953 0.22677906 1.7770001
-0.084619053 0.22113778 1.7770001
-0.067695238 0.22000954 1.7770001
-0.13708286 0.23524097 1.7770001
-0.1252362 0.23016381 1.7770001
-0.11508191 0.23016381 1.7770001
-0.10323524 0.23016381 1.7770001
-0.097311914 0.23270239 1.7770001
-0.14300619 0.24370287 1.7770001
-0.13877524 0.2403181 1.7770001
-0.14216 0.2504724 1.7770001
-0.13539048 0.25498542 1.7770001
-0.10492762 0.25470334 1.7770001
-0.094773337 0.25554955 1.7770001
-0.08631143 0.25385717 1.7770001
-0.064310469 0.2572419 1.7770001
-0.055848572 0.2572419 1.7770001
-0.042309526 0.2572419 1.7770001
-0.032155238 0.2572419 1.7770001
0.047386669 0.25385717 1.7770001
-0.11338952 0.26062667 1.7770001
-0.023693332 0.26175493 1.7770001
-0.016923809 0.26570383 1.7770001
0.047386669 0.26401144 1.7770001
-0.010154286 0.2758581 1.7770001
-0.0050771432 0.28432 1.7770001
0.044001907 0.28770477 1.7770001
-0.006769524 0.2944743 1.7770001
0.040617146 0.29785907 1.7770001
-0.010154286 0.30801335 1.7770001
-0.0042309524 0.30547476 1.7770001
0.044001907 0.30462858 1.7770001
-0.0033847622 0.31478286 1.7770001
0 0.31816763 1.7770001
-0.0033847622 0.32493713 1.7770001
0.00084619049 0.32578334 1.7770001
-0.003384762 0.33339906 1.7770001
0.00084619049 0.33424523 1.7770001
0 0.34186098 1.7770001
0.037232384 0.3554 1.7770001
0.042309523 0.35370764 1.7770001
0.037232384 0.3655543 1.7770001
0.041745398 0.36668256 1.7770001
-0.14554477 0.60925716 1.7770001
0.16923811 0.60248762 1.7770001
0.1769747 0.60538882 1.7770002
