# .PCD v0.7 - Point Cloud Data file format
VERSION 0.7
FIELDS x y z
SIZE 4 4 4
TYPE F F F
COUNT 1 1 1
WIDTH 1479
HEIGHT 1
VIEWPOINT 0 0 0 1 0 0 0
POINTS 1479
DATA ascii
-0.052784763 0.43877336 1.7320001
-0.04486705 0.4361341 1.7320001
-0.037232108 0.43500301 1.7320002
0.27382097 0.43712384 1.7320001
-0.052784763 0.44372192 1.7320001
-0.047506291 0.4466911 1.7320001
-0.036289524 0.44867051 1.732
-0.02969143 0.44702098 1.7320001
0.27184153 0.44471163 1.7320001
-0.05278476 0.45526859 1.732
-0.046186671 0.45526859 1.7320002
-0.036289528 0.45526859 1.7320002
-0.02969143 0.45526859 1.732
0.27327111 0.45526862 1.7320002
-0.045244079 0.46469444 1.7320002
-0.036289524 0.46516573 1.7320002
-0.02969143 0.46516573 1.732
0.27712002 0.46516573 1.732
0.28041905 0.46516573 1.7320001
-0.044537142 0.47506288 1.7320002
-0.036289528 0.47506291 1.7320002
-0.02969143 0.47506288 1.732
0.27492067 0.47506288 1.732
-0.044207238 0.48561984 1.7320001
-0.036289524 0.48496002 1.7320002
-0.02969143 0.48495999 1.732
0.27162158 0.48495999 1.732
-0.042887617 0.49485716 1.732
-0.038488891 0.49705651 1.732
-0.02969143 0.49815622 1.7320001
0.26722288 0.49650669 1.7320001
0.27162158 0.49265778 1.732
-0.035189841 0.50365466 1.7320002
-0.02969143 0.5047543 1.732
0.26557335 0.5047543 1.7320002
0.27052191 0.50805336 1.7320001
-0.032990478 0.51135242 1.7320001
-0.028591746 0.51575112 1.732
0.26260421 0.51333177 1.7320001
-0.052784763 0.52454859 1.7320001
-0.032990478 0.52784765 1.7320001
-0.02969143 0.52454859 1.732
-0.063007623 -0.013264762 1.7410001
-0.059691429 -0.014922857 1.7410001
-0.067152865 -0.0066323811 1.7410001
-0.059691429 -0.0099485721 1.7410001
-0.096832767 0.0079588573 1.7409999
-0.085391909 0.002487143 1.7410001
-0.097274922 0.014370158 1.7410001
-0.096169524 0.029845715 1.7410001
-0.094511434 0.036478098 1.7410001
-0.10280191 0.048084766 1.7410001
-0.096169531 0.046426665 1.7410001
-0.10280191 0.056375239 1.7410001
-0.097827621 0.056375235 1.7410001
-0.096584052 0.066738337 1.7410001
-0.096169531 0.076272391 1.7410001
-0.10280191 0.08622095 1.7410001
-0.096169524 0.08622095 1.7410001
-0.10280191 0.092853338 1.7410001
-0.095755011 0.095755003 1.7410001
-0.08622095 0.097827621 1.7410001
-0.096169531 0.10943428 1.7410001
-0.08622095 0.10611811 1.7410001
-0.092853338 0.11606666 1.7410001
-0.08716844 0.11654042 1.7410001
-0.094179817 0.1266785 1.7409999
-0.088708095 0.1251862 1.7410001
-0.092853338 0.13430572 1.7410001
-0.089537144 0.13596381 1.7410001
-0.086220957 0.14591239 1.7410001
-0.082904764 0.15254477 1.7410001
-0.078483179 0.15696636 1.7410001
-0.082904764 0.16746762 1.7410001
-0.079588577 0.16580953 1.7410001
-0.082904764 0.17575809 1.7410001
-0.078262106 0.17509487 1.7409999
-0.078262106 0.18636993 1.7409999
-0.082904764 0.19565524 1.7410001
-0.077598855 0.19499201 1.7409999
-0.077219866 0.20560382 1.7410001
0.2470562 0.20892 1.7410001
0.25534669 0.20892 1.7410001
0.26197904 0.20892 1.7410001
-0.07793048 0.21555239 1.7410001
0.21886858 0.21389429 1.7410001
0.22329016 0.21334159 1.7410001
0.25866288 0.2122362 1.7410001
0.26529524 0.21223621 1.7410001
0.27524382 0.21444698 1.7410001
0.2851924 0.21555239 1.7410001
0.29514095 0.21555239 1.7410001
0.3050895 0.21886857 1.7410001
-0.07793048 0.22550094 1.7410001
0.30840573 0.22218478 1.7410001
0.31371161 0.22682743 1.7409999
0.32664478 0.22881715 1.7410001
-0.076272383 0.2349758 1.7410001
0.31835431 0.23379144 1.7410001
0.3249867 0.23544955 1.7410001
0.33272445 0.23766033 1.7410001
0.34488383 0.23710763 1.7410001
-0.074614286 0.24539809 1.7410001
-0.069640003 0.24208191 1.7410001
0.32540122 0.24498358 1.7410001
0.33398774 0.24587183 1.7410001
0.34583133 0.24587186 1.7410001
0.3531743 0.2470562 1.7410001
-0.0753249 0.25582045 1.7410001
-0.063007623 0.25866288 1.7410001
0.32830286 0.25203049 1.7410001
0.33493522 0.25534669 1.7410001
0.3453576 0.25534672 1.7410001
0.35284269 0.25534669 1.7409999
-0.07295619 0.26529524 1.7410001
-0.068534605 0.26418984 1.7410001
0.33540896 0.26434776 1.7410001
0.34433115 0.26584795 1.7410001
0.3531743 0.26529527 1.7410001
-0.07295619 0.27524379 1.7410001
-0.068534605 0.27745461 1.7410001
0.33588269 0.27571756 1.7410001
0.34654191 0.27524382 1.7410001
0.35284269 0.27458057 1.7409999
-0.068534605 0.2851924 1.7410001
0.33548793 0.2851924 1.7410001
0.34654191 0.2851924 1.7410001
0.35151622 0.2851924 1.7410001
-0.064334102 0.2944777 1.7409999
-0.059691429 0.29679906 1.7410001
0.33626169 0.29514095 1.7409999
0.34654197 0.29514095 1.7410001
0.35151622 0.29514095 1.7410001
-0.064334102 0.30442628 1.7409999
-0.058862381 0.3059186 1.7410001
0.3374224 0.30426049 1.7410001
0.34529838 0.30550405 1.7410001
-0.063007623 0.31172192 1.7410001
-0.058033332 0.31503811 1.7410001
0.3374224 0.31503808 1.7410001
0.34543654 0.31393269 1.7410001
-0.055546187 0.32415763 1.7410001
-0.049742859 0.32664478 1.7410001
0.33576429 0.32415766 1.7410001
-0.066323817 0.33825144 1.7410001
-0.056375235 0.33360875 1.7409999
-0.049742859 0.33493522 1.7410001
0.32719746 0.33714604 1.7410001
0.33272445 0.33272445 1.7410001
-0.07295619 0.34488383 1.7410001
-0.06466572 0.34405479 1.7410001
-0.045952927 0.34441009 1.7410001
-0.039794289 0.34488383 1.7410001
0.30840573 0.34820002 1.7410001
0.31835431 0.34488383 1.7410001
0.32498667 0.34156764 1.7410001
-0.07295619 0.35483241 1.7410001
-0.066323817 0.35483238 1.7409999
-0.05678976 0.35441789 1.7410001
-0.045479186 0.35435867 1.7410001
-0.039794289 0.35483238 1.7410001
0.30177334 0.35814857 1.7410001
-0.07295619 0.36312288 1.7410001
-0.067429215 0.36367559 1.7410001
-0.057322718 0.3652547 1.7410001
-0.046841193 0.36436641 1.7410001
0.2944777 0.36544421 1.7409999
0.30177334 0.36146477 1.7410001
-0.07295619 0.37472954 1.7410001
-0.05582254 0.37417683 1.7410001
0.28629777 0.37583494 1.7410001
-0.048084766 0.38302001 1.7410001
0.27856001 0.38302001 1.7410001
0.28560692 0.3842636 1.7410001
0.29182476 0.3846781 1.7410001
-0.044436954 0.3952899 1.7409999
0.28353429 0.39462665 1.7410001
-0.044768572 0.40457526 1.7410001
0.28477788 0.40416077 1.7410001
-0.044768572 0.41452381 1.7410001
0.28424489 0.4140501 1.7410001
-0.044215877 0.42447242 1.7410001
0.27856001 0.42281431 1.7410001
0.28353429 0.42447236 1.7410001
-0.053059049 0.43607908 1.7410001
-0.048084766 0.434421 1.7410001
0.27856001 0.43442097 1.7410001
0.28270525 0.43359193 1.7410001
-0.056375239 0.44436955 1.7410001
0.27856001 0.44436955 1.7410001
0.28187621 0.44436955 1.7410001
-0.055269841 0.45431814 1.7410001
0.27773097 0.45348904 1.7410001
0.28320268 0.45498133 1.7409999
-0.053059049 0.4659248 1.7410001
0.28463969 0.46426669 1.7410001
-0.054717142 0.47421527 1.7410001
-0.049742859 0.47421527 1.7410001
0.27856001 0.47753143 1.7410001
0.28270525 0.47338623 1.7410001
-0.053059049 0.48250574 1.7410001
-0.048913814 0.48416385 1.7410001
0.27773097 0.48499286 1.7410001
0.28187621 0.48084763 1.7410001
-0.047532067 0.4941124 1.7410001
0.27723354 0.4941124 1.7409999
-0.04510019 0.5047242 1.7409999
-0.039794289 0.50737715 1.7410001
0.27358571 0.50406098 1.7410001
-0.034819998 0.51400959 1.7410001
-0.029845715 0.51732576 1.7410001
0.26695335 0.51732576 1.7410001
0.27358574 0.51235145 1.7410001
-0.056375239 0.52727431 1.7410001
-0.043110479 0.52727431 1.7410001
-0.034820002 0.52478719 1.7410001
0.26695335 0.52064192 1.7410001
0.27192762 0.52064192 1.7410001
-0.070360005 -0.020102859 1.7590001
-0.063556194 -0.020068573 1.756
-0.056666669 -0.020000001 1.7500001
-0.090462863 -0.015077143 1.7590001
-0.083761901 -0.011726666 1.7589999
-0.073502854 -0.013369524 1.7540001
-0.065919049 -0.014188096 1.7522501
-0.10386477 -0.0033504765 1.7590002
-0.092954673 -0.0046838098 1.7554001
-0.083479047 -0.0050114286 1.7530001
-0.075000003 -0.0066666668 1.7500001
-0.11224097 0.0050257142 1.7590001
-0.10415287 0.0029252381 1.75675
-0.093999997 0.0013333333 1.7500002
-0.086666673 0 1.7500001
-0.11214668 0.013390477 1.7575001
-0.10500001 0.013333333 1.7500001
-0.1132461 0.02412343 1.7590001
-0.10500001 0.023333333 1.7500001
-0.1139162 0.033504762 1.7589999
-0.10381858 0.032940239 1.7511251
-0.11287811 0.044000544 1.7577143
-0.1038879 0.042410344 1.7512858
-0.11372764 0.053516194 1.756
-0.10666666 0.053333338 1.7500001
-0.11372762 0.06355048 1.756
-0.10533334 0.063999996 1.7500002
-0.11372764 0.073584765 1.756
-0.10500001 0.07333333 1.7500001
-0.11379048 0.083668567 1.757
-0.10533334 0.083333336 1.7500002
-0.11295892 0.093813337 1.7589999
-0.10583334 0.094166666 1.7500001
-0.11056572 0.10051429 1.7590001
-0.10351429 0.1035143 1.753
-0.094999999 0.105 1.7500001
-0.11056572 0.1139162 1.7590002
-0.10333334 0.11444444 1.7500001
-0.095833339 0.11666667 1.7500001
-0.11056572 0.12396763 1.7590002
-0.10388502 0.12390429 1.7522501
-0.096666671 0.12333333 1.7500001
-0.11056572 0.13066858 1.7590001
-0.10369144 0.13379428 1.756
-0.096915245 0.13535143 1.7545002
-0.10290749 0.14359185 1.7589999
-0.093936428 0.14402643 1.7533751
-0.10135191 0.1532843 1.7590001
-0.093710475 0.15394858 1.757
-0.085704125 0.15582414 1.7530001
-0.10051429 0.16417333 1.7590001
-0.092856057 0.16465198 1.7589999
-0.08533334 0.16266668 1.7500002
-0.10051429 0.17422476 1.7590001
-0.09381333 0.17422478 1.7589999
-0.085833341 0.17416668 1.7500001
-0.10051429 0.18260096 1.7590001
-0.093813337 0.18427621 1.7589999
-0.08533334 0.184 1.7500002
-0.10051429 0.19432764 1.7590002
-0.09360572 0.19388382 1.755
-0.08533334 0.19266668 1.7500002
-0.10051429 0.20102859 1.7590001
-0.09381333 0.20437907 1.7589999
-0.084285721 0.20285717 1.7500001
0.22671556 0.20661271 1.7590002
0.23118286 0.20772953 1.7590001
0.24458475 0.20772953 1.7590002
0.25481808 0.20636047 1.7545002
0.26283431 0.20609477 1.7522502
0.27473906 0.20772953 1.7590002
-0.10051429 0.21778096 1.7590001
-0.093605712 0.21394095 1.755
-0.085000008 0.21333335 1.7500001
0.22333334 0.20999999 1.7500001
0.23333335 0.20999999 1.7500001
0.24166667 0.21000001 1.7500001
0.26666668 0.21000001 1.7500001
0.27416667 0.21083334 1.7500001
0.28382191 0.21202667 1.7530001
0.29326668 0.212432 1.7536001
0.30425522 0.21364193 1.7525715
0.31287098 0.21582714 1.7567501
-0.093659043 0.22409908 1.756
-0.085000001 0.22333334 1.7500001
0.31624049 0.22278288 1.7522501
0.32388762 0.22371048 1.753
0.33224827 0.22632699 1.7560002
0.34844953 0.22783239 1.7590001
-0.10051429 0.23453335 1.7590002
-0.093710482 0.23426668 1.757
-0.085074283 0.23353334 1.7515001
0.32333335 0.23 1.7500001
0.33533335 0.23266669 1.7500002
0.34357667 0.23336238 1.7533751
0.35475051 0.23426478 1.757
-0.091906667 0.24395905 1.7545
-0.083333336 0.24333334 1.7500001
0.34166667 0.24333334 1.7500001
0.35480317 0.24284224 1.7545
0.36123431 0.2441619 1.7560002
-0.092138104 0.2546362 1.7589999
-0.083333343 0.25333333 1.7500001
0.34333333 0.25333333 1.7500001
0.35666668 0.25333333 1.7500001
0.3645848 0.25420189 1.756
-0.090462863 0.26468763 1.7590002
-0.083805718 0.26392144 1.7511251
-0.076666668 0.26500002 1.7500001
0.36408883 0.26417977 1.755625
-0.090462863 0.27306384 1.7590001
-0.083577141 0.27411616 1.755
-0.076666668 0.27333334 1.7500001
0.34333333 0.27500001 1.7500001
0.36260095 0.2740362 1.7545
-0.083716191 0.28463051 1.7579999
-0.075333335 0.28400001 1.7500002
0.3425 0.28416669 1.7500001
0.35666668 0.28333333 1.7500001
0.36245108 0.28354093 1.7554001
-0.090462863 0.29484192 1.7590002
-0.083716191 0.29467431 1.7579999
-0.073419042 0.29367238 1.7520001
0.3425 0.29416668 1.7500001
0.35666668 0.29333335 1.7500001
0.36123431 0.29434478 1.7560002
-0.091710478 0.30525142 1.7572
-0.08338286 0.30350855 1.751
-0.07333333 0.30333331 1.7500001
-0.06666667 0.30000001 1.7500001
0.34333333 0.30166668 1.7500001
0.35570019 0.30431542 1.7518002
0.36185145 0.30489334 1.7590002
-0.090462863 0.31494477 1.7590002
-0.083620958 0.31441143 1.756
-0.073373333 0.31351426 1.751
-0.065833338 0.31416667 1.7500001
0.34333333 0.31666669 1.7500001
0.35622001 0.31441048 1.756
-0.090462863 0.32164574 1.7590001
-0.083343104 0.32457742 1.7589999
-0.07362476 0.3246305 1.757
-0.064334698 0.32404953 1.7512858
-0.056666669 0.32666668 1.7500001
0.34418318 0.32472447 1.7515001
0.35257527 0.32416478 1.7545
-0.082804628 0.33504766 1.7589999
-0.07354667 0.33428192 1.755
-0.064068571 0.33167279 1.7518002
-0.056666669 0.33000001 1.7500001
0.33666667 0.33666667 1.7500001
0.34366062 0.33307937 1.7545
0.35000002 0.33000001 1.7500001
-0.082086667 0.34509906 1.7589999
-0.075412191 0.34368306 1.7518002
-0.046666667 0.34666669 1.7500001
0.32584 0.34755811 1.7545002
0.33369526 0.3437261 1.7554001
-0.082804628 0.35562912 1.7589999
-0.076666668 0.35333335 1.7500001
-0.063333333 0.35666668 1.7500001
-0.050000001 0.35666668 1.7500001
0.30666667 0.35666668 1.7500001
0.31330574 0.3534086 1.7545002
-0.083716191 0.36499241 1.7579999
-0.076666668 0.36333334 1.7500001
-0.064999998 0.36333334 1.7500001
-0.052500002 0.36250001 1.7500001
0.30456096 0.36546287 1.7522501
-0.083624765 0.3746134 1.756
-0.07333333 0.37291664 1.7500001
-0.064999998 0.37333333 1.7500001
-0.056666669 0.37333333 1.7500001
0.29500002 0.37500003 1.7500001
0.30218378 0.37397337 1.7530001
-0.082339436 0.38357371 1.7572
-0.073542856 0.38443434 1.755
-0.06344381 0.38399431 1.753
-0.054444447 0.38444448 1.7500001
0.29533333 0.38266668 1.7500002
0.30385903 0.3839905 1.753
-0.081528254 0.39312258 1.7590002
-0.072872862 0.39284337 1.7590001
-0.063624769 0.39513335 1.7579999
-0.053521909 0.3946819 1.756
-0.046666667 0.39166668 1.7500001
0.29374999 0.39375004 1.7500001
0.30369881 0.39393026 1.7545
-0.070360005 0.4087581 1.7590001
-0.06365905 0.40540767 1.7589999
-0.053428575 0.40402672 1.753
0.29428571 0.40285715 1.7500001
0.30321813 0.40540767 1.7589999
-0.080411434 0.41713428 1.7590001
-0.073152065 0.41657591 1.7589999
-0.06365905 0.41545904 1.7589999
-0.053459052 0.41427433 1.7540001
0.2941314 0.41386697 1.7522501
0.30154288 0.41545907 1.7590002
-0.073710479 0.42551047 1.7589999
-0.06365905 0.42551053 1.7589999
-0.053579051 0.4252705 1.7579999
-0.046666667 0.42500001 1.7500001
0.29367238 0.42381531 1.7520001
0.30154288 0.42383528 1.7590001
-0.073710471 0.43556193 1.7589999
-0.063622855 0.43531239 1.7579999
-0.053890344 0.43301281 1.7525715
0.28666669 0.4366667 1.7500001
0.29400954 0.43432194 1.7540001
-0.073291667 0.44561335 1.7589999
-0.063556194 0.44485337 1.756
-0.056666669 0.44000003 1.7500001
0.28666669 0.44333336 1.7500001
0.29367524 0.44405672 1.7545
-0.071476825 0.45454797 1.7590002
-0.063590482 0.45514673 1.757
-0.056666669 0.45333335 1.7500001
0.28666669 0.45166668 1.7500001
0.29384193 0.45411047 1.753
-0.070360005 0.46236572 1.7590001
-0.063590474 0.46518666 1.757
-0.056666669 0.46500003 1.7500001
0.29367238 0.46386474 1.7520001
-0.063447624 0.47414479 1.753
-0.053333335 0.47000003 1.7500001
0.28666669 0.47666669 1.7500001
0.29420027 0.47472435 1.7551429
-0.062655233 0.4849878 1.7577143
-0.056666669 0.48500001 1.7500001
0.28583336 0.48416668 1.7500001
0.29242095 0.48457623 1.7545
-0.061983809 0.4958705 1.7589999
-0.05432735 0.49417442 1.7512858
0.28524575 0.49375907 1.7515001
0.2926695 0.49502763 1.756
-0.062701769 0.50640053 1.7589999
-0.053169716 0.50555313 1.7554001
0.28398669 0.50559682 1.7540001
0.29345852 0.50517988 1.7564286
-0.092138097 0.51262289 1.7590001
-0.061983809 0.51429808 1.7590001
-0.05360762 0.51597333 1.7589999
-0.043333337 0.51500005 1.7500001
-0.036666669 0.51666671 1.7500001
0.27666667 0.51666671 1.7500001
0.28437662 0.51521903 1.7564286
0.29260829 0.51373971 1.7590002
-0.063568436 0.52525091 1.7564286
-0.053516194 0.52512193 1.756
-0.043478098 0.52512383 1.756
-0.036666669 0.52333337 1.7500001
0.27571142 0.52133715 1.7545002
0.28144002 0.52267432 1.7590001
-0.050257146 0.53272575 1.7590001
-0.046906669 0.53272575 1.7590001
-0.036666669 0.53000003 1.7500001
-0.092609525 -0.020205716 1.7680001
-0.073245719 -0.022731429 1.7680001
-0.066229843 -0.024695873 1.7680001
-0.1043962 -0.0125083 1.7679999
-0.095255516 -0.012989388 1.7679999
-0.08419048 -0.016838096 1.7680001
-0.11225396 -0.004490159 1.7680001
-0.10439619 -0.0067352378 1.7680001
-0.097660959 -0.0067352382 1.7680001
-0.1229181 0.0067352382 1.7680001
-0.1158461 0.0020205714 1.768
-0.1229181 0.013470477 1.768
-0.11786667 0.013470476 1.7680001
-0.12418095 0.023994287 1.7679999
-0.11534095 0.022731429 1.7680001
-0.12460191 0.033676192 1.7679999
-0.11449905 0.033676192 1.7680001
-0.12460192 0.043779053 1.7679999
-0.11786667 0.04209524 1.7680001
-0.1229181 0.05388191 1.768
-0.1229181 0.063984767 1.768
-0.1229181 0.07408762 1.768
-0.1229181 0.08419048 1.768
-0.12258134 0.093619809 1.768
-0.11786667 0.094293341 1.7680001
-0.12123429 0.10102858 1.7680001
-0.11492 0.10481714 1.7679999
-0.11618286 0.11449905 1.768
-0.11618286 0.12460192 1.768
-0.11315199 0.13537829 1.768
-0.11247847 0.1441341 1.768
-0.10776381 0.14649144 1.7680001
-0.11337651 0.15603302 1.768
-0.10641676 0.15558401 1.768
-0.11281524 0.16501333 1.768
-0.10535837 0.16501334 1.7679999
-0.097660959 0.16332954 1.7680001
-0.1140781 0.17469524 1.7679999
-0.10481714 0.1751162 1.7679999
-0.11281523 0.18521905 1.768
-0.10535836 0.18570015 1.7679999
-0.11449905 0.1919543 1.7680001
-0.10608 0.19532192 1.768
-0.11113143 0.20205715 1.7680001
-0.10439618 0.20542476 1.7679999
0.22563048 0.20542477 1.7680001
0.23657525 0.20710859 1.7680001
0.2458362 0.20542477 1.7680001
0.25425524 0.20542477 1.7680001
0.26772571 0.20542477 1.7680001
0.27614477 0.20542477 1.7680001
0.28456384 0.20879239 1.7680001
0.29466668 0.20879239 1.7680001
0.30645335 0.20879239 1.7680001
-0.10439618 0.21504653 1.7679999
0.29971811 0.21216001 1.7680001
0.30645335 0.21216001 1.7680001
0.3173981 0.21468571 1.7680001
0.32497525 0.21721143 1.7680001
0.33171049 0.21889524 1.7680001
-0.10397524 0.22605142 1.7679999
0.33563939 0.22338539 1.7680001
0.34282362 0.22765104 1.768
0.35303876 0.22563048 1.768
-0.11113143 0.23573335 1.7680001
-0.10608 0.23573335 1.768
0.36538669 0.23573335 1.768
0.3704381 0.23910096 1.7680001
-0.10439619 0.2458362 1.7679999
-0.097660959 0.2458362 1.7680001
0.36707053 0.2458362 1.7680001
0.37338477 0.24625714 1.7679999
0.38054097 0.24920382 1.7680001
-0.10237563 0.25526553 1.768
-0.097660959 0.25593907 1.7680001
0.37548956 0.25593904 1.768
0.38054097 0.25593904 1.7680001
-0.10102858 0.2660419 1.7680001
-0.09597715 0.2660419 1.768
0.37476793 0.2660419 1.7679999
0.38138288 0.26688382 1.7680001
-0.10102858 0.27446097 1.7680001
-0.094854601 0.27614477 1.768
0.37324443 0.27502224 1.768
-0.10102858 0.28961524 1.7680001
-0.093331158 0.28672871 1.7679999
0.3670705 0.28961524 1.7680001
0.37212193 0.28624764 1.768
-0.10102858 0.29635048 1.7680001
-0.095640376 0.29702401 1.768
0.36707053 0.29635051 1.7680001
0.37128001 0.29550859 1.7680001
-0.10102858 0.30982095 1.7680001
-0.096538417 0.30645335 1.7680001
0.36707053 0.30645335 1.7680001
0.3704381 0.30645332 1.7680001
-0.10102858 0.31487238 1.7680001
-0.09597715 0.31655622 1.768
0.36504993 0.31588268 1.768
-0.10102858 0.32665905 1.7680001
-0.094966859 0.32531202 1.768
0.36145779 0.32441399 1.7680001
-0.10102858 0.33002669 1.7680001
-0.093872383 0.33297333 1.7679999
-0.087558098 0.33171049 1.7680001
0.34686476 0.33676192 1.7680001
0.35528383 0.33507812 1.7680001
0.36033526 0.33002669 1.7680001
-0.091767624 0.34265524 1.7680001
-0.087558098 0.34349713 1.7680001
0.34349713 0.34349716 1.7680001
0.35023239 0.34012952 1.7680001
-0.092272766 0.35292649 1.768
-0.087558098 0.35360003 1.7680001
0.31824002 0.35696763 1.7680001
0.32329145 0.35360003 1.7680001
-0.092609525 0.36370286 1.768
0.30982095 0.3670705 1.7680001
0.31588268 0.36370283 1.768
-0.090925716 0.37380573 1.7680001
0.30982095 0.37548953 1.7680001
0.31318858 0.37380573 1.7680001
-0.090925716 0.3839086 1.7680001
-0.085874289 0.3872762 1.7680001
0.30982095 0.38054097 1.7680001
0.31318858 0.3839086 1.7680001
-0.090925716 0.39401147 1.7680001
-0.086211048 0.39401144 1.768
-0.075771429 0.39737907 1.7680001
0.31403047 0.39485335 1.7680001
-0.094293334 0.40074667 1.7680001
-0.08419048 0.40411428 1.7679999
-0.07408762 0.40411428 1.7679999
0.30982095 0.40411434 1.7680001
0.31318858 0.40411431 1.7680001
-0.08284343 0.41354361 1.768
-0.075434662 0.41354361 1.768
0.30757588 0.41421714 1.7680001
-0.082843438 0.42499352 1.768
0.30645335 0.42432001 1.7680001
-0.08376953 0.43484384 1.7679999
0.30549115 0.43394178 1.7679999
-0.084190488 0.44452572 1.7679999
-0.077455238 0.44789335 1.7680001
0.30443278 0.44385225 1.768
-0.08419048 0.45238352 1.7680001
-0.07492952 0.4571543 1.7680001
0.29971811 0.45126095 1.7680001
0.30443275 0.45530215 1.768
-0.07408762 0.46473145 1.768
0.30476952 0.46473145 1.768
-0.071561903 0.47399238 1.7680001
0.30443275 0.47416076 1.768
-0.070720002 0.48493719 1.7680001
-0.067352384 0.48830479 1.7680001
0.29971811 0.48493716 1.7680001
0.30308571 0.48325336 1.7680001
-0.071842544 0.49616256 1.7680001
-0.067352384 0.49504003 1.7680001
0.29971811 0.49504003 1.7680001
0.30308571 0.49840763 1.7680001
-0.071561903 0.50598478 1.7680001
-0.067352384 0.50514287 1.7680001
0.29971811 0.5034591 1.7680001
0.30308571 0.50851047 1.7680001
-0.090925716 0.51187813 1.7680001
-0.08419048 0.51389867 1.768
-0.073606536 0.51428354 1.7679999
-0.067352384 0.51692951 1.7680001
0.29887623 0.51608765 1.7680001
0.30308571 0.51524574 1.7680001
-0.070720002 0.5253486 1.7680001
-0.063142858 0.52282292 1.7680001
-0.057249527 0.521981 1.7680001
-0.11305104 -0.012862096 1.7770001
-0.10492762 -0.016923809 1.7770001
-0.12185143 -0.0050771432 1.7770001
-0.11733842 -0.0056412704 1.7770001
-0.1252362 0.002820635 1.7770001
-0.13285191 0.013539048 1.7770001
-0.12862095 0.013539049 1.7770001
-0.13369809 0.023693332 1.7770001
-0.12862095 0.020308573 1.7770001
-0.13369811 0.033847619 1.7770001
-0.1344234 0.044485446 1.7770002
-0.13335963 0.053479243 1.7770001
-0.12862095 0.054156195 1.7770001
-0.13200572 0.064310469 1.7770001
-0.12862095 0.064310469 1.7770001
-0.13200572 0.074464768 1.7770001
-0.12862095 0.074464768 1.7770001
-0.13200572 0.081234291 1.7770001
-0.12862095 0.084619053 1.7770001
-0.12692857 0.094773337 1.7770001
-0.12388229 0.10560457 1.7770001
-0.12320534 0.11575886 1.7770001
-0.12426913 0.12475266 1.7770002
-0.12269762 0.13454428 1.7770001
-0.11846667 0.13539048 1.7770001
-0.12185143 0.14216 1.7770001
-0.11762048 0.14639096 1.7770001
-0.12185143 0.15908381 1.7770001
-0.11677429 0.15400667 1.7770001
-0.12185143 0.16923811 1.7770001
-0.11846667 0.16585334 1.7770001
-0.12320534 0.17533067 1.7770001
-0.11846667 0.17939238 1.7770001
-0.11846667 0.18616191 1.7770001
-0.12185143 0.19293143 1.7770001
-0.11440495 0.1976701 1.7770001
-0.11338952 0.20647049 1.7770001
-0.10831238 0.20985524 1.7770001
0.23439477 0.20393191 1.7770001
0.24370287 0.20308572 1.7770001
0.25385717 0.20308572 1.7770001
0.26401144 0.20308572 1.7770001
0.27247334 0.20477811 1.7770001
0.28432 0.20647049 1.7770001
0.2936281 0.20731668 1.7770001
0.30462855 0.20782439 1.7770001
0.31478286 0.208727 1.7770001
0.32493713 0.20985524 1.7770001
0.33170667 0.20985524 1.7770001
-0.11282539 0.21436827 1.7770001
-0.10831238 0.21662477 1.7770001
0.32493713 0.21324001 1.7770001
0.33509144 0.21493238 1.7770001
0.34298924 0.21549653 1.7770001
0.35314354 0.21549653 1.7770001
-0.11305104 0.2233943 1.7770001
-0.10831238 0.22339429 1.7770001
0.33847621 0.22000954 1.7770001
0.34572926 0.22242723 1.7770002
0.35675392 0.22204039 1.7770001
0.36386192 0.22508667 1.7770001
-0.11338952 0.23354858 1.7770001
0.36386192 0.23016381 1.7770001
0.37503162 0.23557945 1.7770001
-0.11440495 0.24505678 1.7770001
0.37796509 0.24144636 1.7770001
0.38247812 0.24539524 1.7770001
-0.11459837 0.25289008 1.7770002
-0.10831238 0.25554955 1.7770001
0.38586286 0.25385714 1.7770001
-0.11169714 0.26062667 1.7770001
-0.10577381 0.26316524 1.7770001
0.38586286 0.26401144 1.7770001
-0.11508191 0.27755049 1.7770001
-0.10492762 0.27416572 1.7770001
0.37570858 0.27755049 1.7770001
-0.10323524 0.28432003 1.7770001
-0.098158099 0.28432 1.7770001
0.37824714 0.28347382 1.7770001
-0.10549174 0.29447433 1.7770001
-0.098158099 0.2944743 1.7770001
0.37824714 0.29532051 1.7770001
0.38247812 0.29108953 1.7770001
-0.10238905 0.3037824 1.7770001
-0.098158099 0.30462858 1.7770001
0.37740096 0.30462858 1.7770001
0.38247812 0.3029362 1.7770001
-0.10492762 0.31478286 1.7770001
0.37232381 0.31647524 1.7770001
-0.10357372 0.32426021 1.7770001
0.36809289 0.32578334 1.7770001
0.37232381 0.3215524 1.7770001
-0.10357372 0.3357684 1.7770001
-0.098158099 0.33847621 1.7770001
0.36724669 0.33170667 1.7770001
-0.094773337 0.3469381 1.7770001
-0.097311907 0.3562462 1.7770001
0.32719365 0.35765651 1.7770001
0.33509144 0.35427177 1.7770001
-0.10154286 0.3655543 1.7770001
-0.098158099 0.3655543 1.7770001
0.31816763 0.3655543 1.7770001
0.32358328 0.36623126 1.7770001
-0.096127234 0.37503162 1.7770001
0.31816763 0.37570858 1.7770001
0.3215524 0.37570858 1.7770001
-0.09477333 0.38586286 1.7770001
0.31681371 0.38586289 1.7770001
0.3215524 0.38924763 1.7770001
-0.09477333 0.39601716 1.7770001
0.31816763 0.39432478 1.7770001
0.3215524 0.3926324 1.7770001
-0.09274248 0.40684837 1.7770001
0.31732142 0.40617144 1.7770001
-0.093080953 0.41294098 1.7770001
-0.088003814 0.41632572 1.7770001
0.31478286 0.41632578 1.7770002
-0.093080953 0.42309526 1.7770001
-0.088003814 0.42648003 1.7770001
0.3130905 0.42648003 1.7770001
-0.091388576 0.4366343 1.7770001
-0.088003814 0.43324953 1.7770001
0.31478286 0.43494192 1.7770001
-0.092742488 0.44272691 1.7770001
0.31224433 0.44255763 1.7770001
-0.084619053 0.45581463 1.7770001
0.30801335 0.45186573 1.7770001
0.31139812 0.45355812 1.7770001
-0.082588196 0.46303543 1.7770001
-0.07784953 0.46709716 1.7770001
0.31139812 0.46371236 1.7770001
-0.077003337 0.47471285 1.7770001
0.31139812 0.4738667 1.7770001
-0.082926676 0.48402098 1.7770001
-0.076157153 0.48402098 1.7770001
0.30801335 0.48402098 1.7770001
0.31139812 0.48402095 1.7770001
-0.081234291 0.49079049 1.7770001
-0.075593024 0.4936111 1.7770001
0.30632097 0.49417523 1.7770001
0.31139812 0.49248287 1.7770001
-0.083265148 0.50568348 1.7770001
-0.076157153 0.50432962 1.7770001
0.30665943 0.50500655 1.7770001
-0.084619045 0.51194525 1.7770001
-0.07784953 0.51109904 1.7770001
0.30801335 0.51448375 1.7770001
0.31139812 0.51448381 1.7770001
-0.082926676 0.52125335 1.7770001
-0.074464768 0.5223816 1.7770001
-0.12587048 -0.010205715 1.7860001
-0.12757143 -0.005102857 1.7860001
-0.13403505 0.0040822858 1.786
-0.12927239 0 1.7860001
-0.14288001 0.013607619 1.7860001
-0.13811734 0.013607619 1.786
-0.14288001 0.022112381 1.7860001
-0.1394781 0.023813331 1.7860001
-0.14288001 0.034019049 1.7860001
-0.1394781 0.034019049 1.7860001
-0.14288001 0.044224765 1.7860001
-0.1394781 0.042523813 1.7860001
-0.14288001 0.054430474 1.7860001
-0.13862762 0.055280954 1.7860001
-0.13777715 0.064636193 1.7860001
-0.13777715 0.074841909 1.7860001
-0.1360762 0.085047618 1.7860001
-0.13267429 0.095253341 1.7860001
-0.12927239 0.096954286 1.7860001
-0.13267429 0.10716 1.7860001
-0.12927239 0.10545904 1.7860001
-0.13267429 0.11396381 1.7860001
-0.12842192 0.1148143 1.7860001
-0.13267429 0.12246858 1.7860001
-0.12927239 0.12757143 1.7860001
-0.12791163 0.13675657 1.786
-0.12519011 0.14560154 1.786
-0.12416953 0.15648763 1.7860001
-0.11906667 0.15308572 1.7860001
-0.12416953 0.16499239 1.7860001
-0.13267429 0.17689906 1.7860001
-0.12842192 0.17264669 1.7860001
-0.12629572 0.18412811 1.7860001
-0.11906667 0.18370287 1.7860001
-0.13267429 0.19560952 1.7860001
-0.12629572 0.19390857 1.7860001
-0.11906667 0.19050667 1.7860001
-0.13267429 0.20071238 1.7860001
-0.1258705 0.20411429 1.7860001
-0.11906668 0.20411427 1.7860001
0.27725524 0.20411429 1.7860001
0.28576002 0.20411427 1.7860001
0.30617145 0.20411427 1.7860001
0.31637716 0.20638223 1.7860001
0.32590252 0.20615545 1.786
0.33508766 0.20751619 1.7860001
0.34189147 0.20751619 1.7860001
-0.12382934 0.21500039 1.786
-0.11770592 0.21431999 1.786
0.33678859 0.2109181 1.7860001
0.34444287 0.21176858 1.7860001
0.35294765 0.21432 1.7860001
0.36315337 0.21687144 1.7860001
-0.12331906 0.22367524 1.7860001
-0.11821619 0.22452572 1.7860001
0.36570477 0.22112381 1.7860001
0.37216836 0.22520609 1.786
-0.12246858 0.23473144 1.7860001
-0.11770592 0.23405106 1.786
0.37250859 0.23132953 1.7860001
0.38305449 0.23405106 1.786
-0.12331906 0.24578762 1.7860001
-0.11793271 0.24380319 1.7860001
0.38696668 0.24408668 1.7860001
0.39121905 0.2466381 1.7860001
-0.12416953 0.2551429 1.7860001
-0.11736572 0.25854477 1.7860001
0.39121905 0.25514287 1.7860001
-0.12489851 0.26486257 1.7860001
-0.11609 0.2657738 1.7860001
-0.10886095 0.26704955 1.7860001
0.38781714 0.26534858 1.7860001
0.39121905 0.26534858 1.7860001
-0.12331906 0.27470383 1.7860001
-0.11615074 0.27458233 1.7860001
-0.10886095 0.27385336 1.7860001
0.38611621 0.27725524 1.7860001
0.39121905 0.27215239 1.7860001
-0.12246858 0.28235811 1.7860001
-0.11566476 0.28576005 1.7860001
-0.10886095 0.28576002 1.7860001
0.38611618 0.28576002 1.7860001
0.39121905 0.28576002 1.7860001
-0.11469279 0.29645172 1.7860001
-0.10886095 0.29596573 1.7860001
0.3864564 0.29664612 1.786
0.39121905 0.29256383 1.7860001
-0.11396381 0.30276954 1.7860001
-0.10750018 0.3068518 1.786
0.38696668 0.30702192 1.7860001
-0.11469279 0.31686315 1.7860001
-0.10886095 0.31637716 1.7860001
0.37761143 0.31637716 1.7860001
0.38186383 0.31552669 1.7860001
-0.11311334 0.32573241 1.7860001
-0.10886095 0.32658288 1.7860001
0.37420952 0.32828385 1.7860001
-0.11226286 0.33508766 1.7860001
-0.10886095 0.33508766 1.7860001
0.36400384 0.33678859 1.7860001
-0.10460857 0.34359241 1.7860001
-0.098655239 0.34529334 1.7860001
0.35379812 0.34586033 1.7860001
-0.10503381 0.35422337 1.7860001
-0.098655239 0.35039622 1.7860001
0.34359241 0.35379812 1.7860001
-0.10643101 0.36351782 1.7860001
0.32998478 0.36570477 1.7860001
0.33508766 0.36400387 1.7860001
0.3401905 0.36060193 1.7860001
-0.10545905 0.37469551 1.7860001
0.32862404 0.37488991 1.786
0.33508766 0.37420952 1.7860001
-0.10341791 0.38441524 1.786
-0.098655246 0.38441524 1.7860001
0.3270081 0.38484046 1.7860001
0.33338669 0.38271427 1.7860001
-0.10205714 0.39462093 1.7860001
-0.098655246 0.39462093 1.7860001
0.32714987 0.39462098 1.7860001
-0.098655246 0.40482667 1.7860001
0.32403144 0.4039762 1.7860001
-0.096103817 0.41588286 1.7860001
0.32318097 0.41503239 1.7860001
-0.093552381 0.42523807 1.7860001
0.31977907 0.42523813 1.7860001
0.32318097 0.42523813 1.7860001
-0.093892582 0.43476343 1.786
0.31977907 0.43544382 1.7860001
0.32403144 0.43544382 1.7860001
-0.097521268 0.44791746 1.7860001
0.31841829 0.44632992 1.786
0.32318097 0.44564953 1.7860001
-0.09411937 0.4547213 1.7860001
0.31807813 0.45585528 1.7860001
0.32318097 0.45415431 1.7860001
-0.091851436 0.46606097 1.7860001
-0.087599054 0.46691144 1.7860001
0.3180781 0.46606097 1.7860001
-0.091851436 0.47626668 1.7860001
-0.084075645 0.47626668 1.7860001
0.31637716 0.47626671 1.7860001
-0.093552388 0.48647237 1.7860001
-0.086408392 0.48647243 1.786
0.31637716 0.4864724 1.7860001
-0.083913654 0.49554417 1.7860001
0.31637716 0.49497718 1.7860001
-0.085614614 0.50348192 1.7860001
0.31467623 0.50348192 1.7860001
-0.091851436 0.51198667 1.7860001
0.31467623 0.51198667 1.7860001
-0.076542862 0.52729523 1.7860001
-0.12479524 -0.013676191 1.7950001
-0.11966667 -0.011966668 1.7950001
-0.14189048 -0.0034190477 1.7950001
-0.13505238 -0.0051285713 1.7950001
-0.1436 0.0034190475 1.7950001
-0.1367619 0 1.7950001
-0.14565143 0.013676191 1.7950001
-0.14530954 0.023933334 1.7950001
-0.1504381 0.03419048 1.7950001
-0.14701906 0.03419048 1.7950001
-0.1504381 0.042738095 1.7950001
-0.14701906 0.044447619 1.7950001
-0.1504381 0.058123812 1.7950001
-0.14701906 0.054704767 1.7950001
-0.14530952 0.06496191 1.7950001
-0.14445476 0.07521905 1.7950001
-0.14246033 0.08547619 1.7950001
-0.14018096 0.095733345 1.7950001
-0.1367619 0.095733345 1.7950001
-0.14018096 0.10599049 1.7950001
-0.13590714 0.10513572 1.7950001
-0.14018096 0.11624762 1.7950001
-0.13590714 0.11710238 1.7950001
-0.14018096 0.12479524 1.7950001
-0.13539429 0.12718858 1.7950001
-0.14018096 0.13505238 1.7950001
-0.13505238 0.13505238 1.7950001
-0.14154857 0.14291619 1.7950001
-0.13471048 0.14291619 1.7950001
-0.12992382 0.14701906 1.7950001
-0.14018096 0.15214762 1.7950001
-0.13471048 0.15454094 1.7950001
-0.12855621 0.15317333 1.7950001
-0.13419762 0.16325954 1.7950001
-0.12992382 0.1641143 1.7950001
-0.13539429 0.17368762 1.7950001
-0.13419762 0.18377382 1.7950001
-0.13562222 0.19488573 1.7950001
-0.13539429 0.20582667 1.7950001
0.23933335 0.20172381 1.7950001
0.24617143 0.20172381 1.7950001
0.25471905 0.20172381 1.7950001
0.29574764 0.20514287 1.7950001
0.30258572 0.20343333 1.7950001
0.3145524 0.2028635 1.7950001
0.32139048 0.20514287 1.7950001
0.33506668 0.20514287 1.7950001
0.34617859 0.20599763 1.7950001
0.35387143 0.20856191 1.7950001
0.36241907 0.20856191 1.7950001
-0.13334286 0.21540003 1.7950001
-0.12906906 0.21454525 1.7950001
0.35558099 0.21198095 1.7950001
0.36652192 0.21334858 1.7950001
0.37381586 0.21767938 1.7950001
-0.12855621 0.22634096 1.7950001
0.37865955 0.22480239 1.7950001
0.38293335 0.22736667 1.7950001
-0.12787239 0.2359143 1.7950001
0.37951431 0.23249525 1.7950001
0.38977143 0.23591429 1.7950001
0.3931905 0.23591429 1.7950001
-0.12855621 0.24548765 1.7950001
0.39575478 0.24531668 1.7950001
-0.13334286 0.25813812 1.7950001
-0.12992382 0.25642857 1.7950001
0.39660954 0.2564286 1.7950001
-0.13334286 0.2649762 1.7950001
-0.12992382 0.26668572 1.7950001
0.39660954 0.26326668 1.7950001
-0.13334286 0.27010477 1.7950001
-0.12906906 0.27437857 1.7950001
0.39546987 0.27580318 1.7950001
0.40002859 0.27352381 1.7950001
-0.12650476 0.2829262 1.7950001
-0.11282858 0.28036192 1.7950001
-0.10940953 0.28036192 1.7950001
0.39490002 0.2829262 1.7950001
-0.12308571 0.29403812 1.7950001
-0.11966667 0.29574764 1.7950001
0.39490002 0.29318333 1.7950001
-0.12308571 0.30429524 1.7950001
-0.11710238 0.30685952 1.7950001
0.3931905 0.30429524 1.7950001
-0.12308571 0.3145524 1.7950001
-0.11761525 0.3131848 1.7950001
0.38806191 0.31626192 1.7950001
-0.12308572 0.3231 1.7950001
-0.11852699 0.32708892 1.7950001
0.37951431 0.32480952 1.7950001
0.38464287 0.3231 1.7950001
-0.11795714 0.33506668 1.7950001
0.36925715 0.33848572 1.7950001
0.37609527 0.33506668 1.7950001
-0.11510793 0.34418416 1.7950001
-0.10826985 0.3476032 1.7950001
0.35900003 0.34874287 1.7950001
0.36241907 0.34190479 1.7950001
-0.11582025 0.35600832 1.7950001
-0.10940953 0.35216191 1.7950001
0.34703335 0.35558096 1.7950001
0.35216191 0.35216191 1.7950001
-0.1145381 0.36583814 1.7950001
0.3439562 0.36652192 1.7950001
-0.1145381 0.37609527 1.7950001
-0.10940953 0.37609527 1.7950001
0.34361431 0.37609527 1.7950001
-0.11582024 0.38677976 1.7950001
-0.10855477 0.38635239 1.7950001
0.33763096 0.38720715 1.7950001
0.34190479 0.38293335 1.7950001
-0.11624762 0.39489999 1.7950001
-0.10770001 0.39490002 1.7950001
0.33506668 0.39490002 1.7950001
-0.11282858 0.40002859 1.7950001
-0.10542064 0.40344763 1.7950001
0.32822859 0.40686667 1.7950001
0.33164763 0.40344763 1.7950001
-0.10257145 0.41370478 1.7950001
0.32822859 0.41370478 1.7950001
0.33164763 0.41712382 1.7950001
-0.099152386 0.42396191 1.7950001
0.32822859 0.42396191 1.7950001
0.33164763 0.42225239 1.7950001
-0.099152386 0.43421903 1.7950001
0.32822859 0.43250954 1.7950001
0.33164763 0.4376381 1.7950001
-0.10462286 0.44584385 1.7950001
-0.099152386 0.44276667 1.7950001
0.32822859 0.44447622 1.7950001
-0.11282858 0.45473334 1.7950001
-0.1055631 0.45430595 1.7950001
-0.099152386 0.45815238 1.7950001
0.32822859 0.45473334 1.7950001
0.33164763 0.45302382 1.7950001
-0.10428096 0.46328098 1.7950001
-0.096710213 0.46499047 1.7950001
0.32566428 0.46413574 1.7950001
-0.10257144 0.47182858 1.7950001
-0.096160725 0.47482023 1.7950001
-0.088895239 0.47524765 1.7950001
0.32344192 0.47593147 1.7950001
-0.11282858 0.48892382 1.7950001
-0.10599048 0.48721433 1.7950001
-0.097100958 0.48413715 1.7950001
-0.088895239 0.48208573 1.7950001
0.32139048 0.48550478 1.7950001
-0.10550205 0.49478507 1.7950001
-0.096221767 0.49673882 1.7950001
-0.088895239 0.49747145 1.7950001
0.32139048 0.49576196 1.7950001
-0.095305964 0.50559169 1.7950001
-0.088895239 0.50260001 1.7950001
0.32366985 0.5071587 1.7950001
-0.097100958 0.51696002 1.7950001
0.32412571 0.51422471 1.7950001
0.33164763 0.51285714 1.7950001
-0.14260191 -0.010308572 1.8040001
-0.13401143 -0.012026668 1.8040001
-0.12370286 -0.017180953 1.8040003
-0.11683048 -0.017180953 1.8040001
-0.15119238 -0.0034361905 1.8040001
-0.14517905 -0.0060133333 1.8040001
-0.15256685 0.0041234284 1.8040001
-0.15291047 0.013744761 1.804
-0.15205143 0.023194287 1.8040001
-0.14775619 0.025771428 1.8040001
-0.15548763 0.035220951 1.8040001
-0.15462857 0.044670481 1.8040001
-0.15325409 0.054291815 1.8040001
-0.15291047 0.065287627 1.804
-0.15205143 0.074737146 1.8040001
-0.14775619 0.075596198 1.8040001
-0.15256685 0.085217535 1.8040001
-0.14689714 0.086763814 1.8040001
-0.15119238 0.096213341 1.8040003
-0.1460381 0.096213333 1.804
-0.15119238 0.1065219 1.8040003
-0.1460381 0.1065219 1.804
-0.15119238 0.11511239 1.8040001
-0.1460381 0.11511239 1.8040001
-0.15119238 0.12370286 1.8040003
-0.1460381 0.12370285 1.804
-0.14489271 0.13401143 1.804
-0.15119238 0.1460381 1.8040001
-0.14689714 0.14517905 1.8040001
-0.13744763 0.14775619 1.8040001
-0.14530177 0.15511945 1.804
-0.13744763 0.15119238 1.8040001
-0.14333823 0.16444626 1.804
-0.13744763 0.16665524 1.8040001
-0.14333823 0.17573659 1.804
-0.14432001 0.18555428 1.804
-0.13744763 0.1872724 1.8040001
-0.14389049 0.19629239 1.804
-0.13744763 0.19242667 1.8040001
0.25084192 0.19929905 1.8040001
-0.14174286 0.20531239 1.8040001
0.26286858 0.20273525 1.8040001
0.28520381 0.20273525 1.8040003
0.29551241 0.20273525 1.8040003
0.30582094 0.20273525 1.8040001
0.31956571 0.20273525 1.8040001
0.3281562 0.20273525 1.8040001
0.33331048 0.20273525 1.8040001
0.36509526 0.20788953 1.8040001
0.37385756 0.20754592 1.8040001
-0.14088382 0.21476191 1.8040001
-0.13744763 0.21648 1.8040003
0.37683558 0.21418922 1.8040003
0.38416612 0.21854171 1.8040001
-0.13515683 0.22449778 1.8040003
0.38714412 0.22449778 1.8040003
0.39172572 0.22678858 1.8040001
-0.1331524 0.23452002 1.8040001
0.38828954 0.23022477 1.8040001
0.39630732 0.23366098 1.8040003
0.40203431 0.23366097 1.8040001
-0.13487048 0.24482858 1.8040001
0.3985981 0.24053334 1.8040001
0.40340877 0.24396953 1.8040001
-0.14088382 0.2577143 1.8040001
-0.13607314 0.25359088 1.8040001
0.40375242 0.25427809 1.804
-0.14088382 0.26115048 1.8040001
-0.13744763 0.26458669 1.8040003
0.3985981 0.26802287 1.8040001
0.40375242 0.26458669 1.804
-0.13607314 0.27558249 1.8040001
0.3985981 0.27145904 1.8040001
0.40478325 0.27352077 1.8040001
-0.13172065 0.28520381 1.8040003
-0.12713905 0.28864002 1.8040001
0.3985981 0.28520381 1.8040001
0.40289333 0.28434479 1.8040001
-0.13057524 0.29551238 1.8040003
-0.12713905 0.29551238 1.8040003
0.3985981 0.29894859 1.8040001
0.40203431 0.29551241 1.8040003
-0.14088382 0.30925715 1.8040001
-0.13263696 0.30719543 1.8040001
-0.12713905 0.30582094 1.8040003
0.3985981 0.30238476 1.8040001
0.40203431 0.30238476 1.8040001
-0.14088382 0.31269336 1.8040001
-0.13401143 0.31612957 1.804
-0.12713905 0.31612954 1.8040003
0.39516193 0.31527048 1.8040001
-0.13194972 0.32575089 1.8040001
-0.12627999 0.32729715 1.8040001
0.38485336 0.32872891 1.8040003
0.39172572 0.32300192 1.8040001
-0.13057524 0.33502859 1.8040001
-0.12542096 0.33502859 1.8040001
-0.13057524 0.34190094 1.8040001
-0.12468463 0.34410995 1.804
0.36423621 0.34705526 1.8040001
-0.12413238 0.35349813 1.804
-0.11683048 0.35049143 1.8040001
0.35564572 0.35564572 1.8040001
0.36080003 0.35392764 1.8040001
-0.12413239 0.36466572 1.804
0.34705526 0.36080003 1.8040001
-0.12327334 0.37454477 1.804
0.35049143 0.37626287 1.8040001
-0.12413238 0.38442382 1.804
0.34590983 0.38714412 1.8040003
0.35049143 0.38485336 1.8040003
-0.13057524 0.39516193 1.8040001
-0.12542096 0.3951619 1.804
0.34293184 0.39516193 1.8040001
-0.12141207 0.40317968 1.8040003
-0.11511239 0.40547049 1.8040001
-0.1099581 0.40718859 1.8040001
0.33674669 0.40547049 1.8040003
0.34018287 0.40547049 1.8040003
-0.11339429 0.41234288 1.8040001
-0.10824001 0.41577902 1.804
0.33537221 0.41509184 1.8040001
-0.10446019 0.42540041 1.8040001
0.33588764 0.42694667 1.8040001
0.34018287 0.42608765 1.8040001
-0.10603102 0.43737799 1.804
0.33537221 0.43570894 1.8040001
-0.11339429 0.44670478 1.8040001
-0.10824001 0.44498667 1.8040001
0.33331048 0.4449867 1.8040001
-0.12026667 0.45357716 1.8040003
-0.11511238 0.45357716 1.8040001
0.33331048 0.45014098 1.8040001
-0.12026667 0.46044955 1.8040001
-0.11425333 0.4630267 1.8040001
-0.10995809 0.46388569 1.8040003
0.32987431 0.46732193 1.8040001
0.33331048 0.46388575 1.8040003
-0.11425333 0.47505334 1.8040001
-0.10695143 0.47419432 1.804
0.32987431 0.47419429 1.8040003
0.33331048 0.47247621 1.8040001
-0.12141207 0.48679367 1.8040003
-0.11511239 0.48450282 1.804
-0.1065219 0.48278478 1.804
0.32849982 0.48519009 1.8040001
0.33331048 0.48106667 1.8040001
-0.12370285 0.49481142 1.804
-0.11545601 0.49549866 1.8040001
0.32729715 0.49395239 1.8040001
-0.14088382 0.50855619 1.8040001
-0.1331524 0.50769717 1.8040001
-0.12713905 0.50855619 1.8040001
-0.11511239 0.50168383 1.8040001
-0.10695143 0.50554955 1.804
0.32849982 0.5044328 1.8040001
0.33331048 0.50683808 1.8040001
-0.14088382 0.5137105 1.8040001
-0.13572952 0.51199239 1.8040001
-0.10554015 0.51493776 1.804
-0.099649526 0.5137105 1.8040001
0.33502859 0.51199239 1.8040001
-0.10308572 0.52230096 1.8040001
-0.1174781 -0.020731429 1.8140001
-0.14857525 -0.010365714 1.8140001
-0.13302666 -0.01727619 1.8140001
-0.1554857 -0.0046069841 1.8140001
-0.16239619 0.0034552382 1.8140001
-0.15807715 0.0025914286 1.8140001
-0.16239619 0.010365714 1.8140001
-0.15894096 0.013820953 1.8140001
-0.15663747 0.024186665 1.8140001
-0.15894096 0.032824762 1.8140001
-0.15894096 0.046645716 1.8140001
-0.15894096 0.055283815 1.8140001
-0.15894096 0.063921906 1.8140001
-0.15663746 0.076015241 1.8140001
-0.15778922 0.086380959 1.8140001
-0.15548572 0.09501905 1.8140001
-0.15548572 0.10365715 1.8140001
-0.15548572 0.11402286 1.8140001
-0.15548572 0.12438858 1.8140001
-0.15203048 0.13475429 1.8140001
-0.14857525 0.13129905 1.8140001
-0.15462191 0.1442562 1.8140001
-0.15375809 0.1554857 1.8140001
-0.15318222 0.16354793 1.8140001
-0.14857525 0.16757905 1.8140001
-0.15203048 0.17621715 1.8140001
-0.14857525 0.17448953 1.8140001
-0.15203048 0.18485525 1.8140001
-0.15203048 0.19349332 1.8140001
-0.14857525 0.19349334 1.8140001
-0.15203048 0.20040381 1.8140001
-0.14684764 0.20558667 1.8140001
0.24704954 0.20040381 1.8140001
0.25741524 0.20040381 1.8140001
0.26605335 0.20155556 1.8140001
0.27728286 0.20299524 1.8140001
0.28678477 0.20040381 1.8140001
0.29369524 0.20040381 1.8140001
0.32652003 0.20213144 1.8140001
0.33515811 0.20155556 1.8140001
0.34552383 0.20385905 1.8140001
0.35588956 0.20558667 1.8140001
0.36625525 0.20501082 1.8140001
0.37489337 0.20385906 1.8140001
0.38353145 0.20616256 1.8140001
-0.14512001 0.21422477 1.8140001
0.38422248 0.21215162 1.8140001
0.39290994 0.21471837 1.8140001
-0.14166477 0.22459048 1.8140001
-0.13820952 0.22804572 1.8140001
0.39597031 0.22389944 1.8140001
0.40167144 0.22545429 1.8140001
-0.14166477 0.2349562 1.8140001
-0.13820952 0.2349562 1.8140001
0.3973524 0.23150097 1.8140001
0.40541461 0.23438032 1.8140001
0.41290098 0.23668382 1.8140001
-0.14304689 0.24532191 1.8140001
-0.13820952 0.24359429 1.8140001
0.40771812 0.24532191 1.8140001
0.41255546 0.24463086 1.8140001
-0.14373791 0.2549966 1.8140001
0.41203716 0.25655144 1.8140001
-0.14339238 0.26605332 1.8140001
0.41203716 0.26605332 1.8140001
-0.14304689 0.27641907 1.8140001
0.40771812 0.27987429 1.8140001
0.41290098 0.27814668 1.8140001
-0.13648191 0.28505716 1.8140001
0.40771812 0.28678477 1.8140001
0.41117334 0.28505716 1.8140001
-0.13561811 0.29455906 1.8140001
0.40771809 0.29369524 1.8140001
-0.14166477 0.30751619 1.8140001
-0.13648191 0.30406097 1.8140001
0.40253526 0.30751619 1.8140001
-0.14396827 0.31442669 1.8140001
0.40253526 0.31097144 1.8140001
-0.14166477 0.32306477 1.8140001
-0.13820952 0.32652003 1.8140001
0.39620066 0.32479239 1.8140001
-0.13561811 0.33429429 1.8140001
0.38525906 0.33515811 1.8140001
0.39044192 0.33170286 1.8140001
-0.13389048 0.34638762 1.8140001
0.36971048 0.34552383 1.8140001
0.37489337 0.34379619 1.8140001
-0.13216285 0.35502574 1.8140001
0.35934478 0.35934478 1.8140001
0.36625525 0.35243431 1.8140001
-0.13129905 0.36625525 1.8140001
0.35243431 0.36625525 1.8140001
0.3628 0.36971048 1.8140001
-0.13129905 0.37489337 1.8140001
-0.12784381 0.37662098 1.8140001
0.35416192 0.37489337 1.8140001
0.3628 0.37489337 1.8140001
-0.13129905 0.38353142 1.8140001
0.35588953 0.38353142 1.8140001
0.3628 0.3800762 1.8140001
-0.13129905 0.39216954 1.8140001
0.34725145 0.3973524 1.8140001
0.35531366 0.39504895 1.8140001
-0.13129905 0.40080762 1.8140001
-0.12669207 0.40656638 1.8140001
0.34759697 0.4049539 1.8140001
0.35243431 0.40426287 1.8140001
-0.12300649 0.41324648 1.8140001
-0.11661429 0.41549239 1.8140001
0.34595573 0.41506049 1.8140001
0.35243431 0.41117334 1.8140001
-0.11402287 0.42441842 1.8140001
0.34552383 0.42450067 1.8140001
-0.11171937 0.43535998 1.8140001
-0.10711239 0.43363237 1.8140001
0.34345067 0.43466896 1.8140001
-0.12208509 0.44687748 1.8140001
-0.1151746 0.44572577 1.8140001
0.33861333 0.44745335 1.8140001
0.34293237 0.44486195 1.8140001
-0.13129905 0.45954669 1.8140001
-0.12577067 0.45678249 1.8140001
-0.1174781 0.45263621 1.8140001
0.33861336 0.45609143 1.8140001
-0.12208509 0.46645716 1.8140001
-0.1174781 0.46818477 1.8140001
0.33861336 0.46645716 1.8140001
-0.12093334 0.47509527 1.8140001
-0.1174781 0.47509527 1.8140001
0.33861333 0.47509527 1.8140001
0.34206858 0.47682288 1.8140001
-0.12438858 0.48373336 1.8140001
0.33723125 0.48373336 1.8140001
0.34206858 0.48200572 1.8140001
-0.13216285 0.49496287 1.8140001
-0.12784381 0.49064383 1.8140001
0.33584914 0.49340802 1.8140001
-0.14166477 0.50792003 1.8140001
-0.13475429 0.50446481 1.8140001
-0.12438858 0.50619245 1.8140001
-0.11575048 0.50792003 1.8140001
0.3360219 0.50360096 1.8140001
-0.13129905 0.51483047 1.8140001
-0.12554033 0.51367873 1.8140001
-0.11471391 0.51413941 1.8140001
0.33861333 0.51137525 1.8140001
0.34379619 0.51137525 1.8140001
-0.13376001 -0.020845715 1.8240001
-0.14418286 -0.013897143 1.8240001
-0.13897143 -0.013897143 1.8240001
-0.16329144 -0.0034742858 1.8240001
-0.15808001 -0.0069485717 1.8240001
-0.16676573 0.0034742858 1.824
-0.16444953 0.013897143 1.824
-0.16329144 0.022582859 1.8240001
-0.15981714 0.026057143 1.8240001
-0.16329144 0.034742858 1.824
-0.16329144 0.045165718 1.824
-0.16329144 0.055588573 1.824
-0.16329144 0.064274289 1.8240001
-0.15981714 0.069485717 1.8240001
-0.15981714 0.078171432 1.8240001
-0.15981714 0.093805723 1.824
-0.15981714 0.10422858 1.824
-0.15981714 0.12681144 1.8240001
-0.15634286 0.13549715 1.824
-0.16329144 0.14939429 1.8240001
-0.15981714 0.14591999 1.824
-0.15981714 0.15634286 1.824
-0.15808001 0.16502857 1.8240001
-0.15547429 0.17284571 1.8240001
-0.15721144 0.18500572 1.8240001
-0.15808001 0.19456001 1.8240002
0.29531431 0.19803429 1.8240001
-0.15564801 0.20428801 1.8240001
-0.14939429 0.20845716 1.8240001
0.23798859 0.20498286 1.8240001
0.2432 0.20150858 1.8240001
0.27446857 0.20150858 1.824
0.28489143 0.20150858 1.8240001
0.30573717 0.20150858 1.824
0.31268573 0.20150858 1.8240001
0.34221715 0.20150858 1.8240001
0.35785145 0.20672001 1.8240001
0.36480001 0.20324571 1.8240001
0.37522283 0.20150858 1.824
0.38634059 0.20289829 1.8240001
0.39520001 0.20758858 1.8240001
-0.15286858 0.21193144 1.8240001
-0.14939429 0.21540572 1.824
0.39954287 0.21366858 1.8240001
0.40417528 0.21772192 1.824
-0.14730972 0.22582857 1.8240001
0.40857601 0.22513373 1.8240001
0.41517717 0.22930287 1.8240001
-0.14765716 0.23625143 1.8240002
0.41517717 0.23277715 1.8240001
0.42038858 0.23798859 1.8240001
-0.15286858 0.2432 1.8240001
-0.1482362 0.2455162 1.824
0.42038858 0.24493715 1.8240001
-0.14939429 0.25362289 1.824
0.41691431 0.25362289 1.824
0.42038858 0.25014859 1.8240001
-0.14939429 0.26404572 1.824
0.41691431 0.26404572 1.8240001
0.42038858 0.26404572 1.824
-0.14707811 0.27446857 1.824
