# .PCD v0.7 - Point Cloud Data file format
VERSION 0.7
FIELDS x y z
SIZE 4 4 4
TYPE F F F
COUNT 1 1 1
WIDTH 1496
HEIGHT 1
VIEWPOINT 0 0 0 1 0 0 0
POINTS 1496
DATA ascii
0.13478571 -0.0079285717 1.6650001
0.14482857 -0.0052857138 1.6650001
0.15857144 -0.0095142862 1.6650001
0.16174287 -0.0079285717 1.6650001
0.19768572 -0.0052857143 1.6650001
0.20455714 -0.0047571426 1.6650001
0.21724287 -0.0031714286 1.6650001
0.222 -0.0031714286 1.6650001
-0.034251429 0.0082457149 1.6650002
-0.02537143 0.0022653062 1.6650001
-0.015857143 0 1.6650001
-0.0079285717 0 1.6650001
0.0047571431 0 1.6650001
0.014271429 0 1.6650001
0.041228574 0 1.6650001
0.20772856 0 1.6650001
0.21407142 0 1.6650001
0.22517145 0.0026428569 1.6650001
0.2331 0.0079285717 1.6650001
-0.032507144 0.015064286 1.6650001
0.23513879 0.016310206 1.6650001
0.24182144 0.015064286 1.6650001
-0.032507144 0.026164286 1.6650001
0.23151429 0.022200001 1.6650001
0.24102858 0.025371429 1.6650001
-0.026957143 0.035678573 1.6650001
-0.012685714 0.038057145 1.6650001
0.24102859 0.034885716 1.6650001
-0.024975002 0.044003572 1.6650001
-0.015857143 0.044400003 1.6650001
0.22834286 0.047571432 1.6650001
0.23680001 0.046514288 1.6650001
0.24102858 0.042814288 1.6650001
-0.024918368 0.053914286 1.6650001
-0.019028572 0.052328572 1.6650001
0.23658857 0.054548573 1.6650002
0.24102859 0.05391429 1.6650001
-0.024975002 0.066203579 1.6650001
-0.019028572 0.069771431 1.6650001
0.22755 0.064221427 1.6650001
0.23433334 0.064838096 1.6650001
0.24102858 0.060257144 1.6650001
-0.023785714 0.074528575 1.6650001
-0.01649143 0.076748572 1.6650002
0.22675714 0.077700004 1.6650001
0.2331 0.076114289 1.6650001
-0.0079285717 0.087214291 1.6650001
0.22675714 0.082457148 1.6650001
0.23521428 0.085628577 1.6650001
0.24102858 0.085628577 1.6650001
-0.005946429 0.094746433 1.6650001
0.0042285714 0.097257145 1.6650001
0.20931429 0.095142864 1.6650001
0.21882857 0.096728578 1.6650001
0.22517143 0.095142864 1.6650001
0.23559181 0.095142856 1.6650001
0.2426143 0.095142864 1.6650001
-0.0052857143 0.10465714 1.6650001
0.20614287 0.10465715 1.6650001
0.21605356 0.10505357 1.6650001
0.22517145 0.10505357 1.6650001
0.2346857 0.10412858 1.6650001
0.24420001 0.10148571 1.6650001
-0.0047571431 0.11417144 1.6650001
0.0015857143 0.11734286 1.6650001
0.19980001 0.111 1.6650001
0.20574644 0.11456786 1.6650001
0.21526071 0.11377501 1.6650001
0.22517145 0.11205715 1.6650001
0.23151429 0.11258572 1.6650001
-0.0042285714 0.12157143 1.6650001
0.0042285714 0.12368572 1.6650001
0.20614286 0.12262858 1.6650001
0.21248572 0.12051429 1.6650001
0.0050742859 0.13489145 1.6650004
0.014271429 0.13795716 1.6650001
0.13954286 0.13954286 1.6650001
0.14525144 0.13764001 1.6650002
0.18235716 0.13954286 1.6650001
0.19844082 0.13410613 1.6650001
0.20423999 0.13573715 1.6650002
-0.0031714286 0.14430001 1.6650001
0.0027749999 0.14588571 1.6650001
0.015460716 0.14628215 1.6650001
0.12685715 0.14588572 1.6650001
0.13637143 0.1449796 1.6650001
0.14509286 0.14509286 1.6650001
0.16808572 0.14271429 1.6650001
0.17337143 0.14377142 1.6650001
0.1834143 0.14641429 1.6650001
0.19662857 0.14747143 1.6650001
0.20614286 0.14588571 1.6650001
0.21248572 0.14271429 1.6650001
-0.0031714286 0.15698573 1.6650001
0.0022653062 0.15494695 1.6650001
0.015857143 0.15540001 1.6650001
0.023785714 0.15857144 1.6650001
0.13954286 0.15540002 1.6650001
0.14509286 0.15540001 1.6650001
0.17760001 0.15857144 1.6650001
0.18484899 0.15494695 1.6650001
0.19547532 0.15568835 1.6650002
0.20455715 0.15460715 1.6650001
-0.0031714286 0.16174287 1.6650001
0.0021142857 0.16280001 1.6650001
0.015328572 0.16385715 1.6650001
0.024314286 0.16280001 1.6650001
0.088800006 0.16808572 1.6650001
0.095935717 0.16729288 1.6650001
0.10465714 0.16808574 1.6650001
0.1760143 0.16808572 1.6650001
0.18394287 0.1649143 1.6650001
0.19464643 0.16412143 1.6650001
0.0063428571 0.17442858 1.6650001
0.03647143 0.17442858 1.6650001
0.045985717 0.17442858 1.6650001
0.054820411 0.17442858 1.6650001
0.061525714 0.17506287 1.6650002
0.076114289 0.17125715 1.6650001
0.088800006 0.17442858 1.6650001
0.095142864 0.17442858 1.6650001
0.10420407 0.17352246 1.6650001
0.14905715 0.17760001 1.6650001
0.16570716 0.17680717 1.6650001
0.17397551 0.17352246 1.6650001
0.18394287 0.17284286 1.6650001
0.1945143 0.17442858 1.6650001
0.026957145 0.18394287 1.6650001
0.033979595 0.18439594 1.6650001
0.046514288 0.18182857 1.6650001
0.054310717 0.18354642 1.6650001
0.060257144 0.18394287 1.6650001
0.096048988 0.18394287 1.6650001
0.10465714 0.18394285 1.6650001
0.11205715 0.18605715 1.6650001
0.13954286 0.1871143 1.6650001
0.14694287 0.18500002 1.6650001
0.15751429 0.18500002 1.6650001
0.16650002 0.18394287 1.6650001
0.17125715 0.18394287 1.6650001
0.18394287 0.18394287 1.6650001
0.19451429 0.18394287 1.6650001
0.028542858 0.19028573 1.6650001
0.034885716 0.19409142 1.6650002
0.05497143 0.19486669 1.6650001
0.060257144 0.19028573 1.6650001
0.077700004 0.19980001 1.6650001
0.085628577 0.19980001 1.6650001
0.095460013 0.19535999 1.6650002
0.10395239 0.19416191 1.6650001
0.11522857 0.19292857 1.6650001
0.12368572 0.19821429 1.6650001
0.13478573 0.19549593 1.6650003
0.14588572 0.19504286 1.6650003
0.16729286 0.19425002 1.6650001
0.17323929 0.19543929 1.6650001
0.1834143 0.19715716 1.6650001
0.19451429 0.19504286 1.6650001
0.028542856 0.20614286 1.6650001
0.034885719 0.20614287 1.6650001
0.041228574 0.20614286 1.6650001
0.054820411 0.20659593 1.6650001
0.066600002 0.20741144 1.6650002
0.07651072 0.2065393 1.6650001
0.085628577 0.20614287 1.6650001
0.095142856 0.20614287 1.6650001
0.10412857 0.20614286 1.6650001
0.11544 0.20741144 1.6650002
0.12328929 0.20614287 1.6650001
0.13510287 0.20804572 1.6650002
0.14628214 0.20614287 1.6650001
0.16808574 0.20614286 1.6650001
0.17337143 0.20508574 1.6650001
0.18267429 0.20550859 1.6650002
0.028542858 0.21407142 1.6650001
0.033617146 0.21502285 1.6650002
0.056028575 0.21354286 1.6650001
0.062899999 0.21459998 1.6650001
0.086025007 0.21565713 1.6650001
0.094746433 0.21605356 1.6650001
0.10505357 0.21605356 1.6650001
0.11337857 0.21645001 1.6650001
0.12328929 0.2152607 1.6650001
0.13541999 0.21502285 1.6650002
0.14588571 0.21565714 1.6650001
0.15645716 0.21671428 1.6650001
0.1649143 0.21565713 1.6650001
0.17125715 0.21565716 1.6650001
0.18394287 0.21248572 1.6650001
0.034885716 0.222 1.6650001
0.06596572 0.22263429 1.6650002
0.07294286 0.222 1.6650001
0.087214291 0.22358572 1.6650001
0.095142871 0.22517143 1.6650001
0.10465714 0.22517143 1.6650001
0.11417142 0.22517143 1.6650001
0.12368572 0.22517146 1.6650001
0.13319999 0.22517143 1.6650001
0.15381429 0.22358572 1.6650001
0.16332859 0.222 1.6650001
0.069771431 0.2331 1.6650001
0.087214291 0.23151429 1.6650001
0.096048988 0.23423266 1.6650001
0.10465714 0.23468572 1.6650001
0.11417143 0.23532002 1.6650002
0.12368572 0.23468569 1.6650001
0.1332 0.23468572 1.6650001
0.15540001 0.23468572 1.6650001
0.16451786 0.23428929 1.6650001
0.096728586 0.24419999 1.6650001
0.10465714 0.24419999 1.6650001
0.11417142 0.24419999 1.6650001
0.12368572 0.24420002 1.6650001
0.13229387 0.24420001 1.6650001
0.15645714 0.24314286 1.6650001
0.16400817 0.24465306 1.6650001
0.098314293 0.25054288 1.6650001
0.10624286 0.25054288 1.6650001
0.11417143 0.25181144 1.6650002
0.12368572 0.2521286 1.6650001
0.13256571 0.25244576 1.6650002
0.15857144 0.25054288 1.6650001
0.1649143 0.25054288 1.6650001
0.066600002 0.26640001 1.6650001
0.023900002 -0.012746667 1.6730001
0.11790667 -0.012746667 1.6730001
0.12109334 -0.012746667 1.6730001
0.13543335 -0.012746667 1.6730001
0.16252001 -0.012746667 1.6730001
0.22466001 -0.012746667 1.6730001
-0.026555555 -0.0053111115 1.6730002
-0.01487111 -0.0053111115 1.673
-0.007435556 -0.0063733333 1.6730002
0.0015933334 -0.0079666674 1.6730001
0.014871112 -0.0074355565 1.673
0.11472001 -0.0095600002 1.673
0.14738333 -0.0087633338 1.6730001
0.20713334 -0.0095600002 1.6730001
0.21446268 -0.0070106671 1.6730001
0.22625335 -0.0063733337 1.6730002
0.235176 -0.0044613341 1.6730001
0.24218668 -0.0031866669 1.6730001
-0.044613335 0.0063733337 1.6730002
-0.035508573 0.0022761908 1.6730002
0.22944 0 1.6730001
0.23661001 0.0031866669 1.6730002
0.24508363 0.0052145459 1.6730002
0.25461468 0.0057360004 1.6730001
0.26289999 0.0063733337 1.6730001
-0.044613335 0.015933335 1.6730002
-0.036965333 0.016570669 1.6730001
0.24728537 0.016570669 1.6730001
0.25453502 0.015535001 1.6730002
0.26130667 0.012746667 1.6730001
-0.05098667 0.022306668 1.6730001
-0.044613335 0.025493333 1.6730002
-0.036965333 0.024856001 1.6730001
0.24696667 0.025493333 1.6730002
0.25334001 0.025493333 1.6730002
-0.043702859 0.035053335 1.6730002
-0.035053339 0.035053335 1.6730002
0.24696667 0.035053331 1.6730002
0.25453502 0.034655005 1.6730002
-0.04142667 0.04142667 1.6730001
-0.035053331 0.044613332 1.6730002
0.24628384 0.045068569 1.6730002
0.25402287 0.045068569 1.6730002
0.26529002 0.047003336 1.6730001
0.27245998 0.047800001 1.6730001
-0.034655001 0.053775005 1.6730002
0.2469667 0.054173339 1.6730002
0.2528089 0.052048892 1.673
0.26449335 0.052580003 1.6730001
-0.03186667 0.062140003 1.6730001
0.23900001 0.066920005 1.6730001
0.24577168 0.064131677 1.6730002
-0.026290003 0.077276669 1.6730001
-0.01912 0.079666667 1.6730001
0.23900001 0.074886665 1.6730001
0.24537332 0.07488668 1.6730002
0.26130667 0.074886665 1.6730001
-0.022306668 0.084446669 1.6730001
-0.015933335 0.086040005 1.6730002
0.23900001 0.08285334 1.6730001
0.24577168 0.086040005 1.6730002
0.25453502 0.086040005 1.6730002
0.26130667 0.08285334 1.6730001
-0.022306668 0.097193331 1.6730001
-0.016388571 0.094689526 1.6730002
-0.0095600002 0.098786667 1.6730001
0.24582855 0.095600002 1.6730002
0.25493336 0.095599994 1.6730002
-0.025493333 0.10516001 1.6730002
-0.016843811 0.10561524 1.6730002
-0.0087633338 0.10436334 1.6730001
0.21032001 0.10834667 1.6730001
0.23740667 0.10834667 1.6730001
0.24484225 0.10462889 1.6730002
0.2528089 0.10303557 1.673
-0.012746667 0.11472001 1.673
-0.0095600002 0.11472001 1.673
0.21510002 0.11472 1.6730001
0.22625335 0.11578223 1.6730002
0.23672381 0.11517524 1.6730002
-0.012746667 0.12428001 1.673
-0.007435556 0.12534223 1.6730002
0.20713334 0.12746668 1.6730001
0.21633929 0.12498816 1.6730002
0.22625335 0.12428001 1.6730002
0.23581333 0.12109334 1.673
-0.022306668 0.13702667 1.6730001
-0.012746667 0.13384001 1.673
-0.0063733333 0.13384002 1.6730002
0 0.13384001 1.6730001
0.20713334 0.13384001 1.673
0.21510001 0.13384001 1.6730002
0.22625335 0.13384001 1.6730002
0.23740667 0.13384001 1.6730002
-0.025493333 0.14180666 1.6730002
-0.015933335 0.14499334 1.6730002
-0.0070106671 0.14499334 1.6730001
0.20713334 0.14499334 1.6730001
0.21698304 0.14513819 1.6730002
0.22625333 0.14499335 1.6730002
0.23581333 0.14499335 1.6730002
0.24378002 0.14977334 1.6730001
-0.015022859 0.15569143 1.6730002
-0.0072838101 0.15569143 1.6730002
0.20713334 0.15614668 1.673
0.21553458 0.15643635 1.6730002
0.22625335 0.1552362 1.6730002
0.23581333 0.15455334 1.6730002
0.24537335 0.15455334 1.6730001
-0.012746667 0.16252001 1.6730001
-0.0063733337 0.16570668 1.6730002
0.0015933334 0.16889334 1.6730001
0.18801335 0.16889334 1.6730001
0.19279334 0.16889334 1.6730001
0.204345 0.16570668 1.6730002
0.21414402 0.16570666 1.6730001
0.22625335 0.16570668 1.6730001
-0.0047800001 0.17526667 1.6730001
0.0031866669 0.17606334 1.6730002
0.012746667 0.17845334 1.6730001
0.038240001 0.17845334 1.6730001
0.044613335 0.17845334 1.673
0.10516001 0.17845334 1.6730001
0.17686 0.17845334 1.6730001
0.18482669 0.17845334 1.673
0.1912 0.17845334 1.6730001
0.204345 0.17486835 1.6730002
0.21386075 0.17597482 1.6730002
-0.012746667 0.18642001 1.6730001
0.0047800001 0.18482667 1.6730001
0.016331669 0.18442833 1.6730002
0.022306668 0.18482669 1.673
0.038240001 0.18323335 1.6730001
0.043551117 0.18588889 1.6730002
0.05098667 0.18801335 1.6730001
0.17686002 0.18482669 1.6730002
0.18482669 0.18482666 1.6730002
0.1912 0.18482667 1.6730001
0.20394666 0.18482669 1.6730002
0.21414402 0.18450801 1.6730001
-0.012746667 0.19279334 1.6730001
0.018323334 0.19359002 1.6730001
0.025095001 0.19478501 1.6730002
0.044613335 0.19438666 1.6730002
0.05098667 0.19438666 1.6730001
0.14021334 0.19438668 1.6730001
0.17739111 0.19332445 1.673
0.18535779 0.19385557 1.6730002
0.19438668 0.19374934 1.6730001
0.204345 0.19438668 1.6730002
0.21386075 0.19367854 1.6730002
0.017845334 0.204584 1.6730001
0.024582859 0.20349143 1.6730002
0.035053335 0.20076001 1.6730001
0.045011666 0.20354834 1.6730002
0.050986666 0.20394666 1.673
0.12746668 0.20713334 1.6730001
0.13320267 0.20585868 1.6730001
0.14127555 0.20607112 1.673
0.17845334 0.20394668 1.6730001
0.18801335 0.20554 1.6730001
0.19438668 0.20434502 1.6730002
0.20394666 0.20394666 1.6730002
0.21111667 0.20474334 1.6730001
0.017526668 0.21510002 1.6730002
0.024431113 0.21563113 1.6730002
0.036646668 0.21749 1.6730001
0.044613335 0.21510004 1.6730002
0.05311111 0.21775556 1.6730002
0.066123344 0.21749002 1.6730001
0.075321212 0.21698304 1.6730002
0.08285334 0.21669334 1.6730001
0.17686 0.21510001 1.6730002
0.18482667 0.21573734 1.6730001
0.19438668 0.21510004 1.6730002
0.20394666 0.21510001 1.6730002
0.21138223 0.21138223 1.673
0.0063733337 0.22944 1.6730001
0.017526668 0.22306667 1.6730001
0.026403811 0.22579812 1.6730002
0.035053335 0.2266517 1.6730002
0.044613335 0.22625335 1.6730002
0.054173335 0.22625335 1.6730002
0.063733339 0.22784667 1.6730002
0.076125935 0.22696151 1.6730002
0.084765345 0.22752801 1.6730001
0.14435601 0.22561601 1.6730001
0.15742134 0.22752801 1.6730001
0.16616191 0.22716381 1.6730002
0.17526667 0.22625335 1.6730002
0.18482667 0.22625335 1.6730002
0.19438666 0.22625335 1.6730002
0.20394666 0.22625333 1.6730002
0.21032001 0.22944 1.6730001
0.0063733337 0.23581335 1.6730001
0.02868 0.23262668 1.6730001
0.035451666 0.23541503 1.6730002
0.044158097 0.23581333 1.6730002
0.053718098 0.23490286 1.6730002
0.063733347 0.23581335 1.6730002
0.075842664 0.236132 1.6730001
0.085584767 0.23672383 1.6730002
0.092413336 0.23740667 1.6730001
0.14484848 0.23581336 1.6730002
0.16889334 0.23900001 1.6730001
0.17526667 0.23581335 1.6730002
0.18437144 0.23490284 1.6730002
0.1912 0.23422 1.6730001
0.20076001 0.23262668 1.6730001
0.036965333 0.244736 1.6730001
0.044613335 0.24537332 1.6730002
0.052579999 0.24537332 1.6730002
0.063733332 0.24537335 1.6730002
0.074886672 0.24537331 1.6730002
0.087633342 0.24537332 1.6730002
0.092413336 0.24537332 1.673
0.13702667 0.24537334 1.6730001
0.14260334 0.24457666 1.6730001
0.15561557 0.24590446 1.6730002
0.16889334 0.24378002 1.6730001
0.17526668 0.24537335 1.6730002
0.063733332 0.25493336 1.6730002
0.074886672 0.25493336 1.6730002
0.095201664 0.2553317 1.6730002
0.10470477 0.25584385 1.6730002
0.11471999 0.25732332 1.6730001
0.12428001 0.25812 1.673
0.13463667 0.25652668 1.6730001
0.14021334 0.25493336 1.673
0.15574834 0.2553317 1.6730002
0.16570668 0.25652668 1.6730002
0.17526667 0.25493336 1.6730002
0.057360001 0.26768002 1.6730001
0.063335009 0.26409501 1.6730002
0.074886672 0.26449335 1.6730002
0.08285334 0.26449335 1.673
0.095600002 0.26130667 1.673
0.10516001 0.26130667 1.673
0.11525112 0.2634311 1.6730002
0.12428001 0.26449335 1.6730002
0.13384001 0.26449335 1.6730002
0.14021334 0.26449335 1.673
0.15774001 0.26449335 1.6730002
0.16570668 0.26449335 1.6730002
0.17526668 0.26449335 1.6730002
0.18528192 0.26540384 1.6730002
0.1912 0.26768002 1.6730001
0.064643815 0.2735981 1.6730002
0.074741825 0.27376363 1.6730002
0.08285334 0.27405334 1.6730001
0.12428001 0.27086666 1.6730001
0.13543335 0.27086666 1.6730001
0.15774 0.27405334 1.6730002
0.16570668 0.27405334 1.6730002
0.17526668 0.27405334 1.6730002
0.18418935 0.27214131 1.6730001
0.19598 0.27245998 1.6730001
0.065326676 0.28042668 1.6730001
0.072655998 0.28233871 1.6730001
0.11790667 0.28361335 1.6730001
0.15774001 0.28520668 1.6730002
0.16570668 0.28520665 1.6730002
0.17526667 0.28520668 1.6730002
0.18164001 0.28573778 1.673
0.12507668 0.29715669 1.6730001
0.13320267 0.29763469 1.6730001
0.15774001 0.29636002 1.6730002
0.16570668 0.29636002 1.6730002
0.17526667 0.29636002 1.6730002
0.18376446 0.29742226 1.6730002
0.19438668 0.29954669 1.6730001
0.085243344 0.30831 1.6730001
0.095600002 0.30719468 1.6730001
0.10197334 0.30910668 1.6730001
0.13065334 0.30273333 1.6730001
0.15774 0.30592 1.6730002
0.16570668 0.30592003 1.6730002
0.17486833 0.30552167 1.6730002
0.18376446 0.30485779 1.6730002
0.19279334 0.30273333 1.6730001
0.08285334 0.31548002 1.673
0.094537787 0.31441781 1.673
0.15774 0.3138867 1.6730001
0.16570668 0.31229335 1.673
0.17314224 0.31335557 1.673
0.08285334 0.32504001 1.673
0.092413336 0.32822669 1.6730001
0.078073338 0.33141336 1.6730001
0.08285334 0.33141336 1.6730001
-0.01280762 -0.01280762 1.6810001
-0.0096057151 -0.01280762 1.6810001
0.14568667 -0.01280762 1.6810001
0.15209049 -0.01280762 1.6810001
0.20652287 -0.01280762 1.6810001
0.21292667 -0.01280762 1.6810001
0.23453954 -0.013608096 1.6810001
0.24014287 -0.016009524 1.6810001
-0.034580573 -0.004482667 1.6810001
-0.02561524 -0.0096057151 1.6810001
-0.01280762 -0.0064038099 1.6810001
-0.0064038099 -0.0096057151 1.6810001
0.0080047622 -0.0080047622 1.6810001
0.01280762 -0.0096057151 1.6810001
0.23373906 -0.0096057151 1.6810001
0.2442596 -0.0064038103 1.681
0.25615239 -0.0048028571 1.6810001
0.26495761 -0.0040023811 1.6810001
0.27696478 -0.0048028575 1.6810001
-0.070441909 0.0096057151 1.6810001
-0.062116958 0.007044191 1.6810001
-0.054432388 0.0068040481 1.681
-0.044826668 0 1.6810001
0.24974859 0 1.6810001
0.25775334 0 1.6810001
0.26607829 0.004482667 1.681
0.27507275 0.0052394811 1.6809999
0.28390223 0.0074711121 1.6810001
-0.072728984 0.016009526 1.681
-0.06363786 0.016409762 1.681
-0.054432385 0.016009524 1.681
0.25935429 0.01921143 1.6810001
0.26615834 0.016409762 1.681
0.2753638 0.016009524 1.681
0.2840547 0.01646694 1.681
-0.070441909 0.024014287 1.6810001
-0.062116958 0.026255619 1.6810001
-0.054832626 0.026015477 1.681
0.25935429 0.02561524 1.6810001
0.2657581 0.02561524 1.681
0.2753638 0.02561524 1.681
0.28456929 0.025215004 1.681
-0.062437147 0.035220951 1.6810001
-0.054432388 0.035220955 1.681
-0.048028573 0.035220955 1.6810001
0.25935429 0.03842286 1.6810001
0.2657581 0.035220955 1.681
0.27536383 0.035220951 1.681
0.28336859 0.035220955 1.6810001
-0.070441909 0.041624762 1.6810001
-0.063123271 0.045284081 1.681
-0.054432388 0.044826664 1.681
-0.045226905 0.045226902 1.681
0.25935429 0.043225713 1.6810001
0.2651177 0.042905524 1.6810001
0.27582124 0.043911837 1.681
0.28336859 0.043225717 1.6810001
-0.064038098 0.052831437 1.6810001
-0.054432388 0.054432388 1.681
-0.04482666 0.054432388 1.681
-0.03842286 0.057634287 1.6810001
0.2572197 0.055499688 1.6810001
0.2657581 0.054889802 1.681
0.27496359 0.054432388 1.681
0.28336859 0.057634287 1.6810001
-0.053365085 0.06350445 1.6810001
-0.044426426 0.06363786 1.681
-0.036135785 0.064495511 1.681
0.25615239 0.064038098 1.681
0.2657581 0.064038098 1.681
0.27536383 0.064038098 1.681
0.28456929 0.06363786 1.681
-0.052831434 0.070441909 1.6810001
-0.043759365 0.072576515 1.6810001
-0.035220951 0.07204286 1.6810001
0.25615239 0.073643811 1.681
0.26735905 0.073643811 1.6810001
0.2753638 0.073643811 1.681
0.28496951 0.073643811 1.681
-0.026815955 0.086051188 1.681
0.25695288 0.081648573 1.6810001
0.26639849 0.085490853 1.681
0.27536383 0.084850468 1.6809999
0.28368875 0.081968762 1.6810001
-0.026530072 0.095599733 1.681
-0.014408572 0.099259049 1.6810001
0.2657581 0.096057147 1.681
0.27536383 0.096057139 1.681
-0.041624762 0.10886477 1.6810001
-0.034153651 0.10566286 1.6810001
-0.01280762 0.10406191 1.6810001
0.24814764 0.10886477 1.6810001
0.2572197 0.10673017 1.6810001
0.26575813 0.10566287 1.681
0.27496359 0.10606311 1.681
-0.03602143 0.11286715 1.6810001
-0.02561524 0.11526857 1.681
-0.017610477 0.11526858 1.6810001
0.24654667 0.11526857 1.681
0.25523755 0.11572599 1.681
0.26682541 0.11313397 1.6810001
0.27376288 0.11206667 1.6810001
0.28176764 0.11526857 1.6810001
-0.02561524 0.1248743 1.681
-0.017610477 0.12487429 1.6810001
0.23534001 0.12647524 1.6810001
0.24538235 0.12516536 1.6809999
0.25455144 0.12487429 1.6810001
-0.026015477 0.13407975 1.681
-0.017610477 0.13448 1.6810001
0.23373906 0.13448 1.6810001
0.24654667 0.13448 1.681
0.25455144 0.13448001 1.6810001
-0.032019049 0.14408572 1.6810001
-0.02561524 0.14728762 1.6810001
0.24654669 0.14408571 1.681
0.25575215 0.14368547 1.681
-0.02561524 0.15369143 1.681
-0.01921143 0.15689334 1.6810001
0.24761398 0.15369144 1.6810001
0.25575218 0.15409169 1.681
0.2625562 0.15369144 1.6810001
-0.02561524 0.16489811 1.6809999
-0.016721059 0.1661433 1.681
-0.0096057151 0.16970097 1.6810001
0.22413334 0.16569857 1.681
0.23373906 0.1648981 1.6809999
0.24494573 0.16489813 1.6809999
0.25455144 0.1616962 1.6810001
-0.02561524 0.17610475 1.681
-0.016009524 0.17610475 1.681
-0.0068612248 0.17610477 1.681
0.21772954 0.17290287 1.6810001
0.22453357 0.17570452 1.681
0.23373906 0.176505 1.681
0.24494572 0.17610474 1.6809999
-0.025615238 0.18571049 1.681
-0.016924355 0.18525307 1.681
-0.0064038103 0.18571049 1.681
0.0048028575 0.18571049 1.6810001
0.01280762 0.18891239 1.6810001
0.22453357 0.18611073 1.681
0.23373906 0.18571049 1.681
0.24450909 0.18600155 1.6809999
0.25295049 0.18731144 1.6810001
-0.025615238 0.19531621 1.681
-0.016924353 0.1957736 1.681
-0.0064038103 0.19531618 1.681
0.004802858 0.1953162 1.6809999
0.014088382 0.19595657 1.6810001
0.21772954 0.1985181 1.6810001
0.22453357 0.19571644 1.681
0.23373906 0.1953162 1.681
0.24398515 0.194996 1.681
-0.025615238 0.20492192 1.681
-0.016009524 0.20492192 1.681
-0.0064038094 0.20492192 1.681
0.0048028575 0.20492192 1.6809999
0.013608095 0.20412144 1.6810001
0.21644878 0.20428154 1.6810001
0.22413333 0.2049219 1.681
0.23373906 0.20492193 1.681
0.24094334 0.20412144 1.6810001
-0.025215002 0.21412741 1.681
-0.01555211 0.21361279 1.681
-0.0064038103 0.21452764 1.681
0.004802858 0.21452762 1.6809999
0.01280762 0.21452762 1.6810001
0.21559493 0.21559495 1.6810001
0.22413333 0.21452765 1.681
0.23373906 0.21452764 1.681
0.24014287 0.21452762 1.6810001
-0.013874921 0.22306605 1.6810001
-0.0064038103 0.22413333 1.681
0.0048028575 0.22413331 1.6809999
0.014728762 0.22541408 1.6810001
0.022413334 0.22733524 1.6810001
0.21452764 0.22413333 1.681
0.22413333 0.22413333 1.681
0.23181792 0.22349295 1.6810001
-0.01280762 0.2321381 1.6810001
-0.0064038103 0.23373906 1.681
0.004482667 0.23405924 1.681
0.016009526 0.23373906 1.681
0.024547936 0.23480636 1.6810001
0.046427622 0.23694097 1.6810001
0.14728762 0.23373905 1.6810001
0.15048952 0.23053715 1.6810001
0.19691715 0.23534001 1.6810001
0.20556231 0.2356602 1.6810001
0.21492787 0.23413929 1.681
0.22253239 0.23373906 1.6810001
-0.0057634292 0.24462552 1.681
0.0046961275 0.24526593 1.6809999
0.016009524 0.24494575 1.6809999
0.02561524 0.24494572 1.6809999
0.03265943 0.24590631 1.6810001
0.056993909 0.24398515 1.6810001
0.083249524 0.24654669 1.6810001
0.14568667 0.24654669 1.6810001
0.15048952 0.24814764 1.6810001
0.18600155 0.24538235 1.6809999
0.1953162 0.2449457 1.6809999
0.20492192 0.24494576 1.6809999
0.21452762 0.24494572 1.6809999
0.22384228 0.24538235 1.6809999
0.0060035717 0.25495169 1.681
0.016009524 0.25615239 1.681
0.025615238 0.25615239 1.681
0.035220951 0.25615236 1.681
0.044826668 0.25615239 1.681
0.054432388 0.25615236 1.681
0.086451426 0.25615239 1.681
0.14568667 0.25615239 1.6810001
0.15048952 0.25615239 1.6810001
0.18571049 0.25615239 1.681
0.19531621 0.25615242 1.681
0.20492192 0.25615239 1.681
0.21452764 0.25615239 1.681
0.22413333 0.25615239 1.681
0.23053715 0.25935429 1.6810001
0.0070441915 0.26639849 1.6810001
0.016924353 0.2662155 1.681
0.02561524 0.2657581 1.681
0.036821906 0.2657581 1.6810001
0.044826668 0.2657581 1.681
0.054032151 0.26535785 1.681
0.088052385 0.26575813 1.6810001
0.096057147 0.26735905 1.6810001
0.10566287 0.26735905 1.6810001
0.11420127 0.26789269 1.6810001
0.14568667 0.2657581 1.6810001
0.15209047 0.2657581 1.6810001
0.18410954 0.2625562 1.6810001
0.19571644 0.26535785 1.681
0.20492192 0.2657581 1.681
0.21452764 0.2657581 1.681
0.2237331 0.26535785 1.681
0.23053715 0.26415715 1.6810001
0.0064038094 0.2753638 1.681
0.016009524 0.2753638 1.681
0.02561524 0.27536383 1.681
0.036135785 0.27582127 1.681
0.04482666 0.2753638 1.681
0.054432388 0.2753638 1.681
0.060836192 0.27696478 1.6810001
0.07684572 0.27856573 1.6810001
0.086851664 0.27536383 1.681
0.096057139 0.27536383 1.681
0.10566287 0.2753638 1.681
0.11526857 0.27536383 1.681
0.12487429 0.27576405 1.681
0.13402258 0.27627867 1.681
0.14408571 0.2753638 1.681
0.15209047 0.27536383 1.6810001
0.18651097 0.27776524 1.6810001
0.19403544 0.27664456 1.6810001
0.20492192 0.27536383 1.681
0.21452765 0.2753638 1.681
0.2222122 0.2760042 1.6810001
0.0068040481 0.28456929 1.681
0.016009524 0.28496954 1.681
0.025157822 0.2840547 1.681
0.032019049 0.28176764 1.6810001
0.048028573 0.28336859 1.6810001
0.054432388 0.28496954 1.681
0.063580684 0.28588438 1.681
0.075564958 0.2856099 1.6810001
0.085287094 0.28526062 1.6809999
0.096057147 0.28496954 1.681
0.10566287 0.28496954 1.681
0.11486834 0.28496954 1.681
0.12487429 0.28496954 1.681
0.13448 0.28496954 1.681
0.14408572 0.28496954 1.681
0.15209047 0.28496954 1.6810001
0.18662532 0.28496954 1.681
0.19531618 0.28496957 1.681
0.20492192 0.28496954 1.681
0.21407022 0.2840547 1.681
0.22093144 0.28176764 1.6810001
0.0096057151 0.29137334 1.6810001
0.014408573 0.29457524 1.6810001
0.028817143 0.2961762 1.6810001
0.048028573 0.2961762 1.6810001
0.054832626 0.29497549 1.681
0.064038098 0.29457524 1.681
0.073643811 0.29457521 1.681
0.084850468 0.29457521 1.6809999
0.096057147 0.29457524 1.681
0.10566287 0.29457524 1.681
0.11526857 0.29457524 1.681
0.12487429 0.29297432 1.6810001
0.13448 0.29297426 1.6810001
0.14408571 0.29457524 1.681
0.15209047 0.29457524 1.6810001
0.18763164 0.29393485 1.6810001
0.19531618 0.29457524 1.681
0.20332097 0.29457524 1.6810001
0.014408572 0.30097905 1.6810001
0.048028573 0.30418098 1.6810001
0.054432388 0.30418095 1.681
0.064038098 0.30418095 1.681
0.073643811 0.30418098 1.681
0.084996015 0.30388987 1.6809999
0.096057139 0.30372354 1.681
0.10566287 0.30418098 1.681
0.11526857 0.30418092 1.681
0.12447406 0.30458117 1.681
0.1355473 0.30524823 1.6810001
0.14408571 0.30418095 1.681
0.15209047 0.30418095 1.6810001
0.18891239 0.30738288 1.6810001
0.19584985 0.30471459 1.6810001
0.20385462 0.30471462 1.6810001
0.047228098 0.31378669 1.6810001
0.054432388 0.31378669 1.681
0.064038098 0.31378669 1.681
0.073643811 0.31378669 1.681
0.084621772 0.31470153 1.681
0.09712445 0.314854 1.6810001
0.10606311 0.31418693 1.681
0.11526857 0.31378666 1.681
0.12487429 0.31378669 1.681
0.13448 0.31378666 1.681
0.14408572 0.31378669 1.681
0.15209047 0.31378672 1.6810001
0.16649906 0.31698859 1.6810001
0.1785062 0.31458718 1.6810001
0.18611071 0.31418693 1.681
0.19531621 0.31378672 1.681
0.20492192 0.31378666 1.681
0.21132572 0.31378669 1.6810001
0.054723468 0.32455671 1.6809999
0.064038098 0.32499334 1.6809999
0.073643811 0.32499337 1.6809999
0.085384123 0.32499334 1.6809999
0.096348219 0.32455671 1.6809999
0.10566287 0.32499337 1.6809999
0.11526857 0.32499337 1.6809999
0.12487429 0.32499334 1.6809999
0.13448 0.32499337 1.6809999
0.14379464 0.32513893 1.6809999
0.15561259 0.32403275 1.6810001
0.16489808 0.32499337 1.6809999
0.17610477 0.32499337 1.6809999
0.18571047 0.32499334 1.6809999
0.1953162 0.32499334 1.6809999
0.20532216 0.32339239 1.681
0.2121262 0.32339239 1.6810001
0.056833811 0.33539951 1.6810001
0.064038098 0.33620003 1.681
0.073243573 0.33660024 1.681
0.085490845 0.33684039 1.681
0.096057139 0.3362 1.681
0.10566287 0.3362 1.681
0.11526857 0.3362 1.681
0.12487429 0.3362 1.681
0.13448 0.3362 1.681
0.14568667 0.3329981 1.6810001
0.15689334 0.3362 1.6810001
0.1648981 0.3362 1.6809999
0.176505 0.33579975 1.681
0.18571049 0.3362 1.681
0.19531621 0.3362 1.681
0.20278732 0.33833465 1.6810001
0.075244762 0.34580573 1.6810001
0.084850468 0.34580573 1.6809999
0.096057147 0.34580576 1.681
0.10566287 0.34580576 1.681
0.11526857 0.34580573 1.681
0.12487429 0.34580576 1.681
0.13448 0.34580576 1.681
0.1447261 0.34708649 1.6810001
0.15433183 0.3464461 1.6810001
0.16238232 0.34534833 1.681
0.17770572 0.34260383 1.6810001
0.18651097 0.34340432 1.6810001
0.1953162 0.34420478 1.6810001
0.20172001 0.34420478 1.6810001
0.075244769 0.35381049 1.6810001
0.084530279 0.35477108 1.681
0.097658098 0.35461095 1.6810001
0.10566287 0.35449666 1.681
0.11566882 0.35501119 1.681
0.12487429 0.35541144 1.681
0.13448 0.35541144 1.681
0.14448597 0.35581166 1.681
0.15369143 0.35541144 1.6810001
0.16238232 0.35586885 1.681
0.06724 0.36821905 1.6810001
0.070441909 0.36821905 1.6810001
0.10566286 0.36501715 1.6810001
0.11526857 0.3626157 1.6810001
0.12487429 0.36455971 1.681
0.13448 0.36455974 1.681
0.14448595 0.3646169 1.681
0.15369144 0.3646169 1.681
0.16393752 0.36469695 1.681
0.17290287 0.36181524 1.6810001
0.1280762 0.37142098 1.6810001
0.13608097 0.37542337 1.6810001
0.1448862 0.37382239 1.6810001
0.15529239 0.37382239 1.6810001
0.16329713 0.37462288 1.681
0.17930667 0.37462291 1.6810001
0.18330906 0.37542337 1.6810001
0.1334127 0.38369492 1.6810001
0.14248477 0.38102669 1.6810001
0.15689334 0.38102669 1.6810001
0.1648981 0.38102669 1.6810001
0.176505 0.38422859 1.681
0.18410952 0.38422859 1.6810001
0.12295314 0.39319393 1.6810001
0.13287905 0.39063239 1.6810001
0.16970097 0.39383429 1.6810001
0.17610475 0.39383426 1.681
0.18464319 0.39276698 1.6810001
0.06724 0.40984383 1.6810001
0.088052385 0.40984383 1.6810001
0.099259049 0.40984383 1.6810001
0.12167238 0.40344003 1.6810001
0.15689334 0.40984383 1.6810001
0.16649906 0.40770924 1.6810001
0.17738554 0.40215921 1.6810001
0.18571049 0.4002381 1.6810001
0.06724 0.41944954 1.6810001
0.073643811 0.41784859 1.6810001
0.084621765 0.41670507 1.681
0.097658098 0.41464669 1.6810001
0.10246096 0.41624764 1.6810001
0.1312781 0.41624764 1.6810001
0.15689334 0.41624764 1.6810001
0.1648981 0.41624764 1.6809999
0.17290287 0.41944954 1.6810001
0.06724 0.42585334 1.6810001
0.073643811 0.42585337 1.681
0.084413849 0.42556226 1.6809999
0.096057147 0.42425239 1.6810001
0.10406191 0.42265144 1.6810001
0.15689334 0.42585334 1.6810001
0.16238232 0.42539597 1.681
0.073643811 0.43225715 1.6810001
0.15689334 0.43225715 1.6810001
0.16009524 0.43545905 1.6810001
0.065639049 0.52191049 1.6810001
0.20812382 0.52191049 1.6810001
0.21132572 0.52191049 1.6810001
-0.080857143 -0.012937143 1.6980001
-0.07277143 -0.012937143 1.6980001
0.24552307 -0.014179048 1.6916001
0.2555086 -0.012937143 1.6980001
0.26521146 -0.014554287 1.6980001
0.27447745 -0.01453143 1.6953335
0.28305525 -0.016803049 1.6964
0.29108572 -0.014554286 1.6980001
-0.080857143 -0.0064685717 1.6980001
-0.074388571 -0.0064685717 1.6980001
-0.064223677 -0.0055444902 1.6980001
-0.05498286 -0.0064685717 1.6980001
-0.04506667 -0.0064380961 1.6900003
-0.035409525 -0.0080476198 1.6900001
0.24786668 -0.0096571436 1.6900001
0.25440285 -0.008886667 1.696
0.26508287 -0.0088638104 1.692
0.2738041 -0.0069044903 1.691143
0.28442559 -0.0064663952 1.6968572
0.29108572 -0.0048514288 1.6980001
-0.1142781 0.0086247623 1.6980001
-0.10479086 0.0051748576 1.6980001
-0.093721919 0.0048438101 1.6966667
-0.083828576 0.0048298417 1.6926669
-0.074426323 0.0043896106 1.6921821
-0.065849796 0.0032190478 1.6922858
-0.05472381 0.00080476195 1.6900001
0.28595874 0.0021460319 1.6900002
0.29462433 0.0042937566 1.6935556
0.30294478 0.0070076194 1.6980001
-0.14554286 0.019405715 1.6980001
-0.11551021 0.01663347 1.6980001
-0.10511429 0.016171427 1.6980001
-0.093504757 0.016120635 1.6926668
-0.08369524 0.01609524 1.6900003
-0.077257149 0.01609524 1.6900001
-0.067600004 0.012876191 1.6900001
0.28971431 0.014485715 1.6900001
0.29501015 0.016118096 1.6926666
0.30159715 0.01698 1.6980001
-0.14554286 0.022640001 1.6980001
-0.1277543 0.025874287 1.6980001
-0.11481714 0.025874287 1.6980001
-0.10511429 0.025874285 1.6980001
-0.093652062 0.025833651 1.6953335
-0.083695248 0.025752382 1.6900003
-0.074957833 0.026212247 1.6900003
-0.066795245 0.024947621 1.6900001
0.28971431 0.02897143 1.6900001
0.29615238 0.025752382 1.6900003
0.30564001 0.025874287 1.6980001
0.31326368 0.026798369 1.6980001
-0.12452 0.035577144 1.6980001
-0.11603001 0.035981432 1.6980001
-0.10511429 0.035577144 1.6980001
-0.093699478 0.035541587 1.6962223
-0.08369524 0.035409525 1.6900003
-0.074038096 0.035409525 1.6900003
-0.067600004 0.035409525 1.6900001
0.28971431 0.035409525 1.6900001
0.29615241 0.035409525 1.6900003
0.30580956 0.035409525 1.6900003
0.31383085 0.03608381 1.6916001
-0.13260572 0.045280002 1.6980001
-0.12559809 0.044740956 1.6980001
-0.11551021 0.044817962 1.6980001
-0.10511429 0.045279998 1.6980001
-0.093794286 0.045279998 1.6980001
-0.083964437 0.04520889 1.6953335
-0.074440479 0.045469049 1.6900003
-0.067600004 0.043457143 1.6900001
0.28778285 0.046354286 1.6900002
0.29646224 0.045117464 1.6917779
0.30580956 0.04506667 1.6900003
0.31417906 0.043779053 1.6900002
-0.12452 0.053365715 1.6980001
-0.11449371 0.054336 1.6980002
-0.10467324 0.055276893 1.6980001
-0.093794286 0.054982856 1.6980001
-0.083920427 0.054869421 1.6944447
-0.074038103 0.054723814 1.6900003
-0.064380951 0.057942856 1.6900001
0.28609288 0.053919043 1.6900003
0.29692787 0.054866035 1.6944444
0.30530342 0.054340135 1.6922858
0.31394336 0.055356674 1.697
0.3201943 0.05498286 1.6980001
-0.1132 0.061451431 1.6980001
-0.10467326 0.064391688 1.6980001
-0.093794286 0.064685717 1.6980001
-0.084049098 0.064653546 1.6971111
-0.074119359 0.064450368 1.6917779
-0.064380959 0.064380951 1.6900003
-0.056869846 0.065453969 1.6900001
-0.048285715 0.067600004 1.6900001
0.28971431 0.067600004 1.6900001
0.29615238 0.064380951 1.6900003
0.30516255 0.064586662 1.6953335
0.31178516 0.064038858 1.6980002
-0.104144 0.074712001 1.6980002
-0.093794286 0.074388586 1.6980001
-0.084091425 0.074388579 1.6980001
-0.074237891 0.074234501 1.6944447
-0.064380951 0.074038096 1.6900003
-0.055183675 0.074957825 1.6900003
-0.045603175 0.074574612 1.6900002
-0.035409525 0.077257149 1.6900001
0.29592526 0.073681429 1.6910002
0.30494696 0.074850611 1.6980001
-0.10511429 0.084091425 1.6980001
-0.093794294 0.084091432 1.6980001
-0.084091432 0.084091432 1.6980001
-0.074351326 0.084049098 1.6971111
-0.064450368 0.083786659 1.6917779
-0.05472381 0.083695225 1.6900003
-0.04506667 0.08369524 1.6900003
-0.035409525 0.08369524 1.6900003
0.28717333 0.085502863 1.694
0.29420236 0.084349051 1.6950001
0.30402288 0.084091417 1.6980001
0.31049144 0.080857143 1.6980001
-0.10511429 0.093794286 1.6980001
-0.093794286 0.093794294 1.6980001
-0.084091425 0.093794294 1.6980001
-0.074388571 0.093794286 1.6980001
-0.064653546 0.093746878 1.6971111
-0.054746669 0.094999999 1.690667
-0.04506667 0.094961911 1.6900004
-0.035409525 0.094961911 1.6900004
0.28649524 0.094961911 1.6900004
0.29506856 0.09512762 1.6930001
0.30466974 0.095734857 1.6980002
0.31049144 0.092177145 1.6980001
-0.10430571 0.10376667 1.6980001
-0.093794286 0.10511428 1.6980001
-0.083768003 0.10446744 1.6980002
-0.074029207 0.10421588 1.6980001
-0.064637452 0.10502922 1.6966667
-0.054754287 0.10628276 1.6908891
-0.045469046 0.10582619 1.6900003
-0.037555557 0.10622858 1.6900001
0.28585145 0.10590667 1.6900003
0.29454285 0.10622857 1.6900002
0.30372885 0.10496727 1.6980001
-0.10309286 0.11603 1.6980001
-0.092985719 0.11400858 1.6980001
-0.084091425 0.11597224 1.6980001
-0.07309486 0.11514058 1.6980002
-0.064487614 0.11606859 1.6926668
-0.054723814 0.11588572 1.6900003
-0.04506667 0.1158857 1.6900003
-0.034765713 0.11781715 1.6900002
0.26442176 0.11588572 1.6900003
0.27426285 0.11781715 1.6900002
0.28503206 0.11588571 1.6900004
0.29543296 0.11596625 1.691143
0.30402288 0.11400858 1.6980001
-0.10155658 0.12613715 1.6980002
-0.084630482 0.12667619 1.6980001
-0.074388579 0.12613714 1.6980001
-0.064653546 0.12607281 1.6971111
-0.054842331 0.12581035 1.6935556
-0.04506667 0.12554285 1.6900003
-0.035409525 0.12554285 1.6900003
0.26396191 0.12554285 1.6900003
0.27448258 0.12594412 1.6953334
0.28488573 0.12554286 1.6900004
0.2952438 0.12584001 1.6939999
0.30078858 0.12613715 1.6980001
-0.10134095 0.13368382 1.6980001
-0.084553473 0.13676408 1.6980001
-0.073926531 0.13676409 1.6980001
-0.064685717 0.13584 1.6980001
-0.054901589 0.13562667 1.6953332
-0.045092065 0.13527112 1.6908891
-0.035409525 0.13519999 1.6900003
0.26438183 0.13541672 1.6926668
0.27380735 0.13528436 1.6968572
0.2850959 0.13484359 1.6944444
0.29455096 0.1361662 1.697
0.30078858 0.13422287 1.6980001
-0.090560004 0.14554286 1.6980001
-0.084091432 0.14554286 1.6980001
-0.074388579 0.14554286 1.6980001
-0.064685717 0.14554286 1.6980001
-0.054982856 0.14554286 1.6980001
-0.045092065 0.14493504 1.6908891
-0.035811905 0.14485714 1.6900003
0.26506013 0.14541496 1.691143
0.27288654 0.14449307 1.691143
0.28461716 0.14554286 1.6980001
0.29324192 0.14338668 1.6980001
-0.084091432 0.15524572 1.6980001
-0.074388571 0.15524572 1.6980001
-0.064685717 0.15524571 1.6980001
-0.054578576 0.15484142 1.6980001
-0.045190264 0.15491894 1.6944444
-0.035409525 0.1545143 1.6900003
0.26503491 0.15397778 1.6900002
0.27338052 0.15501001 1.6910002
0.28246096 0.15632381 1.6980001
-0.10673143 0.16171429 1.6980001
-0.087325715 0.16171429 1.6980001
-0.074388571 0.16333143 1.6980001
-0.064685717 0.16494857 1.6980001
-0.05498286 0.16494858 1.6980001
-0.045166563 0.16451684 1.6935556
-0.035450157 0.16434583 1.6917779
0.25591427 0.16739048 1.6900001
0.26466119 0.16460149 1.6944444
0.27362055 0.16494858 1.6980002
0.28138286 0.16818286 1.6980001
-0.064685717 0.17465143 1.6980001
-0.05498286 0.17465143 1.6980001
-0.045142855 0.17410286 1.6926668
-0.035467092 0.17409946 1.6926668
0.23499048 0.17382857 1.6900001
0.2559143 0.17382856 1.6900002
0.26438349 0.17410284 1.6926668
0.27329713 0.17465143 1.6980001
-0.064223684 0.18343022 1.6980001
-0.054982856 0.18435431 1.6980001
-0.045142859 0.18377525 1.6926668
-0.035116885 0.18465628 1.6900004
0.25568435 0.18394558 1.6900003
0.26448634 0.18545586 1.6933335
0.27329713 0.18758857 1.6980001
-0.071154289 0.19729143 1.6980001
-0.067919999 0.19405715 1.6980001
-0.053689145 0.19405715 1.6980002
-0.045280002 0.19405715 1.6980001
-0.035489101 0.19569522 1.6935556
0.25430477 0.19636191 1.6900003
0.26479748 0.19536954 1.6953334
0.2738362 0.19297905 1.6980001
-0.07331048 0.2048381 1.6980001
-0.054336 0.20440689 1.6980002
-0.045279998 0.20376001 1.6980001
-0.035478096 0.20476952 1.6930001
0.24657908 0.20666286 1.6900002
0.25484487 0.20537442 1.6935556
0.26521146 0.20376 1.6980001
0.27329713 0.20537716 1.6980001
-0.071154289 0.21508001 1.6980001
-0.06396699 0.2163378 1.6980001
-0.05498286 0.21508004 1.6980001
-0.045279998 0.21508002 1.6980001
-0.035871174 0.21552105 1.6980001
-0.02897143 0.21889524 1.6900001
-0.017704763 0.21889524 1.6900001
0.24625717 0.21567619 1.6900002
0.25547543 0.21574402 1.6955999
0.2649174 0.21463896 1.6980001
0.27168 0.21346287 1.6980001
-0.063761637 0.22686206 1.6980001
-0.055387147 0.22599573 1.6980001
-0.044355921 0.22593798 1.6980001
-0.035577144 0.2264 1.6980001
-0.025752382 0.22533335 1.6900003
-0.017168256 0.22586985 1.6900002
0.23740478 0.22613811 1.6900001
0.24477799 0.22545184 1.6908891
0.25510427 0.2268043 1.6980001
0.26197717 0.22640002 1.6980001
-0.064685717 0.23286858 1.6980001
-0.042045716 0.23286858 1.6980001
-0.03465306 0.23564081 1.6980001
-0.025752379 0.23499049 1.6900003
-0.017014965 0.23545036 1.6900003
0.22855239 0.23499048 1.6900001
0.23561355 0.23561017 1.6944444
0.24580571 0.23610285 1.6980001
0.25496951 0.2366419 1.6980001
-0.033636574 0.24515888 1.6980002
-0.025793016 0.24503194 1.6926668
-0.01609524 0.24464764 1.6900003
-0.0096571436 0.24464762 1.6900001
0.22855239 0.24142858 1.6900001
0.23573716 0.24541971 1.6953335
0.24488164 0.24626777 1.6980001
0.25591284 0.24580574 1.6980001
-0.032342859 0.25550857 1.6980001
-0.025798095 0.25470603 1.6926668
-0.01609524 0.25430477 1.6900003
-0.0068979599 0.2552245 1.6900003
0 0.2575238 1.6900001
0.23548825 0.25483641 1.6935556
0.24540144 0.25550857 1.6980001
0.25591284 0.25550857 1.6980001
0.26197717 0.25874287 1.6980001
-0.024160637 0.2641727 1.6913334
-0.01609524 0.26396191 1.6900003
-0.0064380965 0.26396191 1.6900003
0.0032190478 0.26355952 1.6900003
0.012876191 0.26557142 1.6900001
0.025752382 0.26718095 1.6900001
0.032190476 0.26557142 1.6900001
0.2366 0.26396191 1.6900002
0.24567874 0.26507261 1.6971111
0.25550857 0.26521146 1.6980001
0.26467243 0.2657505 1.6980001
0.27168 0.26521143 1.6980001
-0.05498286 0.27814859 1.6980001
-0.043662861 0.27814859 1.6980001
-0.024160637 0.27383238 1.6913334
-0.016095238 0.27361906 1.6900003
-0.0064380961 0.27361906 1.6900003
0.0016095239 0.2728143 1.6900001
0.032190476 0.27361906 1.6900001
0.22774763 0.27361906 1.6900001
0.23511577 0.27376127 1.6908891
0.24580574 0.27491429 1.6980001
0.25308287 0.27410573 1.6980001
0.26197717 0.27329713 1.6980001
-0.053365715 0.28785145 1.6980001
-0.045279998 0.28461716 1.6980001
-0.035577144 0.28623432 1.6980001
-0.024694605 0.28521526 1.6908891
-0.01609524 0.28488573 1.6900004
-0.0064380965 0.28488573 1.6900004
0.00064380956 0.28585145 1.6900002
0.027361907 0.28971431 1.6900001
0.035811909 0.2868976 1.6900003
0.044146944 0.28695512 1.6900003
0.21728572 0.28971431 1.6900001
0.22573572 0.28569049 1.6900003
0.23561017 0.28402627 1.6944444
0.24386516 0.2839703 1.6980002
-0.045279998 0.29431999 1.6980001
-0.035981428 0.29391572 1.6980001
-0.025836192 0.29439682 1.6953334
-0.016156191 0.295706 1.6966667
-0.0064533339 0.29524383 1.6940002
0.0043896106 0.29644507 1.6900004
0.019314287 0.29615238 1.6900001
0.024832655 0.2956925 1.6900003
0.035409525 0.29615238 1.6900003
0.044146936 0.2956925 1.6900003
0.051504765 0.29293334 1.6900001
0.20730667 0.29615241 1.6900002
0.2156762 0.29615238 1.6900003
0.22557378 0.29538751 1.6917779
0.23569858 0.29391572 1.6980001
0.24257144 0.29593715 1.6980001
-0.045279998 0.30078858 1.6980001
-0.037194289 0.30078858 1.6980001
-0.024796193 0.30186668 1.6980001
-0.016171429 0.30361858 1.6980001
-0.0064685717 0.30402288 1.6980001
0.0048285723 0.30580953 1.6900004
0.016555104 0.30672926 1.6900003
0.025752382 0.30580953 1.6900003
0.035409525 0.30580956 1.6900003
0.043457139 0.30580953 1.6900002
0.20816509 0.30473652 1.6900001
0.21565826 0.30550805 1.6934286
0.22686206 0.30494696 1.6980001
0.23448573 0.30402288 1.6980001
-0.016171429 0.31210858 1.6980001
-0.0064685717 0.31372574 1.6980001
0.0048400005 0.31497145 1.696
0.01609524 0.3154667 1.6900003
0.025752382 0.3154667 1.6900003
0.035409525 0.31546667 1.6900003
0.043135237 0.3154667 1.6900002
0.21754286 0.31422287 1.6920002
0.22586627 0.31407395 1.6964
0.23610288 0.31372571 1.6980001
0.24257144 0.31534287 1.6980001
-0.022639999 0.32666287 1.6980001
-0.016171429 0.3266629 1.6980001
-0.0064507942 0.32427749 1.6940002
0.0048514288 0.32504573 1.6980001
0.016146032 0.32615495 1.6953332
0.025833653 0.32615492 1.6953335
0.035500955 0.32598224 1.6944444
0.045066666 0.32512382 1.6900003
0.14807619 0.32512382 1.6900001
0.15322667 0.32576761 1.6900002
0.20280001 0.32512382 1.6900001
0.21760762 0.32512382 1.6900002
0.22621335 0.32478857 1.6943637
0.23610286 0.32504573 1.6980001
0.24257144 0.32504573 1.6980001
-0.016171429 0.33636576 1.6980001
-0.0064685717 0.3363657 1.6980001
0.0064685717 0.33442515 1.6980002
0.016575716 0.33596143 1.6980001
0.025874287 0.3363657 1.6980001
0.035577148 0.33596146 1.6980001
0.045159791 0.33549038 1.6935556
0.052309528 0.33558571 1.6900001
0.14405239 0.33719528 1.6900001
0.15290478 0.33478096 1.6900002
0.20642142 0.3343786 1.6900003
0.21590647 0.33513483 1.6917779
0.2264 0.3363657 1.6980001
0.23556381 0.33582667 1.6980001
-0.014554286 0.34283429 1.6980001
-0.0064685717 0.34606856 1.6980001
0.0025874288 0.34477487 1.6980002
0.018112 0.3454217 1.6980002
0.025845505 0.34570286 1.6962223
0.035560213 0.34588569 1.6971111
0.045279998 0.34606856 1.6980001
0.054351903 0.34504622 1.6910002
0.064380951 0.34604764 1.6900002
0.07081905 0.34604764 1.6900001
0.14485715 0.3428286 1.6900002
0.15322669 0.34379429 1.6900002
0.16739048 0.34765714 1.6900001
0.17329209 0.34551111 1.6900002
0.18348573 0.34765711 1.6900001
0.20762858 0.34524286 1.6900001
0.21574707 0.34558249 1.6956002
0.22640002 0.34283432 1.6980001
0.23610286 0.34283429 1.6980001
-0.0064685717 0.35819715 1.6980001
0.0053904764 0.35684952 1.6980001
0.016171429 0.35577148 1.6980001
0.025789633 0.35465738 1.692667
0.035504341 0.35502476 1.6944444
0.045229211 0.35539725 1.6962223
0.05472381 0.35409531 1.6900003
0.064380951 0.35409531 1.6900003
0.07081905 0.35409525 1.6900001
0.09549842 0.35624126 1.6900001
0.1416381 0.35248572 1.6900001
0.1545143 0.35409525 1.6900001
0.16739048 0.35409525 1.6900001
0.17382857 0.35409528 1.6900003
0.18516761 0.35423625 1.690667
0.19646518 0.35428318 1.6908891
0.20457208 0.35437715 1.6913334
0.21305856 0.35536715 1.6980001
-0.0043123811 0.36331812 1.6980001
0.0064685717 0.36547434 1.6980001
0.01616127 0.36528465 1.6971111
0.02585905 0.36528465 1.6971111
0.035560209 0.36528471 1.6971111
0.045203812 0.36490032 1.6953332
0.054752596 0.36394536 1.6908891
0.064380959 0.36375242 1.6900003
0.074038096 0.36375237 1.6900003
0.08369524 0.36467212 1.6900003
0.094522946 0.36404502 1.6900004
0.10622857 0.36375237 1.6900002
0.1148127 0.3648254 1.6900001
0.12554286 0.36697143 1.6900001
0.13520001 0.36697143 1.6900001
0.1545143 0.36053336 1.6900001
0.17428844 0.36375239 1.6900003
0.18509525 0.36375239 1.6900004
0.19584052 0.36403051 1.6934286
0.20376001 0.36493525 1.6980001
0.21022858 0.36224002 1.6980001
0.006064286 0.37598571 1.6980001
0.016418355 0.37538221 1.6936364
0.026183998 0.37564421 1.6972001
0.034930289 0.37647086 1.6980002
0.046204083 0.37517717 1.6980001
0.055146288 0.37476343 1.6932003
0.064088315 0.37545803 1.6900004
0.07433074 0.37545803 1.6900004
0.083695233 0.37501907 1.6900004
0.094961911 0.37501913 1.6900004
0.10622858 0.37545806 1.6900004
0.11588571 0.3750191 1.6900004
0.12518519 0.37627092 1.6900003
0.13412701 0.37501907 1.6900002
0.14378412 0.37609211 1.6900002
0.1534413 0.37609208 1.6900002
0.17382859 0.37501907 1.6900004
0.18706244 0.3734096 1.6900003
0.19486859 0.37523812 1.6910002
0.20335573 0.37558144 1.6980001
0.21184573 0.37679428 1.6980001
0.0072771432 0.38245428 1.6980001
0.016156191 0.38511685 1.6966667
0.02545286 0.38505763 1.697
0.035790823 0.38522357 1.6943638
0.044828575 0.38443127 1.6932003
0.054208003 0.38557988 1.6940002
0.064380951 0.38628575 1.6900003
0.074038096 0.38628572 1.6900003
0.08369524 0.38628572 1.6900003
0.094318107 0.38564193 1.6900003
0.10631493 0.38497841 1.6913334
0.11588572 0.38628578 1.6900003
0.12554286 0.38628578 1.6900003
0.13734603 0.38735875 1.6900001
0.145317 0.38720545 1.6900003
0.1542656 0.38680819 1.6922858
0.16429843 0.38820004 1.6913334
0.17168255 0.38735875 1.6900001
0.18992382 0.38628569 1.6900001
0.1947524 0.38628575 1.6900002
0.20430782 0.38534251 1.6972001
0.21508001 0.38488004 1.6980001
0.22424382 0.38380194 1.6980001
-0.012937143 0.3962 1.6980001
-0.0097028576 0.39781716 1.6980001
0.0064685717 0.3962 1.6980001
0.016575715 0.39498717 1.6980001
0.026278572 0.39417857 1.6980001
0.035091158 0.39524141 1.6968572
0.045902226 0.39483133 1.6944447
0.055128001 0.39585677 1.6924002
0.064380959 0.39594284 1.6900003
0.074038103 0.39594287 1.6900003
0.08369524 0.39594287 1.6900003
0.093811423 0.3958568 1.6924002
0.10546639 0.39510316 1.6962858
0.11588572 0.3959429 1.6900003
0.12795715 0.39674765 1.6900001
0.13565986 0.3968626 1.6900003
0.14469552 0.39582422 1.6934286
0.15537001 0.39549717 1.6949999
0.16417143 0.39594287 1.6900003
0.17060953 0.39594287 1.6900001
0.18724127 0.3964794 1.6900002
0.19490731 0.39625522 1.6913334
0.20430782 0.39504078 1.6972001
0.21554494 0.39553609 1.6967692
0.22486152 0.39523703 1.6968572
0.01709551 0.40474775 1.6980001
0.026278572 0.40469003 1.6980001
0.035577144 0.40469003 1.6980001
0.045180112 0.40451217 1.6944447
0.05472381 0.40560001 1.6900003
0.064414822 0.40581164 1.6908891
0.074038103 0.40560001 1.6900003
0.08369524 0.40559998 1.6900003
0.094522946 0.40589264 1.6900004
0.10508921 0.40504983 1.6933335
