# .PCD v0.7 - Point Cloud Data file format
VERSION 0.7
FIELDS x y z
SIZE 4 4 4
TYPE F F F
COUNT 1 1 1
WIDTH 1501
HEIGHT 1
VIEWPOINT 0 0 0 1 0 0 0
POINTS 1501
DATA ascii
0.26449335 0.054173335 1.6730002
0.27405334 0.053775005 1.6730002
0.28202003 0.05098667 1.6730001
0.01912 0.065326676 1.6730001
0.026403811 0.064188577 1.6730002
0.035053335 0.065326676 1.6730002
0.24856001 0.065326676 1.6730001
0.25453502 0.063335009 1.6730002
0.26210332 0.062936671 1.6730001
0.27405334 0.06054667 1.6730001
0.01912 0.074355558 1.673
0.025948571 0.07238286 1.6730002
0.035343032 0.074452132 1.6730002
0.043247618 0.076024763 1.6730002
0.24719432 0.075569525 1.6730002
0.25584385 0.073748574 1.6730002
0.26329833 0.076081663 1.6730002
0.27086666 0.079666667 1.6730001
0.01912 0.086040013 1.673
0.025493335 0.08285334 1.6730001
0.036646668 0.08285334 1.6730001
0.045523811 0.085584767 1.6730002
0.051783338 0.086836666 1.6730001
0.24577166 0.086039998 1.6730002
0.25493336 0.086040005 1.6730002
0.26321867 0.084765337 1.6730001
0.046737779 0.093475558 1.673
0.052580003 0.095600009 1.6730002
0.21988001 0.098786667 1.6730001
0.22837777 0.097724438 1.673
0.23708801 0.094962671 1.6730001
0.24537335 0.095600002 1.6730002
0.25365868 0.094325341 1.6730001
0.26289999 0.092413336 1.6730001
0.035053335 0.10516001 1.6730001
0.046206668 0.10834667 1.6730001
0.053775005 0.10476168 1.6730002
0.06054667 0.10516001 1.673
0.20394668 0.10607048 1.6730002
0.21563113 0.10622223 1.6730002
0.22944 0.10197334 1.6730001
0.23661001 0.10516001 1.6730001
0.244975 0.10476168 1.6730002
0.2528089 0.10409778 1.673
0.055083811 0.11426477 1.6730002
0.062140003 0.11471999 1.6730002
0.19598001 0.11153334 1.6730001
0.204345 0.11432167 1.6730002
0.21032001 0.11472001 1.673
0.23900001 0.11153334 1.6730001
0.24537332 0.11472001 1.673
0.037177779 0.12321779 1.673
0.046206668 0.12268668 1.6730001
0.055083811 0.12428001 1.6730002
0.061821334 0.12491734 1.6730001
0.20500888 0.1237489 1.6730002
0.21510004 0.12428001 1.6730002
0.22579812 0.12519048 1.6730002
0.23581335 0.12428001 1.6730002
0.24378002 0.12428001 1.6730002
0.036646668 0.13702667 1.6730001
0.055235554 0.13490222 1.6730002
0.062140003 0.13384001 1.6730002
0.073293336 0.13065334 1.6730001
0.14658667 0.13463667 1.6730001
0.15614668 0.13065334 1.6730001
0.16889334 0.13384001 1.673
0.17686 0.13702667 1.6730001
0.18403003 0.13623001 1.6730001
0.19677666 0.13463667 1.6730001
0.20394666 0.13384001 1.6730002
0.21509999 0.13384001 1.6730002
0.22625335 0.13384001 1.6730002
0.23581335 0.13383999 1.6730002
0.24537332 0.13384001 1.6730002
0.25174668 0.13702667 1.6730001
0.035053335 0.14021334 1.6730001
0.055766664 0.14499334 1.6730002
0.063443638 0.14542788 1.6730002
0.074249342 0.14594933 1.6730001
0.08285334 0.14499334 1.6730001
0.11472 0.14658666 1.6730002
0.12388168 0.14698501 1.6730002
0.13338476 0.14749715 1.6730002
0.14446223 0.14605556 1.6730002
0.16889334 0.14180666 1.6730001
0.17572191 0.14294478 1.6730002
0.18511638 0.14484848 1.6730002
0.19438668 0.14499335 1.6730002
0.20394666 0.14499335 1.6730002
0.21510002 0.14499332 1.6730002
0.22593467 0.14403734 1.6730001
0.23581336 0.14499335 1.6730002
0.24537335 0.14499334 1.6730002
0.045888003 0.15742132 1.6730001
0.053642228 0.15508445 1.6730002
0.064188577 0.15523621 1.6730002
0.07238286 0.15660191 1.6730002
0.10834667 0.15614668 1.673
0.11472 0.15614668 1.6730002
0.12428001 0.15614668 1.6730002
0.13384001 0.15614669 1.6730002
0.14431047 0.15569143 1.6730002
0.18642001 0.15614666 1.6730002
0.19438668 0.15614668 1.6730002
0.20354834 0.15574834 1.6730002
0.21510001 0.15614668 1.6730002
0.22625335 0.15614668 1.6730002
0.23581335 0.15614666 1.6730002
0.24537332 0.15455334 1.6730002
0.25493336 0.15402223 1.673
0.043551113 0.16358222 1.673
0.078073338 0.16411334 1.6730001
0.084977776 0.16623779 1.6730002
0.095600002 0.16783112 1.673
0.10834667 0.16411334 1.6730001
0.11472 0.1647962 1.6730002
0.12473525 0.1647962 1.6730002
0.13384001 0.16411334 1.6730002
0.14552446 0.16517556 1.6730002
0.15455334 0.16889334 1.6730001
0.16730002 0.16889334 1.6730001
0.17526667 0.16889334 1.673
0.18573715 0.16616191 1.6730002
0.19438668 0.16570669 1.6730002
0.20288445 0.16623779 1.6730002
0.21573734 0.16506934 1.6730001
0.22625335 0.16570666 1.6730002
0.23490286 0.16525142 1.6730002
0.066920005 0.17845334 1.6730001
0.086040005 0.17367333 1.6730001
0.096237332 0.17399201 1.6730001
0.10436334 0.17447002 1.6730001
0.11432167 0.17486833 1.6730002
0.12428001 0.17526667 1.6730002
0.13065334 0.17526667 1.6730001
0.14977334 0.17526667 1.673
0.1552362 0.17572191 1.6730002
0.16610502 0.17566501 1.6730002
0.17526667 0.17526667 1.6730002
0.18482667 0.17526668 1.6730002
0.19438668 0.17526668 1.6730002
0.20349145 0.17617714 1.6730002
0.21573734 0.17590401 1.6730001
0.22585502 0.17486835 1.6730002
0.066920005 0.18323335 1.6730001
0.07010667 0.18323335 1.6730001
0.10197334 0.18164001 1.6730001
0.11631334 0.18164001 1.6730001
0.12428 0.18291469 1.6730001
0.13304333 0.18403003 1.6730001
0.14977334 0.18482667 1.673
0.15614668 0.18482667 1.6730002
0.16570668 0.18482667 1.6730002
0.17526667 0.18482667 1.6730002
0.18482667 0.18482667 1.6730002
0.19438668 0.18482667 1.6730002
0.20394666 0.18482667 1.6730002
0.21350667 0.18403001 1.6730002
0.13702667 0.1912 1.6730001
0.14722401 0.19311199 1.6730001
0.15614668 0.19279332 1.6730002
0.16570668 0.19438668 1.6730002
0.17526668 0.19438669 1.6730002
0.18482669 0.19438668 1.6730002
0.19393143 0.19438668 1.6730002
0.20394666 0.19438668 1.6730002
0.21350668 0.19359 1.6730002
0.14977334 0.20554 1.6730001
0.15654501 0.204345 1.6730002
0.16570668 0.20394666 1.6730002
0.17526668 0.20394666 1.6730002
0.18482667 0.20394666 1.6730002
0.19438668 0.20394668 1.6730002
0.20315 0.20554002 1.6730001
0.21669334 0.20713334 1.673
0.22625335 0.20713334 1.673
0.14977334 0.21510001 1.6730001
0.15614668 0.21310835 1.6730002
0.16570669 0.21350667 1.6730002
0.17526667 0.21510001 1.6730002
0.18482667 0.21466546 1.6730002
0.19359002 0.2135067 1.6730002
0.20315 0.21350667 1.6730002
0.21669334 0.21315259 1.6730002
0.22654301 0.21495515 1.6730002
0.23262668 0.21191335 1.6730001
0.17420445 0.2241289 1.673
0.18482667 0.22306667 1.6730001
0.1912 0.22306667 1.6730001
0.21988003 0.22625335 1.673
0.22944 0.22625335 1.6730001
0.11472001 0.23581333 1.673
0.15614668 0.23900001 1.6730001
0.17526667 0.23262668 1.6730001
0.15487202 0.25557071 1.6730001
0.16358222 0.25705779 1.673
0.15694334 0.26529002 1.6730001
0.16570668 0.26489168 1.6730002
0.17462936 0.26640537 1.6730001
0.18164001 0.26768002 1.6730001
0.19598001 0.26449335 1.6730001
0.20076001 0.26449335 1.6730001
0.17526667 0.27086666 1.673
0.063237622 -0.013608095 1.6810001
0.099259049 -0.01280762 1.6810001
0.10726382 -0.01280762 1.6810001
0.11206667 -0.01280762 1.6810001
0.1985181 -0.016009524 1.6810001
0.21612859 -0.01280762 1.6810001
0.22349295 -0.014728762 1.6810001
0.23293859 -0.015209048 1.6810001
0.24476784 -0.015653757 1.681
0.25569496 -0.015094696 1.681
0.2657581 -0.014408573 1.6810001
0.27472347 -0.014088382 1.6810001
0.017610477 -0.0032019049 1.6810001
0.025615238 -0.0032019049 1.6810001
0.032019049 -0.0032019049 1.6810001
0.046427622 -0.0032019049 1.6810001
0.053365085 -0.0074711121 1.6810001
0.064038098 -0.0096057151 1.6810001
0.087091818 -0.0083249528 1.6810001
0.093922548 -0.0085384129 1.6810001
0.24601303 -0.0085384138 1.6810001
0.25775334 -0.0096057151 1.6810001
0.2657581 -0.0096057151 1.6810001
0.27616429 -0.0088052386 1.6810001
0.28336859 -0.0064038103 1.6810001
-0.01280762 0.0080047622 1.6810001
-0.005946395 0.0073186397 1.681
0.0051723076 0.0059112092 1.6809999
0.015653757 0.0039134393 1.681
0.026255619 0.001280762 1.6810001
0.034820717 0.0028016667 1.681
0.044826668 0.0016009525 1.6810001
0.27856573 0.0064038099 1.6810001
0.28496954 0.0064038094 1.681
0.29457524 0.0080047632 1.6810001
0.30097905 0.0096057151 1.6810001
-0.0054889801 0.01555211 1.681
0.0048028575 0.016009523 1.6809999
0.014408573 0.016009524 1.6810001
0.27856573 0.01280762 1.6810001
0.28496954 0.016009524 1.681
0.29457524 0.016009524 1.681
-0.01280762 0.02561524 1.6810001
-0.0064038099 0.02561524 1.681
0.004802858 0.02561524 1.6809999
0.013608095 0.024814762 1.6810001
0.26735905 0.02561524 1.6810001
0.27429652 0.026682541 1.6810001
0.2856099 0.024974858 1.6810001
0.29457524 0.02561524 1.681
0.30326611 0.02561524 1.681
0.31378669 0.02561524 1.6810001
-0.01280762 0.03362 1.6810001
-0.0064038099 0.035220955 1.681
0.0048028575 0.035220955 1.6809999
0.01280762 0.035220955 1.6810001
0.28817144 0.03842286 1.6810001
0.29457524 0.035220955 1.681
0.30326614 0.034763537 1.681
-0.0051230481 0.043545902 1.6810001
0.0043662344 0.044826671 1.6809999
0.01280762 0.048028573 1.6810001
0.28817144 0.044826668 1.6810001
0.29457524 0.044826664 1.681
0.30326614 0.044826664 1.681
-0.0053365082 0.055499688 1.6810001
0.004802858 0.054432388 1.6809999
0.013608095 0.055232856 1.6810001
0.022413334 0.057634287 1.6810001
0.27536383 0.057634287 1.6810001
0.28542694 0.055347212 1.681
0.2940416 0.053365085 1.6810001
0.30418095 0.051230479 1.6810001
-0.0064038099 0.06363786 1.681
0.004802858 0.064038098 1.6809999
0.015094696 0.063580684 1.681
0.022413334 0.062437147 1.6810001
0.25935429 0.06724 1.6810001
0.26767924 0.064678475 1.6810001
0.27536383 0.064952925 1.681
0.28496954 0.064038098 1.681
0.29137334 0.062437147 1.6810001
-0.0064038099 0.070441909 1.6810001
0.0052394811 0.073352724 1.6809999
0.015094696 0.074101225 1.681
0.024014287 0.07684572 1.6810001
0.25508508 0.074711114 1.6810001
0.26815951 0.072843336 1.6810001
0.2753638 0.073643811 1.681
0.28496954 0.073643811 1.681
0.29137334 0.070441909 1.6810001
0.0064038094 0.084850468 1.6809999
0.014408574 0.084850475 1.681
0.02561524 0.084996007 1.6809999
0.034420479 0.086451426 1.681
0.041624762 0.088052385 1.6810001
0.25455144 0.080047622 1.6810001
0.26735905 0.088052385 1.6810001
0.27536386 0.084850468 1.681
0.28432915 0.084850475 1.681
0.29777715 0.089653336 1.6810001
0.30258 0.089653336 1.6810001
0.0073186406 0.096057139 1.681
0.016009524 0.096057147 1.681
0.02561524 0.096057147 1.681
0.035220955 0.096057139 1.681
0.043759361 0.09712445 1.6810001
0.25775334 0.097658098 1.6810001
0.2657581 0.096590795 1.6810001
0.27496359 0.096457392 1.681
0.2844359 0.094989844 1.6810001
0.29457524 0.096514568 1.681
0.30097905 0.096057147 1.6810001
0.0080047622 0.10246096 1.6810001
0.016009524 0.10566287 1.681
0.025615238 0.10566287 1.681
0.035220955 0.10566286 1.6810001
0.044369251 0.10474803 1.681
0.24974859 0.10886477 1.6810001
0.2572197 0.10619652 1.6810001
0.26535785 0.10606311 1.681
0.27496359 0.10606311 1.681
0.28432915 0.10694363 1.6810001
0.29350796 0.10619652 1.6810001
0.016009524 0.11526857 1.681
0.025615238 0.11526857 1.681
0.035220951 0.11526857 1.681
0.044826668 0.11526857 1.681
0.051230479 0.11686952 1.6810001
0.24974859 0.11526857 1.6810001
0.25615242 0.11526857 1.681
0.2657581 0.11526857 1.681
0.27536383 0.11486834 1.681
0.28456929 0.11526858 1.681
0.2936604 0.11526858 1.681
0.016409762 0.12447405 1.681
0.02561524 0.1248743 1.681
0.034153651 0.12540795 1.6810001
0.043545906 0.12615505 1.6810001
0.051230479 0.12487429 1.6810001
0.24974859 0.12487429 1.6810001
0.25455141 0.12487429 1.6810001
0.28603682 0.12380698 1.6810001
0.29137334 0.12487429 1.6810001
0.01921143 0.13448 1.6810001
0.026015477 0.13448 1.681
0.034763537 0.13356517 1.681
0.044826668 0.13448 1.681
0.052297782 0.13234539 1.6810001
0.14408572 0.13768192 1.6810001
0.25487164 0.13383962 1.6810001
0.26896 0.13768192 1.6810001
0.27536383 0.13768192 1.6810001
0.28416905 0.13287905 1.6810001
0.29137334 0.1312781 1.6810001
0.023480637 0.14195113 1.6810001
0.036288258 0.14461936 1.6810001
0.044826668 0.14408571 1.681
0.051230479 0.14408572 1.6810001
0.1280762 0.14408572 1.6810001
0.13608095 0.14408572 1.6810001
0.14344534 0.14344534 1.6810001
0.25615239 0.14408571 1.681
0.2657581 0.14408571 1.681
0.2753638 0.14408572 1.681
0.28176764 0.14408572 1.6810001
0.02561524 0.15689334 1.6810001
0.036135785 0.15414885 1.681
0.043911837 0.15323402 1.681
0.052831434 0.15369144 1.6810001
0.14088382 0.15369144 1.6810001
0.25615239 0.15315779 1.6810001
0.2657581 0.15369144 1.681
0.27536383 0.15369144 1.681
0.2825681 0.15369144 1.6810001
0.026255623 0.16265675 1.6810001
0.036821906 0.16329713 1.6810001
0.045627143 0.16649905 1.6810001
0.054752577 0.16489808 1.681
0.063747019 0.16533472 1.6809999
0.072728984 0.16695647 1.681
0.084850475 0.16970097 1.6810001
0.092855245 0.16970097 1.6810001
0.10726382 0.16970097 1.6810001
0.11526857 0.16970097 1.6810001
0.12327333 0.16970097 1.6810001
0.13448 0.16970097 1.6810001
0.14216457 0.16649905 1.6810001
0.20732334 0.16409762 1.6810001
0.21292667 0.16970097 1.6810001
0.24563186 0.16535553 1.6809999
0.25615239 0.16489811 1.6809999
0.26575807 0.16489811 1.6809999
0.27280229 0.16393752 1.6810001
0.28176764 0.16009524 1.6810001
0.056566983 0.17503746 1.6810001
0.06363786 0.17570454 1.681
0.073643811 0.17610475 1.681
0.084530279 0.17642495 1.681
0.095256671 0.17770572 1.6810001
0.10726381 0.17770572 1.6810001
0.11847048 0.17930667 1.6810001
0.12487429 0.17610477 1.6810001
0.13488024 0.17610477 1.681
0.14408572 0.17610475 1.681
0.20652287 0.17290287 1.6810001
0.21292667 0.17290287 1.6810001
0.23465388 0.17656219 1.681
0.24494572 0.17610477 1.6809999
0.25615239 0.17610475 1.681
0.26447734 0.17546439 1.6810001
0.2721619 0.17290287 1.6810001
0.055347212 0.18616791 1.681
0.063123271 0.18616791 1.681
0.074558638 0.18616791 1.681
0.084850468 0.18571049 1.6809999
0.096057147 0.18571049 1.681
0.10606311 0.18611073 1.681
0.11481117 0.18662532 1.681
0.12487429 0.18811192 1.6810001
0.13512038 0.18635087 1.6810001
0.14408572 0.18571046 1.681
0.21772954 0.18731144 1.6810001
0.22453357 0.18611071 1.681
0.23373906 0.18571047 1.681
0.24494572 0.18571047 1.6809999
0.25615239 0.18531024 1.681
0.2625562 0.18891239 1.6810001
0.054832626 0.19491595 1.681
0.064038098 0.19531621 1.681
0.073643811 0.1953162 1.681
0.084850468 0.19531618 1.6809999
0.096057147 0.19531621 1.681
0.10566287 0.19531618 1.681
0.11526857 0.19531621 1.681
0.1248743 0.1953162 1.681
0.13407977 0.19571644 1.681
0.14301841 0.19584985 1.6810001
0.21772954 0.19691715 1.6810001
0.22453357 0.19571644 1.681
0.23373906 0.19531621 1.681
0.24494572 0.19531621 1.6809999
0.25423127 0.19467582 1.6810001
0.057634287 0.20332097 1.6810001
0.06339772 0.20300078 1.6810001
0.073643811 0.20332098 1.6810001
0.084850468 0.20492195 1.6809999
0.096057147 0.20492192 1.681
0.10566287 0.2049219 1.681
0.11526857 0.20492192 1.681
0.1248743 0.2049219 1.681
0.13448 0.2049219 1.681
0.14408571 0.20492193 1.681
0.20556231 0.20364115 1.6810001
0.21407022 0.2040071 1.681
0.22413333 0.20332098 1.6810001
0.23413929 0.20452169 1.681
0.24450909 0.20463085 1.6809999
0.25295049 0.20172001 1.6810001
0.07684572 0.21772954 1.6810001
0.084850468 0.21452762 1.6809999
0.096057147 0.21452764 1.681
0.10566287 0.21452764 1.681
0.11526857 0.21452764 1.681
0.12487429 0.21452764 1.681
0.13448 0.21452764 1.681
0.14408571 0.21452765 1.681
0.15689334 0.21772954 1.6810001
0.19691715 0.21772954 1.6810001
0.20652287 0.21772954 1.6810001
0.21372715 0.21692905 1.6810001
0.22413334 0.21772954 1.6810001
0.23614049 0.2153281 1.6810001
0.24288735 0.21361281 1.681
0.075778417 0.22306605 1.6810001
0.084850468 0.22413331 1.6809999
0.096057147 0.22413333 1.681
0.10566287 0.22413333 1.681
0.11526857 0.22413333 1.681
0.12487429 0.22413333 1.681
0.13407975 0.22413333 1.681
0.14408572 0.22333288 1.6810001
0.15460627 0.22413334 1.681
0.1648981 0.22413333 1.6809999
0.17717206 0.22626793 1.6810001
0.18571049 0.22541408 1.6810001
0.19623102 0.22459075 1.681
0.20532216 0.22453359 1.681
0.21452764 0.22413336 1.681
0.22573429 0.22573429 1.6810001
0.23465388 0.22413334 1.681
0.24014287 0.22413333 1.6810001
0.084996015 0.23344798 1.6809999
0.096057139 0.23373906 1.681
0.10566287 0.23373906 1.681
0.11526858 0.23213811 1.6810001
0.1248743 0.23373906 1.681
0.13448 0.23373906 1.681
0.14408572 0.23333883 1.681
0.15460627 0.23373903 1.681
0.1648981 0.23373902 1.6809999
0.17610475 0.23373905 1.681
0.18571049 0.23333882 1.681
0.19485877 0.23282424 1.681
0.20492192 0.23373906 1.681
0.21452764 0.23373906 1.681
0.22453357 0.23413929 1.681
0.23053715 0.23053715 1.6810001
0.080047622 0.24014287 1.6810001
0.096697524 0.24558611 1.681
0.10566287 0.24494575 1.6809999
0.11526857 0.24494572 1.6809999
0.12516536 0.24450912 1.6809999
0.13448 0.24494572 1.6809999
0.14271347 0.24517442 1.681
0.15506367 0.24563183 1.681
0.16489811 0.24494573 1.6809999
0.17610477 0.24494572 1.6809999
0.18250857 0.24014287 1.6810001
0.19211429 0.24014287 1.6810001
0.20556231 0.24430533 1.681
0.21452762 0.24494572 1.6809999
0.22285259 0.242064 1.6810001
0.097658098 0.25455144 1.6810001
0.10646334 0.25375098 1.6810001
0.1144681 0.25375098 1.6810001
0.1270089 0.2540178 1.6810001
0.13554731 0.25508508 1.6810001
0.14344534 0.25487164 1.6810001
0.15155683 0.2540178 1.6810001
0.16507597 0.25544083 1.681
0.17610477 0.25615239 1.681
0.18571049 0.25935429 1.6810001
0.1953162 0.25775337 1.6810001
0.20532216 0.25655264 1.681
0.21412741 0.25575215 1.681
0.097658098 0.2625562 1.6810001
0.10646334 0.26335669 1.6810001
0.11206666 0.2657581 1.6810001
0.13768192 0.2657581 1.6810001
0.14355206 0.26682541 1.6810001
0.15369144 0.2657581 1.6810001
0.16222985 0.26362351 1.6810001
0.17690524 0.26335669 1.6810001
0.18611072 0.26535785 1.681
0.19485879 0.2657581 1.681
0.20532216 0.2657581 1.681
0.21452764 0.2657581 1.681
0.22093144 0.2657581 1.6810001
0.13768192 0.2721619 1.6810001
0.15529239 0.27536383 1.6810001
0.1648981 0.2753638 1.6809999
0.17610477 0.27696478 1.6810001
0.18571047 0.2753638 1.681
0.19485879 0.27444902 1.681
0.20492192 0.27376285 1.6810001
0.21239303 0.27322921 1.6810001
0.15529239 0.28496954 1.6810001
0.1648981 0.28496954 1.6809999
0.17610477 0.28496957 1.681
0.18330905 0.28416905 1.6810001
0.15529239 0.29137334 1.6810001
0.16585867 0.29425508 1.681
0.17610475 0.29457524 1.681
0.18250857 0.29457524 1.6810001
0.094456196 0.30258 1.6810001
0.1684202 0.30354056 1.6810001
0.17610475 0.30418095 1.681
0.18479565 0.30418092 1.681
0.1953162 0.30418095 1.6810001
0.20172001 0.30418095 1.6810001
0.16970097 0.31378669 1.6810001
0.17503746 0.31271937 1.6810001
0.16970097 0.32339239 1.6810001
0.17503746 0.3212578 1.6810001
-0.0032342859 -0.012937143 1.6980001
0.0048495242 -0.014539048 1.6960001
0.016095238 -0.014485714 1.6900002
0.024230476 -0.014539048 1.6960001
0.035577144 -0.012937143 1.6980001
0.04603143 -0.014539048 1.6960001
0.054723814 -0.014485714 1.6900002
0.065088764 -0.018044952 1.6916001
0.074215874 -0.01452127 1.6939999
0.08318001 -0.013730477 1.696
0.095092952 -0.016119622 1.6924002
0.10583837 -0.017028028 1.691143
0.11373969 -0.017168254 1.6900001
0.24786668 -0.016095238 1.6900001
0.25430477 -0.017704763 1.6900001
0.26396191 -0.019314287 1.6900001
0.27200955 -0.019314287 1.6900001
0.28461716 -0.014554286 1.6980001
0.29108572 -0.012937143 1.6980001
-0.014554286 -0.0032342859 1.6980001
-0.0064668786 -0.0064668786 1.6971111
0.0048323814 -0.0064406353 1.690667
0.015635375 -0.0073578237 1.6900003
0.025818413 -0.0080679366 1.6939999
0.035874765 -0.0068576196 1.6930001
0.044665579 -0.007370885 1.6922858
0.074038096 -0.0096571436 1.6900001
0.080476195 -0.0096571436 1.6900001
0.28649524 -0.0053650797 1.6900001
0.29478201 -0.0064685717 1.6980001
0.30321431 -0.0040428573 1.6980001
-0.032342859 0.0097028576 1.6980001
-0.023364764 0.0072466671 1.692
-0.016757334 0.0041878102 1.6916002
-0.0070819049 0.0012876191 1.6900002
0.0032190478 0 1.6900001
0.28810477 0 1.6900001
0.29615238 0.0016095239 1.6900002
0.30554575 0.0044280956 1.6930001
0.31372574 0.0069306125 1.6980001
0.32278174 0.0077622859 1.6980002
0.33798289 0.0064685717 1.6980001
0.34412798 0.0064685717 1.6980002
-0.032342859 0.016171429 1.6980001
-0.025414763 0.016539523 1.694
-0.01609524 0.016095238 1.6900003
-0.0096571436 0.017704763 1.6900001
0.29615238 0.016095238 1.6900001
0.30580956 0.01609524 1.6900003
0.31506431 0.016497619 1.6900003
0.32485524 0.01616 1.697
0.33798289 0.016171429 1.6980001
0.34283432 0.016171429 1.6980001
-0.032342859 0.025874287 1.6980001
-0.025825184 0.025821798 1.6944444
-0.017704763 0.025752382 1.6900002
0.3090286 0.025752382 1.6900001
0.3154667 0.025752384 1.6900003
0.32587764 0.025441429 1.696
0.33798289 0.025874287 1.6980001
0.34283429 0.024257144 1.6980001
-0.032342859 0.035577144 1.6980001
-0.025838733 0.035521273 1.6953335
-0.017014967 0.03586939 1.6900003
0.3090286 0.037019052 1.6900001
0.3154667 0.035409525 1.6900003
0.32504573 0.035577144 1.6980001
0.33798289 0.035577144 1.6980001
-0.032342859 0.045280002 1.6980001
-0.025860954 0.045255236 1.697
-0.01609524 0.04506667 1.6900003
-0.0080476198 0.046676192 1.6900001
0.3090286 0.04506667 1.6900001
0.31506431 0.04506667 1.6900003
0.32504573 0.044875711 1.6980001
0.33744383 0.043123811 1.6980001
0.34283429 0.042045716 1.6980001
-0.032342859 0.05498286 1.6980001
-0.025821801 0.054862652 1.6944447
-0.01609524 0.054723814 1.6900003
-0.0085841278 0.052577779 1.6900001
0.29722539 0.056869846 1.6900001
0.30580953 0.056333337 1.6900002
0.31454691 0.054263946 1.6900003
0.32383284 0.055387147 1.6980001
0.33636573 0.05498286 1.6980001
-0.032292064 0.064584129 1.6953335
-0.025752384 0.064380951 1.6900003
-0.01609524 0.064380951 1.6900003
-0.0064380956 0.067600004 1.6900001
0.29707214 0.064840816 1.6900003
0.30576715 0.064058572 1.6920002
0.31422752 0.065062858 1.6957144
0.32296655 0.063761637 1.6980001
0.33798289 0.06468571 1.6980001
-0.032342859 0.076005712 1.6980001
-0.025752382 0.074038096 1.6900003
-0.01609524 0.074038103 1.6900003
-0.0064380961 0.074957833 1.6900003
0 0.077257149 1.6900001
0.2965548 0.074440479 1.6900003
0.30564001 0.074388571 1.6980001
0.31332144 0.074792862 1.6980001
0.33765945 0.074388579 1.6980002
-0.025874287 0.08409144 1.6980001
-0.016125714 0.083827294 1.6926668
-0.0064380965 0.08369524 1.6900003
0 0.08369524 1.6900001
0.28971431 0.085304767 1.6900001
0.29615238 0.083695225 1.6900003
0.30540717 0.08369524 1.6900003
0.31464982 0.084091425 1.6980001
0.3201943 0.084091425 1.6980001
0.33636573 0.084091425 1.6980001
-0.024950206 0.093794294 1.6980001
-0.016157884 0.093697771 1.6962222
-0.0064408663 0.094564505 1.6907276
0.001073016 0.095498413 1.6900002
0.27040002 0.099790476 1.6900001
0.28456384 0.095927618 1.6900002
0.2953476 0.092547625 1.6900001
0.30741906 0.096571423 1.6900002
0.31379333 0.093971908 1.694
0.32148799 0.094441153 1.6980002
0.33798289 0.093794286 1.6980001
0.34283429 0.097028576 1.6980001
-0.024257144 0.10026286 1.6980001
-0.016818285 0.10155656 1.6980002
-0.006104128 0.10584509 1.6953335
0.0041847625 0.10687238 1.6900003
0.27040002 0.10300953 1.6900001
0.28585145 0.10429715 1.6900002
0.29829845 0.10515556 1.6900001
0.30580956 0.10622857 1.6900003
0.31515154 0.1056615 1.6957142
0.32221571 0.10592287 1.6980001
0.33852193 0.10403619 1.6980001
0.34283429 0.10188 1.6980001
-0.0055444902 0.11597224 1.6980001
0.0048285718 0.11588573 1.6900004
0.27683809 0.11910477 1.6900001
0.28971431 0.11588572 1.6900001
0.29937145 0.11588572 1.6900001
0.3049778 0.11597969 1.6913334
0.31351456 0.11635809 1.6968572
0.3201943 0.1132 1.6980001
-0.0040428573 0.12532859 1.6980001
0.0048285718 0.12554286 1.6900004
0.012876191 0.1287619 1.6900001
0.26396191 0.12554285 1.6900003
0.27361906 0.12554285 1.6900003
0.2822032 0.12661587 1.6900002
0.29743999 0.12489905 1.6900002
0.30453771 0.12643157 1.6957144
0.31210858 0.12613714 1.6980001
-0.0032342859 0.13422287 1.6980001
0.0048298417 0.13536252 1.6920003
0.015175511 0.13520001 1.6900003
0.022533335 0.13520001 1.6900001
0.26396191 0.13519999 1.6900003
0.2740508 0.13380128 1.6926666
0.28511566 0.13565986 1.6900003
0.2954255 0.13610287 1.6931999
0.30361858 0.13584 1.6980001
0.31178516 0.13584001 1.6980002
-0.0032342859 0.14392573 1.6980001
0.0048412704 0.14525968 1.6946667
0.01610201 0.14493503 1.6908891
0.0268254 0.14593016 1.6900002
0.032190476 0.14485714 1.6900001
0.28810477 0.14485715 1.6900002
0.29524383 0.1452 1.6940002
0.30402288 0.14554286 1.6980001
0.31049144 0.14230858 1.6980001
-0.0048514288 0.15848 1.6980001
0.0048311115 0.15481777 1.6933335
0.01609524 0.15451428 1.6900003
0.025752382 0.15290478 1.6900002
0.032190476 0.15290478 1.6900001
0.2884267 0.15451428 1.6900002
0.29523262 0.15405443 1.6900003
0.30442718 0.15565002 1.6980001
0.31049144 0.15201144 1.6980001
-0.0064685717 0.16494858 1.6980001
0.0048285718 0.16423492 1.690667
0.01609524 0.16417143 1.6900003
0.024947621 0.16497618 1.6900001
0.033799998 0.16578095 1.6900001
0.27683809 0.16578096 1.6900001
0.28399155 0.16417143 1.6900003
0.29472429 0.16535287 1.6980001
0.30240571 0.16333143 1.6980001
-0.0048488891 0.17451175 1.6966667
0.0048298417 0.17389844 1.690667
0.01609524 0.17382856 1.6900003
0.025752382 0.17382857 1.6900003
0.035007142 0.17423096 1.6900003
0.045066666 0.17423096 1.6900003
0.054080002 0.17511618 1.6900002
0.27415559 0.17490159 1.6900002
0.28342688 0.17391831 1.6908891
0.29385796 0.17557551 1.6980001
0.0068728575 0.18395001 1.6980001
0.016435429 0.1843901 1.6924002
0.025752386 0.18509525 1.6900004
0.035409525 0.18509525 1.6900004
0.04506667 0.18509524 1.6900004
0.052309524 0.18268096 1.6900001
0.2575238 0.18992382 1.6900001
0.26557142 0.18509525 1.6900002
0.2740508 0.18538731 1.6926669
0.28279918 0.18494476 1.6935556
0.29431999 0.18111999 1.6980001
0.30078858 0.18112001 1.6980001
0.0080857147 0.19405715 1.6980001
0.016140953 0.1948254 1.6953335
0.025752384 0.1963619 1.6900003
0.035409525 0.19636191 1.6900003
0.04506667 0.19636191 1.6900003
0.051504765 0.19958095 1.6900001
0.2575238 0.19958095 1.6900001
0.26396191 0.19636191 1.6900003
0.27427176 0.19521463 1.6940002
0.28507918 0.19498123 1.6980001
0.29324189 0.19190097 1.6980001
0.30240571 0.19082287 1.6980001
0.0097028576 0.20052572 1.6980001
0.016710477 0.20376001 1.6980001
0.026181431 0.20585857 1.6920002
0.035409525 0.20601904 1.6900003
0.04506667 0.20601906 1.6900003
0.053804081 0.20647892 1.6900003
0.065185718 0.20843334 1.6900001
0.074038096 0.2092381 1.6900001
0.25537777 0.20709206 1.6900002
0.26396191 0.20601906 1.6900003
0.27491432 0.20376001 1.6980001
0.28446817 0.20365335 1.6971111
0.017788572 0.21346287 1.6980001
0.02549905 0.21564496 1.6948001
0.035445079 0.21590647 1.6917779
0.04506667 0.2156762 1.6900003
0.054723814 0.21567617 1.6900003
0.064380959 0.21567619 1.6900003
0.073635712 0.21527381 1.6900003
0.24625716 0.21889524 1.6900001
0.25457567 0.21590307 1.6917779
0.26521146 0.21669716 1.6980001
0.27426744 0.21443315 1.6980002
0.28380859 0.21103714 1.6980001
0.026798368 0.22593798 1.6980001
0.035577144 0.2264 1.6980001
0.045158096 0.22580913 1.6935556
0.05472381 0.22533335 1.6900003
0.064380959 0.22533335 1.6900003
0.072965078 0.22586983 1.6900002
0.13841905 0.22533335 1.6900001
0.14485715 0.22597715 1.6900002
0.15129524 0.22855239 1.6900001
0.24625714 0.22533333 1.6900002
0.25484487 0.22580573 1.6935556
0.26480716 0.2268043 1.6980001
0.27168 0.22640002 1.6980001
0.02749143 0.23286858 1.6980001
0.035577144 0.23610285 1.6980001
0.045279998 0.23610288 1.6980001
0.054806773 0.23536298 1.6926668
0.064380951 0.23499049 1.6900003
0.074038096 0.23499046 1.6900003
0.08369524 0.23820953 1.6900001
0.14485715 0.23820953 1.6900001
0.15129524 0.23499048 1.6900001
0.18670477 0.23820953 1.6900001
0.19797143 0.23820953 1.6900001
0.23539285 0.23539285 1.6900003
0.24541968 0.23573716 1.6953334
0.25550857 0.23610288 1.6980001
0.26521146 0.23610285 1.6980001
0.2727581 0.23718095 1.6980001
0.035577148 0.24580574 1.6980001
0.045137778 0.24503197 1.6926668
0.054783069 0.24490836 1.6917779
0.06447915 0.24503705 1.6926668
0.074038096 0.24464764 1.6900003
0.084097616 0.24505 1.6900003
0.091420956 0.24400382 1.6900002
0.14646667 0.24464762 1.6900001
0.15129524 0.24464762 1.6900001
0.18710715 0.24505001 1.6900003
0.19676429 0.24505003 1.6900003
0.20280001 0.24786668 1.6900001
0.22694287 0.24625716 1.6900001
0.23548995 0.24516402 1.6935556
0.24580574 0.24580571 1.6980001
0.25550857 0.24580574 1.6980001
0.26521146 0.24580574 1.6980001
0.27329713 0.24580574 1.6980001
0.036501229 0.25504652 1.6980001
0.045280002 0.25550857 1.6980001
0.054982856 0.25550857 1.6980001
0.064580746 0.25511071 1.6953335
0.074038103 0.25430477 1.6900003
0.08369524 0.25430477 1.6900003
0.091420956 0.25494856 1.6900002
0.10461906 0.2575238 1.6900001
0.11749525 0.2575238 1.6900001
0.12312858 0.25510952 1.6900001
0.13198096 0.2575238 1.6900001
0.14807619 0.25269526 1.6900001
0.15129524 0.25108573 1.6900001
0.18670477 0.25430477 1.6900003
0.1963619 0.25269526 1.6900002
0.20280001 0.25269526 1.6900001
0.22533335 0.25430477 1.6900003
0.23573716 0.25510728 1.6953335
0.24580574 0.25550854 1.6980001
0.25550857 0.25550857 1.6980001
0.26521146 0.25550854 1.6980001
0.27329713 0.25550857 1.6980001
0.037194289 0.26521143 1.6980001
0.044740956 0.26413336 1.6980001
0.052557144 0.26440287 1.6980001
0.065609798 0.26474941 1.6980001
0.074229419 0.26465949 1.6944447
0.08369524 0.26396191 1.6900003
0.094318092 0.26396191 1.6900003
0.10558476 0.26331812 1.6900002
0.11680545 0.26350206 1.6900003
0.12554285 0.26396191 1.6900003
0.13359049 0.26396191 1.6900002
0.14539365 0.26288891 1.6900002
0.15129524 0.26396191 1.6900001
0.21889524 0.26074287 1.6900001
0.22573572 0.26355952 1.6900003
0.23536637 0.2643784 1.6926668
0.24580571 0.26521146 1.6980001
0.25510728 0.26480001 1.6953335
0.26493549 0.26493376 1.6962223
0.27329713 0.26521146 1.6980001
0.029108573 0.27491429 1.6980001
0.035172861 0.27451003 1.6980001
0.046204083 0.27445224 1.6980001
0.054578576 0.27531859 1.6980001
0.064685717 0.27491432 1.6980001
0.074270055 0.27448595 1.6953335
0.083783284 0.27390859 1.6917779
0.094961911 0.27361909 1.6900004
0.10622858 0.27361906 1.6900003
0.1162881 0.27402145 1.6900003
0.12554285 0.27361906 1.6900003
0.13428028 0.27407891 1.6900003
0.14485715 0.27522859 1.6900002
0.15129524 0.27361906 1.6900001
0.21782224 0.27576506 1.6900001
0.22533335 0.27361906 1.6900003
0.23536298 0.2740474 1.6926668
0.24580574 0.27491429 1.6980001
0.2555086 0.27451 1.6980001
0.26521143 0.27362055 1.6980002
0.029108573 0.28138286 1.6980001
0.034629114 0.28396574 1.6968572
0.046204086 0.28507921 1.6980001
0.054895241 0.2857784 1.6953334
0.064405076 0.28499621 1.690667
0.074263893 0.28530148 1.6950909
0.083893336 0.28555495 1.6940001
0.094668441 0.28486678 1.6905338
0.10576967 0.28511384 1.6906158
0.1158857 0.28488573 1.6900004
0.12554286 0.28488573 1.6900004
0.13520001 0.28488573 1.6900004
0.14485714 0.28488573 1.6900004
0.15129524 0.28488573 1.6900001
0.1886362 0.28713906 1.6900002
0.19665456 0.28532466 1.6900004
0.20639896 0.28457004 1.6907276
0.21584636 0.2851105 1.6913337
0.225421 0.28499874 1.690667
0.23499048 0.28488573 1.6900004
0.24525373 0.28499123 1.6964
0.2522743 0.28461716 1.6980001
0.03396 0.29108572 1.6980001
0.046204083 0.29385796 1.6980001
0.054918099 0.29679573 1.696
0.064380951 0.29615238 1.6900003
0.07461381 0.2952362 1.694
0.083695248 0.29615241 1.6900003
0.094961904 0.29615238 1.6900004
0.10622858 0.29615238 1.6900003
0.11569286 0.29627189 1.6930001
0.12554285 0.29615241 1.6900003
0.13519999 0.29615241 1.6900003
0.1445424 0.29592523 1.6910002
0.15463366 0.29692253 1.6913334
0.16095239 0.29776192 1.6900001
0.1883143 0.29615238 1.6900002
0.19595952 0.29575002 1.6900003
0.20608266 0.29606479 1.6932001
0.21578962 0.29630649 1.6908891
0.22533335 0.29615241 1.6900003
0.23501171 0.29583129 1.6934286
0.24580574 0.29431996 1.6980001
0.2522743 0.29108572 1.6980001
0.045684289 0.30361858 1.6980001
0.05498286 0.30494696 1.6980001
0.064380951 0.3058095 1.6900003
0.073839657 0.30502689 1.6921821
0.08369524 0.30580956 1.6900003
0.094961904 0.30613142 1.6900003
0.10622857 0.30580956 1.6900003
0.11601101 0.30505481 1.6917779
0.12554286 0.30580953 1.6900003
0.13520001 0.30580956 1.6900003
0.14516698 0.30537313 1.6935556
0.15475303 0.30521399 1.6926668
0.16325171 0.30626941 1.6900003
0.18992382 0.30580956 1.6900001
0.19636191 0.30580956 1.6900002
0.20576635 0.30525166 1.6908891
0.2156762 0.30580956 1.6900003
0.22557038 0.30613124 1.6917779
0.23585905 0.30477926 1.6962223
0.24257144 0.30240571 1.6980001
0.048514288 0.31049144 1.6980001
0.055629712 0.31178516 1.6980002
0.064925723 0.31497362 1.6922858
0.074038096 0.31385714 1.6900002
0.083763808 0.31410605 1.6913334
0.094461508 0.31426722 1.6934286
0.10563199 0.31561601 1.6908003
0.116264 0.31496915 1.6908003
0.12554286 0.3154667 1.6900003
0.13511762 0.31580526 1.694
0.144896 0.31437257 1.6980002
0.155643 0.3149671 1.6922858
0.16417143 0.31546667 1.6900003
0.17704763 0.31868574 1.6900001
0.18553419 0.3157593 1.6900004
0.19636191 0.31546667 1.6900003
0.20601904 0.31546667 1.6900003
0.2157843 0.31580713 1.6940002
0.22640002 0.31534287 1.6980001
0.23610283 0.31372571 1.6980001
0.064326353 0.32450667 1.6980001
0.074711993 0.32407543 1.6980002
0.084091425 0.3250457 1.6980001
0.09484572 0.3256509 1.6958183
0.10473716 0.32470003 1.6920003
0.11588572 0.32512382 1.6900003
0.12554285 0.32512382 1.6900003
0.13571849 0.32494023 1.6924002
0.14524883 0.32489869 1.6980001
0.15509571 0.32550859 1.6920002
0.16417143 0.32512382 1.6900003
0.17624286 0.32592857 1.6900001
0.18465693 0.32529482 1.6908891
0.19446142 0.32706717 1.6980001
0.20421031 0.32603467 1.6964
0.21538192 0.32562384 1.6940001
0.22610599 0.32460469 1.6980001
0.23367715 0.32262003 1.6980001
0.05498286 0.33636573 1.6980001
0.061451431 0.33636573 1.6980001
0.077622861 0.33636573 1.6980001
0.084553473 0.33728981 1.6980001
0.09503302 0.33504382 1.6913337
0.10622858 0.33478099 1.6900003
0.11613122 0.33549038 1.6935556
0.12580699 0.33549038 1.6935556
0.13569948 0.33601698 1.6962223
0.14554286 0.33596146 1.6980001
0.15491726 0.33566481 1.6944444
0.16417143 0.33478099 1.6900003
0.17410286 0.33531433 1.692667
0.18406816 0.33584085 1.6953335
0.19405714 0.33636576 1.6980001
0.20376001 0.33677 1.6980001
0.21474095 0.3358362 1.6953334
0.22593798 0.3363657 1.6980001
0.23286858 0.33313143 1.6980001
0.085015513 0.34653062 1.6980001
0.09503302 0.34470856 1.6913337
0.10634372 0.34480214 1.6917779
0.11449371 0.34606859 1.6980002
0.12290286 0.34283429 1.6980001
0.13584001 0.34606856 1.6980001
0.14554286 0.34606859 1.6980001
0.15524572 0.34606856 1.6980001
0.16451345 0.34516445 1.6935556
0.17465141 0.34606856 1.6980001
0.18435429 0.34606856 1.6980001
0.19528319 0.34538922 1.6946667
0.20489462 0.34525588 1.6939999
0.21433258 0.3452602 1.6972001
0.22801715 0.34526002 1.6980001
0.23569858 0.34647286 1.6980001
0.24257144 0.34930286 1.6980001
0.087325715 0.35415429 1.6980001
0.09430401 0.35494971 1.6955999
0.10349715 0.35523239 1.6980001
0.15686285 0.35577145 1.6980001
0.16477589 0.35540068 1.6962223
0.17465144 0.35577145 1.6980001
0.18516286 0.35415429 1.6980001
0.19497696 0.35502306 1.6958183
0.20440982 0.35575673 1.6957144
0.21103714 0.35496286 1.6980001
0.23772001 0.35253716 1.6980001
0.095088013 0.36676803 1.6980002
0.13826573 0.36547431 1.6980001
0.14554286 0.36547431 1.6980002
0.15686285 0.36547431 1.6980001
0.16477589 0.36508995 1.6962223
0.17465143 0.36547431 1.6980001
0.19244 0.36224002 1.6980001
0.20376001 0.36223999 1.6980001
0.085708573 0.37841144 1.6980001
0.095049798 0.37605169 1.6957144
0.10134095 0.37733331 1.6980001
0.1390743 0.37517715 1.6980001
0.14554286 0.37517715 1.6980001
0.15535958 0.37566268 1.6953335
0.16471544 0.37529069 1.6956002
0.17400458 0.3732366 1.6980002
0.087325715 0.38488001 1.6980001
0.09399958 0.3849909 1.6953335
0.10496648 0.3843345 1.6956002
0.11481714 0.3881143 1.6980001
0.14796856 0.38407147 1.6980001
0.15506095 0.38483095 1.6960001
0.16465713 0.38460431 1.6950002
0.17303428 0.38488001 1.6980001
0.18435431 0.38649717 1.6980001
0.19405715 0.38649717 1.6980001
0.20052572 0.38649714 1.6980001
0.24257144 0.38649714 1.6980001
0.087325715 0.3913486 1.6980001
0.093794286 0.3929657 1.6980001
0.10349715 0.39458287 1.6980001
0.11603 0.39498717 1.6980001
0.12613715 0.39620003 1.6980001
0.13584 0.39652342 1.6980002
0.14554286 0.39587659 1.6980002
0.15686285 0.39458287 1.6980001
0.16494858 0.3945829 1.6980001
0.17465143 0.3970086 1.6980001
0.18540478 0.39530316 1.6953335
0.19433522 0.39480036 1.6948
0.20376003 0.39458287 1.6980001
0.21022858 0.39458287 1.6980001
0.11724286 0.40186 1.6980001
0.12613715 0.40428573 1.6980001
0.13584001 0.40388146 1.6980001
0.14508082 0.40336171 1.6980001
0.15653943 0.4036389 1.6980002
0.17707716 0.40347716 1.6980001
0.18451557 0.40422183 1.6962223
0.19470403 0.40622631 1.6980002
0.20329797 0.40336165 1.6980001
0.21022858 0.4026686 1.6980001
0.2264 0.40428573 1.6980001
0.11966857 0.41398859 1.6980001
0.12613715 0.41398859 1.6980001
0.13519315 0.41463548 1.6980002
0.14230858 0.41398859 1.6980001
0.15524572 0.41398859 1.6980001
0.17788573 0.41398859 1.6980001
0.18435429 0.41398856 1.6980001
0.19396572 0.41443738 1.6972001
0.20133428 0.41318002 1.6980001
0.21022858 0.41075429 1.6980001
0.12613715 0.42045715 1.6980001
0.17626858 0.42369142 1.6980001
0.18435431 0.42207429 1.6980001
0.19297905 0.42369142 1.6980001
0.20311315 0.42304459 1.6980002
0.21346286 0.42045715 1.6980001
0.15718628 0.43727541 1.6980002
0.16171429 0.43824571 1.6980001
0.19405715 0.43016002 1.6980001
0.20537716 0.43016002 1.6980001
0.10565334 0.44740954 1.6980001
0.11643429 0.44633144 1.6980001
0.15686285 0.44633147 1.6980001
0.16494858 0.44586942 1.6980001
0.10673144 0.4560343 1.6980001
0.11643429 0.45765144 1.6980001
0.15686285 0.45441714 1.6980001
0.16171429 0.45441717 1.6980001
0.10673143 0.46573713 1.6980001
0.11643429 0.46250287 1.6980001
0.18543239 0.46358097 1.6980001
0.17788573 0.47544003 1.6980001
0.18327619 0.47436193 1.6980001
0.17465143 0.48190859 1.6980001
0.16818286 0.49161145 1.6980001
0.17303428 0.49161145 1.6980001
0.1574019 0.50239241 1.6980001
0.163008 0.50390178 1.6980002
0.16171429 0.51425147 1.6980001
0.19729143 0.52395433 1.6980001
0.20160381 0.52611047 1.6980001
0.21184573 0.52395433 1.6980001
0.22316572 0.52072001 1.6980001
-0.0064990479 -0.01408127 1.706
0.028433334 -0.01706 1.7060001
0.03574476 -0.01787238 1.7060002
0.044843428 -0.017547429 1.7060001
0.074739054 -0.019497143 1.706
0.28920764 -0.016247619 1.7060001
0.29570669 -0.01408127 1.706
0.30464286 -0.013810477 1.7060001
-0.032495238 -0.0032495239 1.7060001
-0.027620953 -0.0032495239 1.7060001
-0.015435237 -0.0064990479 1.7060001
0.29570669 -0.0097485716 1.7060001
0.30610514 -0.0084487619 1.7060001
0.31520379 -0.0064990474 1.7060002
0.32430249 -0.0045493334 1.7060001
0.33578417 -0.0043326984 1.706
0.34282479 -0.0048742858 1.7060001
-0.032495238 0.0032495239 1.706
-0.027214764 0.0036557144 1.7060002
0.3160162 0.00081238098 1.7060001
0.32541659 0.0027853062 1.7060002
0.33361781 0.0043326984 1.7060002
0.3452619 0.001624762 1.7060001
0.3539027 0.0053174025 1.7060001
0.36069715 0.0064990479 1.7060001
-0.035744764 0.017872382 1.7060001
-0.029245716 0.012998096 1.7060001
0.33340114 0.015597716 1.7060001
0.34769905 0.016247621 1.706
0.3541981 0.016247619 1.7060002
0.36069715 0.014622858 1.7060001
-0.042243812 0.029245716 1.7060001
-0.037911113 0.028162541 1.706
0.33388859 0.026808571 1.7060001
0.34688666 0.026808573 1.7060001
0.3541981 0.025996191 1.7060002
-0.042243812 0.032495238 1.7060001
-0.037694477 0.035094857 1.7060001
0.33307621 0.03574476 1.7060002
0.34607431 0.03574476 1.7060002
0.35379192 0.03574476 1.7060002
0.36069715 0.038994286 1.7060001
-0.035744764 0.043868572 1.7060001
-0.025996191 0.045493335 1.7060001
0.33415937 0.046576511 1.7060002
0.34491375 0.04642177 1.7060002
0.35373387 0.044564899 1.7060002
0.33307621 0.055241909 1.7060002
0.34444952 0.055241909 1.7060002
0.35176095 0.056054287 1.7060001
-0.035744764 0.064990476 1.7060001
0.32657716 0.068240002 1.7060001
0.33307621 0.064990468 1.7060002
0.34607431 0.064990483 1.7060002
0.35094857 0.064990476 1.706
-0.034661587 0.072572701 1.706
0.31845334 0.071489528 1.7060001
0.32495239 0.074739046 1.7060002
0.33307621 0.074739046 1.7060002
0.34537798 0.074739046 1.7060002
0.35094857 0.074739054 1.706
-0.032495238 0.084487617 1.706
0.32588083 0.084487617 1.7060002
0.33377251 0.084487617 1.7060002
0.34444955 0.084487624 1.7060002
0.35094857 0.08611238 1.7060001
-0.032495238 0.094236195 1.706
-0.029245716 0.094236195 1.7060001
0.32738954 0.093423814 1.7060001
0.33307621 0.094236195 1.7060002
0.34639925 0.093586288 1.7060001
0.35257331 0.094236195 1.7060002
-0.032495238 0.10236001 1.7060001
-0.026460409 0.10491321 1.7060002
-0.015435238 0.10642192 1.7060001
-0.0097485716 0.10723429 1.7060001
0.32738954 0.10398477 1.7060001
0.33377251 0.10444898 1.7060002
0.34688666 0.10479715 1.7060001
0.35176095 0.10317239 1.7060001
-0.027620953 0.11210857 1.7060001
-0.016247619 0.11373334 1.7060002
-0.0097485716 0.11698286 1.7060001
0.30870476 0.11373334 1.7060001
0.32560229 0.11568306 1.7060001
0.33423677 0.1128049 1.7060002
0.34379962 0.11308344 1.7060001
-0.013648001 0.12413182 1.7060001
-0.0086653968 0.12618984 1.7060002
0.31845334 0.12510666 1.7060001
0.32462746 0.12478171 1.7060001
0.33145145 0.12456507 1.706
0.34120002 0.12510666 1.7060001
-0.012998096 0.13485524 1.7060001
-0.0074274833 0.1369442 1.7060002
0.30870476 0.13648 1.7060001
0.31764096 0.13648 1.7060001
0.32454622 0.1360738 1.7060002
0.34120002 0.13810477 1.7060001
-0.032495238 0.14297906 1.7060001
-0.027620953 0.14297906 1.7060001
-0.014297905 0.14687848 1.7060001
-0.0074274833 0.14669278 1.7060002
0.31560999 0.14663476 1.7060002
0.32300267 0.14557867 1.7060001
0.34120002 0.14460382 1.7060001
-0.014622857 0.15597714 1.7060002
-0.0069632651 0.15504871 1.7060002
0.31560999 0.15638334 1.7060002
0.32170287 0.15272762 1.7060001
-0.014297905 0.16507581 1.7060001
0.30675504 0.16702554 1.7060001
0.31325409 0.16507581 1.7060001
-0.014947809 0.1767741 1.7060001
-0.0097485716 0.17547429 1.706
0.29733145 0.17222477 1.7060001
0.30545524 0.17547429 1.7060002
0.31195429 0.17384952 1.7060001
-0.012998096 0.18522286 1.706
-0.0064990474 0.18522286 1.7060002
0.00081238098 0.18603525 1.7060001
0.28920764 0.18684763 1.7060001
0.29570666 0.18684763 1.7060002
0.30586144 0.18562905 1.7060002
0.31195429 0.18522286 1.7060001
-0.012998096 0.19497144 1.706
-0.0064990474 0.19497144 1.7060002
0.001624762 0.19497144 1.7060002
0.29624829 0.19605462 1.7060002
0.30480534 0.19562134 1.7060001
-0.012998096 0.20147048 1.7060001
-0.0051992382 0.20342019 1.7060001
0.004431169 0.20501542 1.7060001
0.012998096 0.20634477 1.7060001
0.29570669 0.20472001 1.7060002
0.30452681 0.20518422 1.7060002
-0.0032495239 0.21121906 1.7060001
0.0064990479 0.21284382 1.7060002
0.012998096 0.21446858 1.706
0.27945906 0.21771811 1.7060001
0.28660804 0.2164183 1.7060001
0.29570666 0.21446858 1.7060002
0.30545524 0.21446858 1.7060002
0.00893619 0.22421715 1.7060001
0.016247619 0.22421715 1.7060002
0.022746667 0.22746667 1.7060001
0.26971048 0.22421715 1.7060001
0.27815923 0.22486706 1.7060001
0.28595814 0.22421715 1.7060002
0.29516509 0.22313398 1.7060002
0.30545524 0.22421713 1.706
0.31845334 0.22421715 1.7060001
0.0097485716 0.2307162 1.7060001
0.016247619 0.23396574 1.7060002
0.024696382 0.23526554 1.7060001
0.27713796 0.23442996 1.7060002
0.28400841 0.23331583 1.7060001
0.0043326984 0.24371429 1.706
0.017872382 0.24208954 1.7060001
0.025996193 0.2437143 1.7060002
0.27945906 0.24371429 1.706
0.28433335 0.24371432 1.7060002
0.0043326984 0.25833717 1.7060002
0.01787238 0.25590003 1.7060001
0.026291603 0.25493991 1.7060001
0.032495238 0.25833714 1.7060001
0.27945906 0.25508761 1.7060001
0.28487495 0.2549071 1.7060002
0.0055706124 0.26460409 1.7060002
0.017330794 0.26646096 1.706
0.026402382 0.26686713 1.7060002
0.032495238 0.26646096 1.706
0.046576511 0.26862732 1.706
0.057191622 0.26711088 1.7060001
0.061740953 0.26808572 1.7060001
0.27945906 0.26646096 1.706
0.28595814 0.26646098 1.7060002
0.29245716 0.26321143 1.7060001
0.0097485716 0.27620953 1.7060001
0.019497143 0.27620953 1.706
0.025067756 0.27620953 1.7060002
0.038994286 0.27945906 1.7060001
0.042243812 0.2778343 1.7060001
0.058491431 0.27296001 1.7060001
0.25671238 0.27945906 1.7060001
0.26646096 0.2778343 1.7060001
0.27620953 0.2762095 1.7060002
0.28595814 0.2762095 1.7060002
0.0081238095 0.28270859 1.7060001
0.019497143 0.28270859 1.7060001
0.025590001 0.28636432 1.7060002
0.038994286 0.28758287 1.7060001
0.042243812 0.28433335 1.7060001
0.25764084 0.28595811 1.7060002
0.26646096 0.28595814 1.7060002
0.2762095 0.28595814 1.7060002
0.28595814 0.28595814 1.7060002
0.29570669 0.28595811 1.7060001
0.027079366 0.29516509 1.7060002
0.03620898 0.29663512 1.7060002
0.042243812 0.29733145 1.7060001
0.25635135 0.2964288 1.7060002
0.26646096 0.29570666 1.7060002
0.27620953 0.29570669 1.7060002
0.28555194 0.29611287 1.7060002
0.029245716 0.30383047 1.7060001
0.03574476 0.30545527 1.7060002
0.042243812 0.30870476 1.7060001
0.24615143 0.30626762 1.7060001
0.25508761 0.30545527 1.706
0.26605478 0.30504906 1.7060002
0.27566794 0.30437204 1.7060002
0.28595811 0.30220571 1.706
0.29245716 0.30220571 1.7060001
0.035744764 0.31276667 1.7060001
0.045029115 0.31520382 1.7060002
0.054429524 0.31764096 1.7060001
0.14947811 0.31682858 1.7060001
0.15272762 0.31682858 1.7060001
0.24464273 0.31566805 1.7060002
0.25508764 0.31520382 1.706
0.26646096 0.31520382 1.7060002
0.2752811 0.31520382 1.7060002
0.28465828 0.31650361 1.7060001
0.29408193 0.31845334 1.7060001
0.048742861 0.32495239 1.706
0.055241909 0.32495242 1.7060002
0.090986669 0.32332763 1.7060001
0.14947811 0.32820192 1.7060001
0.15272762 0.32495239 1.7060001
0.23721525 0.32657716 1.7060001
0.2437143 0.32495242 1.7060002
0.25508761 0.32495239 1.706
0.26646098 0.32495239 1.7060002
0.2762095 0.32495242 1.7060002
0.28433335 0.32495239 1.7060002
0.29489431 0.32414001 1.7060001
0.038994286 0.33632573 1.7060001
0.045899525 0.33510718 1.7060002
0.055241909 0.33377251 1.7060002
0.065454699 0.334701 1.7060002
0.073810615 0.334701 1.7060002
0.082862861 0.33470097 1.7060001
0.20472001 0.33470097 1.7060001
0.22746667 0.3379505 1.7060001
0.23442996 0.334701 1.7060002
0.2437143 0.334701 1.7060002
0.25508761 0.33470097 1.706
0.26646098 0.33470097 1.7060002
0.27580336 0.33429477 1.7060002
0.28270859 0.33307621 1.7060001
0.03628635 0.34499112 1.7060002
0.045493335 0.34444952 1.7060002
0.055241909 0.34444958 1.7060002
0.064584285 0.34404337 1.7060002
0.074739046 0.34444952 1.7060002
0.081238098 0.34607428 1.7060001
0.11698286 0.34769905 1.7060001
0.12533878 0.34630638 1.7060002
0.14622858 0.34282479 1.7060001
0.22638349 0.34661588 1.706
0.23559049 0.34120002 1.7060001
0.24412049 0.34404331 1.7060002
0.25411278 0.34412462 1.7060001
0.26727334 0.34201241 1.7060001
0.27458477 0.34120002 1.7060001
0.045899525 0.35379189 1.7060002
0.055241909 0.3541981 1.7060002
0.075145237 0.35379189 1.7060002
0.082862861 0.35582286 1.7060001
0.11308344 0.3554979 1.7060001
0.12510666 0.3535482 1.7060001
0.13647999 0.35582289 1.7060002
0.14622857 0.35512653 1.7060002
0.15272762 0.35582286 1.7060001
0.18522286 0.35744762 1.706
0.21690573 0.35501048 1.7060001
0.22421715 0.3541981 1.7060002
0.23331583 0.35614783 1.7060001
0.24479747 0.35528126 1.7060002
0.25346288 0.3541981 1.7060002
0.047443051 0.36329678 1.7060001
0.051992383 0.36394668 1.7060001
0.064990476 0.36394668 1.7060001
0.076363809 0.36394668 1.7060002
0.084487617 0.36394665 1.7060002
0.092611432 0.36557144 1.7060001
0.10439096 0.36435282 1.7060002
0.11156698 0.36502984 1.706
0.12916857 0.36475906 1.7060001
0.13539682 0.36286351 1.7060002
0.14622858 0.36199695 1.7060001
0.15272762 0.36394668 1.706
0.18481667 0.36435288 1.7060002
0.19578382 0.36638382 1.7060001
0.20472001 0.3671962 1.706
0.21487477 0.36435288 1.7060002
0.22421715 0.36394671 1.7060002
0.23396574 0.36394671 1.7060002
0.2437143 0.36394665 1.7060002
0.25508761 0.36394671 1.706
0.26483619 0.36394668 1.7060001
0.048742861 0.37044573 1.7060001
0.058491431 0.37694478 1.7060001
0.066615239 0.37532002 1.7060001
0.075145237 0.37410146 1.7060002
0.084487617 0.37369525 1.7060002
0.092069842 0.37586161 1.706
0.10439096 0.37328905 1.7060002
0.11210858 0.37369525 1.7060002
0.1283562 0.37369525 1.7060002
0.13485523 0.37369525 1.7060002
0.14731176 0.37152889 1.706
0.15272762 0.37207049 1.7060001
0.17872381 0.37694478 1.7060001
0.18522286 0.37369525 1.7060002
0.19497144 0.37369525 1.7060002
0.20472001 0.37369525 1.7060002
