# .PCD v0.7 - Point Cloud Data file format
VERSION 0.7
FIELDS x y z
SIZE 4 4 4
TYPE F F F
COUNT 1 1 1
WIDTH 1531
HEIGHT 1
VIEWPOINT 0 0 0 1 0 0 0
POINTS 1531
DATA ascii
-0.044687621 0.3729105 1.618
-0.033900954 0.3729105 1.618
-0.024594288 0.3759453 1.6140001
-0.016877145 0.37743431 1.6110001
-0.0061371424 0.37743434 1.6110001
0.0051142857 0.37743434 1.6110001
0.015365079 0.37798095 1.6133333
0.024548573 0.37743434 1.6110001
-0.040064763 0.38832003 1.618
-0.030819049 0.38677907 1.618
-0.024939429 0.38551715 1.6166
-0.0154036 0.38505441 1.6172223
-0.0061638094 0.38523811 1.618
0.0049150479 0.38546285 1.6138
0.015352859 0.38538125 1.6121668
0.02393486 0.38510573 1.6110001
0.033754285 0.38970861 1.6110001
0.046795718 0.3858729 1.6110001
0.054850716 0.38702357 1.6110001
0.063417144 0.38766289 1.6110001
-0.040835239 0.3944838 1.618
-0.033284571 0.39510018 1.618
-0.024615237 0.39493778 1.6156667
-0.015409525 0.39448383 1.618
-0.0064680004 0.39492685 1.6173
0.0043471428 0.395363 1.6121668
0.015342857 0.39584574 1.6110001
0.02454857 0.39584574 1.6110001
0.035288572 0.39584577 1.6110001
0.055234291 0.39645943 1.6110001
-0.042866495 0.40485021 1.618
-0.033900954 0.40527049 1.618
-0.024364157 0.40553197 1.6173637
-0.015409525 0.40527046 1.618
-0.0058836369 0.40569076 1.618
0.0044879122 0.40512085 1.6131539
0.015342858 0.40505141 1.6110001
0.024570797 0.40544549 1.6125556
0.034674861 0.4056651 1.6110001
0.042960003 0.40812001 1.6110001
0.055234287 0.40198287 1.6110001
-0.04426736 0.41633731 1.618
-0.033900958 0.4160572 1.618
-0.024270002 0.41605717 1.618
-0.015402117 0.4158572 1.6172223
-0.0061638099 0.41605714 1.618
0.0046184123 0.4153105 1.6150833
0.015387301 0.41545862 1.6156667
0.024606351 0.41525272 1.6148889
0.034882251 0.41441956 1.6116364
0.044899523 0.41524929 1.6118751
0.052165717 0.41425717 1.6110001
0.076714292 0.41630289 1.6110001
-0.055034019 0.4261834 1.618
-0.045543704 0.42496046 1.618
-0.036982857 0.42222098 1.618
-0.023114286 0.42530286 1.618
-0.015409525 0.42530286 1.618
-0.0061623282 0.42509693 1.6172223
0.0046133334 0.42512628 1.6140001
0.015687047 0.42518193 1.6152
0.024565237 0.42530608 1.6121668
0.035288572 0.42499718 1.6110001
0.046047244 0.42487565 1.6117001
0.0537 0.42960003 1.6110001
0.076242194 0.42511517 1.6110001
0.085641034 0.42541564 1.6110001
-0.055474292 0.43454856 1.618
-0.048540004 0.43377811 1.618
-0.023627937 0.43249395 1.618
-0.01232762 0.43146667 1.618
-0.0061638099 0.43454853 1.618
0.0046114288 0.43566614 1.6140001
0.015091776 0.43547466 1.6141819
0.02454857 0.43573722 1.6110001
0.034981716 0.43573719 1.6110001
0.045729253 0.434892 1.6160001
0.055234287 0.43522575 1.6110001
0.064440005 0.43880573 1.6110001
0.076100573 0.43604404 1.6110001
0.085961491 0.43594754 1.6117778
0.09328457 0.43635088 1.6110001
-0.021573335 0.4468762 1.618
-0.015024286 0.44726148 1.618
-0.0061604767 0.44485196 1.61625
0.0046028574 0.44494286 1.6110001
0.015350265 0.44515917 1.6117778
0.024644868 0.44666284 1.6172223
0.033871323 0.44644806 1.6164445
0.044687625 0.44533521 1.618
0.055125024 0.44522828 1.6160909
0.064440005 0.44494283 1.6110001
0.075180009 0.4418743 1.6110001
0.085920006 0.4418743 1.6110001
0.095125712 0.44371542 1.6110001
0.10126286 0.4418743 1.6110001
-0.021573335 0.45612192 1.618
-0.015024286 0.4557367 1.618
-0.0061608469 0.45590416 1.6172223
0.0046117459 0.45513853 1.6145
0.015366561 0.45480934 1.6133333
0.024644867 0.45590416 1.6172223
0.033900958 0.45612198 1.618
0.044603173 0.45529637 1.6150833
0.055260953 0.45436636 1.6117778
0.064440005 0.45414862 1.6110001
0.072878577 0.4518472 1.6110001
0.088988572 0.45261431 1.6110001
0.09512572 0.45414856 1.6110001
0.10279714 0.45568287 1.6110001
-0.022343811 0.46459717 1.618
-0.013560382 0.46475124 1.618
-0.006163809 0.46536765 1.618
0.0046161907 0.46486428 1.61625
0.015409525 0.46536765 1.618
0.024655238 0.46536759 1.618
0.035398573 0.46486428 1.61625
0.04500572 0.46437719 1.6110001
0.058302861 0.46642289 1.6110001
0.065053716 0.46488863 1.6110001
0.075180002 0.46642283 1.6110001
0.085152864 0.46872431 1.6110001
0.095739439 0.46550226 1.6110001
0.10249028 0.46519548 1.6110001
-0.0092457142 0.47153145 1.618
0.005547428 0.47430521 1.618
0.015409525 0.47461334 1.618
0.024655238 0.47461334 1.618
0.033900954 0.47461334 1.618
0.04348024 0.47563761 1.61625
0.058302861 0.47869715 1.6110001
0.065053716 0.4762423 1.6110001
0.075598441 0.47562855 1.6110001
0.085920006 0.47562853 1.6110001
0.095263503 0.47631747 1.6133333
0.10433143 0.47562858 1.6110001
0.11200286 0.47639573 1.6110001
0.0071911118 0.48283181 1.618
0.015409525 0.48385906 1.618
0.024655238 0.48385906 1.618
0.033900954 0.48385906 1.618
0.044634286 0.48410285 1.61625
0.055617858 0.4852179 1.6110001
0.064440005 0.48483431 1.6110001
0.075180002 0.48483428 1.6110001
0.086303577 0.4844507 1.6110001
0.09517017 0.48506838 1.6117778
0.10433143 0.48483431 1.6110001
0.11415086 0.48514119 1.6110001
-0.0046228576 0.49926859 1.618
0.015409525 0.49002287 1.618
0.025271619 0.49402934 1.618
0.034517337 0.49526209 1.618
0.0443261 0.49437883 1.6161333
0.055287622 0.49451706 1.6125556
0.064502232 0.49451706 1.6125556
0.073863499 0.49547112 1.6156667
0.084545642 0.4952192 1.6163846
0.095259048 0.49475563 1.6133333
0.1044781 0.4947556 1.6133333
0.11523255 0.49475667 1.6133333
0.12274286 0.4955743 1.6110001
-0.013868571 0.50466192 1.618
-0.0065490473 0.5050472 1.618
0.015409525 0.50235051 1.618
0.025888002 0.50481606 1.618
0.033900954 0.50543243 1.618
0.04494784 0.50489426 1.6147692
0.054927431 0.5038594 1.6110001
0.064718969 0.50436157 1.6110001
0.075180002 0.50412244 1.6110001
0.08629334 0.50543237 1.618
0.09549313 0.50519091 1.6172223
0.1047304 0.50495797 1.6129092
0.11516145 0.50519001 1.6123126
0.12274286 0.50477999 1.6110001
-0.01232762 0.5115962 1.618
-0.0077047618 0.51313716 1.618
0.0092457142 0.51467812 1.618
0.014793143 0.51529449 1.618
0.025682541 0.51570541 1.618
0.03390095 0.51467806 1.618
0.04426736 0.51495826 1.618
0.055831194 0.51478499 1.617125
0.06452889 0.51523942 1.6133333
0.074467309 0.51461035 1.6121668
0.086077772 0.51491135 1.6139168
0.095539048 0.51467812 1.618
0.10434449 0.51555866 1.618
0.115622 0.51585072 1.6129092
0.12274286 0.51552004 1.6110001
0.036982857 0.52392381 1.618
0.044687625 0.52392381 1.618
0.055474292 0.52392381 1.618
0.064279728 0.52480435 1.618
0.075598434 0.52444679 1.6110001
0.085919999 0.52434218 1.6110001
0.095539041 0.52392381 1.618
0.10478476 0.52392381 1.618
0.11521542 0.52387142 1.6131001
0.12274286 0.52472574 1.6110001
0.14575714 0.5277943 1.6110001
0.15445143 0.5277943 1.6110001
0.036982857 0.53008765 1.618
0.047769524 0.53008765 1.618
0.05778572 0.53239906 1.618
0.064720005 0.53316957 1.618
0.07470265 0.53214055 1.6117778
0.086540245 0.53384382 1.615375
0.095471263 0.53432602 1.6168333
0.10474586 0.53451616 1.6174167
0.11506058 0.53408808 1.6152
0.12576786 0.53577 1.615375
0.13648191 0.53609216 1.6138
0.144291 0.53419065 1.6117778
0.15482336 0.53365248 1.6110001
0.1626343 0.53086287 1.6110001
0.11660572 0.54006857 1.6110001
0.12635811 0.54241526 1.618
0.13868572 0.54241526 1.618
0.1446362 0.54163301 1.6156667
0.15496287 0.54006857 1.6110001
0.16818762 0.54296339 1.6127501
0.17311175 0.54290539 1.6133333
0.79751432 0.012388572 1.626
0.77738291 0.027874287 1.626
0.77366626 0.033449143 1.626
0.76731718 0.044134289 1.626
0.77118862 0.040262859 1.626
0.76499432 0.055748571 1.626
0.76576859 0.065814286 1.626
0.76809144 0.074331433 1.626
-0.4026286 0.086720005 1.626
-0.39746669 0.087752379 1.626
0.76809144 0.085171424 1.626
-0.39643431 0.094462857 1.626
0.76499432 0.09601143 1.626
0.76499432 0.10530287 1.626
0.76499432 0.11459428 1.626
0.76499432 0.12388572 1.626
0.76499432 0.13317715 1.626
0.76809144 0.14866287 1.626
0.76809144 0.15176001 1.626
0.77118862 0.15640572 1.626
0.77118856 0.16414857 1.626
0.76809144 0.18582858 1.626
0.52032 0.19821715 1.626
0.58536005 0.19821715 1.626
0.76809144 0.19202286 1.626
0.77118862 0.19821715 1.626
0.041811429 0.20750858 1.626
0.080525719 0.20286286 1.626
0.30816573 0.20750858 1.626
0.31281143 0.20750858 1.626
0.35926858 0.20750858 1.626
0.36236572 0.20750858 1.626
0.38094857 0.20750858 1.626
0.43050286 0.20441143 1.626
0.45527998 0.20441143 1.626
0.46302289 0.20441143 1.626
0.47386289 0.20544381 1.626
0.48573527 0.20544381 1.626
0.49244574 0.20441143 1.626
0.50483429 0.2013143 1.626
0.53735435 0.2013143 1.626
0.54354858 0.2013143 1.626
0.55748576 0.2013143 1.626
0.56471235 0.20131429 1.626
0.57451999 0.2013143 1.626
0.60549146 0.2013143 1.626
0.61787999 0.2013143 1.626
0.62562293 0.20337905 1.626
0.63646293 0.20441143 1.626
0.76809144 0.20596001 1.626
-0.06504 0.21989715 1.626
-0.055748571 0.21989715 1.626
-0.044908572 0.21989715 1.626
-0.034068573 0.21989715 1.626
-0.025396574 0.21494171 1.626
-0.015485715 0.21370287 1.626
-0.0072266669 0.21267049 1.626
0.0046457145 0.21292859 1.626
0.015485715 0.21370287 1.626
0.025164288 0.21409 1.6260002
0.034068573 0.21060573 1.626
0.044908572 0.21060573 1.626
0.055748571 0.21060573 1.626
0.06504 0.21060573 1.626
0.074331433 0.21138 1.626
0.086100578 0.21184459 1.626
0.09601143 0.2121543 1.626
0.10530286 0.21370287 1.626
0.11459428 0.21370287 1.626
0.12078857 0.21525145 1.626
0.13627429 0.21525145 1.626
0.14711429 0.21989715 1.626
0.2338343 0.21989715 1.626
0.26635429 0.21370287 1.626
0.27719432 0.2121543 1.626
0.28338856 0.21370287 1.626
0.29732573 0.21370287 1.626
0.30042288 0.21060573 1.626
0.32674861 0.21060573 1.626
0.77118862 0.21525145 1.626
-0.27358094 0.22815619 1.626
-0.26480573 0.22918858 1.626
-0.25396571 0.22918858 1.626
-0.24423184 0.22697632 1.6260002
-0.23582532 0.22697632 1.6260002
-0.22671084 0.22794971 1.626
-0.21989715 0.22918858 1.626
-0.20286286 0.22918858 1.626
-0.19512002 0.22918858 1.626
-0.18505429 0.22841428 1.626
-0.17467885 0.22794971 1.626
-0.16337429 0.22686572 1.626
-0.15447 0.22647859 1.6260002
-0.14618516 0.22794971 1.626
-0.13369334 0.22815619 1.626
-0.12388572 0.22763999 1.626
-0.11459429 0.22609144 1.6260002
-0.10574532 0.22520654 1.6260002
-0.096785717 0.22531715 1.626
-0.083966978 0.22574729 1.6260002
-0.074331433 0.22376858 1.626
-0.06504 0.22299428 1.626
0.16414858 0.22299428 1.626
0.17653716 0.2229943 1.626
0.19821715 0.22918858 1.626
0.20286286 0.22918858 1.626
0.22764 0.2229943 1.626
-0.27564573 0.23538287 1.6260002
-0.26466492 0.23566441 1.6260002
-0.25396574 0.23538285 1.6260002
-0.24506144 0.23499574 1.6260002
-0.23600228 0.23352459 1.626
-0.22609144 0.23228572 1.626
-0.21404701 0.23538285 1.6260002
-0.20673428 0.23460858 1.626
-0.17808571 0.23228572 1.626
-0.15408286 0.23306 1.626
-0.14556572 0.23449799 1.6260002
-0.13511287 0.23422144 1.6260002
-0.12388572 0.23228572 1.626
-0.086720005 0.23228572 1.626
0.18892573 0.23228572 1.626
0.19357143 0.2338343 1.626
-0.35307431 0.2446743 1.626
-0.34687999 0.24622288 1.626
-0.27564573 0.24467428 1.626
-0.26522806 0.24439277 1.6260002
-0.25396574 0.24157715 1.626
-0.24777144 0.24157715 1.626
-0.2168 0.24157715 1.626
-0.3445572 0.25357857 1.6260002
-0.33526573 0.25628859 1.626
-0.30307755 0.25485063 1.6260002
-0.29526094 0.25603047 1.626
-0.27564573 0.25396574 1.6260002
-0.26945144 0.25086859 1.626
-0.35307431 0.26480573 1.626
-0.34873828 0.26511544 1.626
-0.33139428 0.26428953 1.626
-0.32458058 0.2669737 1.626
-0.31590858 0.26387659 1.626
-0.30506858 0.26016 1.626
-0.29345429 0.26093429 1.626
-0.28184 0.26325715 1.626
-0.27564573 0.26016 1.626
-0.34466776 0.27476084 1.6260002
-0.33449146 0.27564573 1.6260002
-0.32520002 0.27564573 1.6260002
-0.31900573 0.27409714 1.626
-0.32210287 0.28493714 1.626
-0.31776685 0.28555658 1.626
-0.33294284 0.29732573 1.626
-0.32475755 0.29511347 1.6260002
-0.31797335 0.2931962 1.626
-0.34223431 0.30661714 1.626
-0.33371714 0.30584288 1.6260002
-0.32520002 0.30506861 1.626
-0.31797335 0.30351999 1.626
-0.28261429 0.30739143 1.626
-0.34223428 0.31590855 1.626
-0.3344914 0.31590855 1.6260002
-0.32481286 0.31590858 1.6260002
-0.28493714 0.31590858 1.6260002
-0.34068573 0.32520002 1.626
-0.33526573 0.32365143 1.626
-0.32468385 0.32519999 1.626
-0.31797335 0.32726479 1.626
-0.2931962 0.32726479 1.626
-0.28493714 0.32519999 1.6260002
-0.32365143 0.33294284 1.626
-0.31590858 0.33397523 1.626
-0.30573225 0.33626124 1.6260002
-0.29384142 0.33487856 1.6260002
-0.28537959 0.33360651 1.6260002
-0.30352002 0.34068573 1.626
-0.28390476 0.34275046 1.626
-0.25396574 0.34997717 1.626
-0.24777144 0.34997717 1.626
-0.23744762 0.34894478 1.626
-0.22764 0.34842861 1.626
-0.21989715 0.34842861 1.626
-0.27564573 0.35462284 1.626
-0.26387656 0.35864916 1.626
-0.25396571 0.35705635 1.6260002
-0.2446743 0.35655862 1.6260002
-0.23577 0.35655856 1.6260002
-0.22733028 0.35741028 1.626
-0.21886475 0.35720381 1.626
-0.26170856 0.36236572 1.626
-0.25396574 0.36236572 1.626
-0.24622287 0.36236572 1.626
-0.23538287 0.36236572 1.626
-0.2143223 0.36422402 1.626
-0.20750858 0.36546287 1.626
-0.19357143 0.36856002 1.626
-0.18520916 0.36732119 1.626
-0.17602096 0.36649525 1.626
-0.16414857 0.36701143 1.626
-0.15640572 0.36856002 1.626
-0.13317715 0.36856002 1.626
-0.094462857 0.36856002 1.626
-0.15382478 0.37268957 1.626
-0.14618516 0.37351543 1.626
-0.13406204 0.37342697 1.6260002
-0.12450515 0.37289602 1.626
-0.11536857 0.37320575 1.626
-0.084507763 0.37475434 1.6260002
-0.074331433 0.37785146 1.626
-0.052651431 0.37785146 1.626
-0.044908572 0.37785146 1.626
-0.034068573 0.37785146 1.626
-0.080525719 0.38249713 1.626
-0.074331433 0.38404572 1.6260002
-0.065040007 0.38404572 1.6260002
-0.056135722 0.38365859 1.6260002
-0.044908572 0.38404569 1.626
-0.034455713 0.38365853 1.6260002
-0.062562287 0.39395657 1.626
-0.056780953 0.39591813 1.626
-0.046457142 0.39488572 1.6260002
-0.035100952 0.39385334 1.626
-0.06194286 0.40417716 1.626
-0.055748574 0.40572572 1.6260002
-0.049554288 0.40572572 1.626
-0.06271714 0.41579145 1.626
-0.055748574 0.41501716 1.6260002
-0.048521906 0.41295239 1.626
-0.027874287 0.4181143 1.626
-0.063491434 0.42121145 1.626
-0.056368001 0.4224503 1.626
-0.043360002 0.4243086 1.626
-0.033449143 0.42616686 1.626
-0.027874287 0.42585719 1.626
-0.071234286 0.4351486 1.626
-0.062975235 0.43463242 1.626
-0.042740569 0.43576804 1.6260002
-0.034378286 0.43421945 1.6260002
-0.025293335 0.43618098 1.626
-0.015872858 0.43708432 1.6260002
-0.073092572 0.44660801 1.626
-0.064597555 0.44687349 1.6260002
-0.055748574 0.4459886 1.6260002
-0.045218285 0.44351086 1.626
-0.024002858 0.4452143 1.626
-0.016260002 0.44366574 1.626
-0.07329905 0.45321524 1.626
-0.06504 0.45218286 1.626
-0.057297148 0.45218286 1.626
-0.024777144 0.45528004 1.626
-0.041295242 0.46353903 1.626
-0.034068573 0.46766859 1.626
-0.026635429 0.46457142 1.626
-0.018582858 0.46457148 1.626
-0.040262859 0.47076574 1.626
-0.024260953 0.47386289 1.626
-0.015872858 0.47425002 1.6260002
-0.0055748574 0.47572112 1.626
0 0.47696 1.626
-0.023007348 0.48403922 1.6260002
-0.015485716 0.48470286 1.626
-0.006194286 0.48470286 1.626
0.001769796 0.48625144 1.6260002
-0.022454288 0.49476859 1.626
-0.015485715 0.49554288 1.6260002
-0.006194286 0.49554288 1.6260002
0.0046457145 0.49554291 1.626
0.015485715 0.49593008 1.6260002
0.021680001 0.49864003 1.626
0.03097143 0.4939943 1.626
-0.021680003 0.50483429 1.626
-0.016001904 0.50431806 1.626
-0.0092914291 0.50173718 1.626
0.0046457145 0.50483435 1.626
0.015485715 0.50483429 1.6260002
0.021680003 0.50483435 1.626
-0.014711429 0.51490003 1.626
-0.003097143 0.51412576 1.626
0.0037165717 0.513816 1.6260002
0.016001904 0.51309329 1.626
0.024260953 0.51360953 1.626
0.034068573 0.5141257 1.626
-0.013420953 0.52393335 1.626
-0.006194286 0.5249657 1.626
0.0043360004 0.52527547 1.6259999
0.015485716 0.52589494 1.6260002
0.024777144 0.525388 1.6260002
0.032741226 0.5256294 1.6260002
-0.013420953 0.53477335 1.626
-0.0051619052 0.53477341 1.626
0.0041295239 0.53477335 1.6260002
0.015485715 0.53580576 1.6260002
0.024777144 0.5358057 1.6260002
0.033681434 0.53619289 1.6260002
0.044289146 0.53642517 1.6260002
0.053890288 0.53642511 1.626
0.023228573 0.542 1.626
0.032520004 0.542 1.626
0.13472572 0.54509717 1.626
0.78432006 0.018674286 1.6340001
0.77705783 0.026973968 1.6340002
0.78276384 0.023342857 1.6340001
0.76875812 0.037348572 1.6340001
0.77290797 0.034236189 1.6340002
0.76875812 0.044610798 1.6340002
-0.42224637 0.063285083 1.6340002
-0.41705906 0.062247623 1.6340001
-0.40564701 0.067434929 1.6340002
-0.38904762 0.068472385 1.6340001
0.76564574 0.063803814 1.6340001
-0.42120889 0.072622217 1.6340002
-0.41439131 0.075586393 1.6339999
-0.40460953 0.074697137 1.6339999
-0.39527243 0.075586393 1.6339999
-0.38637993 0.075586393 1.6339999
-0.3773762 0.077031434 1.6340001
0.76875812 0.074697144 1.6340002
-0.43884572 0.084034286 1.6340001
-0.41207924 0.084656768 1.6340001
-0.40505412 0.08314503 1.6339999
-0.39488336 0.083645239 1.6339999
-0.38593525 0.084034286 1.6339999
-0.37784305 0.082789347 1.6340001
0.76797998 0.083256193 1.6340001
-0.43884572 0.091815241 1.6340001
-0.41083431 0.093371429 1.6340002
-0.40489244 0.095069095 1.6340001
-0.39410526 0.095316678 1.6339999
-0.38593528 0.094927631 1.6340002
-0.37908801 0.094616391 1.6340001
0.76875812 0.090259053 1.6340001
-0.40460953 0.10348667 1.6340001
-0.39605051 0.10348667 1.6340001
-0.3848978 0.1047835 1.6339999
-0.37971053 0.10582095 1.6340002
0.76564574 0.10893334 1.6340001
-0.40772191 0.11671429 1.6340001
0.76564574 0.1151581 1.6340002
-0.40772191 0.12138286 1.6340001
-0.39838478 0.12760763 1.6340001
0.76564574 0.12449525 1.6340001
-0.40149716 0.13072 1.6340001
-0.3952724 0.13072 1.6340002
0.7672019 0.13227619 1.6340001
-0.39838478 0.14316952 1.6340001
0.76875812 0.14316952 1.6340002
-0.40149716 0.15873143 1.6340001
-0.39838478 0.15717524 1.6340001
0.77187049 0.15717524 1.6340001
0.77187049 0.1649562 1.6340001
0.77187043 0.17429334 1.6340002
0.77187049 0.18051811 1.6340001
0.52754855 0.19919239 1.6340001
0.5337733 0.19919239 1.6340001
0.5913524 0.19919239 1.6340001
0.61158288 0.19919239 1.6340001
0.77187049 0.1976362 1.6340001
0.035792381 0.20852953 1.6340001
0.056022856 0.20852953 1.6340002
0.065360002 0.20852953 1.6340002
0.075734608 0.20645462 1.6339999
0.084923543 0.20586178 1.6339999
0.092593342 0.20775144 1.6340001
0.30345714 0.20852953 1.6340001
0.32835621 0.20852953 1.6340001
0.33302477 0.20852953 1.6340001
0.35792384 0.20852953 1.6340001
0.36103621 0.20541716 1.6340001
0.38593525 0.20852953 1.6340001
0.39682859 0.20541716 1.6340001
0.40616572 0.20541716 1.6340001
0.41394669 0.20541716 1.6340001
0.42172763 0.20541716 1.6340001
0.43728954 0.20541716 1.6340001
0.44818288 0.20541716 1.6340001
0.45129526 0.20541716 1.6340001
0.46996954 0.20541716 1.6340001
0.47619429 0.20334224 1.6340002
0.48553145 0.20230477 1.6340002
0.49486861 0.20230477 1.6340002
0.50264955 0.20230477 1.6340001
0.60380191 0.20230477 1.6340001
0.64426291 0.20541716 1.6340001
0.76875812 0.20852953 1.6340001
0.77187049 0.20230477 1.6340001
-0.15406287 0.21786667 1.6340001
-0.14472571 0.21786667 1.6340001
-0.13538858 0.21786667 1.6340001
-0.1151581 0.21786667 1.6340002
-0.10582095 0.21786667 1.6340002
-0.07625334 0.21786667 1.6340001
-0.065360002 0.21786667 1.6340002
-0.056800958 0.21708858 1.6340001
-0.045129526 0.21786667 1.6340001
-0.034236189 0.21786667 1.6340002
-0.023342859 0.21164191 1.6340001
-0.015561906 0.21164191 1.6340002
-0.0062247622 0.21164191 1.6340001
0.0041498416 0.21164191 1.6340002
0.015561906 0.21164191 1.6340002
0.021786667 0.21164191 1.6340001
0.08714667 0.21164191 1.6340001
0.099596195 0.21164191 1.6340001
0.10426477 0.21164191 1.6340001
0.1151581 0.21164191 1.6340002
0.12293906 0.2131981 1.6340001
0.1462819 0.21786667 1.6340002
0.25521526 0.21786667 1.6340002
0.27388954 0.21164191 1.6340001
0.28633907 0.21267937 1.6340002
0.29489809 0.2131981 1.6340001
0.32368764 0.21164191 1.6340001
0.33924952 0.21164191 1.6340001
0.76875812 0.21164191 1.6340001
0.77187043 0.21475428 1.6340002
-0.28011429 0.22720382 1.6340001
-0.27388954 0.22720382 1.6340001
-0.26455238 0.2272038 1.6340002
-0.25521526 0.22564761 1.6339999
-0.24743429 0.22409144 1.6340001
-0.23342858 0.22409146 1.6340002
-0.22346894 0.22533639 1.6340001
-0.21553239 0.22642574 1.6340001
-0.20541714 0.22564763 1.6339999
-0.19608001 0.22564763 1.6339999
-0.18540898 0.22542532 1.6339999
-0.17507143 0.22486952 1.6340001
-0.1649562 0.22253525 1.6339999
-0.15639715 0.22175714 1.6340001
-0.14410324 0.22346894 1.6340001
-0.13486986 0.22357272 1.6339999
-0.12371715 0.22331335 1.6340001
-0.1151581 0.22097905 1.6340002
-0.10582095 0.22097905 1.6340002
-0.094260685 0.22231294 1.6339999
-0.084034294 0.22097905 1.6340002
-0.074697144 0.22097905 1.6340002
0.15561906 0.22097905 1.6340002
0.1649562 0.22097905 1.6340002
0.17118096 0.22409144 1.6340001
0.18051811 0.22409144 1.6340001
0.21631049 0.22720382 1.6340001
0.22253525 0.22564763 1.6340001
0.23031619 0.22097905 1.6340001
0.77187049 0.22097905 1.6340001
-0.29463875 0.23602223 1.6339999
-0.28556097 0.23498477 1.6340002
-0.26662731 0.23135364 1.6340002
-0.21553238 0.23109427 1.6340001
-0.20852953 0.23031619 1.6340001
0.19608001 0.23342858 1.6340001
-0.36181429 0.2458781 1.6340001
-0.35525608 0.24587809 1.6339999
-0.34485182 0.24525562 1.6340001
-0.33613715 0.2474343 1.6339999
-0.32306516 0.2458781 1.6340001
-0.31435049 0.24587809 1.6339999
-0.30501333 0.24626713 1.6339999
-0.29656547 0.24632275 1.6339999
-0.2854498 0.2458781 1.6339999
-0.27544573 0.2458781 1.6340001
-0.36103621 0.25210285 1.6340001
-0.35429272 0.25521526 1.6339999
-0.34858668 0.25210285 1.6340001
-0.33551466 0.25334781 1.6340001
-0.32485479 0.25599334 1.6339999
-0.31435049 0.25521529 1.6339999
-0.30656955 0.25210285 1.6340001
-0.29515746 0.25417778 1.6339999
-0.28633907 0.25521526 1.6339999
-0.36103621 0.26455238 1.6340002
-0.35714576 0.26377431 1.6340001
-0.32576257 0.26455238 1.6339999
-0.31746286 0.26144001 1.6340001
-0.28633904 0.26144001 1.6340002
-0.35533014 0.27440825 1.6339999
-0.32991239 0.27388954 1.6340001
-0.35481143 0.28384915 1.6340001
-0.34578553 0.28478286 1.6340001
-0.33582589 0.28571656 1.6340001
-0.32835621 0.28633904 1.6339999
-0.35377398 0.29619494 1.6339999
-0.3454743 0.2956762 1.6339999
-0.33658177 0.29478696 1.6339999
-0.32835621 0.29256383 1.6340001
-0.35169905 0.30501336 1.6340001
-0.34591892 0.30412412 1.6339999
-0.33717462 0.30293843 1.6340002
-0.34671924 0.31310552 1.6340001
-0.33924952 0.31123811 1.6340001
-0.34599304 0.32524383 1.6339999
-0.33551466 0.32804498 1.6340001
-0.32991239 0.32835621 1.6340001
-0.34391811 0.33613715 1.6339999
-0.33613715 0.33613718 1.6339999
-0.32680002 0.33769333 1.6339999
-0.31746286 0.33924952 1.6340001
-0.34236193 0.34236193 1.6340001
-0.32368761 0.3454743 1.6339999
-0.31331301 0.34443685 1.6339999
-0.30501333 0.34586334 1.6339999
-0.29567617 0.3454743 1.6339999
-0.288414 0.3475492 1.6340002
-0.32431012 0.35294405 1.6340001
-0.28478286 0.35325527 1.6340001
-0.28011429 0.36103621 1.6340001
-0.27388954 0.36362985 1.6339999
-0.26533049 0.36648285 1.6340001
-0.25365907 0.36570477 1.6340001
-0.24510001 0.36648285 1.6340001
-0.23476245 0.36592707 1.6339999
-0.22331335 0.3649267 1.6340001
-0.25210285 0.37037334 1.6340001
-0.24650058 0.3716183 1.6340001
-0.23654096 0.37224078 1.6340001
-0.20230477 0.37192953 1.6340001
-0.19652463 0.37437496 1.6339999
-0.18518668 0.37659812 1.6340002
-0.1753308 0.37400445 1.6339999
-0.16451158 0.37393036 1.6339999
-0.15613778 0.37763557 1.6339999
-0.14472571 0.3797105 1.6340001
-0.1338324 0.37971053 1.6340002
-0.12371715 0.37893242 1.6340001
-0.11438 0.37893242 1.6340001
-0.10737714 0.3750419 1.6340001
-0.094705306 0.37570885 1.6339999
-0.08714667 0.3797105 1.6340001
-0.18518667 0.38437906 1.6340001
-0.15250668 0.38593522 1.6340002
-0.14430131 0.38565233 1.6340001
-0.1338324 0.38593525 1.6339999
-0.12449524 0.38593525 1.6339999
-0.1151581 0.38593525 1.6339999
-0.10768838 0.38655773 1.6340001
-0.090259053 0.38437906 1.6340001
-0.084553026 0.38593522 1.6339999
-0.052910477 0.38904762 1.6340001
-0.19296761 0.3952724 1.6340002
-0.18829906 0.3952724 1.6339999
-0.14213206 0.39423493 1.6340002
-0.13344334 0.39488336 1.6339999
-0.12449525 0.3952724 1.6339999
-0.1151581 0.39527243 1.6339999
-0.10582095 0.3952724 1.6339999
-0.094927631 0.3952724 1.6340002
-0.083645247 0.39488333 1.6339999
-0.074697137 0.39527237 1.6339999
-0.067227438 0.39589486 1.6340001
-0.054777909 0.39464992 1.6340001
-0.049798097 0.3952724 1.6340001
-0.19400509 0.40357208 1.6340002
-0.18881778 0.4025346 1.6340002
-0.14472571 0.40383145 1.6340001
-0.13331366 0.40357208 1.6339999
-0.12410621 0.40422046 1.6339999
-0.1151581 0.4046095 1.6339999
-0.10582095 0.40460953 1.6339999
-0.094927616 0.40460956 1.6340002
-0.084423333 0.40422052 1.6339999
-0.073659681 0.40357208 1.6339999
-0.066916198 0.40460953 1.6339999
-0.05602286 0.40149716 1.6340001
-0.16184382 0.41705906 1.6340001
-0.15561906 0.41550285 1.6340001
-0.14706001 0.4147248 1.6340001
-0.1241062 0.41433573 1.6339999
-0.1151581 0.41394669 1.6339999
-0.10582095 0.41394663 1.6339999
-0.094927631 0.41394666 1.6340002
-0.08714667 0.4123905 1.6340001
-0.072362855 0.4147248 1.6340001
-0.066249259 0.41350207 1.6339999
-0.17491582 0.42764115 1.6340001
-0.16464496 0.42577377 1.6340001
-0.15561907 0.42483997 1.6340002
-0.14731938 0.42535877 1.6339999
-0.13279492 0.42847112 1.6340002
-0.12449524 0.42441559 1.6340001
-0.1151581 0.42484006 1.6340002
-0.10582095 0.42483997 1.6340002
-0.09622445 0.42458066 1.6340002
-0.074697144 0.42484009 1.6340002
-0.066138104 0.42639625 1.6339999
-0.18363048 0.43573335 1.6340002
-0.17429334 0.43573335 1.6339999
-0.16433373 0.43386593 1.6340001
-0.15613778 0.43469587 1.6339999
-0.1478381 0.43417716 1.6340001
-0.13072 0.43417716 1.6340001
-0.12345779 0.43521461 1.6339999
-0.1151581 0.43573332 1.6339999
-0.10582095 0.43573335 1.6339999
-0.097728759 0.43697828 1.6340001
-0.075586393 0.4352887 1.6339999
-0.067694291 0.43573335 1.6340001
-0.17740571 0.44507051 1.6340001
-0.12216096 0.44429237 1.6340001
-0.1151581 0.44507048 1.6339999
-0.10582095 0.44507048 1.6339999
-0.096483819 0.44595978 1.6339999
-0.084034294 0.44818291 1.6340002
-0.075215876 0.44403303 1.6339999
-0.066916198 0.44351429 1.6340001
-0.044610798 0.44818291 1.6340002
-0.033847146 0.44545954 1.6339999
-0.028011432 0.44507051 1.6340002
-0.12138286 0.45285144 1.6340001
-0.1151581 0.45440769 1.6339999
-0.10582095 0.45440763 1.6339999
-0.094927631 0.45440766 1.6340002
-0.084034286 0.45440763 1.6339999
-0.07625334 0.45518574 1.6340001
-0.065360002 0.45752001 1.6340002
-0.055244762 0.45674193 1.6340001
-0.045129523 0.45440766 1.6340002
-0.034236193 0.45440763 1.6339999
-0.028011432 0.4544076 1.6340002
-0.15717524 0.46452287 1.6340001
-0.14939429 0.46374479 1.6340001
-0.1159362 0.46296668 1.6340001
-0.10465381 0.46413383 1.6339999
-0.094927624 0.46530095 1.6340003
-0.08434552 0.46436724 1.6340001
-0.074697137 0.46374476 1.6339999
-0.06536001 0.46374479 1.6339999
-0.055739913 0.46487653 1.6340001
-0.045967467 0.46518123 1.6340002
-0.034236189 0.46487647 1.6340001
-0.02801143 0.46063238 1.6340001
-0.14472571 0.4793067 1.6340001
-0.13383238 0.47619432 1.6340001
-0.10270858 0.47308192 1.6340001
-0.094927616 0.47308192 1.6340001
-0.063285083 0.47826922 1.6340002
-0.056022856 0.47619426 1.6339999
-0.045648254 0.47584853 1.6339999
-0.034236193 0.47619432 1.6339999
-0.02801143 0.47775048 1.6340001
-0.15250668 0.48553145 1.6340002
-0.14472573 0.48553142 1.6340002
-0.13538858 0.48553145 1.6340001
-0.10270858 0.48397526 1.6340001
-0.093371436 0.48397526 1.6340001
-0.064470753 0.48553148 1.6339999
-0.056022864 0.48553145 1.6339999
-0.046685714 0.48708764 1.6339999
-0.033791568 0.48553148 1.6339999
-0.028011432 0.48553145 1.6340002
-0.15250668 0.4917562 1.6340001
-0.14576317 0.49279368 1.6339999
-0.1047835 0.49590603 1.6340002
-0.071584761 0.49642479 1.6340001
-0.064737529 0.49362358 1.6340001
-0.057579048 0.49331236 1.6340001
-0.049798097 0.4917562 1.6340001
-0.034236193 0.49331236 1.6340001
-0.026455238 0.4940905 1.6340001
-0.10582095 0.50264955 1.6339999
-0.093816057 0.50509495 1.6339999
-0.08714667 0.50731814 1.6340001
-0.054466669 0.5042057 1.6340001
-0.049798097 0.5042057 1.6340001
-0.024899049 0.5042057 1.6340002
-0.090259053 0.51509905 1.6340001
-0.084923543 0.51709992 1.6339999
-0.077809528 0.51821148 1.6340001
-0.052910477 0.51976764 1.6340001
-0.023342857 0.51354289 1.6340001
-0.018674286 0.51509905 1.6340001
-0.090259053 0.52599239 1.6340002
-0.084812388 0.52365816 1.6340001
-0.07625334 0.52521431 1.6340001
-0.065360002 0.52599239 1.6340001
-0.054466669 0.52288002 1.6340001
-0.024899049 0.52910477 1.6340001
-0.015561906 0.52910477 1.6340001
-0.14005715 0.53532952 1.6340001
-0.13694477 0.53532952 1.6340001
-0.090259053 0.5337733 1.6340001
-0.077809528 0.53221714 1.6340001
-0.049798097 0.53688574 1.6340001
-0.024120953 0.53610766 1.6340001
-0.016599366 0.53429204 1.6340002
-0.009337143 0.5384419 1.6340001
0.009337143 0.54155433 1.6340001
0.77549618 0.026632063 1.645
0.76922953 0.037600003 1.645
0.77292573 0.032571428 1.6442
-0.42088765 0.047114287 1.649
-0.41421309 0.04436595 1.649
-0.404531 0.043898836 1.6463333
-0.39593226 0.043043263 1.6478573
-0.38712239 0.045543812 1.649
-0.36278003 0.047114287 1.649
-0.35806859 0.047114287 1.649
0.76922959 0.043866668 1.645
-0.422474 0.055347938 1.645
-0.41549867 0.055373907 1.6426001
-0.40478009 0.054700002 1.6410003
-0.39415875 0.054740634 1.6423335
-0.38433111 0.054539807 1.6458001
-0.37413123 0.05531602 1.6468182
-0.36455825 0.055284545 1.6477693
-0.35427114 0.055243984 1.6446365
-0.34864572 0.056537148 1.649
0.76922953 0.054833334 1.645
-0.42370415 0.067835562 1.6436666
-0.41558266 0.066068813 1.642
-0.40391174 0.064945392 1.6409999
-0.39423075 0.065249287 1.6409999
-0.38446286 0.065640002 1.6409999
-0.37427604 0.06598372 1.6424545
-0.36583212 0.065374151 1.6455715
-0.35548219 0.065773338 1.6443334
-0.34864572 0.065960005 1.649
0.76938146 0.066661432 1.6470001
-0.4347443 0.077548094 1.645
-0.4257223 0.07689257 1.641
-0.41415715 0.071891434 1.641
-0.40009144 0.071891434 1.641
-0.39384001 0.071891434 1.641
-0.38446286 0.071891434 1.6410002
-0.37413833 0.073888816 1.642
-0.36531788 0.075407855 1.6409999
-0.35519525 0.07510858 1.6430001
-0.34864572 0.075382859 1.649
0.76922959 0.075199999 1.645
-0.44072574 0.087520003 1.641
-0.43396035 0.084602535 1.645
-0.42387971 0.084465407 1.6423331
-0.41806433 0.083612859 1.641
-0.37463924 0.085287347 1.6409999
-0.36570859 0.084394284 1.6409999
-0.35505304 0.084461592 1.6423334
-0.34864572 0.08480572 1.649
0.76929033 0.085266292 1.6458
-0.43448529 0.093378209 1.6463333
-0.42492601 0.094677284 1.649
-0.41697031 0.093146287 1.641
-0.37469503 0.093771435 1.6409999
-0.36570859 0.093771435 1.6409999
-0.35491082 0.093810797 1.6416668
-0.34864572 0.094228573 1.649
0.7690776 0.094670959 1.6429999
-0.43659243 0.10469842 1.649
-0.42455667 0.10515524 1.6480001
-0.41543582 0.10513768 1.641
-0.40530097 0.10835809 1.6409999
-0.39384004 0.10783714 1.6409999
-0.38758859 0.1094 1.641
-0.37508571 0.10471142 1.6410002
-0.36506587 0.10523306 1.642143
-0.35520354 0.10459687 1.646143
-0.34864572 0.10051048 1.649
0.76873958 0.10425714 1.6444285
-0.43109572 0.11543 1.649
-0.42422509 0.1158419 1.6436667
-0.41572002 0.11565142 1.6409999
-0.4038423 0.11533885 1.641
-0.39384001 0.11565144 1.6409999
-0.38446286 0.11565144 1.6409999
-0.37508571 0.11565144 1.6409999
-0.36458388 0.11579239 1.6430001
-0.3549276 0.11621524 1.649
-0.34864572 0.11464477 1.649
0.7658 0.11565143 1.6410002
-0.43135747 0.1256381 1.649
-0.42538613 0.12537906 1.6455715
-0.41572002 0.1250286 1.6409999
-0.40478 0.12502857 1.641
-0.39384004 0.12502858 1.6409999
-0.38446286 0.12502858 1.6409999
-0.37508571 0.12502858 1.6409999
-0.36489058 0.12485386 1.6424545
-0.35558689 0.12584828 1.6472223
0.76938146 0.12548572 1.6470001
-0.43135747 0.13296698 1.649
-0.42465678 0.13443276 1.6489999
-0.41558263 0.13409881 1.642
-0.40540519 0.13503084 1.641
-0.39339346 0.13529877 1.6409999
-0.38417405 0.13499187 1.6446365
-0.3744517 0.13405497 1.6421429
-0.36458382 0.13456953 1.643
-0.35728335 0.13427572 1.649
0.76929033 0.13542399 1.6458
-0.42088765 0.14291334 1.649
-0.41517046 0.14413333 1.645
-0.40520629 0.14378285 1.641
-0.39405167 0.14386244 1.6418889
-0.38461182 0.14442667 1.6483334
-0.37377334 0.1444838 1.649
-0.36355984 0.14417228 1.6454444
0.76912826 0.14192761 1.6436667
0.77267432 0.14762476 1.649
-0.42088765 0.15547715 1.649
-0.4146781 0.15524381 1.6409999
-0.40562156 0.15388133 1.6410002
-0.39431623 0.15490952 1.6430001
-0.38519499 0.15390667 1.649
-0.37426817 0.15416932 1.6481111
-0.36380243 0.15464905 1.6430001
-0.35771811 0.15563582 1.6474001
0.77236289 0.15353334 1.645
-0.43188095 0.16725573 1.649
-0.42521456 0.16538239 1.646
-0.41571999 0.16566285 1.6409999
-0.40478006 0.16566285 1.6410002
-0.39383999 0.16566285 1.6409999
-0.38450149 0.1640453 1.6450002
-0.37419659 0.16488056 1.6425998
-0.36570856 0.16566285 1.6409999
-0.35730514 0.16510807 1.6468183
0.77568763 0.16505258 1.6474001
-0.43100253 0.17428255 1.6436666
-0.42525113 0.17418317 1.6476668
-0.41488433 0.17529118 1.6470001
-0.4040404 0.17481431 1.6417999
-0.39383999 0.17504001 1.6409999
-0.38458437 0.17570002 1.6442
-0.37479371 0.17564039 1.6466
-0.3646051 0.17482117 1.6454444
0.77581525 0.17589335 1.649
-0.41146478 0.18531619 1.649
-0.40387747 0.18471685 1.6436666
-0.3942633 0.18461864 1.6427777
-0.38476673 0.18531619 1.649
-0.37324986 0.18426923 1.649
-0.36749145 0.18531621 1.649
0.77393335 0.18642953 1.645
-0.43135524 0.19607334 1.6470001
-0.42559904 0.19630952 1.649
-0.41460574 0.19473904 1.649
-0.40387744 0.19410922 1.6436667
-0.39426333 0.19400255 1.6427778
-0.38445303 0.19457906 1.6476668
-0.37377334 0.19473906 1.649
-0.36749145 0.19473904 1.649
0.52512002 0.19692001 1.641
0.53239143 0.19788 1.649
0.58578765 0.19788 1.649
0.5969038 0.1974 1.645
0.60521841 0.19756 1.6463333
0.61562669 0.19788 1.649
0.63604289 0.19788 1.649
0.77236289 0.19426668 1.645
-0.43188095 0.20416193 1.649
-0.42552519 0.20581089 1.6478571
-0.4155032 0.20371319 1.649
-0.40453386 0.20354427 1.6417273
-0.39383999 0.20473428 1.6410002
-0.38382921 0.20475188 1.6436669
-0.37421715 0.204688 1.6482
-0.36644447 0.20311493 1.649
-0.024250953 0.20889288 1.6429999
-0.014862381 0.20889287 1.6430001
-0.0056354287 0.20857486 1.6442
0.0040253061 0.20851429 1.6444285
0.015628571 0.20942287 1.6410002
0.025005713 0.20942287 1.6410002
0.034550477 0.20730287 1.649
0.046885718 0.20942287 1.641
0.053314924 0.20800954 1.6463333
0.065640002 0.20629714 1.641
0.071891434 0.20629714 1.641
0.095334291 0.20629714 1.641
0.12249715 0.20730287 1.649
0.28444001 0.20942287 1.641
0.29381716 0.20942287 1.641
0.30944574 0.20629714 1.641
0.31882286 0.20942287 1.641
0.32587048 0.20836288 1.645
0.33294097 0.20730287 1.649
0.36581096 0.20601477 1.6450001
0.37456077 0.20544305 1.6442
0.38162571 0.20573239 1.649
0.39511999 0.20592064 1.6463333
0.40262955 0.20522952 1.645
0.41259429 0.20629714 1.641
0.42088765 0.20730287 1.649
0.43082952 0.20680001 1.645
0.4454143 0.20629714 1.641
0.54564697 0.20069587 1.6463333
0.55280763 0.20102096 1.649
0.57479429 0.20102096 1.649
0.58436286 0.20053333 1.645
0.59701145 0.20004572 1.641
0.60629237 0.20053333 1.645
0.63574475 0.20250933 1.6458
0.64546573 0.20416191 1.649
0.65250003 0.20341906 1.6430001
0.77220714 0.20263381 1.6429999
-0.42559904 0.21044382 1.649
-0.41382051 0.21122906 1.649
-0.40455467 0.2117002 1.6489999
-0.39576003 0.21515524 1.649
-0.3838321 0.21620257 1.6450001
-0.37377334 0.21515523 1.649
-0.36749145 0.21044382 1.649
-0.27640381 0.21986668 1.649
-0.25598764 0.21986668 1.649
-0.22300763 0.21986668 1.649
-0.2182962 0.21986668 1.649
-0.17347714 0.21880001 1.641
-0.16566287 0.21880001 1.6410002
-0.15508857 0.21776286 1.645
-0.14569619 0.21620001 1.645
-0.13378429 0.21671857 1.6429999
-0.12527238 0.2179703 1.6442
-0.11307429 0.21672572 1.649
-0.10248905 0.21671858 1.6429999
-0.093520828 0.21701582 1.6444285
-0.084209293 0.21658692 1.645
-0.073055238 0.21706666 1.6436666
-0.065640002 0.2156743 1.6410002
-0.054313648 0.21462953 1.645
-0.043907303 0.21637525 1.6463333
-0.033821717 0.21483847 1.6442
-0.028131429 0.21254858 1.641
0.031409524 0.21044382 1.649
0.10508858 0.21097001 1.6470001
0.11621524 0.21044381 1.649
0.12532954 0.2114962 1.645
0.13506095 0.21358477 1.649
0.14570382 0.21620001 1.645
0.15490571 0.21828143 1.6430001
0.16332953 0.21986668 1.649
0.23871239 0.21986668 1.649
0.24342382 0.21986668 1.649
0.25005716 0.21880001 1.641
0.26698098 0.21672572 1.649
0.28582668 0.21044382 1.649
0.29453334 0.2114962 1.645
0.30153143 0.21044382 1.649
0.33922288 0.21044382 1.649
0.3439343 0.21044382 1.649
0.35492763 0.21044381 1.649
0.77393335 0.21776286 1.645
-0.38398954 0.22569017 1.6456667
-0.37336701 0.22590309 1.6472223
-0.3137143 0.22744095 1.6470001
-0.30411622 0.22651668 1.646
-0.294745 0.22584978 1.6439999
-0.28490224 0.22593556 1.6436666
-0.27433047 0.22416669 1.6460001
-0.26476669 0.22402954 1.645
-0.25474572 0.22192572 1.641
-0.24380572 0.22192572 1.6410002
-0.23518543 0.222647 1.6463333
-0.22578794 0.222647 1.6463333
-0.21546666 0.22360876 1.6442
-0.20497811 0.22219621 1.6429999
-0.19411428 0.22228636 1.6436666
-0.18441714 0.22192572 1.6410002
-0.17504001 0.22192572 1.6410002
-0.13128 0.22192572 1.641
-0.12659144 0.22192572 1.641
0.17568001 0.22351858 1.6470001
0.18845715 0.22928953 1.649
0.21986668 0.22614858 1.649
0.22541207 0.22333334 1.6436666
0.77738571 0.22457811 1.649
-0.38358879 0.23557143 1.649
-0.37377334 0.23557144 1.649
-0.36503714 0.23813334 1.645
-0.35519525 0.23784383 1.6429999
-0.34495112 0.23832636 1.6463333
-0.3349975 0.2363724 1.6436666
-0.32440329 0.23548272 1.6421427
-0.3154988 0.23496026 1.6419998
-0.30475718 0.23442863 1.6410002
-0.29277524 0.23234476 1.6410002
0.19441904 0.23205464 1.6463333
-0.41146478 0.24813525 1.649
-0.40518287 0.24656478 1.649
-0.37251693 0.24373791 1.6489999
-0.36644447 0.24290033 1.649
-0.35435876 0.24146223 1.6463333
-0.34320343 0.24193029 1.641
-0.33445144 0.24224286 1.6409999
-0.32611617 0.24276382 1.6409999
-0.31569716 0.24068002 1.6410002
-0.30506974 0.24130514 1.641
-0.29381716 0.24536857 1.641
-0.28756574 0.24536857 1.641
-0.41146478 0.25755811 1.649
-0.40518284 0.25567356 1.6489999
-0.37063238 0.25441715 1.649
-0.36526206 0.2554155 1.6409999
-0.35945717 0.25787145 1.641
-0.33132574 0.25161999 1.641
-0.32632458 0.25318289 1.641
-0.28756574 0.25005716 1.641
-0.41146478 0.26069906 1.649
-0.40518284 0.26258361 1.6489999
-0.39890096 0.26069906 1.649
-0.3716794 0.26384002 1.649
-0.36649001 0.26568574 1.641
-0.39680699 0.27535683 1.649
-0.38633716 0.27326286 1.649
-0.37063238 0.2716924 1.649
-0.36444291 0.27528891 1.6423331
-0.35945717 0.27506286 1.641
-0.36474001 0.28489968 1.6436666
-0.37141764 0.29524952 1.649
-0.36414576 0.29381716 1.6409999
-0.35758173 0.29381713 1.641
-0.34695429 0.29069144 1.641
-0.37063238 0.30467239 1.649
-0.36414573 0.30319431 1.6409999
-0.35672215 0.30632001 1.6409999
-0.36487401 0.31409526 1.649
-0.35543841 0.31525064 1.6409999
-0.36183771 0.32414627 1.6489999
-0.35434696 0.32574505 1.6421429
-0.36120954 0.33451146 1.649
-0.3539744 0.33517948 1.6445556
-0.35410833 0.34508762 1.6470001
-0.34382862 0.34570399 1.641
-0.33445144 0.34539142 1.6409999
-0.31882286 0.34695429 1.641
-0.35335714 0.35178667 1.649
-0.34448737 0.3538931 1.646
-0.33445144 0.35320574 1.6409999
-0.32429287 0.35867572 1.641
-0.31600973 0.35476854 1.641
-0.30493081 0.35528949 1.6409999
-0.29381716 0.35476854 1.6409999
-0.28600287 0.35945717 1.641
-0.34341082 0.36225653 1.649
-0.33608189 0.36278006 1.649
-0.32571393 0.36525336 1.6474001
-0.31409526 0.36120954 1.649
-0.3031019 0.36120954 1.649
-0.29462132 0.36246595 1.6489999
-0.28513715 0.36503336 1.645
-0.27506286 0.36883429 1.641
-0.25787145 0.36883429 1.641
-0.2266143 0.36883429 1.641
-0.27221587 0.37586728 1.649
-0.26531965 0.37357602 1.6425998
-0.25552714 0.37547648 1.6409999
-0.24318059 0.37696114 1.641
-0.23234476 0.37404382 1.6410002
-0.22466071 0.37469503 1.6409999
-0.21606502 0.37469503 1.6409999
-0.2071902 0.37553224 1.6409999
-0.17295618 0.37716952 1.6410002
-0.16722572 0.37821144 1.641
-0.10314857 0.3766486 1.641
-0.096897148 0.37821144 1.641
-0.27326286 0.38476667 1.6489999
-0.26446033 0.38361841 1.6463332
-0.25474572 0.38446283 1.6410002
-0.24459301 0.38571241 1.6463333
-0.23602016 0.38364491 1.649
-0.22548549 0.38469261 1.6470001
-0.21510305 0.38468707 1.6431819
-0.20476103 0.38503063 1.6446363
-0.194185 0.38485357 1.6409999
-0.18441714 0.38758859 1.6410002
-0.1746493 0.38485354 1.6409999
-0.16615644 0.38508978 1.6419998
-0.15784857 0.38602573 1.641
-0.10360593 0.38418138 1.6427778
-0.095334291 0.38446286 1.6409999
-0.27287024 0.39536741 1.649
-0.26477051 0.39480004 1.645
-0.25474575 0.39384004 1.6410002
-0.24419683 0.39448005 1.6436667
-0.23596406 0.39536741 1.649
-0.22644274 0.39459053 1.6478573
-0.21439642 0.39428976 1.6472222
-0.20361672 0.39469168 1.6445556
-0.19613859 0.39305857 1.641
-0.18365034 0.39366993 1.6421429
-0.17628595 0.39536741 1.649
-0.16377823 0.39531133 1.649
-0.15393928 0.39405504 1.6418889
-0.14378287 0.39618433 1.641
-0.10158572 0.39071429 1.641
-0.093771435 0.39071429 1.6410002
-0.087520003 0.39071429 1.641
-0.2716924 0.40518287 1.649
-0.26507849 0.40482822 1.6450001
-0.25459978 0.40493897 1.6420668
-0.24572071 0.40562165 1.6460001
-0.23431504 0.4051829 1.6489999
-0.21313606 0.40428543 1.649
-0.2027003 0.4039996 1.6427777
-0.19504459 0.40634289 1.641
-0.18377662 0.40422535 1.6432858
-0.17628595 0.40557548 1.649
-0.1624321 0.40563157 1.649
-0.15393159 0.40589556 1.6440771
-0.14333633 0.40500328 1.6409999
-0.13596857 0.40634286 1.641
-0.12815429 0.40946859 1.641
-0.084394291 0.40478003 1.641
-0.077100955 0.40842667 1.6410002
-0.2701219 0.41146478 1.649
-0.26384002 0.41460571 1.6489999
-0.25380385 0.41438526 1.645
-0.2449943 0.41303527 1.649
-0.23557143 0.41146478 1.649
-0.22928953 0.41146478 1.649
-0.20290554 0.41523391 1.6489999
-0.19375977 0.41608742 1.6440001
-0.1854369 0.41537657 1.6475456
-0.17560889 0.4154968 1.6463333
-0.16590515 0.41475755 1.6434
-0.15449961 0.4143804 1.6409999
-0.14222001 0.41572002 1.6409999
-0.13440572 0.41572002 1.6409999
-0.12815429 0.41259429 1.641
-0.083501227 0.41616654 1.6409999
-0.07689257 0.41509485 1.641
-0.26305479 0.42167288 1.649
-0.25651112 0.42298159 1.649
-0.20259142 0.42559904 1.649
-0.19411428 0.42474097 1.6436666
-0.18419297 0.42467624 1.6417999
-0.17504001 0.4235343 1.6409999
-0.16722572 0.42197144 1.641
-0.14222001 0.42509714 1.6409999
-0.1344057 0.4247064 1.6409999
-0.09168762 0.42613909 1.6410002
-0.084394291 0.42509714 1.6409999
-0.25441715 0.43031049 1.649
-0.20206793 0.43449843 1.649
-0.19439487 0.43448153 1.6434
-0.18441714 0.43402776 1.6409999
-0.17191429 0.43134859 1.641
-0.16878858 0.43760002 1.641
-0.15628572 0.43760002 1.641
-0.14190742 0.43509942 1.641
-0.13628113 0.43509942 1.641
-0.12607048 0.43551621 1.6410002
-0.093324907 0.43536738 1.6409999
-0.084394284 0.43447429 1.6409999
-0.24813525 0.44915619 1.649
-0.23557144 0.44915619 1.649
-0.22614856 0.44915619 1.649
-0.21986668 0.44915619 1.649
-0.20102096 0.44601527 1.649
-0.19442922 0.44529402 1.6463333
-0.18441714 0.44424215 1.6409999
-0.17441486 0.44510174 1.641
-0.16566285 0.44385144 1.6409999
-0.1547704 0.44551536 1.646091
-0.1444838 0.4460153 1.649
-0.1345547 0.444334 1.6427777
-0.12737286 0.44463286 1.641
-0.092729531 0.44489333 1.6409999
-0.084394291 0.44385147 1.6409999
-0.24185334 0.45229715 1.649
-0.23661841 0.45543814 1.649
-0.22300763 0.45543811 1.649
-0.21986668 0.45543811 1.649
-0.19301367 0.4550724 1.6476668
-0.18471685 0.45397016 1.6436666
-0.17523135 0.45372295 1.6427778
-0.16551334 0.45429865 1.6425998
-0.15560046 0.45523915 1.6465385
-0.14605428 0.45543814 1.649
-0.13498983 0.45519432 1.6481111
-0.12607048 0.45531237 1.6409999
-0.23400097 0.46486098 1.649
-0.22569989 0.46575835 1.649
-0.21986668 0.46329051 1.649
-0.19411087 0.4629764 1.6489999
-0.18531621 0.46486098 1.649
-0.17589334 0.4629764 1.6489999
-0.16636954 0.46536049 1.6480001
-0.15441975 0.46553668 1.6453637
-0.14472629 0.46526057 1.6482
-0.13499543 0.4652606 1.6482
-0.12502858 0.46573147 1.6409999
-0.11502628 0.46635658 1.641
-0.1094 0.46729431 1.641
-0.22300763 0.47271335 1.649
-0.18688667 0.47114289 1.649
-0.17275238 0.47271335 1.649
-0.16529262 0.47467646 1.649
-0.1527693 0.47471789 1.6409999
-0.1436871 0.47459671 1.6431817
-0.13453677 0.47431546 1.6426001
-0.12458205 0.47421554 1.6409999
-0.11611072 0.47500741 1.642
-0.10582776 0.47555512 1.6409999
-0.093771435 0.47823429 1.6410002
-0.084394284 0.47458765 1.6409999
-0.074626431 0.47471789 1.6409999
-0.066030718 0.47471792 1.6409999
-0.059388574 0.47198287 1.641
-0.16420043 0.48527411 1.6472223
-0.15599024 0.48360503 1.642
-0.14065714 0.48136002 1.641
-0.13378057 0.48386058 1.641
-0.12565075 0.48463324 1.6453637
-0.11555829 0.48480231 1.6442
-0.10556312 0.48427188 1.6431819
-0.093771435 0.48403925 1.6409999
-0.084255584 0.48420241 1.6439093
-0.075405911 0.48433143 1.6425998
-0.068765715 0.48292288 1.641
-0.044150718 0.48487645 1.6409999
-0.035945714 0.48761144 1.641
-0.22300763 0.49941143 1.649
-0.16411048 0.49419776 1.6442
-0.15717877 0.49430943 1.6409999
-0.14222001 0.49698859 1.641
-0.13425693 0.49516025 1.6439999
-0.12502262 0.494975 1.646
-0.11577503 0.49439451 1.6427778
-0.10489783 0.49408311 1.6417273
-0.093874715 0.49440131 1.6427778
-0.084482327 0.49439621 1.6427778
-0.075455479 0.49377123 1.642
-0.068765715 0.49230003 1.641
-0.052095238 0.49594668 1.6410002
-0.043760002 0.4954257 1.6409999
-0.034382857 0.49542573 1.641
-0.1609738 0.50490808 1.649
-0.1534089 0.50406289 1.6436667
-0.14424679 0.504879 1.6463333
-0.13694552 0.50506514 1.6489999
-0.12386953 0.5048781 1.6463333
-0.11533886 0.50386518 1.641
-0.10314857 0.50597501 1.6409999
-0.093146294 0.50136459 1.641
-0.084110126 0.50437665 1.641
-0.075369179 0.505678 1.6424545
-0.06564001 0.50480288 1.6410002
-0.05548143 0.50402153 1.6410002
-0.043854818 0.50433379 1.6445556
-0.034403175 0.50351435 1.6418889
-0.028131431 0.50324005 1.6410002
-0.19473906 0.51511621 1.649
-0.18845715 0.51511621 1.649
-0.1523362 0.51197523 1.649
-0.14526905 0.51276046 1.649
-0.13820191 0.51197523 1.649
-0.12474068 0.51511621 1.649
-0.11660786 0.51550883 1.649
-0.10496666 0.51543713 1.645
-0.095334291 0.51574284 1.6409999
-0.083144002 0.51449263 1.641
-0.074626431 0.51535213 1.6409999
-0.065640002 0.51574284 1.6409999
-0.054358099 0.51545298 1.6416155
-0.045229718 0.51385987 1.6489999
-0.033765242 0.51276052 1.649
-0.027452856 0.51605427 1.6470001
-0.12773207 0.52453905 1.649
-0.11621524 0.52139813 1.649
-0.10479359 0.52425349 1.649
-0.095334291 0.52512002 1.6409999
-0.082831427 0.52824575 1.641
-0.073766865 0.52512002 1.641
-0.065249287 0.52512002 1.6409999
-0.054873653 0.52546734 1.6409999
-0.044536002 0.52533847 1.6466
-0.037691429 0.52768004 1.649
-0.024132246 0.52548569 1.6421427
-0.018754287 0.52512002 1.6410002
-0.16018857 0.53710288 1.649
-0.15547715 0.53710288 1.649
-0.14378287 0.53658098 1.6410002
-0.13753143 0.53449714 1.641
-0.10384831 0.5343433 1.6475456
-0.095334291 0.5344972 1.6409999
-0.083711907 0.53280437 1.6430001
-0.07383696 0.53439313 1.6425998
-0.065639995 0.5344972 1.6409999
-0.055126235 0.53421307 1.641
-0.04348705 0.53438866 1.6425998
-0.034221992 0.53439063 1.6468182
-0.025491429 0.53434211 1.6432856
-0.018754287 0.53293431 1.641
-0.043826032 0.54162735 1.6436666
-0.035255715 0.54128146 1.645
-0.028131429 0.5407486 1.641
-0.018754287 0.5407486 1.641
0.0046885717 0.54387432 1.641
0.77484477 0.026827618 1.6570001
-0.42292953 0.034718096 1.6570001
-0.41582811 0.035901666 1.6569998
-0.40399241 0.037874289 1.6570001
-0.39294574 0.037874289 1.6570001
0.77326667 0.033140004 1.6570001
-0.42555967 0.04418667 1.6569999
-0.41977334 0.041030478 1.6570001
-0.39452383 0.046290796 1.6570001
-0.3842662 0.044975717 1.6570001
-0.3760376 0.045088436 1.6569998
-0.36690715 0.044975713 1.6570001
-0.35664955 0.046290796 1.6570001
0.77011043 0.044186667 1.6570001
-0.43239811 0.050499048 1.6570001
-0.42818987 0.051551115 1.6570001
-0.37558669 0.050499048 1.6570001
-0.35191524 0.050499048 1.6570001
-0.34718096 0.05681143 1.6570001
0.77011049 0.058389526 1.6570001
-0.43239811 0.0678581 1.6570001
-0.35033715 0.066280007 1.6570001
