# .PCD v0.7 - Point Cloud Data file format
VERSION 0.7
FIELDS x y z
SIZE 4 4 4
TYPE F F F
COUNT 1 1 1
WIDTH 1502
HEIGHT 1
VIEWPOINT 0 0 0 1 0 0 0
POINTS 1502
DATA ascii
0.86567008 0.12602362 1.7320001
0.87424767 0.12536381 1.7320002
0.84455621 0.13856001 1.7320001
0.85362858 0.13691048 1.7320001
0.8638792 0.13431837 1.7320002
0.87094861 0.13196191 1.7320001
0.84496856 0.14474572 1.7320002
0.85404104 0.14474574 1.7320002
0.86105144 0.14350858 1.7320001
0.8379581 0.1583543 1.7320001
0.84361362 0.15458395 1.7320002
0.84502751 0.16400981 1.7320002
0.85115433 0.16825144 1.7320001
0.84620571 0.17402476 1.7320001
0.85280389 0.17484953 1.7320002
0.8379581 0.1863962 1.7320001
0.84455621 0.18474668 1.7320002
0.85247391 0.18408686 1.7320001
0.2276343 0.19794287 1.7320001
0.23423238 0.19794287 1.732
0.24412954 0.19794287 1.732
0.25072762 0.19794287 1.7320001
0.83513033 0.1955864 1.7320002
0.84345657 0.19354413 1.7320002
0.85115433 0.19134477 1.7320001
0.13856001 0.20454095 1.7320001
0.14350858 0.20454095 1.7320001
0.15505524 0.20124191 1.7320001
0.1649524 0.20124191 1.7320001
0.17484953 0.20124191 1.732
0.18804573 0.20124191 1.7320001
0.19464381 0.20124191 1.732
0.21113905 0.20454095 1.7320001
0.83465904 0.20454097 1.7320002
0.8420819 0.20536573 1.7320001
0.10721906 0.21773715 1.7320001
0.11546667 0.21608762 1.7320001
0.12536381 0.21223874 1.732
0.82806098 0.21608762 1.7320001
0.8346591 0.21443811 1.7320002
0.84235686 0.21223874 1.732
0.82674134 0.22499506 1.7320001
0.83465904 0.22433525 1.7320002
0.087974608 0.23533209 1.732
0.82696134 0.23313272 1.732
0.83424664 0.23464477 1.7320002
0.84125715 0.2342324 1.7320001
0.084675558 0.24632891 1.732
0.82806093 0.24412954 1.732
0.83418781 0.24412952 1.7320002
0.079177149 0.25402668 1.732
0.08412572 0.25402668 1.7320002
0.8342467 0.25361431 1.7320002
0.079177149 0.26392382 1.732
0.08412572 0.26392382 1.7320002
0.82641149 0.26722288 1.7320001
0.83267963 0.26458365 1.7320001
0.078352384 0.27299619 1.7320001
0.083795808 0.27448076 1.7320001
0.8082667 0.27382097 1.7320001
0.81486481 0.2754705 1.7320002
0.82476193 0.27382097 1.7320002
0.83245975 0.27162158 1.732
0.078352392 0.28371811 1.7320001
0.082476191 0.28041905 1.7320001
0.8082667 0.28371811 1.732
0.81445241 0.28413048 1.7320002
0.82586163 0.28481779 1.732
0.079177149 0.29361525 1.732
0.8082667 0.29361525 1.732
0.81445241 0.29361525 1.7320002
0.82476193 0.29361525 1.7320002
0.079177149 0.30186287 1.7320001
0.082476191 0.30681145 1.7320001
0.79726982 0.30241272 1.732
0.80496758 0.30304113 1.7320002
0.81486481 0.30351236 1.7320002
0.82366228 0.30241272 1.7320002
0.082476191 0.31340954 1.732
0.80591017 0.31293824 1.7320002
0.81486481 0.31340954 1.7320002
0.083300956 0.32495618 1.7320001
0.78847241 0.32660574 1.7320001
0.79540044 0.32594591 1.7320001
0.80463773 0.32528612 1.7320001
0.81266546 0.32330665 1.732
0.08742477 0.33650285 1.7320001
0.79507047 0.33650285 1.7320002
0.8045553 0.33609051 1.7320002
0.089074291 0.34310097 1.7320001
0.093473017 0.34640002 1.732
0.79507047 0.34530032 1.732
0.80455524 0.3468124 1.7320002
0.098971434 0.35299811 1.7320001
0.10392 0.35794669 1.7320001
0.79754472 0.35547239 1.7320001
0.80496764 0.35629714 1.7320002
0.81321526 0.35959619 1.7320001
0.11876572 0.36619431 1.7320001
0.12536381 0.36949334 1.7320001
0.78407365 0.36839366 1.732
0.8082667 0.36784381 1.7320001
0.81392223 0.36572304 1.7320002
0.12756316 0.37609145 1.732
0.78476095 0.37650383 1.7320002
0.79441071 0.37807089 1.7320001
0.80496764 0.37664127 1.7320002
0.81266546 0.37389207 1.732
0.12618858 0.38516381 1.7320001
0.77857524 0.38433906 1.7320001
0.78517342 0.38598859 1.7320002
0.79507047 0.38598856 1.7320002
0.80249333 0.38516378 1.7320001
0.12338439 0.39522591 1.7320001
0.77857524 0.39423621 1.7320001
0.78564465 0.39494315 1.7320002
0.79507053 0.39494315 1.7320002
0.80166858 0.39258668 1.7320001
0.1237143 0.40578285 1.7320002
0.78649294 0.4071025 1.7320001
0.79412794 0.40578288 1.7320002
0.12338439 0.41502017 1.7320001
0.77857524 0.41403049 1.7320001
0.7851733 0.41567999 1.7320002
0.12206477 0.42557716 1.732
0.77637595 0.42502734 1.7320002
0.78385377 0.42425758 1.7320001
0.12536381 0.4361341 1.7320001
0.77568853 0.43588671 1.7320002
0.78187436 0.43547431 1.732
0.12866285 0.44537148 1.732
0.13196191 0.44867051 1.7320001
0.76757842 0.44317207 1.732
0.77433366 0.44584271 1.7320002
0.7818743 0.44702098 1.7320001
0.12866285 0.45526859 1.732
0.13278668 0.45609334 1.7320001
0.77568859 0.45568097 1.7320002
0.12866285 0.46516573 1.732
0.13196191 0.46516573 1.732
0.73788697 0.46296635 1.732
0.74558473 0.46516573 1.7320002
0.76702857 0.46846479 1.7320001
0.77486384 0.46475333 1.7320002
0.78682292 0.46186668 1.7320001
0.12866285 0.47506288 1.732
0.13196191 0.47836193 1.7320001
0.73898667 0.47506288 1.7320001
0.74558473 0.47506291 1.7320002
0.76537907 0.47506285 1.7320002
0.77362674 0.47506288 1.7320002
0.12866285 0.48166096 1.7320001
0.13196191 0.48495999 1.732
0.73898667 0.48166096 1.7320001
0.74558479 0.48496002 1.7320002
0.75878096 0.48166096 1.7320001
0.76537907 0.48496002 1.7320002
0.77362674 0.48495999 1.7320002
0.13328154 0.49485716 1.7320001
0.73898667 0.49485716 1.7320001
0.74558473 0.49485716 1.7320002
0.76647878 0.49375749 1.7320002
0.77433366 0.49532846 1.7320002
0.13416128 0.5047543 1.732
0.73898667 0.5047543 1.732
0.74511349 0.50569689 1.7320002
0.75548196 0.5047543 1.7320002
0.76537907 0.5047543 1.7320002
0.77480495 0.50381172 1.7320002
0.13443619 0.51547623 1.7320001
0.73898667 0.51465142 1.732
0.7442652 0.51333177 1.7320001
0.75548196 0.51465148 1.7320002
0.76537913 0.51465148 1.7320002
0.77197719 0.51465142 1.732
0.12866285 0.52784765 1.7320001
0.13328153 0.52388877 1.7320001
0.73816192 0.52537334 1.7320001
0.74311048 0.52537334 1.7320001
0.75630671 0.52207428 1.7320001
0.76537913 0.52289909 1.7320002
0.77197719 0.52289903 1.7320001
0.72908956 0.53444576 1.7320001
0.73403811 0.53279626 1.7320001
0.74393523 0.53114671 1.7320001
0.87547433 -0.0066323811 1.7410001
0.85889339 0.0099485721 1.7410001
0.86220956 0.0082904771 1.7410001
0.88873911 0.0066323811 1.7410001
0.89205527 0.0066323811 1.7410001
0.78925335 0.013264762 1.7410001
0.83899623 0.013264762 1.7410001
0.8423124 0.013264762 1.7410001
0.88708103 0.016580954 1.7410001
0.89205527 0.014922857 1.7410001
0.88873911 0.026529526 1.7410001
0.89489776 0.027477009 1.7410001
0.88708109 0.036478098 1.7410001
0.89537156 0.036478098 1.7410001
0.88708097 0.046426669 1.7410001
0.89578593 0.046426665 1.7410001
0.88608617 0.054385524 1.7409999
0.89584512 0.055427756 1.7410001
0.89702958 0.066323817 1.7410001
0.89702958 0.076272391 1.7410001
0.8787905 0.089537144 1.7410001
0.88625199 0.088708095 1.7410001
0.8945424 0.083733812 1.7410001
0.86884195 0.097827621 1.7410001
0.87505978 0.095754996 1.7410001
0.88321209 0.093958735 1.7410001
0.87630332 0.10446001 1.7410001
0.88210672 0.1061181 1.7410001
0.8787905 0.11275048 1.7410001
0.88674939 0.1167299 1.7409999
0.88625199 0.1251862 1.7410001
0.86884195 0.13928001 1.7410001
0.87613755 0.13662705 1.7409999
0.88210672 0.13430572 1.7410001
0.86685216 0.14723887 1.7409999
0.87326354 0.1437016 1.7410001
0.85502452 0.15586095 1.7410001
0.85756695 0.16514629 1.7409999
0.86457819 0.17528436 1.7410001
0.85889339 0.18902287 1.7410001
0.86552572 0.18570668 1.7410001
0.16580953 0.19897144 1.7410001
0.84894478 0.19897144 1.7410001
0.85491389 0.19631848 1.7409999
0.86220956 0.19565524 1.7410001
0.12601525 0.20892 1.7410001
0.13375302 0.20670922 1.7410001
0.15254477 0.20228763 1.7410001
0.20394573 0.20228763 1.7410001
0.21389429 0.20228763 1.7410001
0.22218478 0.20228763 1.7410001
0.84894478 0.20394573 1.7410001
0.85516268 0.20601836 1.7410001
0.86220956 0.20726192 1.7410001
0.089537144 0.21886858 1.7410001
0.094511434 0.21886858 1.7410001
0.10611811 0.21555239 1.7410001
0.11523762 0.21306524 1.7410001
0.12269905 0.2122362 1.7410001
0.84783936 0.21776319 1.7410001
0.85425073 0.21488914 1.7409999
0.089537144 0.22550096 1.7410001
0.092853338 0.22384286 1.7410001
0.8472867 0.22550096 1.7410001
0.85557717 0.22881715 1.7410001
0.085115559 0.23434412 1.7410001
0.84452325 0.23434412 1.7410001
0.077101432 0.24788526 1.7410001
0.084010161 0.24318731 1.7410001
0.83899623 0.2487143 1.7410001
0.84618133 0.2453981 1.7410001
0.074614286 0.25534669 1.7410001
0.84452319 0.25534669 1.7410001
0.074614286 0.26529524 1.7410001
0.83899623 0.26197904 1.7410001
0.8423124 0.26529524 1.7410001
0.069640003 0.27524379 1.7410001
0.074282669 0.27590707 1.7409999
0.8378908 0.27745461 1.7410001
0.8423124 0.27524382 1.7410001
0.069640003 0.2851924 1.7410001
0.074282669 0.28519243 1.7409999
0.82683682 0.28463969 1.7410001
0.83662754 0.28471866 1.7410001
0.8423124 0.2851924 1.7410001
0.069640003 0.29514095 1.7410001
0.074614286 0.29514095 1.7410001
0.82573146 0.29514095 1.7410001
0.83662754 0.29514095 1.7410001
0.069640003 0.30343145 1.7410001
0.077101432 0.30591857 1.7410001
0.82904762 0.30840573 1.7410001
0.83650905 0.30343142 1.7410001
0.07793048 0.31503811 1.7410001
0.82705796 0.31437486 1.7409999
0.83402193 0.31172192 1.7410001
0.079588577 0.3249867 1.7410001
0.80915052 0.32498667 1.7410001
0.81644613 0.32631317 1.7409999
0.82324433 0.32415766 1.7410001
0.084010161 0.33493528 1.7410001
0.81777257 0.33559847 1.7409999
0.82241529 0.33493525 1.7410001
0.086220957 0.34156764 1.7410001
0.8161974 0.34446931 1.7410001
0.82241529 0.34322572 1.7410001
0.81744099 0.35483241 1.7410001
0.82241529 0.35814857 1.7410001
0.10943429 0.36146477 1.7410001
0.11440857 0.36643904 1.7410001
0.82352066 0.36367556 1.7410001
0.11938286 0.37307143 1.7410001
0.12380445 0.37472954 1.7410001
0.81909907 0.37804574 1.7410001
0.82241529 0.37141335 1.7410001
0.11938286 0.38633621 1.7410001
0.12380445 0.38467813 1.7410001
0.80915052 0.38799429 1.7410001
0.81246668 0.38136193 1.7410001
0.11938286 0.39462665 1.7410001
0.12269905 0.39131048 1.7410001
0.80749238 0.39462668 1.7410001
0.11938286 0.40457526 1.7410001
0.79588574 0.40125906 1.7410001
0.80417621 0.40291718 1.7410001
0.11938286 0.41452384 1.7410001
0.79754382 0.41618192 1.7410001
0.80251813 0.41286573 1.7410001
0.11855381 0.42530143 1.7410001
0.78925335 0.42778859 1.7410001
0.79683322 0.4249461 1.7410001
0.80251813 0.42447239 1.7410001
0.11938286 0.43442097 1.7410001
0.12269905 0.43442097 1.7410001
0.78925341 0.43442097 1.7410001
0.79588574 0.43400645 1.7410001
0.80251813 0.43276286 1.7410001
0.12435715 0.44436955 1.7410001
0.78648978 0.44492224 1.7410001
0.79588574 0.44436955 1.7410001
0.80251813 0.44436955 1.7410001
0.1251862 0.45514715 1.7410001
0.78792685 0.45498133 1.7409999
0.79588574 0.45265999 1.7410001
0.80666333 0.45183095 1.7410001
0.12468877 0.46492997 1.7409999
0.78726369 0.46426669 1.7409999
0.79588574 0.46426669 1.7410001
0.12468877 0.47487849 1.7409999
0.78345001 0.47338623 1.7410001
0.12712064 0.48416385 1.7410001
0.78262097 0.48416379 1.7410001
0.12933144 0.4941124 1.7410001
0.78262097 0.4941124 1.7410001
0.12933144 0.5024029 1.7410001
0.13264762 0.50737715 1.7410001
0.74945909 0.50406098 1.7410001
0.75277525 0.50406098 1.7410001
0.78676629 0.50323194 1.7410001
0.1285024 0.51483858 1.7410001
0.13264762 0.51400954 1.7410001
0.74945909 0.51732576 1.7410001
0.75277525 0.51732576 1.7410001
0.7793048 0.51400954 1.7410001
0.78262097 0.51400954 1.7410001
0.12642978 0.52395809 1.7410001
0.74945909 0.52395809 1.7410001
0.75277525 0.52395809 1.7410001
0.7793048 0.52395815 1.7410001
0.78262097 0.52561617 1.7410001
0.7428267 0.5339067 1.7410001
0.75277525 0.53224862 1.7410001
0.80746478 -0.12229238 1.7590001
0.80746478 -0.1139162 1.7590002
0.81416571 -0.11559144 1.7590001
0.78736192 -0.10386477 1.7590001
0.79071242 -0.10218953 1.7590001
0.80746478 -0.10386477 1.7590002
0.79406291 -0.090462863 1.7590001
0.7929461 -0.084878735 1.7590002
0.76502544 0.0055841268 1.7590002
0.77396005 0.0043077548 1.7589999
0.78177786 0.0055841268 1.7590002
0.86333334 0.0066666668 1.7500001
0.7471562 0.016752381 1.7590001
0.75455952 0.016730953 1.7567501
0.76312816 0.011688096 1.7533751
0.77333337 0.011666668 1.7500001
0.78368098 0.011696668 1.7545002
0.79391354 0.012048 1.7572
0.80000001 0.013333334 1.7500001
0.82210004 0.016709525 1.7545002
0.8366667 0.013333334 1.7500001
0.85666668 0.010000001 1.7500001
0.86000001 0.010000001 1.7500001
0.90333337 0.015 1.7500001
0.914011 0.015042857 1.7545002
0.92216527 0.015377904 1.7554001
0.74213052 0.020102859 1.7590001
0.89500004 0.020000001 1.7500001
0.90380955 0.022380952 1.7500001
0.91439158 0.023856057 1.7538573
0.92455882 0.023021666 1.757875
0.93143243 0.023453334 1.7590002
0.9066667 0.033333335 1.7500001
0.91291666 0.033749998 1.7500001
0.92568874 0.033026122 1.7589999
0.93143243 0.033504765 1.7590002
0.9066667 0.043333337 1.7500001
0.91238099 0.043809526 1.7500001
0.92339134 0.042886097 1.7590001
0.9066667 0.053333331 1.7500001
0.91333336 0.053333335 1.7500001
0.9251253 0.054219432 1.7572
0.9339453 0.056120478 1.7590001
0.94148386 0.056958098 1.7590001
0.9066667 0.063333333 1.7500001
0.91333336 0.063333333 1.7500001
0.92561811 0.063607618 1.7575001
0.93478286 0.06365905 1.7589999
0.9414838 0.06365905 1.7590002
0.9066667 0.07333333 1.7500001
0.91238099 0.072857141 1.7500001
0.92515022 0.074129283 1.7589999
0.93425268 0.073874801 1.7557273
0.94148386 0.070360005 1.7590001
0.90466672 0.084666677 1.7500002
0.91323239 0.083479047 1.7530001
0.92473149 0.083761901 1.7589999
0.93478286 0.081751622 1.7590001
0.94148386 0.082086667 1.7590001
0.89444447 0.094444446 1.7500001
0.90333337 0.093333349 1.7500001
0.91635531 0.093813337 1.7589999
0.92377418 0.09333469 1.7589999
0.88500005 0.10333333 1.7500001
0.89333332 0.10333335 1.7500001
0.90291667 0.10291667 1.7500001
0.91563731 0.1043434 1.7589999
0.92305624 0.10051429 1.7590001
0.89476192 0.11333334 1.7500001
0.90333331 0.114 1.7500002
0.91635519 0.1139162 1.7589999
0.92221862 0.11475381 1.7590001
0.89555556 0.12555556 1.7500001
0.90318477 0.12425029 1.7536001
0.91468006 0.12396762 1.7589999
0.92249781 0.12508444 1.7590002
0.89333338 0.13333334 1.7500001
0.90425861 0.13430421 1.7564286
0.91420132 0.13306178 1.7589999
0.92305624 0.13234381 1.7590001
0.93813336 0.13401905 1.7590001
0.94148386 0.13401905 1.7590001
0.88428581 0.14380953 1.7500001
0.89472669 0.14382762 1.756
0.90462852 0.14407049 1.7589999
0.91244632 0.14295365 1.7590002
0.93813336 0.14407048 1.7590001
0.94148386 0.14407048 1.7590001
0.86555558 0.15555556 1.7500001
0.87380952 0.1542857 1.7500001
0.88468957 0.15386476 1.756
0.89457715 0.15412191 1.7589999
0.90127814 0.15077144 1.7590001
0.8658334 0.16250001 1.7500001
0.87333333 0.16333334 1.7500001
0.88469243 0.1638905 1.756
0.89415836 0.16417335 1.7589999
0.86666667 0.17 1.7500001
0.87444448 0.17277779 1.7500001
0.88468957 0.17392762 1.756
0.89457715 0.17422476 1.7589999
0.87583339 0.1825 1.7500001
0.88393813 0.18380477 1.7545
0.89361989 0.18379755 1.7589999
0.24793525 0.1976781 1.7590001
0.86500001 0.19666667 1.7500001
0.8735649 0.19420229 1.7518002
0.88387918 0.19418801 1.7577143
0.89457721 0.19097716 1.7590002
0.10721524 0.20772953 1.7590001
0.11580305 0.20684686 1.7572
0.12474123 0.20407538 1.7564286
0.13334695 0.20312057 1.7564286
0.14357905 0.2036819 1.7530001
0.1537362 0.20218097 1.7545002
0.17363048 0.20034285 1.7530001
0.18365334 0.20034285 1.7530001
0.19432764 0.20102859 1.7590002
0.20437907 0.20102859 1.7590002
0.2144305 0.20102859 1.7590002
0.22666667 0.2 1.7500001
0.86444443 0.20222223 1.7500001
0.87391233 0.20385621 1.7545
0.88285059 0.20437907 1.7589999
0.077060953 0.21610573 1.7590001
0.083616197 0.21573429 1.756
0.093573332 0.21554857 1.7545
0.10300654 0.21268953 1.7525715
0.114 0.21066669 1.7500002
0.86500001 0.215 1.7500001
0.87465811 0.21406762 1.756
0.88285059 0.21443047 1.7589999
0.074761592 0.22540446 1.7575001
0.083333343 0.22333333 1.7500001
0.85666674 0.22333334 1.7500001
0.86199999 0.22400001 1.7500002
0.87447435 0.22448193 1.7589999
0.88356841 0.22400329 1.7589999
0.067009524 0.23788382 1.7590001
0.073537149 0.23399809 1.755
0.082222231 0.23277779 1.7500001
0.85500002 0.23333335 1.7500001
0.86406261 0.23525302 1.756
0.87447429 0.23453334 1.7589999
0.88356847 0.23453332 1.7589999
0.93478286 0.23620859 1.7590001
0.066895239 0.2441619 1.7560002
0.073413335 0.24360953 1.7520001
0.081111111 0.24111111 1.7500001
0.85500002 0.24333334 1.7500001
0.86538017 0.24410614 1.7589999
0.87447435 0.24458477 1.7589999
0.88452572 0.24458477 1.7589999
0.89122671 0.24793525 1.7590001
0.93645811 0.24123429 1.7590001
0.06451837 0.25474015 1.7564286
0.07 0.25333333 1.7500001
0.8544445 0.25333333 1.7500001
0.8648417 0.25505501 1.7589999
0.87447429 0.25463617 1.7589999
0.88452572 0.25463623 1.7589999
0.89122671 0.2546362 1.7590002
0.93645811 0.25798666 1.7590001
0.06446939 0.26362857 1.7551429
0.07 0.26333335 1.7500001
0.85312945 0.26378763 1.7530001
0.86442292 0.26468763 1.7589999
0.87447435 0.26468763 1.7589999
0.88356847 0.264209 1.7589999
0.89122671 0.26133716 1.7590001
0.93645811 0.26301241 1.7590001
0.063472375 0.27395618 1.7540001
0.07 0.27000001 1.7500001
0.84666669 0.27666667 1.7500001
0.8531267 0.27380762 1.7530001
0.86442292 0.27473903 1.7589999
0.87391591 0.27362224 1.7589999
0.056958098 0.28144002 1.7590001
0.063436188 0.28381905 1.753
0.84666669 0.28333333 1.7500001
0.85386091 0.28406191 1.7545
0.86274767 0.28479052 1.7589999
0.063436188 0.29383621 1.753
0.84666663 0.29333335 1.7500001
0.85604668 0.29484192 1.7589999
0.86274767 0.29484189 1.7589999
0.063436188 0.30385333 1.753
0.073333338 0.30500001 1.7500001
0.84500003 0.30416667 1.7500001
0.85312945 0.3038505 1.7530001
0.86346567 0.305372 1.7589999
0.87112385 0.30824381 1.7590001
0.063908577 0.31372237 1.7545
0.071666665 0.3133333 1.7500001
0.8366667 0.31333333 1.7500001
0.84375006 0.31333333 1.7500001
0.85613525 0.31519076 1.7577143
0.8648417 0.31452596 1.7589999
0.87196147 0.31578237 1.7590001
0.065669335 0.3243261 1.7590001
0.072916664 0.32375002 1.7500001
0.83571005 0.32542241 1.7567501
0.84372658 0.32388598 1.757
0.85472667 0.3245008 1.7563
0.86538023 0.32547483 1.7589999
0.8727991 0.32499623 1.7589999
0.067009524 0.33169717 1.7590001
0.073983572 0.33399028 1.755625
0.080000006 0.33500001 1.7500001
0.82666671 0.33666667 1.7500001
0.83380955 0.33419049 1.7545
0.84336281 0.33552626 1.7589999
0.85532868 0.33552626 1.7589999
0.86241263 0.33571774 1.7590001
0.077060953 0.3417486 1.7590001
0.082986355 0.3442162 1.7545
0.83380955 0.3442162 1.7545
0.84432006 0.34509909 1.7589999
0.85341412 0.34462044 1.7589999
0.86241263 0.34509906 1.7590001
0.087112382 0.35180002 1.7590001
0.093333334 0.35333335 1.7500001
0.82666665 0.35333335 1.7500001
0.83309525 0.3539362 1.7530001
0.84432006 0.35515046 1.7589999
0.8538928 0.35610774 1.7589999
0.86274767 0.35682571 1.7590001
0.10386477 0.36520195 1.7590002
0.11000001 0.36666667 1.7500001
0.8327778 0.36333334 1.7500001
0.84473884 0.36520195 1.7589999
0.85485011 0.36424467 1.7589999
0.86107242 0.3635267 1.7590001
0.1130581 0.37423217 1.7522501
0.82666671 0.37666669 1.7500001
0.83594388 0.37525335 1.7589999
0.84336275 0.37573197 1.7589999
0.10721524 0.38195431 1.7590001
0.11485872 0.38410568 1.7549092
0.12333333 0.38166669 1.7500001
0.81666672 0.38666669 1.7500001
0.8227253 0.38549715 1.7522501
0.83426857 0.38530478 1.7589999
0.84432006 0.38530478 1.7589999
0.85102099 0.38698 1.7590001
0.11389143 0.39342028 1.7522501
0.81555557 0.39333335 1.7500001
0.82457203 0.39554831 1.7577143
0.83384985 0.3949374 1.7589999
0.84297979 0.39401603 1.7590001
0.85102099 0.39535621 1.7590002
0.11509714 0.40367624 1.7515001
0.81625819 0.40354145 1.7545002
0.8235817 0.40531003 1.75675
0.83426857 0.40540767 1.7589999
0.84432006 0.40540764 1.7589999
0.85269624 0.40373242 1.7590001
0.11519429 0.41404483 1.7530001
0.81306094 0.41404477 1.7530001
0.82379836 0.4154591 1.7589999
0.83426857 0.41210857 1.7590002
0.84264481 0.4121086 1.7590001
0.10721524 0.42886096 1.7590001
0.11389144 0.42429647 1.7522501
0.80666667 0.42166668 1.7500001
0.81445241 0.42478475 1.756
0.82421714 0.42551047 1.7589999
0.83091813 0.42216003 1.7590001
0.10721525 0.43556193 1.7590002
0.11312882 0.43458575 1.7533751
0.80666667 0.43000001 1.7500001
0.81236386 0.4337019 1.7515001
0.82379836 0.43598071 1.7589999
0.83259338 0.43723714 1.7590001
0.10721524 0.44226289 1.7590001
0.11475274 0.44446698 1.7532729
0.80333334 0.44000003 1.7500001
0.81166673 0.44333336 1.7500001
0.82421714 0.44561338 1.7589999
0.83331138 0.44561338 1.7589999
0.11692762 0.45436954 1.7540001
0.12333333 0.45333335 1.7500001
0.80666667 0.45666668 1.7500001
0.81388885 0.45277777 1.7500001
0.82237244 0.45371905 1.7515001
0.83384979 0.45608363 1.7589999
0.11528715 0.46452475 1.7545
0.12333333 0.46333334 1.7500001
0.79666668 0.46166667 1.7500001
0.80375004 0.4629167 1.7500001
0.8129167 0.4629167 1.7500001
0.82457203 0.46585685 1.7577143
0.83175576 0.46487859 1.7590001
0.10721525 0.47576761 1.7590002
0.11528715 0.47455052 1.7545
0.12333333 0.47333336 1.7500001
0.7944445 0.47444448 1.7500001
0.80297118 0.47320738 1.7512858
0.81406379 0.47588429 1.757875
0.82421714 0.47576767 1.7589999
0.83091813 0.47409239 1.7590001
0.10721524 0.48246858 1.7590001
0.11538714 0.48499194 1.7560002
0.12333333 0.48500001 1.7500001
0.79333335 0.48333338 1.7500001
0.80578953 0.48581907 1.7589999
0.81416577 0.48581907 1.7589999
0.82421714 0.48581907 1.7589999
0.11706095 0.4950248 1.756
0.125 0.49333334 1.7500001
0.79238093 0.49285716 1.7500001
0.80453312 0.49628925 1.7589999
0.81416577 0.49587047 1.7589999
0.82287705 0.4952004 1.7590001
0.11706095 0.505059 1.756
0.125 0.505 1.7500001
0.13000001 0.50999999 1.7500001
0.79388887 0.505 1.7500001
0.80352652 0.50507349 1.7577143
0.81416571 0.50496465 1.7589999
0.1154393 0.51614666 1.75675
0.12353904 0.51476604 1.7530001
0.79266667 0.51466668 1.7500002
0.80507153 0.51645195 1.7589999
0.81081527 0.51764858 1.7590001
0.11797491 0.52311367 1.7530001
0.12333333 0.52333337 1.7500001
0.78666669 0.52333337 1.7500001
0.79296386 0.52419156 1.7512858
0.80188066 0.52379113 1.7590002
0.82756764 0.52602476 1.7590001
0.8349387 0.52468461 1.7590001
0.84274244 0.52066863 1.7522502
0.86716193 -0.14817524 1.7680001
0.77792001 -0.13133715 1.7680001
0.7829715 -0.13133715 1.7680001
0.81496388 -0.13470477 1.7679999
0.82506675 -0.13470477 1.7679999
0.83180195 -0.13470477 1.7680001
0.84190482 -0.13133715 1.7680001
0.775675 -0.12347937 1.768
0.78423429 -0.12418096 1.7679999
0.79427707 -0.12363973 1.7679999
0.80528194 -0.12418096 1.7679999
0.81592607 -0.125083 1.7679999
0.82506675 -0.12460191 1.7679999
0.83180195 -0.12460191 1.7680001
0.77497339 -0.11449905 1.7679999
0.78465527 -0.11449905 1.7679999
0.79475808 -0.11449905 1.7679999
0.80486095 -0.11449904 1.7679999
0.81698436 -0.11382552 1.768
0.82548767 -0.11449905 1.7679999
0.83180195 -0.11618286 1.7680001
0.76613337 -0.10102858 1.7680001
0.77455246 -0.10439619 1.7679999
0.78465527 -0.10439619 1.7679999
0.79531938 -0.10495746 1.768
0.80486095 -0.10439619 1.7679999
0.81664759 -0.10439619 1.768
0.82506669 -0.10439619 1.7679999
0.76613337 -0.094293334 1.768
0.77455246 -0.094293326 1.7679999
0.78465527 -0.094293326 1.7679999
0.79433715 -0.094714284 1.7679999
0.80486095 -0.094293326 1.7679999
0.81454289 -0.094714284 1.7679999
0.82169908 -0.097660959 1.7680001
0.76613337 -0.08419048 1.768
0.77455235 -0.08419048 1.7679999
0.78465527 -0.084190488 1.7679999
0.79363555 -0.083629213 1.768
0.80486095 -0.084190488 1.7679999
0.81243807 -0.085032381 1.7680001
0.76613337 -0.07408762 1.768
0.77455246 -0.07408762 1.7679999
0.78465527 -0.07408762 1.7679999
0.79475808 -0.07408762 1.7679999
0.80233526 -0.07492952 1.7680001
0.76613337 -0.063984767 1.768
0.77455246 -0.063984767 1.7679999
0.78465533 -0.063984767 1.7679999
0.79475808 -0.063984767 1.7679999
0.80437988 -0.063984767 1.7679999
0.76613337 -0.05388191 1.768
0.77455235 -0.053881906 1.7679999
0.78465527 -0.053881902 1.7679999
0.79433715 -0.053460956 1.7679999
0.80486095 -0.053460952 1.7679999
0.81159621 -0.052198097 1.7680001
0.76613337 -0.043779049 1.768
0.77455246 -0.043779053 1.7679999
0.78465533 -0.043779053 1.7679999
0.79475808 -0.043779053 1.7679999
0.80486089 -0.043779049 1.7679999
0.81243807 -0.043779049 1.7680001
0.76613337 -0.033676192 1.768
0.77455246 -0.033676192 1.7679999
0.78465527 -0.035360001 1.768
0.79475814 -0.034638368 1.7679999
0.80486101 -0.035360001 1.768
0.81159621 -0.035360001 1.7680001
0.76613337 -0.023573333 1.768
0.77399117 -0.024134606 1.768
0.76613337 -0.013470476 1.768
0.77407128 -0.0125083 1.7679999
0.76613337 -0.0050514289 1.7680001
0.77455235 -0.0050514289 1.768
0.78465527 -0.0050514289 1.768
0.79475814 -0.0033676191 1.7680001
0.73750859 0.0067352382 1.7680001
0.74424386 0.0067352378 1.7680001
0.75502026 0.0033676191 1.768
0.7644496 0.0033676191 1.768
0.77230734 0.0011225397 1.7680001
0.78549719 0.00084190478 1.7680001
0.79379594 0.0038487075 1.7679999
0.80486101 0.0067352378 1.7680001
0.86884576 0.0067352382 1.7680001
0.72538519 0.014144001 1.768
0.73470229 0.014593016 1.768
0.74424386 0.013470478 1.7679999
0.75434667 0.011786667 1.768
0.76108193 0.011786667 1.7680001
0.79812574 0.010102858 1.7680001
0.80654478 0.010102858 1.7680001
0.81496382 0.012347937 1.7680001
0.82843429 0.016838096 1.7680001
0.71393532 0.020205716 1.7680001
0.72403812 0.021889525 1.768
0.73346746 0.021552762 1.768
0.7408762 0.020205716 1.7680001
0.93956578 0.025257144 1.7680001
0.94293338 0.023573333 1.7680001
0.93956584 0.033676192 1.7680001
0.94461715 0.035360001 1.7680001
0.936198 0.043779049 1.7679999
0.94461721 0.043779049 1.768
0.93704009 0.051356196 1.7680001
0.94461715 0.052198097 1.7680001
0.93844318 0.086435556 1.7680001
0.94461715 0.087558098 1.7680001
0.9353562 0.093451433 1.7680001
0.94461715 0.094293341 1.7680001
0.92777908 0.10608 1.7680001
0.93367243 0.10355428 1.7680001
0.94461715 0.10102858 1.7680001
0.92946291 0.11281524 1.7680001
0.93571705 0.11546123 1.7679999
0.94461715 0.11618286 1.7680001
0.92834038 0.12347937 1.7680001
0.93523592 0.125083 1.7679999
0.94461715 0.12796953 1.7680001
0.91936004 0.13807239 1.7680001
0.92609525 0.13807239 1.7680001
0.9366191 0.13428381 1.7679999
0.94461715 0.13470477 1.7680001
0.91823751 0.14593017 1.7680001
0.92561418 0.14384544 1.7679999
0.93667924 0.14480765 1.7679999
0.94461715 0.14480762 1.7680001
0.90791017 0.15558401 1.768
0.91557145 0.15533142 1.7679999
0.94461715 0.15154286 1.7680001
0.90685177 0.16501333 1.7679999
0.91346669 0.16417143 1.7680001
0.9075734 0.1751162 1.768
0.91262478 0.17511618 1.7680001
0.9063105 0.18564001 1.7679999
0.91262478 0.18521905 1.7680001
0.93788195 0.18690285 1.7680001
0.94461715 0.18858667 1.7680001
0.17174858 0.19868954 1.7680001
0.20609829 0.19734249 1.768
0.21468571 0.19784762 1.7680001
0.23573335 0.19868954 1.7680001
0.2441524 0.19868954 1.7680001
0.89646024 0.19734249 1.768
0.90631044 0.19574289 1.7679999
0.91557145 0.19574288 1.7679999
0.92272764 0.19700572 1.7680001
0.93788195 0.19532192 1.768
0.94461715 0.19363812 1.7680001
0.10439619 0.20766985 1.7680001
0.11449905 0.20374095 1.7680001
0.12123429 0.20205715 1.7680001
0.14480762 0.20205717 1.7680001
0.15322667 0.20205715 1.7680001
0.16501334 0.20205715 1.7680001
0.22394666 0.20205715 1.7680001
0.8957867 0.20542476 1.7679999
0.90588951 0.20542479 1.7679999
0.91551131 0.2044626 1.7679999
0.92272764 0.20205715 1.7680001
0.93687165 0.20340419 1.768
0.94293338 0.20374095 1.7680001
0.07408762 0.21889524 1.7680001
0.085874289 0.21216001 1.7680001
0.094293334 0.21216001 1.7680001
0.8957867 0.21552761 1.7679999
0.90476704 0.21440507 1.768
0.91262478 0.21216001 1.7680001
0.067352384 0.22899811 1.7680001
0.071842544 0.22338539 1.7680001
0.89578676 0.22563048 1.7679999
0.93788195 0.22563048 1.7680001
0.065668575 0.23573335 1.7680001
0.89522547 0.23573335 1.768
0.93451428 0.23741716 1.7680001
0.063984767 0.2458362 1.7680001
0.89780724 0.24516268 1.768
0.9036445 0.24808127 1.7680001
0.93844318 0.2458362 1.7680001
0.94293338 0.24752 1.7680001
0.057249527 0.25930667 1.7680001
0.060617145 0.25593907 1.7680001
0.89915437 0.25593904 1.7680001
0.9042058 0.25593904 1.768
0.93956578 0.25425524 1.7680001
0.94293338 0.25425524 1.7680001
0.057249527 0.26604193 1.7680001
0.060617145 0.26772571 1.7680001
0.89626777 0.26700407 1.7679999
0.90336382 0.26520002 1.7680001
0.93956578 0.26940954 1.7680001
0.94293338 0.26940954 1.7680001
0.053881902 0.27614474 1.7679999
0.87558097 0.27951241 1.7680001
0.88610476 0.2765657 1.7679999
0.89578664 0.27479774 1.768
0.93956578 0.27446097 1.7680001
0.94293338 0.27446097 1.7680001
0.054555435 0.28557411 1.768
0.87558097 0.28624761 1.7679999
0.8845613 0.28737018 1.768
0.056407623 0.29550856 1.7680001
0.87558097 0.29635051 1.7679999
0.88526291 0.29677144 1.7679999
0.057249527 0.30645332 1.7680001
0.8760621 0.30549115 1.7679999
0.8847217 0.30693439 1.7679999
0.057249527 0.31655622 1.7680001
0.060617145 0.31992382 1.7680001
0.87894863 0.31487238 1.7680001
0.8836633 0.31655622 1.768
0.057249527 0.32329145 1.7680001
0.060617145 0.32497525 1.7680001
0.88343877 0.32553652 1.7680001
0.065107308 0.33339429 1.7680001
0.85335463 0.33406782 1.768
0.86884576 0.33339429 1.7680001
0.87558097 0.33507812 1.768
0.88400006 0.33339429 1.768
0.07408762 0.34349716 1.7680001
0.86547816 0.34686476 1.7680001
0.87558097 0.34349713 1.7679999
0.88231623 0.34012952 1.7680001
0.080822863 0.35023239 1.7680001
0.090925716 0.35696763 1.7680001
0.85874289 0.35360003 1.7680001
0.86463618 0.35275811 1.7680001
0.87558097 0.3536 1.7679999
0.88231623 0.35696763 1.7680001
0.095977142 0.36201906 1.7680001
0.10102858 0.3670705 1.7680001
0.86884576 0.36538666 1.7680001
0.87558103 0.36370286 1.7679999
0.88231623 0.36201906 1.7680001
0.10664127 0.37380573 1.7680001
0.85579622 0.37422669 1.7679999
0.86589909 0.37422669 1.7679999
0.87558097 0.3704381 1.7680001
0.10776381 0.38390857 1.7680001
0.85739595 0.38323507 1.768
0.86505723 0.38348761 1.7679999
0.1077638 0.39401147 1.7680001
0.84864002 0.39737907 1.7680001
0.85705912 0.39485335 1.7680001
0.86435556 0.39288893 1.768
0.10776381 0.40074667 1.7680001
0.11113143 0.40411434 1.7680001
0.84527242 0.40074667 1.7680001
0.85537529 0.40074667 1.7680001
0.86379433 0.40411425 1.768
0.10776381 0.41590095 1.7680001
0.11113143 0.41421714 1.7680001
0.83516955 0.41758478 1.7680001
0.84527248 0.41758478 1.7680001
0.85537529 0.41421717 1.7679999
0.10692191 0.42516193 1.7680001
0.11113143 0.42263621 1.7680001
0.83719003 0.42432004 1.768
0.84527242 0.42432001 1.7679999
0.85200763 0.42432001 1.7680001
0.10439619 0.43442288 1.7680001
0.83584309 0.43307585 1.768
0.84527236 0.43442288 1.7679999
0.85313016 0.43666795 1.7680001
0.10523809 0.44536763 1.7680001
0.84569335 0.44410479 1.7679999
0.85335463 0.44385219 1.768
0.1077638 0.45462859 1.7680001
0.11113143 0.45631242 1.7680001
0.84569335 0.45420766 1.7679999
0.85200763 0.45462859 1.7680001
0.10692191 0.46557334 1.7680001
0.11113143 0.46136382 1.7680001
0.83853716 0.46809906 1.7680001
0.84527242 0.46521252 1.7679999
0.10439619 0.47483429 1.768
0.83853716 0.47483432 1.7680001
0.84358859 0.47483429 1.768
0.10523809 0.48577908 1.7680001
0.83685333 0.48493716 1.768
0.84392536 0.4862842 1.768
0.10776381 0.49335623 1.7680001
0.11113143 0.49672383 1.7680001
0.83516967 0.4955211 1.7679999
0.84190482 0.4916724 1.7680001
0.10776381 0.50514287 1.7680001
0.11113143 0.50514287 1.7680001
0.82641375 0.50581634 1.768
0.83516955 0.50514293 1.7679999
0.10776381 0.51524574 1.7680001
0.11113143 0.51524574 1.7680001
0.81563741 0.51457214 1.768
0.82506675 0.51524568 1.7679999
0.83516949 0.51524574 1.7679999
0.84190482 0.51861334 1.7680001
0.80822861 0.52871621 1.7680001
0.81544495 0.5263108 1.7679999
0.82506669 0.5253486 1.7679999
0.83449602 0.52332807 1.768
0.84527236 0.521981 1.7680001
0.85369146 0.521981 1.7680001
0.81911242 -0.15231429 1.7770001
0.82588196 -0.15231429 1.7770001
0.7875213 -0.14328825 1.7770001
0.80895811 -0.14216 1.7770001
0.81657386 -0.14300619 1.7770001
0.82588196 -0.14554477 1.7770002
0.83535922 -0.1435139 1.7770001
0.84506226 -0.14328825 1.7770001
0.7768029 -0.13200572 1.7770001
0.78526479 -0.13708286 1.7770001
0.79541904 -0.13539048 1.7770002
0.80557334 -0.13539046 1.7770002
0.81234288 -0.13539048 1.7770001
0.83942097 -0.13539048 1.7770001
0.84619057 -0.13581358 1.7770002
0.77511048 -0.12608238 1.7770001
0.7954191 -0.12862095 1.7770001
0.80388093 -0.12862095 1.7770001
0.83942097 -0.1252362 1.7770001
0.84619045 -0.12523621 1.7770002
0.85296005 -0.12354381 1.7770001
0.768341 -0.11508191 1.7770001
0.77257192 -0.11508191 1.7770001
0.83857477 -0.11423571 1.7770001
0.84576738 -0.115505 1.7770002
0.85296005 -0.11846667 1.7770001
0.768341 -0.10662 1.7770001
0.77172571 -0.10662 1.7770001
0.83688241 -0.10408143 1.7770001
0.84280574 -0.10492762 1.7770001
0.76326388 -0.09477333 1.7770001
0.82655889 -0.094096377 1.7770001
0.83400536 -0.095450282 1.7770001
0.76326388 -0.084619045 1.7770001
0.81911242 -0.082926676 1.7770001
0.82362539 -0.086875558 1.7770001
0.76360232 -0.074464768 1.7770001
0.80895811 -0.072772384 1.7770001
0.81476063 -0.073981233 1.7770002
0.75480193 -0.064310476 1.7770001
0.76382798 -0.065438733 1.7770001
0.80895811 -0.064310476 1.7770001
0.81669468 -0.064310476 1.7770002
0.82503575 -0.061771907 1.7770001
0.76326382 -0.05077143 1.7770001
0.80557334 -0.057540953 1.7770001
0.81826627 -0.055002384 1.7770001
0.82545888 -0.054156192 1.7770002
0.83265144 -0.057540953 1.7770001
0.73787814 -0.047386669 1.7770001
0.74600154 -0.045355815 1.7770001
0.755225 -0.043578811 1.7770002
0.76326388 -0.044001907 1.7770001
0.81911242 -0.044001907 1.7770001
0.82385099 -0.044678859 1.7770001
0.74507076 -0.034270715 1.7770002
0.75480193 -0.033847623 1.7770002
0.76326388 -0.033847619 1.7770001
0.78695714 -0.030462857 1.7770001
0.79372668 -0.030462857 1.7770001
0.8055734 -0.030462855 1.7770001
0.81708157 -0.032493718 1.7770001
0.82249719 -0.03554 1.7770001
0.73449332 -0.020308573 1.7770001
0.74464768 -0.023693334 1.7770002
0.75480193 -0.023693334 1.7770002
0.76326388 -0.023693332 1.7770001
0.77849525 -0.022000954 1.7770001
0.78623188 -0.023693336 1.7770002
0.7954191 -0.023693332 1.7770002
0.80557328 -0.024116429 1.7770002
0.81437379 -0.025047239 1.7770001
0.73449337 -0.013539047 1.7770002
0.74464768 -0.013539047 1.7770002
0.75480193 -0.013539047 1.7770002
0.76326388 -0.013539047 1.7770001
0.77849525 -0.016923809 1.7770001
0.78623188 -0.014022584 1.7770002
0.7954191 -0.013539047 1.7770002
0.80218858 -0.010154286 1.7770001
0.72772384 -0.0050771432 1.7770001
0.73449343 -0.0050771427 1.7770001
0.74464768 -0.0050771427 1.7770001
0.75480193 -0.0050771427 1.7770001
0.76326382 -0.0050771432 1.7770001
0.79654735 -0.0056412704 1.7770001
0.80331683 -0.004513016 1.7770001
0.70572293 0.006769524 1.7770001
0.71486175 0.0054156194 1.7770001
0.7247622 0.0038078572 1.7770002
0.73449337 0.003384762 1.7770002
0.74464756 0.0016923811 1.7770001
0.75536609 0.002820635 1.7770001
0.76495624 0.001692381 1.7770001
0.80557328 0.0016923811 1.7770001
0.81572765 0.00564127 1.7770001
0.86988384 0.006769524 1.7770001
0.70656914 0.013539048 1.7770001
0.71418476 0.013539047 1.7770002
0.72264671 0.013539047 1.7770001
0.73533958 0.011000477 1.7770001
0.81911242 0.010154286 1.7770001
0.84280574 0.013539048 1.7770001
0.85803717 0.010154286 1.7770001
0.8631143 0.010154286 1.7770001
0.70403051 0.020308573 1.7770001
0.71080005 0.020308573 1.7770001
0.94773334 0.027078096 1.7770001
0.95111811 0.027078096 1.7770001
0.94773334 0.030462857 1.7770001
0.95111811 0.030462857 1.7770001
0.94367158 0.096127249 1.7770001
0.95111811 0.094773337 1.7770001
0.94434869 0.1058947 1.7770002
0.95111811 0.10662 1.7770001
0.94434863 0.11169714 1.7770001
0.95111811 0.11169714 1.7770001
0.94604099 0.12354381 1.7770001
0.95111811 0.12354381 1.7770001
0.9375791 0.13877524 1.7770001
0.93419433 0.14667302 1.7770001
0.94096386 0.14892954 1.7770001
0.92657864 0.15485287 1.7770001
0.9346779 0.15473199 1.7770002
0.94350243 0.15400667 1.7770001
0.95111811 0.15569906 1.7770001
0.9226861 0.1665303 1.7770001
0.92404008 0.17600764 1.7770002
0.94434863 0.17939238 1.7770001
0.92404008 0.18616192 1.7770002
0.93504053 0.1887005 1.7770001
0.94519484 0.18362334 1.7770001
0.95111811 0.18446952 1.7770001
0.13539048 0.19970097 1.7770001
0.16923811 0.19970097 1.7770001
0.17770001 0.19970097 1.7770001
0.18616191 0.19970097 1.7770001
0.19800858 0.19970097 1.7770001
0.20647049 0.19462381 1.7770001
0.21493238 0.19462381 1.7770001
0.22508667 0.19970097 1.7770001
0.23524097 0.19800858 1.7770001
0.24201047 0.19800858 1.7770001
0.25385714 0.19800858 1.7770001
0.26062667 0.19970097 1.7770001
0.27078095 0.19970097 1.7770001
0.92573237 0.19293143 1.7770001
0.93419433 0.19631621 1.7770002
0.07784953 0.20985524 1.7770001
0.084619053 0.20985524 1.7770001
0.09477333 0.20985524 1.7770001
0.10492762 0.20647049 1.7770001
0.11169714 0.20308572 1.7770001
0.16246858 0.20308572 1.7770001
0.92488623 0.20900907 1.7770001
0.93377125 0.20689356 1.7770002
0.94096386 0.20985524 1.7770001
0.067695238 0.21662477 1.7770001
0.074464768 0.2154965 1.7770001
0.081234291 0.21324001 1.7770001
0.91557813 0.21662477 1.7770001
0.92336309 0.21459392 1.7770001
0.93419433 0.21324001 1.7770001
0.94350243 0.21577856 1.7770001
0.065664381 0.22474821 1.7770001
0.071079999 0.22000954 1.7770001
0.90711623 0.22508667 1.7770001
0.91275746 0.22283018 1.7770001
0.93554819 0.22407126 1.7770001
0.94434863 0.22226603 1.7770001
0.062279619 0.23287162 1.7770001
0.90576231 0.23287162 1.7770001
0.910501 0.23354858 1.7770001
0.9375791 0.23354858 1.7770001
0.94096386 0.23354858 1.7770001
0.057540953 0.24370287 1.7770001
0.060925711 0.24370284 1.7770001
0.90598798 0.24144636 1.7770001
0.91219342 0.24708763 1.7770001
0.9375791 0.24201047 1.7770001
0.94096386 0.24708763 1.7770001
0.055284444 0.25498542 1.7770001
0.060925715 0.25216478 1.7770001
0.91473198 0.25470334 1.7770001
0.9375791 0.25385717 1.7770001
0.94096392 0.25385717 1.7770001
0.047386665 0.26401144 1.7770001
0.053189117 0.26449496 1.7770002
0.9145627 0.26333448 1.7770001
0.92065525 0.26401144 1.7770001
0.94096392 0.26401144 1.7770001
0.047386665 0.27416572 1.7770001
0.052463811 0.27078095 1.7770001
0.89696193 0.27755049 1.7770001
0.90542388 0.2758581 1.7770001
0.910501 0.27078095 1.7770001
0.94096386 0.27755049 1.7770001
0.047386669 0.28262764 1.7770001
0.05077143 0.28770477 1.7770001
0.89470547 0.28488412 1.7770001
0.90237749 0.28499696 1.7770001
0.052463807 0.2936281 1.7770001
0.89611572 0.2944743 1.7770001
0.90373147 0.29447433 1.7770002
0.910501 0.29108953 1.7770001
0.054156195 0.30462858 1.7770001
0.89560807 0.30530554 1.7770001
0.90330839 0.30462858 1.7770002
0.054156195 0.31478286 1.7770001
0.89470536 0.31591114 1.7770001
0.9011929 0.31393668 1.7770001
0.055284444 0.32493716 1.7770001
0.89454424 0.32493713 1.7770002
0.9003467 0.32493716 1.7770001
0.057540953 0.33170667 1.7770001
0.062618092 0.33509144 1.7770001
0.89442337 0.33424523 1.7770001
0.93588674 0.33847621 1.7770001
0.94096386 0.33847621 1.7770001
0.072772384 0.3469381 1.7770001
0.88680768 0.3469381 1.7770001
0.89357716 0.34524572 1.7770002
0.9364509 0.34298924 1.7770001
0.94096392 0.34524572 1.7770001
0.07784953 0.35201526 1.7770001
0.08631143 0.35709238 1.7770001
0.88680768 0.35370764 1.7770001
0.89357716 0.35540003 1.7770002
0.90147495 0.35427177 1.7770001
0.093927152 0.3655543 1.7770001
0.88680768 0.36893907 1.7770001
0.89357728 0.36555433 1.7770002
0.9003467 0.36386192 1.7770001
0.10289676 0.37638554 1.7770001
0.87665337 0.37740096 1.7770001
0.8825767 0.37570858 1.7770001
0.8918848 0.37232381 1.7770001
0.10323524 0.38586286 1.7770001
0.87580723 0.38670906 1.7770001
0.88003814 0.38417047 1.7770001
0.10323524 0.39601716 1.7770001
0.86988384 0.39940193 1.7770001
0.87529945 0.39669412 1.7770001
0.10628152 0.40684837 1.7770001
0.87496096 0.40617141 1.7770001
0.10577381 0.41547954 1.7770001
0.86988384 0.41294098 1.7770001
0.8732686 0.41294098 1.7770001
0.10379937 0.42648003 1.7770001
0.85972953 0.42648003 1.7770001
0.86480665 0.42817241 1.7770001
0.10154286 0.43494192 1.7770001
0.85860127 0.43437779 1.7770001
0.86424255 0.43550602 1.7770001
0.10154286 0.44340384 1.7770001
0.86553198 0.44388738 1.7770002
0.10492762 0.4552505 1.7770001
0.85888332 0.45440432 1.7770001
0.86446822 0.45288119 1.7770001
0.10492762 0.46371236 1.7770001
0.85702169 0.46438932 1.7770001
0.8631143 0.46202001 1.7770001
0.10154286 0.4738667 1.7770001
0.85499084 0.47454363 1.7770001
0.8631143 0.4738667 1.7770001
0.098158099 0.48063621 1.7770001
0.10154286 0.48571336 1.7770001
0.84957528 0.48571336 1.7770001
0.85431397 0.48402095 1.7770001
0.8631143 0.48063621 1.7770001
0.10379937 0.49417529 1.7770001
0.84449816 0.49756002 1.7770001
0.85634482 0.49079049 1.7770001
0.10628153 0.50365263 1.7770001
0.84619051 0.5043295 1.7770001
0.87496102 0.50094479 1.7770001
0.10628152 0.51380694 1.7770001
0.83603621 0.51786858 1.7770001
0.84675461 0.51561207 1.7770001
0.85521656 0.51674032 1.7770001
0.8631143 0.51786858 1.7770001
0.10831238 0.52125335 1.7770001
0.84957528 0.52125335 1.7770001
0.85634476 0.52125335 1.7770001
0.8631143 0.52125335 1.7770001
0.80965334 -0.15308572 1.7860001
0.81645721 -0.15308572 1.7860001
0.8249619 -0.15818858 1.7860001
0.83346671 -0.15535367 1.7860001
0.84197146 -0.15308572 1.7860001
0.85047621 -0.15308572 1.7860001
0.86521775 -0.15535367 1.7860001
0.78652036 -0.14560154 1.786
0.79604578 -0.14543143 1.7860001
0.80667669 -0.14585668 1.7860001
0.81645721 -0.14798287 1.7860001
0.82326096 -0.14968382 1.7860001
0.83686858 -0.14968382 1.7860001
0.84435284 -0.14832306 1.786
0.85485011 -0.1467679 1.7860001
0.86578482 -0.14628191 1.7860001
0.87428957 -0.14458096 1.7860001
0.88449526 -0.14288001 1.7860001
0.77563429 -0.13380826 1.7860001
0.7824381 -0.13777715 1.7860001
0.85728002 -0.1360762 1.7860001
0.86311185 -0.13559021 1.7860001
0.87315559 -0.13380826 1.7860001
0.88109332 -0.1360762 1.7860001
0.77359313 -0.12655087 1.786
0.85728002 -0.12927239 1.7860001
0.86408383 -0.12587048 1.7860001
0.87258863 -0.12587048 1.7860001
0.85614604 -0.11339682 1.7860001
0.86204273 -0.11634514 1.786
0.87088764 -0.11906667 1.7860001
0.76640052 -0.10497306 1.7860001
0.84480637 -0.10659301 1.7860001
0.85387814 -0.10545905 1.7860001
0.86068195 -0.10716 1.7860001
0.74728507 -0.092985399 1.7860001
0.75522286 -0.095253341 1.7860001
0.76202661 -0.095253326 1.7860001
0.83346671 -0.091851436 1.7860001
0.84464443 -0.094767354 1.7860001
0.85339218 -0.096225314 1.7860001
0.73481148 -0.085047625 1.7860001
0.74728507 -0.086181588 1.7860001
0.75522292 -0.085047625 1.7860001
0.76202661 -0.085047625 1.7860001
0.8266629 -0.08164572 1.7860001
0.83346671 -0.085728005 1.786
0.84231168 -0.086408392 1.786
0.75522292 -0.074841902 1.7860001
0.76287711 -0.074841909 1.7860001
0.82530212 -0.075522289 1.786
0.83233279 -0.073707946 1.7860001
0.84197146 -0.074841909 1.7860001
0.74841905 -0.062935241 1.7860001
0.75522286 -0.064150207 1.7860001
0.76429462 -0.064069211 1.7860001
0.8266629 -0.068038099 1.7860001
0.83395272 -0.065608166 1.7860001
0.8419714 -0.064636193 1.7860001
0.73821336 -0.052729525 1.7860001
0.74501717 -0.054430481 1.7860001
0.75522286 -0.054430481 1.7860001
0.76494259 -0.055402454 1.7860001
0.83573461 -0.053296506 1.7860001
0.84197146 -0.057832383 1.7860001
0.7359454 -0.045358732 1.7860001
0.74501711 -0.042523813 1.7860001
0.75522286 -0.047626667 1.7860001
0.83403367 -0.044224765 1.7860001
0.72517276 -0.032885082 1.7860001
0.73481154 -0.034019049 1.7860001
0.74246573 -0.033168573 1.7860001
0.8266629 -0.030617144 1.7860001
0.83304149 -0.034444287 1.7860001
0.72596657 -0.025174096 1.786
0.73481148 -0.024947302 1.7860001
0.74161524 -0.025514286 1.7860001
0.80965334 -0.02041143 1.7860001
0.81985909 -0.022112381 1.7860001
0.82530212 -0.023132954 1.786
0.83249474 -0.023327349 1.7860001
0.70759624 -0.010205715 1.7860001
0.71610105 -0.011906667 1.7860001
0.72573972 -0.012473651 1.7860001
0.73140955 -0.013607618 1.7860001
0.80829257 -0.014288001 1.786
0.81645715 -0.01360762 1.7860001
0.8246218 -0.014288001 1.786
0.83460069 -0.014741587 1.7860001
0.70759624 -0.005102857 1.7860001
0.71610099 -0.005102857 1.7860001
0.72528613 -0.0054430477 1.786
0.80965334 -0.0068038097 1.7860001
0.81645721 -0.0051028575 1.7860001
0.82326096 -0.005102857 1.7860001
0.6973905 0.0068038097 1.7860001
0.70419437 0.0039688889 1.7860001
0.71440005 0.0017009524 1.7860001
0.7229048 0 1.7860001
0.81872511 0.0011339682 1.7860001
0.82439494 0.0034019046 1.7860001
0.83006477 0.0068038097 1.7860001
0.88449526 0.0034019046 1.7860001
0.69602978 0.012927239 1.786
0.70376903 0.01360762 1.7860001
0.8266629 0.010205715 1.7860001
0.83346671 0.011906667 1.7860001
0.84282196 0.011906667 1.7860001
0.85387808 0.010205715 1.7860001
0.69568956 0.02041143 1.7860001
0.70079243 0.02041143 1.7860001
0.93722481 0.15988953 1.7860001
0.94799751 0.15875556 1.7860001
0.95423436 0.15988953 1.7860001
0.93484342 0.1646522 1.786
0.94572955 0.16329144 1.7860001
0.95423436 0.16329144 1.7860001
0.93552387 0.17281678 1.786
0.94615477 0.1739224 1.7860001
0.9542343 0.17519811 1.7860001
0.93722481 0.18370287 1.7860001
0.94346166 0.18143493 1.7860001
0.95423436 0.18030097 1.7860001
0.17009525 0.19731048 1.7860001
0.19731048 0.19731048 1.7860001
0.20326382 0.19475904 1.7860001
0.21772191 0.19390857 1.7860001
0.22452573 0.19731049 1.7860001
0.23473144 0.19731048 1.7860001
0.24493715 0.19731048 1.7860001
0.25854477 0.19731048 1.7860001
0.27385336 0.19731048 1.7860001
0.086748578 0.20751619 1.7860001
0.09593372 0.20615545 1.786
0.10460857 0.20496476 1.7860001
0.11566477 0.20071238 1.7860001
0.12757143 0.20071238 1.7860001
0.1360762 0.20071238 1.7860001
0.14628191 0.20071238 1.7860001
0.15648763 0.20071238 1.7860001
0.16499239 0.20071238 1.7860001
0.18370287 0.20071238 1.7860001
0.19220762 0.20071238 1.7860001
0.23132953 0.20071238 1.7860001
0.26704955 0.20071238 1.7860001
0.2755543 0.20071238 1.7860001
0.95480132 0.20184636 1.7860001
0.066904128 0.21318603 1.7860001
0.073140956 0.21261905 1.7860001
0.085047625 0.2109181 1.7860001
0.93552387 0.21687143 1.7860001
0.94459563 0.21432 1.7860001
0.95253336 0.2109181 1.7860001
0.063502222 0.22339176 1.7860001
0.91851431 0.22452572 1.7860001
0.92574334 0.22495097 1.7860001
0.93382293 0.2245257 1.7860001
0.94572955 0.22112381 1.7860001
0.056471623 0.23541181 1.786
0.91766381 0.23473144 1.7860001
0.92191625 0.23473144 1.7860001
0.93722486 0.23473144 1.7860001
0.94572961 0.23303048 1.7860001
0.053069718 0.24493715 1.786
0.91681337 0.24323621 1.7860001
0.9248929 0.2453624 1.7860001
0.93594909 0.2453624 1.7860001
0.94232768 0.24833906 1.7860001
0.047626663 0.2551429 1.7860001
0.052162539 0.25287494 1.7860001
0.92574334 0.25471765 1.7860001
0.93552375 0.25514287 1.7860001
0.94232768 0.25514287 1.7860001
0.042864002 0.26602894 1.786
0.91851431 0.26875049 1.7860001
0.92645216 0.26591554 1.7860001
0.93552375 0.26534858 1.7860001
0.94232768 0.26534858 1.7860001
0.042523813 0.2755543 1.7860001
0.91624641 0.27668825 1.7860001
0.92463779 0.27487391 1.786
0.93892574 0.27725524 1.7860001
0.94402862 0.2755543 1.7860001
0.043252792 0.286246 1.7860001
0.91511238 0.28576002 1.7860001
0.92191625 0.28235811 1.7860001
0.046265908 0.29528534 1.786
0.051028572 0.29936764 1.7860001
0.91715354 0.29664612 1.786
0.047626663 0.30617145 1.7860001
0.051028568 0.30617145 1.7860001
0.9151125 0.30549106 1.786
0.051028568 0.31637716 1.7860001
0.90830863 0.3180781 1.7860001
0.912561 0.31552669 1.7860001
0.052162539 0.32658288 1.7860001
0.90694779 0.32658288 1.786
0.9117105 0.32658288 1.7860001
0.94743049 0.32998478 1.7860001
0.054430477 0.33338669 1.7860001
0.061234288 0.33678859 1.7860001
0.90558708 0.33542785 1.786
0.93892574 0.33678859 1.7860001
0.94402862 0.33678859 1.7860001
0.066337146 0.34359241 1.7860001
0.90558708 0.34155124 1.786
0.9134115 0.34699431 1.7860001
0.92872006 0.3401905 1.7860001
0.93438989 0.34359241 1.7860001
0.074841909 0.35379812 1.7860001
0.08164572 0.35720003 1.7860001
0.90660763 0.35379812 1.7860001
0.91341144 0.35379812 1.7860001
0.93892574 0.35209715 1.7860001
0.94232768 0.35209715 1.7860001
0.087315559 0.36400381 1.7860001
0.90830868 0.36400381 1.7860001
0.91307127 0.36332345 1.786
0.095253333 0.37420955 1.7860001
0.894701 0.37761143 1.7860001
0.90490675 0.37364256 1.7860001
0.9117105 0.37250859 1.7860001
0.095678568 0.38398999 1.7860001
0.88789719 0.38441524 1.7860001
0.097804755 0.39462095 1.7860001
