# .PCD v0.7 - Point Cloud Data file format
VERSION 0.7
FIELDS x y z
SIZE 4 4 4
TYPE F F F
COUNT 1 1 1
WIDTH 1514
HEIGHT 1
VIEWPOINT 0 0 0 1 0 0 0
POINTS 1514
DATA ascii
0.33888888 0.16460319 1.5250001
0.34602979 0.16520834 1.5250001
0.35355106 0.1659864 1.5250002
0.36551592 0.16750795 1.5250001
0.37423015 0.16605556 1.5250001
0.34857145 0.17428572 1.5250001
0.35438097 0.17428572 1.5250001
0.36454761 0.17428575 1.525
0.37471429 0.17428572 1.5250001
0.36475512 0.18403742 1.5249999
0.37471434 0.1844524 1.525
0.38052383 0.18880953 1.5250001
0.34857145 0.19607145 1.5250001
0.35438097 0.19679764 1.5250001
0.36512858 0.1952 1.525
0.37471429 0.19461906 1.5250001
0.38052383 0.19461906 1.5250001
0.34639287 0.20551191 1.5250001
0.354381 0.20478572 1.525
0.36454761 0.20478573 1.5249999
0.37471429 0.20478575 1.525
0.38052383 0.20478573 1.5250001
0.34483674 0.21495238 1.5250002
0.35438097 0.21350001 1.5250001
0.36454764 0.21349999 1.5250001
0.37471429 0.21495238 1.5250001
0.38052383 0.21495239 1.5250001
0.34373018 0.22269841 1.5250001
0.36716193 0.22540954 1.5250001
0.37497836 0.22498704 1.525
0.38052383 0.22511905 1.5250001
0.36415151 0.23502165 1.525
0.37519839 0.23528574 1.5250001
0.38052383 0.23528571 1.5250001
0.36367622 0.24225715 1.5250001
0.37471429 0.2454524 1.525
0.38052383 0.24545239 1.5250001
0.36600003 0.25561905 1.5250001
0.37471429 0.25561908 1.5250001
0.38052383 0.25561905 1.5250001
0.37471429 0.26433337 1.5250001
0.38125002 0.26433337 1.5250001
0.37761906 0.27450001 1.5250001
0.38379169 0.27341074 1.5250001
0.39359525 0.27304763 1.5250001
0.37761906 0.2832143 1.5250001
0.38342857 0.28273019 1.5250001
0.38575238 0.29802859 1.5250001
0.3942177 0.29421091 1.5250002
0.41247621 0.29628572 1.5250001
0.38674831 0.3041701 1.5250002
0.39359525 0.30500004 1.5250001
0.38633335 0.31516668 1.525
0.39446667 0.31574765 1.525
0.40085715 0.31661907 1.5250001
0.38633335 0.32533336 1.5250001
0.39504761 0.32533336 1.5250001
0.38633338 0.3355 1.525
0.39504763 0.3355 1.525
0.40339884 0.33695239 1.5250001
0.38669646 0.3453036 1.5250001
0.39504761 0.34566668 1.5250001
0.40521431 0.34566674 1.525
0.41247621 0.34711906 1.5250001
0.38749525 0.35438097 1.5250001
0.39504761 0.35438097 1.5250001
0.40521434 0.35438097 1.525
0.41441274 0.35534921 1.5250001
0.42264289 0.35728574 1.5250001
0.38799319 0.36475512 1.5250002
0.39504758 0.36454761 1.525
0.40521431 0.36454761 1.5249999
0.41538098 0.36454764 1.525
0.42177144 0.36367622 1.5250001
0.38597026 0.3743512 1.5250001
0.39541072 0.3743512 1.5250001
0.4066667 0.37398809 1.5250001
0.41538098 0.37471429 1.5250001
0.42518455 0.37580359 1.5250001
0.43426192 0.37761906 1.5250001
0.38342857 0.38197619 1.5250001
0.3967075 0.38425851 1.5250002
0.40550476 0.38284761 1.5250001
0.41538095 0.38488102 1.525
0.42525715 0.38430005 1.525
0.43426192 0.38488096 1.5250001
0.39795241 0.39214286 1.5250001
0.41654286 0.39388573 1.5250001
0.42515153 0.39478353 1.525
0.43513337 0.39330477 1.5250001
0.40473017 0.40473017 1.5250001
0.42474076 0.40408471 1.5250001
0.40473017 0.41538095 1.5250001
0.42874289 0.41480002 1.5250001
0.43571433 0.41538098 1.5250001
0.44297621 0.41828573 1.5250001
0.45459527 0.41828573 1.5250001
0.46476194 0.41828573 1.5250001
0.49961907 0.41828573 1.5250001
0.50659049 0.41538095 1.5250001
0.5112381 0.41538095 1.5250001
0.43280953 0.4211905 1.5250001
0.44539681 0.42312703 1.5250001
0.45546666 0.42612857 1.525
0.46476188 0.4255476 1.525
0.47115245 0.42641908 1.5250001
0.49961907 0.42990479 1.5250001
0.50639683 0.42603174 1.5250001
0.51269048 0.42554763 1.5250001
0.45604762 0.43529937 1.5250002
0.4643988 0.43535122 1.5250001
0.47202384 0.43280953 1.5250001
0.49961907 0.43426192 1.5250001
0.50501364 0.4348844 1.5250002
0.46512502 0.44406551 1.5250001
0.47057146 0.44442859 1.5250001
0.49865079 0.44636509 1.5250001
0.50252384 0.44442859 1.5250001
0.46669841 0.4541111 1.5250001
0.47444454 0.45580557 1.525
0.48592517 0.45646259 1.5250002
0.49559706 0.45560074 1.5249999
0.50252384 0.45459524 1.5250001
0.44442859 0.46476188 1.5250001
0.46766669 0.46330953 1.5250001
0.47508997 0.46411642 1.5250001
0.48509529 0.46476194 1.5250001
0.49526191 0.46476185 1.525
0.50252384 0.46185717 1.5250001
0.44636509 0.47153974 1.5250001
0.45750001 0.4734762 1.5250001
0.4662143 0.4734762 1.5250001
0.47456551 0.47383931 1.5250001
0.48509529 0.47492865 1.525
0.49526191 0.47492865 1.5249999
0.5051381 0.47580004 1.525
0.48509526 0.48393336 1.5250001
0.49284127 0.48315874 1.5250001
0.44557714 -0.13191429 1.539
0.45290571 -0.13191429 1.539
0.48325852 -0.13324273 1.5350001
0.43971431 -0.12312 1.539
0.44535011 -0.1255343 1.5361999
0.4538829 -0.12605143 1.539
0.46566781 -0.123008 1.5376
0.4759326 -0.12454019 1.5348001
0.48203242 -0.12781334 1.5337501
0.49461716 -0.1283962 1.5320001
0.4260329 -0.11126762 1.53725
0.43558693 -0.11430687 1.5347999
0.44313362 -0.11714069 1.5320002
0.45522287 -0.11964191 1.5320001
0.4625181 -0.11964191 1.5320001
0.41919431 -0.10406572 1.539
0.42570844 -0.10533253 1.5360832
0.43396249 -0.10546831 1.5320002
0.44160509 -0.10407873 1.5320001
0.41919431 -0.095271438 1.539
0.42578954 -0.095107265 1.5363748
0.43479621 -0.09483809 1.5319999
0.44403684 -0.093865402 1.5319999
0.45230475 -0.09337905 1.5320001
0.42798859 -0.086477146 1.539
0.43448937 -0.084846996 1.5360832
0.44500956 -0.084624775 1.5319999
0.45303428 -0.083895244 1.5320001
0.43629429 -0.075240009 1.5389999
0.44576785 -0.074534766 1.5346248
0.45457444 -0.073600851 1.5320001
0.46430138 -0.072628155 1.5320001
0.47564954 -0.071493335 1.5320001
0.44710231 -0.064668573 1.5361999
0.45485812 -0.064562865 1.5320001
0.46522775 -0.065865584 1.5320002
0.47637904 -0.064198099 1.5320001
0.48148572 -0.061280001 1.5320001
0.4476288 -0.055998575 1.53725
0.45517015 -0.055551961 1.5351111
0.46377262 -0.054044768 1.5337501
0.47419047 -0.055443812 1.5320001
0.48148572 -0.055443812 1.5320001
0.44850859 -0.048368573 1.539
0.45363858 -0.046902861 1.539
0.46471182 -0.045302477 1.5344498
0.47467682 -0.044744134 1.5320001
0.4838202 -0.044938669 1.5320001
0.46570808 -0.035678614 1.5377272
0.47497872 -0.034779739 1.5332726
0.48357007 -0.034600276 1.5320002
0.4931581 -0.03209905 1.5320001
0.51504385 -0.035017144 1.5320001
0.52379811 -0.035017144 1.5320001
0.45730287 -0.026382858 1.539
0.46636364 -0.025316887 1.5389999
0.47433281 -0.025260681 1.5344999
0.48221466 -0.023378097 1.5343333
0.4931581 -0.026262857 1.5320001
0.51504385 -0.029180953 1.5320001
0.52574348 -0.027235558 1.5320001
0.45730287 -0.01319143 1.539
0.46729451 -0.014648811 1.538125
0.47466266 -0.014620107 1.5351111
0.4833611 -0.013775784 1.5340002
0.49421927 -0.014325195 1.5319999
0.50337148 -0.013131429 1.5320001
0.51358479 -0.011672381 1.5320001
0.46902859 -0.0087942863 1.539
0.47489145 -0.0058628572 1.539
0.48349145 -0.0058428575 1.5337499
0.49480605 -0.0058384128 1.5325832
0.50446576 -0.0054714284 1.5320001
0.51441848 -0.0041687074 1.5320002
0.52331179 -0.0038907938 1.5320001
0.46902859 0.0029314286 1.539
0.47556105 0.0037284845 1.5377272
0.48426238 0.0044877459 1.5352665
0.4950422 0.0043796431 1.5333123
0.50483054 0.004377143 1.5319999
0.51504385 0.004377143 1.5319998
0.52331179 0.0034044448 1.5320001
0.47684574 0.012702857 1.539
0.48441029 0.014636031 1.5366665
0.49461713 0.014590476 1.5319999
0.50483054 0.014590477 1.5320001
0.51504385 0.014590476 1.5319999
0.52233905 0.014590477 1.5320001
0.42798859 0.029314287 1.539
0.43238574 0.029314287 1.539
0.47684574 0.028337143 1.539
0.48376727 0.024843808 1.5346248
0.49412706 0.02449787 1.5336152
0.50517428 0.024894286 1.5374998
0.51533681 0.025404284 1.5350623
0.52306855 0.026992381 1.5320001
0.29167715 0.038108572 1.539
0.30606478 0.035699431 1.5362
0.31397143 0.037420955 1.5348001
0.32245716 0.038108572 1.539
0.35470286 0.038108572 1.539
0.3775765 0.038050797 1.5366668
0.38401714 0.033222858 1.539
0.40746859 0.038108572 1.539
0.41604573 0.034364287 1.5355
0.4228743 0.032865237 1.5337501
0.43725526 0.032172382 1.5355
0.44557714 0.032245714 1.539
0.45437145 0.034688573 1.539
0.46516532 0.035126477 1.5368999
0.47498688 0.034759574 1.5351111
0.48451868 0.033414423 1.5350001
0.49516255 0.035157882 1.5382222
0.50456005 0.034869336 1.5382999
0.51433307 0.035249386 1.5329999
0.52350628 0.034433525 1.5320001
0.27702001 0.048368573 1.539
0.28520468 0.04682165 1.5364544
0.29416081 0.0453627 1.5366665
0.30548382 0.046812195 1.5361999
0.31503385 0.045330476 1.5354998
0.32513258 0.044564288 1.5343332
0.33542144 0.044207856 1.5346251
0.34439677 0.042210612 1.5360001
0.3546147 0.042600818 1.5350001
0.3651067 0.042405713 1.5355
0.3735162 0.040853336 1.5320001
0.49753523 0.040853336 1.5320001
0.5058797 0.04438889 1.5366668
0.51438916 0.044422738 1.5354998
0.52307582 0.04686553 1.5376
0.26969144 0.055697143 1.539
0.27513206 0.055612702 1.5366666
0.28451428 0.055443808 1.5319999
0.29472762 0.055443816 1.5320001
0.30494094 0.05544382 1.5319999
0.31515428 0.055443816 1.5320001
0.5188629 0.055697143 1.539
0.52326 0.055697147 1.539
0.26793259 0.065664008 1.539
0.27499428 0.064359576 1.5358889
0.28451428 0.064198099 1.5319999
0.29472762 0.064198099 1.5320001
0.30494094 0.064198099 1.5319999
0.31478953 0.063833341 1.5320001
0.52374858 0.062537141 1.539
0.26708573 0.075565726 1.539
0.27492431 0.074578099 1.5354999
0.2845943 0.074431434 1.5324373
0.29472762 0.074411422 1.5319999
0.30464917 0.074703231 1.5319998
0.31223619 0.072952382 1.5320001
0.26569405 0.084744938 1.5389999
0.27471429 0.084753662 1.5343333
0.28451428 0.084624767 1.5319999
0.29472765 0.084624752 1.5320001
0.30406553 0.084624752 1.5319999
0.26871431 0.091851436 1.539
0.27601391 0.094643816 1.5382999
0.28467426 0.09489394 1.5328748
0.29472762 0.094838105 1.5319999
0.30431563 0.095046535 1.5319998
0.27848572 0.10406572 1.539
0.2846722 0.10514496 1.5375999
0.29464105 0.10567065 1.5370908
0.30504936 0.10471048 1.5354999
0.31452245 0.1067894 1.5330001
0.3239086 0.10630205 1.5320002
0.33499736 0.1068023 1.5320001
0.26969144 0.11432572 1.539
0.2755543 0.11481428 1.539
0.284715 0.11395928 1.539
0.29255658 0.11315314 1.539
0.30340287 0.11139429 1.539
0.31479806 0.11453569 1.5357691
0.32536766 0.11526478 1.5319998
0.33412194 0.11526477 1.5320001
0.28728002 0.12458572 1.539
0.29439923 0.12521389 1.5389998
0.30517089 0.12600154 1.5351818
0.31457967 0.12411912 1.5346922
0.32536766 0.1254781 1.5319999
0.33339238 0.12474857 1.5320001
0.28728002 0.13484572 1.539
0.29500833 0.13484569 1.5389999
0.30528429 0.13438572 1.5337499
0.31515428 0.13423239 1.5320001
0.32536766 0.13423239 1.5319999
0.33266288 0.13423239 1.5320001
0.35600764 0.13715048 1.5320001
0.36184382 0.13715048 1.5320001
0.28728002 0.14364001 1.539
0.29527482 0.14364 1.5389999
0.30563179 0.14477655 1.5354998
0.31515428 0.14444573 1.5319999
0.32536763 0.14444575 1.5319998
0.33433035 0.14590476 1.5320002
0.34608611 0.14240304 1.5320001
0.3545486 0.14240305 1.5319999
0.36184382 0.14006858 1.5320001
0.30676058 0.15484789 1.5380001
0.3146095 0.1551837 1.5345454
0.32536766 0.15465905 1.5319999
0.33558097 0.15465903 1.5320001
0.34141716 0.15757714 1.5320001
0.30633432 0.16269431 1.539
0.315355 0.1645515 1.5384614
0.325551 0.1649657 1.5328748
0.3353157 0.16473974 1.5319999
0.34238985 0.16633144 1.5320001
0.29167715 0.17881715 1.539
0.30486861 0.17881715 1.539
0.31542799 0.17468496 1.5361999
0.32536766 0.17508572 1.5319999
0.33558097 0.17508572 1.5320001
0.34433526 0.17508572 1.5320001
0.35017145 0.17508572 1.5320001
0.29705143 0.18419142 1.539
0.30486858 0.18468 1.539
0.31480205 0.18528645 1.5346922
0.32536763 0.18529907 1.5319998
0.33558097 0.18529905 1.5319999
0.34433523 0.18529905 1.5319999
0.35454857 0.18529907 1.5319998
0.36476192 0.18821715 1.5320001
0.29548803 0.19581942 1.5389999
0.30460212 0.19454026 1.5389999
0.31473228 0.19438028 1.5377272
0.3256132 0.1956635 1.5331665
0.33558097 0.1955124 1.5320001
0.34433523 0.1955124 1.5320001
0.35503495 0.19356699 1.5320001
0.36330289 0.19259429 1.5320001
0.31879288 0.20446716 1.539
0.32552689 0.20520917 1.5368999
0.33479378 0.20416985 1.5332726
0.34433526 0.20426667 1.5320001
0.35017145 0.20718478 1.5320001
0.31782189 0.21594603 1.5355
0.32555097 0.21460083 1.5328748
0.33558097 0.21448003 1.5319999
0.34141716 0.21448001 1.5320001
0.35308957 0.21642542 1.5320001
0.36476192 0.21885715 1.5320001
0.37059811 0.21885715 1.5320001
0.3173292 0.22457397 1.5378333
0.32548985 0.22478002 1.5325832
0.33558097 0.22469336 1.5320001
0.34384891 0.22517969 1.5320001
0.3545486 0.22469334 1.5319999
0.36392823 0.22469334 1.5320002
0.3715708 0.22663873 1.5320001
0.32663512 0.23295702 1.5370001
0.33496246 0.23506002 1.5329999
0.34433529 0.23490669 1.5319999
0.35454857 0.23490667 1.5319998
0.36330289 0.23052953 1.5320001
0.37424573 0.23709524 1.5320001
0.32739884 0.24500072 1.538125
0.33449861 0.24491143 1.5337499
0.34468341 0.24537188 1.5335555
0.35454857 0.24512 1.5319999
0.36403239 0.24730857 1.5320001
0.37059811 0.24512 1.5320001
0.32705387 0.2542879 1.5370001
0.3348594 0.25479826 1.5331665
0.34509906 0.25480455 1.5340999
0.3544513 0.25504154 1.5319998
0.36449668 0.25520071 1.5319999
0.37059811 0.25533336 1.5320001
0.32758716 0.26456141 1.539
0.33464667 0.26537618 1.5366665
0.34405497 0.26461849 1.5357691
0.35478595 0.26518902 1.5325383
0.36476195 0.26554668 1.5320001
0.37059811 0.26554668 1.5320001
0.32832003 0.2755543 1.539
0.33458233 0.27519807 1.5370001
0.34352398 0.27482542 1.5349165
0.35454857 0.27430096 1.5319999
0.36476192 0.27430093 1.5320001
0.37389395 0.27458248 1.5335555
0.3371143 0.28288287 1.539
0.34391621 0.28391749 1.5366665
0.35353845 0.28417757 1.5319998
0.36463863 0.28507048 1.5349998
0.37448719 0.28524891 1.5341537
0.38227049 0.28889143 1.5320001
0.34688571 0.29411998 1.539
0.35431451 0.29555947 1.5347999
0.36371282 0.29433143 1.5337499
0.37497523 0.29472765 1.5319999
0.38227049 0.29472765 1.5320001
0.34590858 0.30486858 1.539
0.35542354 0.30471277 1.5339998
0.36476192 0.30494097 1.5319999
0.37487802 0.30464914 1.5319998
0.38437068 0.30609637 1.5334001
0.34533554 0.31490403 1.5384614
0.35428849 0.31539738 1.5383636
0.36454841 0.31623653 1.5372499
0.3758752 0.31536895 1.5352306
0.38314384 0.31440523 1.5355
0.34884 0.32245716 1.539
0.35616857 0.32245716 1.539
0.36577716 0.32473719 1.539
0.37508109 0.32546097 1.5324373
0.38227049 0.32536763 1.5320001
0.36538115 0.33344322 1.5382999
0.37552711 0.33545387 1.5326363
0.38227049 0.33558097 1.5320001
0.36726612 0.34465224 1.5390002
0.37538019 0.34465352 1.5366665
0.38197428 0.34546143 1.5337501
0.36936 0.35177144 1.539
0.37485644 0.35470289 1.539
0.38360628 0.35464114 1.5361999
0.39102477 0.35600764 1.5320001
0.3750062 0.36548573 1.538125
0.38375014 0.36433733 1.5358181
0.36642858 0.37375715 1.539
0.37803534 0.37543851 1.5358889
0.3828541 0.37409982 1.5320001
0.39248383 0.37935239 1.5320001
0.40415618 0.37789333 1.5320001
0.37722132 0.38513222 1.5375999
0.38533571 0.38680476 1.5355
0.39308158 0.38577971 1.5343333
0.40610161 0.38518858 1.5320001
0.41145143 0.38810667 1.5320001
0.38841429 0.39574289 1.539
0.39575446 0.39620543 1.5346922
0.40561524 0.39540192 1.5319999
0.41363999 0.39686096 1.5320001
0.38870746 0.40395087 1.539
0.39520264 0.40530682 1.5325383
0.40512887 0.40512887 1.5320001
0.41436952 0.40561524 1.5320001
0.42093527 0.40634477 1.5320001
0.38988 0.41186571 1.539
0.39599857 0.41500175 1.5343332
0.40519837 0.41395262 1.5320002
0.41436952 0.41436952 1.5320001
0.42312387 0.41436955 1.5320001
0.39596519 0.42438006 1.5375999
0.40531877 0.42471465 1.533909
0.41497907 0.42453891 1.5332726
0.42356521 0.42488921 1.5345454
0.4341225 0.42594117 1.5347999
0.44296688 0.42662555 1.5320001
0.39867431 0.43385142 1.539
0.40626907 0.43530908 1.5372499
0.41445374 0.43460593 1.5333999
0.42409667 0.43444383 1.5326363
0.43474597 0.43542555 1.5373845
0.44576102 0.43541703 1.5357691
0.45463926 0.43479624 1.5320001
0.51739717 0.43824857 1.539
0.39867434 0.44557714 1.539
0.40594557 0.44445202 1.5380001
0.41410777 0.4447889 1.5337499
0.42487466 0.44471771 1.5319998
0.43550175 0.44514877 1.5354999
0.44478333 0.4447867 1.5337499
0.45517996 0.44568732 1.5343332
0.46178859 0.44719812 1.5320001
0.5077486 0.44500956 1.5320001
0.51567221 0.44535345 1.5382222
0.39867431 0.45144001 1.539
0.41422412 0.45445004 1.5383636
0.42574024 0.45500651 1.5361999
0.43648133 0.45521182 1.5368999
0.44497767 0.45506802 1.5332726
0.45529431 0.4544189 1.5361999
0.46344438 0.45552 1.5330001
0.5077486 0.45522285 1.5320001
0.51271069 0.45427716 1.5337501
0.41593713 0.46251434 1.539
0.42505717 0.46279931 1.539
0.4354299 0.46564621 1.5389998
0.44495943 0.46520621 1.5339998
0.45560688 0.46499401 1.5339998
0.46442607 0.46577296 1.5319998
0.47662225 0.46884063 1.5320001
0.50658137 0.46631163 1.5320001
0.51383752 0.46651593 1.5390002
0.43599659 0.47438231 1.5382999
0.44453168 0.47628593 1.5328751
0.45485812 0.47564954 1.5320001
0.46439403 0.47564954 1.5320002
0.4778381 0.47492 1.5320001
0.5077486 0.47273144 1.5320001
0.51335353 0.47300649 1.5348001
0.42798859 0.48368573 1.539
0.43605 0.48295286 1.539
0.4455514 0.4847846 1.5368999
0.45488486 0.48612827 1.5374445
0.46484351 0.48508742 1.5334998
0.47564951 0.48440382 1.5320001
0.48221526 0.48513335 1.5320001
0.49534667 0.48659235 1.5320001
0.50483054 0.48586285 1.5320001
0.51066667 0.48586285 1.5320001
0.45437139 0.49541146 1.539
0.46510074 0.4943617 1.5357331
0.47564951 0.49461713 1.5319999
0.48413852 0.49501505 1.5319999
0.49315807 0.49421921 1.5319999
0.50369459 0.49491364 1.5374445
0.51153433 0.49248001 1.539
0.45730287 0.50127429 1.539
0.4655109 0.50391257 1.5389999
0.47490856 0.50439483 1.533909
0.48440382 0.50483054 1.5320001
0.49338347 0.50447482 1.5326999
0.50273997 0.50420576 1.539
0.42798859 0.51446569 1.539
0.43092 0.51593143 1.539
0.46683002 0.51446581 1.539
0.47538656 0.51460099 1.5361998
0.48440376 0.51504385 1.5319999
0.49432531 0.51533562 1.5319998
0.50469697 0.51533729 1.5364544
0.51110047 0.51694667 1.5355
0.46551085 0.52501887 1.5389999
0.47489145 0.52435929 1.539
0.48432145 0.52529639 1.536375
0.4949576 0.52461821 1.5350001
0.50469428 0.52570289 1.539
0.51153433 0.52619147 1.539
0.46525961 0.53184491 1.5390002
0.47489145 0.53205431 1.539
0.48515144 0.53435755 1.5389998
0.49508572 0.53384578 1.539
0.50347286 0.53132147 1.539
0.5100686 0.53058857 1.539
0.49541149 0.54641831 1.539
0.49834287 0.5511086 1.539
0.49394572 0.5643 1.539
0.44269589 -0.13447748 1.5460001
0.45938286 -0.1325143 1.5460001
0.4652724 -0.1325143 1.5460001
0.47656068 -0.13349588 1.5460001
0.42993525 -0.12220763 1.5460001
0.43624547 -0.12283864 1.5460002
0.44171432 -0.12809715 1.5460001
0.45938286 -0.12809715 1.5460001
0.4652724 -0.12809715 1.5460001
0.47459745 -0.12858795 1.5460001
0.41815621 -0.11190096 1.5460001
0.42649969 -0.11533653 1.5460001
0.4343524 -0.11779048 1.5460001
0.41689417 -0.10390804 1.5460002
0.42110097 -0.1089562 1.5460001
0.41557953 -0.094600484 1.5460002
0.41557953 -0.085029997 1.5460002
0.4246347 -0.085103616 1.5460002
0.41668382 -0.075091437 1.5460002
0.42551813 -0.075091422 1.546
0.4343524 -0.073619053 1.5460001
0.41668379 -0.064784765 1.5460001
0.42551813 -0.064784765 1.5460001
0.43582478 -0.064784765 1.5460002
0.44289222 -0.064195812 1.5460001
0.41717461 -0.057913657 1.5460001
0.42540488 -0.05527091 1.5460001
0.43582478 -0.05447809 1.5460001
0.44367748 -0.053987298 1.5460002
0.41668382 -0.041226666 1.5460001
0.42522365 -0.043582477 1.5460002
0.43582478 -0.044171426 1.5460002
0.44465908 -0.044171426 1.5460002
0.45545653 -0.04269905 1.5460001
0.41742003 -0.036073335 1.5460001
0.42551813 -0.035337146 1.5460001
0.43582478 -0.035337143 1.5460002
0.44465908 -0.035337146 1.5460002
0.45496574 -0.035337146 1.5460001
0.46232763 -0.033864763 1.5460001
0.41815621 -0.027975239 1.5460001
0.42551813 -0.027975241 1.5460002
0.4360925 -0.025432033 1.5460002
0.44465908 -0.025030481 1.5460001
0.45433474 -0.024820134 1.5460001
0.46291661 -0.02414705 1.5460001
0.44465905 -0.017668571 1.5460001
0.45408231 -0.015018287 1.5460002
0.46350551 -0.01472381 1.5460001
0.45680618 -0.0062576197 1.5460002
0.46527237 -0.0058895247 1.5460002
0.47116193 -0.0044171433 1.5460001
0.44760382 0.0088342857 1.5460001
0.45791045 0.0044171433 1.5460002
0.46527243 0.0044171433 1.5460001
0.47233981 0.0058895238 1.5460001
0.44686761 0.01546 1.5460001
0.45680618 0.014355714 1.5460002
0.46527237 0.014723809 1.5460002
0.4744339 0.015378202 1.5460002
0.41815621 0.029447621 1.5460001
0.42581257 0.028269717 1.5460001
0.43656099 0.027239051 1.5460001
0.44498628 0.025848467 1.5460002
0.45673257 0.025913903 1.5460002
0.4652724 0.025030479 1.5460001
0.47478625 0.024237655 1.5460001
0.28564191 0.038281906 1.5460001
0.29545781 0.036318731 1.5460001
0.30257428 0.037545715 1.5460001
0.32686859 0.037300318 1.5460001
0.3327581 0.038281906 1.5460001
0.34600955 0.038281906 1.5460001
0.35189906 0.038281906 1.5460001
0.37496635 0.037300318 1.5460001
0.38281906 0.032392383 1.5460001
0.3945981 0.035337143 1.5460001
0.40637717 0.036809526 1.5460001
0.41521144 0.033864763 1.5460001
0.45643812 0.032392383 1.5460001
0.46821716 0.032392383 1.5460001
0.26797333 0.047116194 1.5460001
0.27631685 0.044171434 1.5460001
0.28466031 0.042208254 1.5460001
0.30272153 0.042404573 1.5460001
0.31214479 0.041226666 1.5460001
0.33570287 0.041226666 1.5460001
0.36515048 0.041226666 1.5460001
0.23558097 0.057128381 1.5460001
0.26502857 0.054478094 1.5460001
0.27239048 0.050060954 1.5460001
0.51754194 0.053005718 1.5460001
0.53005719 0.051533334 1.5460001
0.23705333 0.067729525 1.5460001
0.24441525 0.067729525 1.5460001
0.25693047 0.066993333 1.5460001
0.26460791 0.063943401 1.5460002
0.25678328 0.075091437 1.5460002
0.26418722 0.074039735 1.5460002
0.25619429 0.085398093 1.5460002
0.26208383 0.08834286 1.5460001
0.24736001 0.09128762 1.5460001
0.25472191 0.09423238 1.5460001
0.26466051 0.094600476 1.5460002
0.27239048 0.097177148 1.5460001
0.25545815 0.10331207 1.5460001
0.26502857 0.10453906 1.5460001
0.27410826 0.10527524 1.5460001
0.30920002 0.1089562 1.5460001
0.2650286 0.11484572 1.5460002
0.27445182 0.11425678 1.5460001
0.28269714 0.11779048 1.5460001
0.29624304 0.11543467 1.5460001
0.30527365 0.11582729 1.5460002
0.26561755 0.12191315 1.5460001
0.27607146 0.1239254 1.5460001
0.28416952 0.12515238 1.5460002
0.29447621 0.12073524 1.5460001
0.30478287 0.12073524 1.5460001
0.27729842 0.13644065 1.5460001
0.28480056 0.13545905 1.5460002
0.29153144 0.13545905 1.5460001
0.27533525 0.14429334 1.5460001
0.28527382 0.14429335 1.5460002
0.29447621 0.14723811 1.5460001
0.27575591 0.15396897 1.5460001
0.28564191 0.15460001 1.5460001
0.29447621 0.15460001 1.5460001
0.3018381 0.15607238 1.5460001
0.2787708 0.1629435 1.5460001
0.28564191 0.16490668 1.5460002
0.29405552 0.16490667 1.5460002
0.30331048 0.16564287 1.5460002
0.2797524 0.17374097 1.5460001
0.28623086 0.1746244 1.5460002
0.29477069 0.17432991 1.5460002
0.30444309 0.17419399 1.5460001
0.31391162 0.17491886 1.5460001
0.28711429 0.18552001 1.5460001
0.29349461 0.18601079 1.5460001
0.31508952 0.18257524 1.5460001
0.2878505 0.1936181 1.5460001
0.29374003 0.1936181 1.5460001
0.30036572 0.19140953 1.5460001
0.28858668 0.20318858 1.5460001
0.29374003 0.20245239 1.5460001
0.30625528 0.20495543 1.5460002
0.31482178 0.20479479 1.5460002
0.30846384 0.21423143 1.5460001
0.31472144 0.21459953 1.5460002
0.30920002 0.22232953 1.5460001
0.31398523 0.22601047 1.5460002
0.31508952 0.23381409 1.5460001
0.32333487 0.2361699 1.5460001
0.29742095 0.24147049 1.5460001
0.32466 0.24441525 1.5460001
0.32392383 0.25521269 1.5460001
0.32686859 0.26355621 1.5460001
0.31803429 0.27680764 1.5460001
0.32686856 0.27549884 1.5460002
0.3327581 0.27484444 1.5460001
0.33373967 0.28466031 1.5460001
0.33746973 0.29447621 1.5460001
0.34306479 0.29447624 1.5460001
0.35042667 0.29447621 1.5460001
0.33717525 0.30772763 1.5460001
0.34218138 0.30389944 1.5460001
0.35042667 0.30036572 1.5460001
0.33746973 0.31450057 1.5460001
0.3415924 0.31508952 1.5460001
0.33668447 0.32196066 1.5460001
0.34537855 0.32602721 1.5460002
0.35468021 0.32785013 1.5460002
0.36416888 0.32883176 1.5460001
0.34600952 0.33570287 1.5460001
0.3549777 0.33543518 1.5460002
0.3636781 0.33864763 1.5460001
0.35926098 0.3415924 1.5460001
0.3643091 0.34453711 1.5460002
0.35926098 0.35042667 1.5460001
0.36580485 0.35435301 1.5460002
0.37398478 0.35729781 1.5460001
0.36735907 0.36588666 1.5460001
0.37496638 0.36416888 1.5460001
0.36662287 0.37692952 1.5460001
0.37369031 0.37486821 1.5460002
0.36711368 0.38380066 1.5460001
0.37324858 0.38502762 1.5460001
0.37529358 0.39492527 1.5460002
0.38429147 0.39607048 1.5460001
0.37692955 0.4034324 1.5460002
0.38492247 0.40427378 1.5460002
0.38870859 0.41521144 1.5460001
0.39165336 0.41815621 1.5460001
0.38870859 0.4255181 1.5460001
0.39165336 0.4255181 1.5460001
0.39459813 0.43582475 1.5460002
0.4024508 0.43484318 1.5460001
0.3945981 0.44465902 1.5460002
0.4034324 0.44465905 1.5460001
0.3945981 0.45496571 1.5460001
0.40515018 0.45619273 1.5460001
0.39459807 0.46527237 1.5460002
0.40490475 0.46527243 1.5460001
0.41324827 0.46723557 1.5460001
0.42699048 0.46821716 1.5460001
0.39459813 0.47557905 1.5460001
0.40490475 0.47557902 1.546
0.41521144 0.47557905 1.5460001
0.4255181 0.47557902 1.546
0.43288001 0.47852382 1.5460001
0.3945981 0.48588574 1.5460002
0.40490481 0.48588574 1.5460001
0.41521144 0.48588574 1.5460002
0.42511654 0.48588574 1.5460002
0.43386161 0.48686734 1.5460001
0.44171432 0.48883051 1.5460001
0.3945981 0.49324763 1.5460001
0.40490484 0.49472001 1.5460001
0.41521144 0.49472004 1.5460002
0.42551813 0.49472001 1.5460001
0.43582478 0.49471998 1.5460002
0.44429097 0.4950881 1.5460002
0.45054859 0.4961924 1.5460001
0.51238859 0.49766478 1.5460001
0.40569764 0.50491339 1.5460001
0.41521144 0.50502664 1.5460001
0.42551813 0.50502664 1.546
0.43582478 0.50502676 1.5460001
0.44465908 0.50502664 1.5460001
0.45422956 0.50625366 1.5460001
0.46232763 0.50797141 1.5460001
0.50944382 0.50649905 1.5460001
0.51337022 0.50600821 1.5460001
0.40834033 0.51337016 1.5460001
0.41521144 0.51533335 1.5460002
0.4246347 0.51503891 1.5460002
0.43666616 0.51491266 1.5460002
0.44465902 0.51533341 1.5460002
0.45496574 0.51533329 1.5460001
0.46485171 0.51617473 1.5460002
0.50944382 0.51386094 1.5460001
0.51386094 0.51386094 1.5460001
0.41521144 0.52416766 1.5460002
0.42551813 0.52416772 1.5460001
0.43619287 0.52453572 1.5460002
0.44465902 0.52416772 1.5460002
0.45496571 0.52416772 1.5460001
0.46232763 0.5241676 1.5460001
0.42846286 0.53152955 1.5460001
0.4360925 0.5340727 1.5460002
0.44465908 0.53447431 1.5460001
0.45496577 0.53447431 1.546
0.46453622 0.53815526 1.5460001
0.47621012 0.53636736 1.5460002
0.50600827 0.53790981 1.5460001
0.43729717 0.54330862 1.5460001
0.44465905 0.54441285 1.5460002
0.45496571 0.54478091 1.5460001
0.46527243 0.54478097 1.5460002
0.47528458 0.54448646 1.5460002
0.48546505 0.54562229 1.5460002
0.49324763 0.54478097 1.5460001
0.50355422 0.54478097 1.5460002
0.4551293 0.55394244 1.5460002
0.4652724 0.5506705 1.5460001
0.4799962 0.5506705 1.5460001
0.48588574 0.55214292 1.5460001
0.4950881 0.55545574 1.5460002
0.50208187 0.55508769 1.5460001
0.45643812 0.56244951 1.5460001
0.4935421 0.56421638 1.5460001
0.50060952 0.56392193 1.5460001
0.4950881 0.57422858 1.5460002
0.50060952 0.57422858 1.5460001
0.47116193 0.58895242 1.5460001
0.49530897 0.58365184 1.5460001
0.50060952 0.58453524 1.5460001
0.46821716 0.59189719 1.5460001
0.47606984 0.59189719 1.5460001
0.49530897 0.59366405 1.5460001
0.49766478 0.60514855 1.5460001
0.50060952 0.60514855 1.5460001
0.43484005 -0.13015619 1.5530001
0.44519335 -0.13311429 1.5530001
0.45258859 -0.13607238 1.5530001
0.46737906 -0.13607238 1.5530001
0.47329524 -0.13607238 1.5530001
0.42744476 -0.12276096 1.5530001
0.43484005 -0.1271981 1.5530001
0.41709143 -0.11388667 1.5530001
0.42300764 -0.11684477 1.5530001
0.4133938 -0.10501237 1.5530002
0.40703392 -0.094067439 1.5530001
0.41191477 -0.093919531 1.5530001
0.39835683 -0.083812706 1.5530001
0.40562883 -0.085415006 1.5530002
0.41191477 -0.086524285 1.5530001
0.3980751 -0.076065309 1.5530002
0.40525904 -0.075431429 1.5530001
0.41265428 -0.075431436 1.5530002
0.39934286 -0.068036191 1.5530001
0.40610424 -0.065500684 1.5530002
0.41265428 -0.065078095 1.5530001
0.40762553 -0.055612188 1.5530001
0.41386443 -0.054321386 1.5530002
0.42300767 -0.051766668 1.5530001
0.43188193 -0.050287619 1.5530001
0.40610427 -0.04394884 1.5530002
0.41376355 -0.044741191 1.5530002
0.42202163 -0.046343494 1.5530001
0.43188193 -0.047329526 1.5530001
0.39934286 -0.03845524 1.5530001
0.40562883 -0.035866905 1.5530002
0.41376358 -0.035127383 1.5530002
0.40747765 -0.02736238 1.5530001
0.41413334 -0.025143811 1.5530001
0.42448673 -0.022185713 1.5530002
0.43286797 -0.021692699 1.5530001
0.41511932 -0.01429746 1.5530001
0.42448673 -0.014790478 1.5530001
0.43483999 -0.014790475 1.5530002
0.44505891 -0.01452156 1.5530002
0.41709143 -0.008874286 1.5530001
0.425596 -0.0070254761 1.5530002
0.43483999 -0.0059161908 1.5530002
0.44519338 -0.0059161908 1.5530001
0.4533281 -0.0051766671 1.5530001
0.42892382 0 1.5530001
0.43483999 0.004437143 1.5530001
0.44489753 0.0041413335 1.553
0.45406762 0.004437143 1.5530002
0.42537412 0.017156953 1.5530001
0.43483999 0.014790475 1.5530002
0.44334453 0.014420714 1.5530002
0.4533281 0.01553 1.5530001
0.25291717 0.029580953 1.5530001
0.41413331 0.029580953 1.5530001
0.425596 0.023295 1.5530002
0.43484005 0.022185715 1.5530001
0.44371429 0.022481525 1.5530001
0.45406762 0.023664763 1.5530001
0.25476596 0.035866905 1.5530002
0.26411563 0.037187487 1.5530002
0.2758424 0.037715718 1.5530001
0.28594923 0.035004128 1.5530001
0.29679558 0.033525079 1.5530001
0.30172572 0.032539047 1.5530001
0.32834858 0.035497144 1.5530001
0.33426476 0.036483176 1.5530001
0.341167 0.037469208 1.5530001
0.3653248 0.03845524 1.5530001
0.37715715 0.035497144 1.5530001
0.3815943 0.032539047 1.5530001
0.39638478 0.034018096 1.5530001
0.40723112 0.036483176 1.5530001
0.41413331 0.032539047 1.5530001
0.22777334 0.047329526 1.5530001
0.23516858 0.047329526 1.5530001
0.24594449 0.045216601 1.5530002
0.2543962 0.04437143 1.5530002
0.26434615 0.044102509 1.5530002
0.27362382 0.042892382 1.5530001
0.21636355 0.05704898 1.5530002
0.22481526 0.054724764 1.5530001
0.2344963 0.053514633 1.5530002
0.24552192 0.054724764 1.5530001
0.2543962 0.054724764 1.5530001
0.26031238 0.054724764 1.5530001
0.21712419 0.066261336 1.5530001
0.22481526 0.065078095 1.5530002
0.23457697 0.064486466 1.5530002
0.24552192 0.06470833 1.5530002
0.25397363 0.064232923 1.5530002
0.26031238 0.062120002 1.5530001
0.21742 0.075431436 1.5530002
0.22481525 0.075431436 1.5530001
0.23516858 0.075431444 1.553
0.24552192 0.075431429 1.5530001
0.25242415 0.075431436 1.5530001
0.22629428 0.085784763 1.5530001
0.23516858 0.085784763 1.5530001
0.24552192 0.085784763 1.5530002
0.25143811 0.085784763 1.5530001
0.22777334 0.093180001 1.5530001
0.23516858 0.09465906 1.5530001
0.24515215 0.095028818 1.5530002
0.23580244 0.10458981 1.5530001
0.24579085 0.10487792 1.5530002
0.25365669 0.10871001 1.5530001
0.23763365 0.11339366 1.5530001
0.25476596 0.11499596 1.5530002
0.26031238 0.11536571 1.5530001
0.25617105 0.12424 1.5530001
0.26327047 0.12550776 1.5530002
0.27214476 0.1271981 1.5530001
0.2455219 0.13508636 1.5530001
0.2543962 0.13459334 1.5530001
0.26474956 0.13459334 1.553
0.27477419 0.13344295 1.5530002
0.24589168 0.14531644 1.5530002
0.2543962 0.14494666 1.5530002
0.26474956 0.14494665 1.5530001
0.24848001 0.1523419 1.5530001
0.25513572 0.15382096 1.5530002
0.26474953 0.15529999 1.553
0.27362382 0.15973715 1.5530001
0.26524255 0.16466731 1.5530002
0.2747331 0.16602311 1.5530002
0.28101906 0.16861144 1.5530001
0.2972886 0.16565335 1.5530001
0.26918668 0.17452763 1.5530001
0.27510285 0.17452765 1.5530002
0.28397715 0.17748572 1.5530001
0.26859504 0.1857684 1.5530001
0.27510285 0.18488096 1.5530001
0.28249812 0.18488096 1.5530002
0.26707375 0.1948117 1.5530002
0.27510285 0.1952343 1.5530002
0.28360739 0.19560404 1.5530002
0.26820067 0.20312254 1.5530001
0.27510288 0.20262952 1.5530001
0.28545618 0.20299926 1.5530002
0.29580954 0.20706667 1.5530001
0.30172572 0.20706667 1.5530001
0.28989333 0.21150382 1.5530001
0.29580954 0.21446192 1.5530001
0.3040922 0.21505353 1.5530002
0.29617926 0.22481523 1.5530002
0.30468383 0.22481526 1.5530002
0.31060001 0.22777334 1.5530001
0.28609008 0.23833796 1.5530002
0.29580951 0.23516858 1.5530001
0.30468383 0.23516858 1.5530001
0.3135581 0.23701736 1.5530002
0.3224324 0.23960572 1.5530001
0.28693524 0.24552189 1.5530002
0.29543975 0.24589166 1.5530002
0.30468383 0.24509932 1.5530002
0.31503716 0.24552195 1.5530001
0.3224324 0.2455219 1.5530001
0.28693524 0.25143811 1.5530001
0.29679558 0.25341019 1.5530001
0.30369779 0.25538224 1.5530001
0.31585887 0.25373885 1.5530002
0.32317191 0.2543962 1.5530001
0.29580957 0.26504534 1.5530001
0.30468386 0.26474953 1.5530002
0.31524843 0.26517215 1.5530001
0.32370016 0.26538339 1.5530002
0.28989333 0.27658191 1.5530001
0.29580951 0.27510285 1.5530002
0.3046838 0.27510285 1.5530002
0.31463376 0.27483395 1.5530002
0.32391143 0.27362382 1.5530001
0.29531649 0.28348413 1.5530001
0.30542338 0.28397715 1.5530002
0.31503716 0.28545618 1.553
0.32512158 0.28585958 1.5530002
0.3337718 0.28742826 1.5530001
0.34018096 0.28989333 1.5530001
0.31736135 0.29538694 1.5530002
0.32539049 0.29580954 1.5530002
0.33341959 0.29580954 1.5530002
0.30542335 0.30690241 1.5530001
0.31562877 0.30527544 1.5530002
0.32539049 0.3046838 1.5530002
0.333895 0.30431408 1.5530002
0.34018096 0.30320477 1.5530001
0.30527547 0.31503716 1.5530002
0.31503716 0.31503713 1.553
0.32539055 0.31503716 1.5530001
0.33327875 0.31553018 1.5530002
0.30665591 0.32341841 1.5530001
0.32581308 0.32454532 1.5530002
0.33341959 0.32581308 1.5530002
0.34166002 0.32686952 1.5530001
0.32613 0.33204621 1.5530001
0.33463454 0.33389503 1.5530002
0.34165999 0.33426479 1.5530001
0.31799525 0.34018096 1.5530001
0.32834858 0.34018096 1.5530001
0.33537406 0.34350881 1.5530002
0.34419551 0.34525198 1.5530001
0.35497141 0.34550554 1.5530002
0.36088765 0.3475762 1.5530001
0.33574381 0.35497141 1.5530001
0.34461808 0.35497141 1.5530001
0.35497144 0.35497141 1.5530002
0.36088765 0.3564505 1.5530001
0.32834858 0.36680382 1.5530001
0.33574381 0.3653248 1.5530002
0.34461808 0.3653248 1.553
0.35497144 0.36532477 1.5530001
0.36357686 0.36492145 1.5530002
0.32686955 0.37715718 1.5530001
0.33463454 0.37604785 1.5530002
0.34461808 0.37567809 1.5530001
0.35497141 0.37567809 1.5530002
0.36347598 0.37530833 1.5530002
0.32686955 0.38455239 1.5530001
0.33426476 0.38455242 1.5530002
0.34461811 0.38455239 1.5530001
0.35497141 0.38455236 1.5530002
0.3630006 0.38497499 1.5530002
0.37272 0.38751048 1.5530001
0.31947431 0.39638478 1.5530001
0.32539049 0.39490569 1.5530001
0.33426476 0.39490572 1.5530001
0.34461814 0.39490575 1.553
0.35526723 0.39490572 1.5530002
0.36532477 0.39490572 1.553
0.37272 0.39490575 1.5530001
0.32686955 0.40230095 1.5530001
0.33544803 0.4040758 1.5530001
0.34511113 0.40460169 1.5530002
0.35674629 0.40585071 1.5530001
0.36532483 0.40525901 1.5530001
0.37272 0.40525904 1.5530001
0.34708318 0.41216126 1.5530001
0.35792953 0.41117525 1.5530001
0.36647516 0.41380465 1.5530002
0.37567809 0.41413331 1.5530002
0.38455242 0.41413334 1.5530002
0.34609714 0.42596576 1.5530001
0.35497144 0.42681092 1.5530002
0.36614648 0.42629442 1.5530002
0.37567806 0.42448667 1.5530001
0.38455239 0.42448673 1.5530001
0.34708318 0.43286797 1.5530001
0.35534117 0.43447024 1.5530002
0.36532477 0.43483999 1.5530001
0.37567809 0.43483999 1.5530002
0.38455236 0.43483999 1.5530002
0.3904686 0.43631905 1.5530001
0.35595745 0.44470036 1.5530002
0.36532477 0.44519335 1.553
0.37540916 0.44532785 1.5530002
0.38455239 0.44519332 1.5530001
0.3904686 0.44519335 1.5530001
0.35792956 0.45554671 1.5530001
0.36421549 0.4559164 1.5530002
0.37469208 0.45653272 1.5530001
0.38539758 0.45596927 1.5530002
0.3904686 0.45554671 1.5530001
0.36483178 0.46294197 1.5530001
0.37567809 0.464421 1.5530002
0.38455242 0.464421 1.5530002
0.3904686 0.46442094 1.5530001
0.37597391 0.47388688 1.5530002
0.38455239 0.47477427 1.5530001
0.3904686 0.4747743 1.5530001
0.38553843 0.48414162 1.5530001
0.3904686 0.48512766 1.5530001
0.39342666 0.49696001 1.5530001
0.5176667 0.4999181 1.5530001
0.52062476 0.4999181 1.5530001
0.39638475 0.50583434 1.5530002
0.40378001 0.50583428 1.5530001
0.5176667 0.50435525 1.5530001
0.52062476 0.50583434 1.5530001
0.39638475 0.51470858 1.5530002
0.40427303 0.51569462 1.5530001
0.39638481 0.52506191 1.5530001
0.40525904 0.52506191 1.5530001
0.41117525 0.52506191 1.5530001
0.34609714 0.53837335 1.5530001
0.40747765 0.53467572 1.5530001
0.41413334 0.53541529 1.5530002
0.42359924 0.53571111 1.5530002
0.43188193 0.53837335 1.5530001
0.40703392 0.54488122 1.5530001
0.41413334 0.54428959 1.5530002
0.42448667 0.54428953 1.5530001
0.43336096 0.54428959 1.5530001
0.47921145 0.54724765 1.5530001
0.39934286 0.55168474 1.5530001
0.40585071 0.55198056 1.5530001
0.41413334 0.55020571 1.5530001
0.42512056 0.5514735 1.5530002
0.43549734 0.55349243 1.5530002
0.44470036 0.55349249 1.5530002
0.45357463 0.55809397 1.5530001
0.46442094 0.55760098 1.5530001
0.47551382 0.55587542 1.5530001
0.48438811 0.55834049 1.5530001
0.4925229 0.55908 1.5530001
0.44223523 0.56203812 1.5530001
0.464421 0.56351715 1.5530001
0.47477427 0.56499618 1.5530001
0.48512766 0.56499618 1.5530002
0.49178338 0.56425673 1.5530001
0.47847193 0.57460999 1.5530001
0.48512766 0.57534951 1.5530001
0.49163547 0.57564533 1.5530001
0.46737906 0.58866096 1.5530001
0.47526729 0.58668888 1.5530002
0.48512766 0.5857029 1.5530002
0.49498796 0.58668888 1.5530002
0.50287622 0.58718193 1.5530001
0.46737906 0.59161907 1.5530001
0.47514403 0.59494692 1.5530002
0.48549742 0.59457719 1.5530002
0.49222708 0.59398556 1.5530001
0.50435525 0.59605622 1.5530001
0.4756617 0.60315561 1.5530002
0.48512766 0.60493058 1.5530001
0.49484712 0.60450792 1.5530001
0.50287622 0.6019724 1.5530001
0.47329524 0.61232573 1.5530001
0.48512766 0.61528379 1.5530002
0.49488935 0.61469227 1.5530002
0.50287622 0.61232573 1.5530001
0.47625333 0.62378836 1.5530002
0.48808575 0.62120003 1.5530001
0.4925229 0.62120003 1.5530001
0.47606954 -0.14028381 1.567
0.42788574 -0.13074286 1.5600001
0.43382859 -0.13222858 1.5600001
0.44472954 -0.13729905 1.567
0.47840002 -0.13965715 1.5600001
0.4843429 -0.13965715 1.5600001
0.41841906 -0.12210191 1.5635
0.42445228 -0.12504192 1.5630001
0.43085715 -0.12777144 1.5600001
0.41593623 -0.11465334 1.5635
0.42194286 -0.11885715 1.5600001
0.40742001 -0.10148191 1.567
0.41128382 -0.10431556 1.5646667
0.3999581 -0.09252762 1.567
0.40403864 -0.095696874 1.5630001
0.3958506 -0.085062653 1.563889
0.4026286 -0.089142859 1.5600001
0.39485389 -0.073956467 1.5620002
0.39657632 -0.0655981 1.5654446
0.40262857 -0.063885719 1.5600001
0.39846572 -0.055218097 1.5670002
0.40433511 -0.054631688 1.5619092
0.39657778 -0.044729948 1.5654446
0.40233144 -0.045165714 1.5600001
0.39556313 -0.035515502 1.5657274
0.40213335 -0.033676192 1.5600001
0.39771953 -0.026862858 1.5670002
0.40450117 -0.024888312 1.5625457
0.41005716 -0.0208 1.5600001
0.39876419 -0.014923809 1.567
0.40592763 -0.014923809 1.5670002
0.41203809 -0.01535238 1.5600001
0.39589927 -0.0053699049 1.5663002
0.40512168 -0.0059576724 1.563889
0.41417885 -0.0059468574 1.5621002
0.42350745 -0.0035683811 1.5614001
0.39548093 0.0044771428 1.5669999
0.40592757 0.0044771428 1.567
0.41488191 0.0044771428 1.567
0.42389855 0.0044621429 1.5617499
0.43085715 0.0059428574 1.5600001
0.39588797 0.01492381 1.5670002
0.40511724 0.014892699 1.563889
0.41461334 0.015143031 1.5619092
0.4243339 0.013166803 1.5610001
0.43085715 0.011885715 1.5600001
0.39697334 0.025370477 1.567
0.40531874 0.025332699 1.5646667
0.41417143 0.024228571 1.5600001
0.42194286 0.023771429 1.5600001
0.21609676 0.03701105 1.567
0.22513632 0.036669932 1.5670002
0.2357962 0.038801905 1.567
0.24554805 0.035927273 1.5600002
0.25257143 0.032685716 1.5600001
0.27931431 0.032685716 1.5600001
0.28426668 0.033676192 1.5600001
0.29549143 0.03283238 1.567
0.33874288 0.035657145 1.5600001
0.34617144 0.035657145 1.5600001
0.35508573 0.035657145 1.5600001
0.36563334 0.035817143 1.567
0.37387812 0.034529906 1.5628
0.38034287 0.032685716 1.5600001
0.39817145 0.032685716 1.5600001
0.40456766 0.033465236 1.5617501
0.41005716 0.032685716 1.5600001
0.18804 0.047756191 1.567
0.19550191 0.047756191 1.567
0.20599353 0.046434287 1.5628
0.21501581 0.044964574 1.5635002
0.22494419 0.044091813 1.5642002
0.23509176 0.043147936 1.5623335
0.24291429 0.04234286 1.5600001
0.15819238 0.058202859 1.567
0.16416191 0.058202859 1.567
0.17393023 0.056167793 1.5670002
0.18498635 0.055195879 1.5664167
0.19516858 0.055127259 1.5643749
0.20502855 0.05497143 1.5600001
0.21394287 0.053155556 1.5600002
0.17590097 0.06484358 1.5652502
0.18441376 0.065433651 1.5615557
0.1946286 0.065371439 1.5600001
0.20502856 0.065371424 1.5600002
0.21351838 0.064522453 1.5600002
0.17741182 0.073822096 1.5628
0.18422857 0.074285716 1.5600002
0.19462858 0.074285716 1.5600001
0.20502856 0.074285716 1.5600002
0.21245717 0.074285716 1.5600001
0.17816877 0.084023617 1.5642
0.18436413 0.084751271 1.5611668
0.19490442 0.08480905 1.5621874
0.20548858 0.084882386 1.5635
0.2151393 0.085378639 1.561
0.22285716 0.086171426 1.5600001
0.17908572 0.097004764 1.567
0.18496192 0.095466465 1.5662224
0.1954308 0.095477939 1.5664167
0.20584637 0.095463492 1.5662224
0.21542858 0.095085718 1.5600001
0.22497959 0.0955102 1.5600002
0.18505524 0.10446667 1.5670002
0.19590892 0.10419533 1.5670002
0.20502855 0.10548571 1.5600001
0.21542858 0.10548572 1.5599999
0.22582859 0.10548571 1.5600001
0.23177144 0.10845715 1.5600001
0.24365716 0.10697144 1.5600001
0.18462884 0.11299457 1.5670002
0.19774048 0.11342096 1.5670002
0.2054345 0.11611979 1.5631113
0.21542859 0.11588573 1.5600001
0.22582857 0.11588572 1.5600002
0.23389389 0.1163102 1.5600002
0.24554805 0.11615586 1.5600002
0.25257143 0.11885715 1.5600001
0.19997905 0.12536001 1.567
0.20583192 0.12491858 1.5661252
0.21482515 0.12467486 1.5621002
0.22492747 0.12517315 1.5612729
0.23474285 0.1248 1.5600002
0.24514286 0.12479999 1.5600001
0.25331432 0.1248 1.5600001
0.19774048 0.13655286 1.567
0.20669477 0.13655286 1.567
0.21590209 0.13539085 1.5656
0.22503735 0.13514286 1.5627999
0.23474286 0.13520001 1.5600001
0.24479999 0.13508573 1.5600001
0.19997905 0.14177619 1.567
0.20594858 0.14177619 1.567
0.21788763 0.14476095 1.567
0.22477129 0.14564645 1.5653846
0.23474285 0.14560001 1.5600002
0.24142857 0.14485714 1.5600001
0.21714143 0.15520762 1.567
0.22534953 0.15520762 1.567
0.23485844 0.15459135 1.560778
0.24425142 0.15481143 1.5600002
0.25405717 0.15748572 1.5600001
0.19251715 0.16714667 1.567
0.21669371 0.16475886 1.567
0.22534953 0.16416191 1.567
0.23556268 0.16439086 1.5635002
0.24514285 0.16491428 1.5599999
0.25527272 0.16531947 1.5600002
0.26445717 0.16937144 1.5600001
0.18704508 0.17212127 1.567
0.19326334 0.17237 1.567
0.22638272 0.17426418 1.567
0.23523396 0.17480105 1.565091
0.24541509 0.17551208 1.5617501
0.25554287 0.17531429 1.5600002
0.26445717 0.17531429 1.5600002
0.22783683 0.18406032 1.567
0.235211 0.18459895 1.5631113
0.24541508 0.18443747 1.5617501
0.25554287 0.18422857 1.5600002
0.26445714 0.18422858 1.5600002
0.2275881 0.19475572 1.567
0.23537222 0.19426249 1.5642002
0.24475048 0.19550191 1.567
0.25433713 0.19484691 1.5617499
0.26275921 0.19484082 1.5600002
0.23679112 0.2069435 1.567
0.24415353 0.20535162 1.567
0.25462049 0.20548856 1.5635
0.26408577 0.20502856 1.5600002
0.27485716 0.208 1.5600001
0.28525716 0.208 1.5600001
0.23728858 0.21490286 1.567
0.24512358 0.21527596 1.5670002
0.25481161 0.21458395 1.5646667
0.2644572 0.21542858 1.5600001
0.27485716 0.21542859 1.5599999
0.28525713 0.21542859 1.5600001
0.29120001 0.2184 1.5600001
0.23778604 0.22286223 1.567
0.24502182 0.22494251 1.5670002
0.25512466 0.22528537 1.5665624
0.26524827 0.22650559 1.5646669
0.27489439 0.22646599 1.5625457
0.28478819 0.22563145 1.5607002
0.29194286 0.22582859 1.5600001
0.24773525 0.2357962 1.567
0.25490716 0.23553286 1.56525
0.2645905 0.23485841 1.560778
0.27495828 0.23482955 1.5605835
0.28483266 0.23389389 1.5600002
0.29120001 0.23325714 1.5600001
0.25500384 0.24456936 1.5658334
0.26510763 0.24458209 1.5621002
0.27485716 0.24514283 1.5599999
0.28228572 0.24662858 1.5600001
0.30605716 0.24811429 1.5600001
0.25644082 0.25469971 1.567
0.26526338 0.2554999 1.5663638
0.27485716 0.25554284 1.5600001
0.28483266 0.25639185 1.5600002
0.29357716 0.25732571 1.5600001
0.30803812 0.25356191 1.5600001
0.31398097 0.2575238 1.5600001
0.25788343 0.26624078 1.567
0.26524383 0.26524827 1.5646669
0.27505937 0.26465496 1.5611668
0.28525713 0.2644572 1.5600002
0.29374695 0.26360819 1.5600002
0.30407622 0.2664381 1.5600001
0.31497145 0.26297146 1.5600001
0.25765142 0.27494705 1.5656
0.26524827 0.27418479 1.5646669
0.27538669 0.27401629 1.561077
0.28525713 0.27485716 1.5600001
0.29318097 0.27139047 1.5600001
0.3001143 0.27040002 1.5600001
0.25967428 0.28056762 1.567
0.26564381 0.28504476 1.567
0.27554134 0.28508723 1.5655999
0.28525713 0.28525713 1.5600002
0.29357713 0.28525716 1.5600001
0.30308571 0.28822857 1.5600001
0.25967428 0.29847619 1.567
0.26713619 0.29549143 1.567
0.27567384 0.29505032 1.5646667
0.28525713 0.29417148 1.5600002
0.29417145 0.29417142 1.5600002
0.30416629 0.29444158 1.5600002
0.31299052 0.29615238 1.5600001
0.25788343 0.30563962 1.567
0.26604044 0.30513397 1.5654446
0.27508548 0.3048248 1.5613124
0.28525713 0.30457145 1.5600001
0.29417148 0.30457148 1.5600001
0.30382863 0.30333337 1.5600001
0.31348574 0.30160001 1.5600001
0.25967428 0.31190762 1.567
0.26415142 0.31041524 1.567
0.27603829 0.31509781 1.563889
0.28529754 0.31597659 1.5635002
0.29417145 0.31497145 1.5600002
0.30085716 0.31422859 1.5600001
0.27609047 0.32384667 1.567
0.28464544 0.32525375 1.5625
0.29417142 0.32537141 1.5600001
0.30308577 0.32631686 1.5600002
0.31497145 0.32685712 1.5600002
0.32269716 0.32804576 1.5600001
0.28406113 0.33444098 1.5649002
0.29417142 0.33577144 1.5600002
0.30457148 0.33577144 1.5600001
0.31497145 0.33577144 1.5600002
0.32425714 0.33688575 1.5600002
0.3328 0.33874288 1.5600001
0.28677878 0.34217578 1.5660001
0.29483142 0.34397337 1.5635
0.30513921 0.34533349 1.5629168
0.31460002 0.34505719 1.5600002
0.32537144 0.34528005 1.5600002
0.3328 0.34617144 1.5600001
0.29586941 0.35572246 1.5600002
0.30528736 0.35478613 1.5615
0.31497145 0.35508573 1.5600001
0.32537144 0.35508573 1.5599999
0.33339429 0.35419431 1.5600001
0.28822857 0.36400002 1.5600001
0.29413 0.36552429 1.5617502
0.30453363 0.36509964 1.562
0.31497145 0.3654857 1.5600002
0.32496622 0.3652156 1.5600002
0.3328 0.36548576 1.5600001
0.29661071 0.37496072 1.5670002
0.30503172 0.3752014 1.5644547
0.31465584 0.37503582 1.5614002
0.32477713 0.3738057 1.5600002
0.3328 0.37291431 1.5600001
0.29698381 0.38503429 1.567
0.30444571 0.38503429 1.5670002
0.31450734 0.38490042 1.563
0.3224 0.38480002 1.5600002
0.34617147 0.38628575 1.5600001
0.2895219 0.39697334 1.567
0.29586452 0.39436167 1.5670002
0.30471706 0.39507392 1.5670002
0.31385741 0.39536053 1.564
0.3209143 0.39371431 1.5600001
0.35657144 0.39222857 1.5600001
0.29847619 0.40891239 1.567
0.30528656 0.40605778 1.5662224
0.31427032 0.40461007 1.5619092
0.32388571 0.40538773 1.5600002
0.33428574 0.40708572 1.5600001
0.34171429 0.40708572 1.5600001
0.35434288 0.40411431 1.5600001
0.29847619 0.41338953 1.567
0.30668429 0.41413572 1.567
0.31465462 0.41457415 1.5658334
0.32537141 0.41302857 1.5600001
0.33550128 0.41491947 1.5600002
0.34357145 0.41562861 1.5600002
0.35459051 0.41550478 1.5600001
0.36350477 0.41699049 1.5600001
0.31936952 0.42085144 1.567
0.32600233 0.42416784 1.5670002
0.33439824 0.42504174 1.5621539
0.34383675 0.4244898 1.5600002
0.35434288 0.42380002 1.5600002
0.3659102 0.42406535 1.5600002
0.31936952 0.43876001 1.567
0.3268362 0.4375205 1.5652502
0.33487883 0.43540648 1.5613999
0.34369528 0.43580952 1.5600002
0.35137147 0.4368 1.5600001
0.3183746 0.44472954 1.567
0.32609478 0.44522193 1.5635
0.33577144 0.44571427 1.5600002
0.34468576 0.44571427 1.5600002
0.35181719 0.44630855 1.5600001
0.38034287 0.44571429 1.5600001
0.31489238 0.45069906 1.567
