# .PCD v0.7 - Point Cloud Data file format
VERSION 0.7
FIELDS x y z
SIZE 4 4 4
TYPE F F F
COUNT 1 1 1
WIDTH 1497
HEIGHT 1
VIEWPOINT 0 0 0 1 0 0 0
POINTS 1497
DATA ascii
-0.51342475 0.53292191 1.706
-0.50692576 0.53292191 1.7060001
-0.57191622 0.54916954 1.7060001
-0.5675835 0.54700321 1.706
-0.57191622 0.55241907 1.7060001
-0.46060002 -0.14046668 1.715
-0.44263333 -0.14210001 1.715
-0.43446669 -0.14591111 1.715
-0.3822 -0.14373334 1.715
-0.37403333 -0.14373334 1.715
-0.36913335 -0.14373334 1.715
-0.37240002 -0.1372 1.715
-0.36586666 -0.13556667 1.715
-0.35606667 -0.1323 1.715
-0.34561333 -0.12609334 1.7149999
-0.33646667 -0.1235889 1.715
-0.32438004 -0.12478667 1.7149999
-0.3136 -0.1225 1.715
-0.30706668 -0.12086667 1.715
-0.33646667 -0.1176 1.715
-0.30314669 -0.11629333 1.7149999
-0.29481667 -0.11433334 1.715
-0.29073334 -0.10453334 1.715
-0.28550667 -0.10322668 1.7149999
-0.29291114 -0.093644448 1.715
-0.28420004 -0.094733335 1.715
-0.27480835 -0.094325006 1.715
-0.26786667 -0.093100004 1.715
-0.30053335 -0.084933341 1.715
-0.29400003 -0.084933333 1.715
-0.28420004 -0.084933333 1.715
-0.27439997 -0.084933333 1.715
-0.26705 -0.084933333 1.715
-0.31115001 -0.075133339 1.715
-0.30380002 -0.075133339 1.715
-0.28256667 -0.078400001 1.715
-0.27494445 -0.076222233 1.715
-0.31359997 -0.065333337 1.715
-0.30380002 -0.065333337 1.715
-0.29726669 -0.066966668 1.715
-0.3136 -0.058800001 1.715
-0.30380002 -0.055533338 1.715
-0.29726669 -0.055533335 1.715
-0.31115001 -0.044916671 1.715
-0.30380002 -0.049000006 1.715
-0.32013336 -0.032666668 1.715
-0.31604999 -0.03675 1.715
-0.32299167 -0.025725001 1.715
-0.33592221 -0.016333332 1.715
-0.32462505 -0.01715 1.715
-0.3438167 -0.0065333331 1.715
-0.33973333 -0.0065333336 1.715
-0.32013336 -0.0049000001 1.715
-0.3438167 0.0057166666 1.715
-0.34300002 0.014700001 1.715
-0.33646667 0.017966667 1.715
-0.3283 0.0196 1.715
-0.34300002 0.026133334 1.715
-0.33740002 0.025666667 1.715
-0.34300002 0.035933334 1.715
-0.33809999 0.035933334 1.715
-0.34708333 0.045733333 1.715
-0.34626669 0.056186665 1.7149999
-0.33973333 0.058800001 1.715
-0.3451778 0.064244449 1.715
-0.33891666 0.066150002 1.715
-0.34300002 0.075133339 1.715
-0.33973333 0.071866669 1.715
-0.34681115 0.084933333 1.715
-0.35361668 0.095550001 1.715
-0.34844446 0.09255556 1.715
-0.35513332 0.10406668 1.715
-0.34708333 0.10616668 1.715
-0.37566668 0.1176 1.715
-0.35443333 0.11433334 1.715
-0.34626666 0.11474167 1.715
-0.37566668 0.12086667 1.715
-0.35443336 0.12740001 1.715
-0.34572223 0.12358889 1.715
-0.33973333 0.12576668 1.715
-0.37240002 0.1372 1.715
-0.36750001 0.13556667 1.715
-0.35513332 0.1344 1.715
-0.34626666 0.1323 1.715
-0.33973333 0.1323 1.715
-0.37403333 0.14536667 1.715
-0.36651999 0.14504001 1.7149999
-0.3560667 0.14373334 1.715
-0.37566668 0.15190001 1.715
-0.36651999 0.15157335 1.7149999
-0.35606664 0.15353332 1.715
-0.34708333 0.15271667 1.715
-0.36455998 0.16268001 1.7149999
-0.3560667 0.16006668 1.715
-0.34545004 0.16251667 1.715
-0.36423334 0.17803334 1.715
-0.37520003 0.18713334 1.715
-0.36641112 0.1872889 1.715
-0.35280001 0.18620001 1.715
-0.3752 0.19506668 1.715
-0.36831668 0.19681668 1.715
-0.37566671 0.20539166 1.715
-0.36804447 0.2068889 1.715
-0.37370667 0.21625336 1.7149999
-0.36913335 0.21396667 1.715
-0.3822 0.22703335 1.715
-0.37730002 0.22213334 1.715
-0.41813335 0.23846668 1.715
-0.38328889 0.2352 1.715
-0.41813335 0.245 1.715
-0.3969 0.24663335 1.715
-0.38640001 0.24546668 1.715
-0.37893334 0.24826668 1.715
-0.43283337 0.25806668 1.715
-0.42466664 0.25806668 1.715
-0.41813335 0.25806668 1.715
-0.39485836 0.25520834 1.715
-0.38655555 0.25425556 1.715
-0.37240002 0.25480002 1.715
-0.43283337 0.26133335 1.715
-0.42629999 0.26133335 1.715
-0.4137778 0.26351115 1.715
-0.40506667 0.26623333 1.715
-0.39573333 0.26553336 1.715
-0.38612002 0.26590666 1.7149999
-0.37321669 0.26541668 1.715
-0.40180001 0.27113333 1.715
-0.39635554 0.27331111 1.715
-0.38587505 0.27399167 1.715
-0.37240002 0.27113333 1.715
-0.40343332 0.28420001 1.715
-0.39592001 0.28354669 1.7149999
-0.38593337 0.28513333 1.715
-0.39281669 0.29400003 1.715
-0.38873336 0.29073334 1.715
-0.43228891 0.30380002 1.715
-0.42466667 0.30325556 1.715
-0.4173167 0.30461669 1.715
-0.39363337 0.30543333 1.715
-0.38873336 0.30053335 1.715
-0.43773335 0.31523335 1.715
-0.41160002 0.31686667 1.715
-0.4050667 0.31414446 1.715
-0.39744446 0.31142223 1.715
-0.45080003 0.32503337 1.715
-0.44372222 0.32231113 1.715
-0.43691671 0.32258335 1.715
-0.42221671 0.32748336 1.715
-0.41445836 0.32625833 1.715
-0.40579259 0.32376298 1.715
-0.39853334 0.32176667 1.715
-0.45313334 0.33693334 1.715
-0.43228891 0.33428887 1.715
-0.42466667 0.33320001 1.715
-0.41160002 0.33646667 1.715
-0.46060002 0.34626669 1.715
-0.45406672 0.34626672 1.715
-0.43120003 0.34790003 1.715
-0.42793334 0.34953335 1.715
-0.46168891 0.35497782 1.715
-0.45365834 0.35565832 1.715
-0.44492 0.35802668 1.7149999
-0.43446669 0.35933334 1.715
-0.42793334 0.35933334 1.715
-0.45080003 0.36586666 1.715
-0.44590005 0.36586666 1.715
-0.42793334 0.3626 1.715
-0.41160002 0.3626 1.715
-0.45080003 0.37566668 1.715
-0.44644448 0.3734889 1.715
-0.46060002 0.38873336 1.715
-0.45365834 0.38587505 1.715
-0.48237777 0.39635554 1.715
-0.47366667 0.39480001 1.715
-0.46386665 0.39526668 1.715
-0.45447502 0.39526668 1.715
-0.44671667 0.39526668 1.715
-0.49000001 0.40180001 1.715
-0.48346668 0.40506667 1.715
-0.47693336 0.40506664 1.715
-0.46345833 0.40465832 1.715
-0.45406669 0.40547499 1.715
-0.44753334 0.40506664 1.715
-0.48020002 0.41323334 1.715
-0.47407502 0.41527507 1.715
-0.46277776 0.4137778 1.715
-0.45733336 0.41323334 1.715
-0.48020002 0.42629999 1.715
-0.47421113 0.42466667 1.715
-0.49326667 0.43610001 1.715
-0.48183337 0.43528336 1.715
-0.47530001 0.43283337 1.715
-0.49326667 0.44100001 1.715
-0.48440003 0.4438 1.715
-0.51286668 0.45733336 1.715
-0.5079667 0.45570001 1.715
-0.49816668 0.45570001 1.715
-0.48300001 0.45500001 1.715
-0.47693336 0.45406672 1.715
-0.51286668 0.46713334 1.715
-0.50633335 0.4655 1.715
-0.49560001 0.46480003 1.715
-0.48346671 0.46332225 1.715
-0.47693336 0.4655 1.715
-0.51286668 0.47203335 1.715
-0.50680006 0.4736667 1.715
-0.49163336 0.47040001 1.715
-0.51450002 0.48673335 1.715
-0.50633335 0.48346668 1.715
-0.5050267 0.49457335 1.7149999
-0.49522674 0.49522668 1.715
-0.48346668 0.49980003 1.715
-0.51450002 0.50960004 1.715
-0.505925 0.5067417 1.715
-0.49445459 0.50603634 1.715
-0.48440003 0.50633335 1.715
-0.47693336 0.50633335 1.715
-0.51286668 0.51613331 1.715
-0.50726664 0.51566672 1.715
-0.49544445 0.51395559 1.715
-0.5357334 0.52593333 1.715
-0.51572502 0.52634168 1.715
-0.50829333 0.52528 1.7149999
-0.46274859 -0.14440382 1.723
-0.4561848 -0.14276287 1.723
-0.44633907 -0.14440382 1.723
-0.41680193 -0.14440382 1.723
-0.36476031 -0.14346613 1.7229998
-0.31178096 -0.14768572 1.723
-0.30849907 -0.14768572 1.723
-0.36429143 -0.13784 1.723
-0.35378936 -0.13521448 1.7229999
-0.34460002 -0.13258895 1.7229999
-0.33541065 -0.13258895 1.7229999
-0.32490858 -0.13291714 1.7229999
-0.31670383 -0.13291714 1.723
-0.33639526 -0.12799428 1.723
-0.31506285 -0.12799428 1.723
-0.30521718 -0.12416541 1.7229999
-0.29602781 -0.12274325 1.7229999
-0.28880763 -0.12143048 1.723
-0.29318351 -0.1170546 1.723
-0.28593597 -0.11445643 1.7229998
-0.27633637 -0.11289753 1.7229999
-0.26665476 -0.11240524 1.723
-0.2559886 -0.11158477 1.723
-0.28388479 -0.10666192 1.723
-0.27567998 -0.10502095 1.7229998
-0.26583427 -0.10502095 1.7229998
-0.25598857 -0.10502096 1.7229998
-0.27239811 -0.09845715 1.723
-0.2648966 -0.095644094 1.7229998
-0.25639883 -0.09558548 1.7229998
-0.24942477 -0.09845715 1.723
-0.26386517 -0.085329525 1.7229999
-0.25845 -0.085329525 1.723
-0.29537144 -0.075483814 1.7229998
-0.28599456 -0.074546121 1.7229998
-0.27458605 -0.073295876 1.723
-0.26583427 -0.075483806 1.7229998
-0.25927049 -0.07876572 1.723
-0.29443377 -0.065169252 1.7229998
-0.28552571 -0.065638095 1.7229998
-0.27609026 -0.066048339 1.7229998
-0.26665476 -0.068099529 1.723
-0.29443374 -0.055792384 1.7229998
-0.28552571 -0.055792384 1.7229998
-0.27814144 -0.056612857 1.723
-0.30521715 -0.044305716 1.7229999
-0.29537144 -0.046884358 1.7229998
-0.28552574 -0.047587622 1.7229999
-0.27896193 -0.047587622 1.723
-0.31342191 -0.036100954 1.723
-0.30587354 -0.038070098 1.7229999
-0.29865333 -0.03938286 1.723
-0.31670383 -0.026255237 1.7229999
-0.33311334 -0.013127619 1.723
-0.32600257 -0.015315555 1.723
-0.31547314 -0.016409524 1.7229998
-0.30587354 -0.018378668 1.7229999
-0.29427746 -0.018597461 1.723
-0.3413181 -0.0065638097 1.723
-0.33475432 -0.0065638097 1.7229998
-0.32584625 -0.0070326538 1.7229998
-0.31506288 -0.0065638102 1.7229998
-0.30849907 -0.0065638097 1.723
-0.3413181 0.0049228575 1.723
-0.33475432 0.0049228575 1.7229997
-0.32490858 0.004922857 1.7229997
-0.31506285 0.004922857 1.7229997
-0.30849907 0.0049228575 1.723
-0.3413181 0.013127619 1.723
-0.33409792 0.01444038 1.7229999
-0.32449836 0.015999286 1.7229998
-0.31506288 0.016409524 1.7229998
-0.30631113 0.016956508 1.7229999
-0.33278513 0.02691162 1.7229999
-0.32490858 0.026255237 1.7229998
-0.31506288 0.026255239 1.7229998
-0.30849907 0.024614286 1.723
-0.33311334 0.036100954 1.7229999
-0.32490858 0.036100954 1.7229998
-0.31547314 0.035690717 1.7229998
-0.34295905 0.045946669 1.7229999
-0.33639523 0.045126192 1.723
-0.32490858 0.043758731 1.723
-0.34295905 0.054151431 1.723
-0.33475429 0.056261223 1.7229998
-0.32654953 0.057433333 1.723
-0.33428547 0.065638103 1.7229998
-0.32622135 0.065638095 1.7229999
-0.3413181 0.077124767 1.723
-0.33475429 0.075483814 1.7229998
-0.32819048 0.075483814 1.723
-0.34263089 0.085985906 1.7229999
-0.33475429 0.085329525 1.7229998
-0.32819048 0.088611431 1.723
-0.35116383 0.09845715 1.723
-0.34418976 0.095585488 1.7229998
-0.33475432 0.095175244 1.7229998
-0.32600254 0.095722228 1.7229999
-0.35116383 0.10173905 1.723
-0.34459999 0.10392699 1.7229999
-0.33475432 0.10502096 1.7229998
-0.32654953 0.10502095 1.7229999
-0.34295905 0.1140462 1.723
-0.33409792 0.11486666 1.7229999
-0.32709649 0.1137727 1.723
-0.3413181 0.12143048 1.723
-0.33639523 0.12471239 1.7229999
-0.35116383 0.13784 1.723
-0.34624097 0.13784 1.723
-0.33557475 0.13209666 1.723
-0.35198432 0.14358334 1.723
-0.34569398 0.14549778 1.7229999
-0.35116383 0.15753144 1.723
-0.3441312 0.15424953 1.7229998
-0.33803621 0.15424953 1.723
-0.3719492 0.16628318 1.723
-0.36429143 0.16606438 1.7229999
-0.35397691 0.16503291 1.7229998
-0.34295905 0.16245429 1.723
-0.33639526 0.16081335 1.723
-0.37085524 0.17394096 1.723
-0.36429146 0.17394096 1.723
-0.35444576 0.17394096 1.7229998
-0.34706143 0.17312048 1.723
-0.36232233 0.18444307 1.7229999
-0.35444573 0.18331786 1.7229998
-0.34459999 0.18706858 1.723
-0.33803621 0.18706858 1.723
-0.36538541 0.19363241 1.723
-0.35491461 0.19363239 1.7229998
-0.37085524 0.20676 1.723
-0.36494783 0.20479086 1.7229999
-0.35772765 0.2034781 1.723
-0.37085524 0.21988763 1.723
-0.36429146 0.21496478 1.7229998
-0.35772765 0.21332382 1.723
-0.38070098 0.2280924 1.723
-0.3737269 0.22686167 1.7229998
-0.36593238 0.22645144 1.7229999
-0.35772765 0.22481048 1.723
-0.38152143 0.23711762 1.723
-0.37413716 0.23629713 1.7229998
-0.36626059 0.23629716 1.7229999
-0.38234192 0.24450192 1.723
-0.37413716 0.24614286 1.7229998
-0.36522913 0.24661171 1.7229998
-0.38288891 0.25653556 1.7229999
-0.37413716 0.25598857 1.7229999
-0.36522913 0.25645739 1.7229998
-0.3938286 0.26255238 1.723
-0.38288891 0.26528731 1.7229999
-0.37348077 0.26517791 1.7229999
-0.36429143 0.2658343 1.7229998
-0.40203333 0.27568001 1.723
-0.39579773 0.27633637 1.7229999
-0.38152143 0.27650049 1.723
-0.37413716 0.27609026 1.7229998
-0.36470166 0.27526978 1.7229998
-0.40039238 0.28880763 1.723
-0.39492258 0.28552571 1.723
-0.3826701 0.28421298 1.7229999
-0.37413716 0.28552574 1.7229998
-0.3664794 0.28443176 1.723
-0.39054668 0.29701239 1.723
-0.3839829 0.29537141 1.7229998
-0.37741908 0.29537141 1.723
-0.43321145 0.30849907 1.723
-0.42664766 0.30849907 1.723
-0.39054668 0.30521715 1.723
-0.3839829 0.3035762 1.7229999
-0.37741908 0.30521715 1.723
-0.35444576 0.30849907 1.723
-0.43485236 0.31506285 1.7229999
-0.42500672 0.31506288 1.7229997
-0.41680193 0.31506288 1.723
-0.40203333 0.31834477 1.723
-0.39437559 0.31615683 1.7229999
-0.38562381 0.31834477 1.723
-0.37741905 0.31178096 1.723
-0.3659324 0.31342191 1.723
-0.35444573 0.31547311 1.7229998
-0.34678793 0.3139689 1.723
-0.44743302 0.32709649 1.723
-0.43452421 0.32556495 1.7229999
-0.42664763 0.3240881 1.7229998
-0.41680193 0.32490858 1.723
-0.40203333 0.32819048 1.723
-0.3938286 0.32490855 1.7229998
-0.38439313 0.32531884 1.7229998
-0.3659324 0.32326764 1.723
-0.35510212 0.32293946 1.7229999
-0.34788191 0.32162669 1.723
-0.44633907 0.33475432 1.7229998
-0.43758735 0.3342073 1.7229999
-0.42500666 0.33639526 1.7229999
-0.41352001 0.33672342 1.7229999
-0.4036743 0.33475432 1.7229998
-0.39382857 0.33475429 1.7229998
-0.38644427 0.33393383 1.723
-0.44633907 0.34459999 1.7229998
-0.4369036 0.34418976 1.7229998
-0.42500672 0.34459999 1.7229997
-0.41352001 0.34501022 1.7229998
-0.4036743 0.34459999 1.7229998
-0.39429745 0.34366232 1.7229998
-0.38726479 0.3413181 1.723
-0.45290288 0.35116383 1.723
-0.44587019 0.35350806 1.7229998
-0.43690357 0.35485595 1.7229998
-0.42500669 0.35444573 1.7229998
-0.41310978 0.3540355 1.7229998
-0.40531525 0.35444573 1.7229999
-0.39711049 0.35280478 1.723
-0.44305715 0.3659324 1.723
-0.43649334 0.36522916 1.7229998
-0.42402214 0.36461961 1.7229998
-0.41352001 0.3642914 1.7229998
-0.40367427 0.36429146 1.7229998
-0.39429745 0.36522913 1.7229998
-0.38463926 0.36626059 1.7229999
-0.44415113 0.37523112 1.723
-0.43649337 0.37085524 1.723
-0.42828858 0.37085524 1.723
-0.41220722 0.37413713 1.7229999
-0.40367427 0.37413713 1.7229998
-0.39382857 0.37413713 1.7229998
-0.38726482 0.37413716 1.723
-0.44830823 0.38398287 1.7229999
-0.41352001 0.38070098 1.723
-0.40367427 0.38398284 1.7229998
-0.39579773 0.38332647 1.7229999
-0.47587621 0.39711049 1.723
-0.44743302 0.39164066 1.723
-0.43758735 0.39601651 1.723
-0.41352001 0.39711049 1.723
-0.40039238 0.39054668 1.723
-0.47456342 0.40433067 1.7229999
-0.45618477 0.4036743 1.723
-0.44633904 0.40367427 1.723
-0.4371497 0.40301791 1.7229999
-0.41352001 0.40039238 1.723
-0.47368824 0.4113321 1.723
-0.46767145 0.41352001 1.723
-0.45454383 0.41516095 1.723
-0.44798002 0.41352001 1.723
-0.43567288 0.41187906 1.723
-0.41242602 0.41461396 1.723
-0.4069562 0.41680193 1.723
-0.47259429 0.42828858 1.723
-0.46603048 0.42336571 1.7229998
-0.45782572 0.42008382 1.723
-0.41211352 0.42430344 1.7229998
-0.4069562 0.42336574 1.723
-0.47505572 0.43731382 1.723
-0.4693124 0.43649334 1.723
-0.41187906 0.43485242 1.723
-0.4069562 0.43485239 1.723
-0.48244002 0.44798002 1.723
-0.47628647 0.44633907 1.7229998
-0.46657744 0.4463391 1.7229999
-0.47423521 0.45618477 1.7229999
-0.46644074 0.45659503 1.7229998
-0.48572195 0.46712446 1.723
-0.47532925 0.46603048 1.7229999
-0.46562028 0.46644074 1.7229998
-0.4594667 0.4693124 1.723
-0.50295192 0.47505575 1.723
-0.4960365 0.47681388 1.7229998
-0.48572192 0.47587621 1.7229998
-0.47587618 0.47587621 1.7229998
-0.46603048 0.47587621 1.7229998
-0.45782572 0.47751719 1.723
-0.50213146 0.48572195 1.723
-0.49556765 0.48572192 1.7229998
-0.48531166 0.48531169 1.7229998
-0.47587618 0.48572195 1.7229998
-0.46603048 0.48572195 1.7229998
-0.45782575 0.48572192 1.7229999
-0.44962096 0.48572192 1.723
-0.49228573 0.49228573 1.723
-0.48613214 0.49556768 1.7229998
-0.47587621 0.49556768 1.7229998
-0.46644074 0.49556768 1.7229998
-0.45618477 0.49228573 1.723
-0.48462796 0.50322539 1.723
-0.47546595 0.50500309 1.7229998
-0.46849194 0.5045929 1.723
-0.50295192 0.51607955 1.723
-0.49337971 0.51744705 1.723
-0.4852531 0.51619673 1.7229998
-0.47915807 0.51525909 1.723
-0.50377238 0.52510482 1.7229999
-0.49556765 0.52510476 1.7229998
-0.4865424 0.52264333 1.723
-0.50541335 0.53454024 1.7229998
-0.49666163 0.53276259 1.723
-0.45609334 -0.14598286 1.7320001
-0.44372192 -0.14845715 1.7320001
-0.36454478 -0.14845715 1.7320001
-0.35712194 -0.14268382 1.7320001
-0.34310097 -0.14185905 1.7320001
-0.3239665 -0.14251886 1.7320001
-0.31670859 -0.14515811 1.732
-0.30351239 -0.14625779 1.732
-0.35299811 -0.13856001 1.7320001
-0.34640002 -0.13773525 1.7320001
-0.3356781 -0.13773525 1.7320001
-0.32495621 -0.13856001 1.7320001
-0.31274971 -0.13460115 1.7320001
-0.30433714 -0.13278666 1.7320001
-0.29691431 -0.13196191 1.7320001
-0.28536764 -0.13196191 1.7320001
-0.30351239 -0.12866285 1.732
-0.29295546 -0.12734324 1.7320001
-0.28413048 -0.12495142 1.7320002
-0.27382097 -0.12206477 1.732
-0.26557335 -0.12206477 1.7320001
-0.25567621 -0.12206477 1.7320001
-0.28206858 -0.11876572 1.7320001
-0.27382097 -0.11794096 1.7320001
-0.26392382 -0.11711619 1.7320002
-0.25402668 -0.11587904 1.7320002
-0.24610896 -0.11480687 1.7320001
-0.25072762 -0.10556953 1.732
-0.24454191 -0.10556953 1.7320002
-0.25182733 -0.093473017 1.732
-0.24454191 -0.096084759 1.7320002
-0.25361428 -0.085775241 1.7320002
-0.24660383 -0.084950477 1.7320001
-0.26062477 -0.07422857 1.7320001
-0.25512633 -0.076977782 1.7320002
-0.27217144 -0.062681906 1.7320001
-0.26345253 -0.065038368 1.7320002
-0.25600609 -0.06532114 1.7320001
-0.27340856 -0.055671431 1.7320002
-0.26260421 -0.057403427 1.7320001
-0.25512633 -0.055533972 1.7320002
-0.30021334 -0.042887621 1.7320001
-0.29196572 -0.042887621 1.7320001
-0.28371811 -0.042887617 1.732
-0.27382097 -0.046186667 1.7320002
-0.26062477 -0.046186671 1.732
-0.25361428 -0.046186667 1.7320002
-0.24522923 -0.048386034 1.732
-0.31176001 -0.032990478 1.7320001
-0.30285257 -0.034310095 1.7320001
-0.29361522 -0.036289528 1.7320002
-0.28371811 -0.036289528 1.7320002
-0.27423334 -0.036701906 1.7320002
-0.26062477 -0.037939049 1.7320001
-0.25072762 -0.037939049 1.7320001
-0.31176001 -0.026392384 1.7320002
-0.30351239 -0.02639238 1.7320002
-0.29361525 -0.02639238 1.7320002
-0.28371811 -0.026392382 1.7320002
-0.27580041 -0.026392382 1.7320001
-0.31176001 -0.014845715 1.7320001
-0.30241272 -0.015395556 1.7320002
-0.29251555 -0.015395557 1.7320002
-0.28371811 -0.016495237 1.7320002
-0.2754705 -0.019794287 1.7320001
-0.31011048 -0.0065980954 1.7320001
-0.30351236 -0.0065980954 1.7320002
-0.29361522 -0.0065980954 1.7320002
-0.28413048 -0.0070104762 1.7320002
-0.27712002 -0.0098971436 1.7320001
-0.31011048 0.0049485713 1.7320001
-0.30351236 0.0049485713 1.7320002
-0.29361525 0.0049485718 1.7320002
-0.28401801 0.0047986144 1.7320002
-0.30241272 0.015945397 1.7320002
-0.29402766 0.016082859 1.7320002
-0.28701717 0.013196191 1.7320001
-0.31011048 0.02969143 1.7320001
-0.30392474 0.025979999 1.7320002
-0.29361525 0.024742858 1.7320002
-0.28701717 0.024742857 1.7320001
-0.27712002 0.023093333 1.7320001
-0.31093523 0.037114285 1.7320001
-0.30483201 0.036289524 1.7320001
-0.29295546 0.036289524 1.7320001
-0.28701717 0.037939049 1.7320001
-0.33518326 0.046846479 1.7320001
-0.32440633 0.046919785 1.7320002
-0.31340954 0.046186671 1.7320002
-0.3059867 0.047011428 1.7320001
-0.29031619 0.044537142 1.7320001
-0.33650288 0.054434288 1.7320001
-0.32330668 0.055259053 1.7320002
-0.31340954 0.056083806 1.7320002
-0.30571178 0.054984134 1.732
-0.33650288 0.062681906 1.7320001
-0.32283542 0.065980956 1.7320002
-0.31340954 0.065980956 1.7320002
-0.30681145 0.067630485 1.7320001
-0.32371905 0.075465716 1.7320002
-0.31670859 0.072579049 1.7320001
-0.32880509 0.083575875 1.732
-0.322207 0.095122546 1.7320002
-0.31395939 0.096772067 1.7320002
-0.34310097 0.10886858 1.7320001
-0.32165715 0.10556952 1.7320002
-0.31435212 0.10509824 1.7320002
-0.30351239 0.10556953 1.7320001
-0.33732763 0.11546668 1.7320001
-0.32367325 0.11583323 1.7320002
-0.31505907 0.11546668 1.7320002
-0.33320382 0.12536381 1.732
-0.32660574 0.12536381 1.7320002
-0.31560889 0.12316445 1.732
-0.34310097 0.13856001 1.7320001
-0.33584306 0.13724038 1.7320001
-0.32770541 0.13416128 1.7320002
-0.34420064 0.14295875 1.732
-0.33650285 0.14515811 1.7320002
-0.32858515 0.14449829 1.7320001
-0.30021334 0.14680763 1.7320001
-0.33485338 0.15505524 1.7320002
-0.32792535 0.15373561 1.7320001
-0.30131301 0.15285589 1.732
-0.29691431 0.15505524 1.7320001
-0.34420064 0.16715175 1.732
-0.33732763 0.16577715 1.7320001
-0.32990476 0.16165334 1.7320001
-0.30186287 0.16495238 1.7320001
-0.29691431 0.16495238 1.7320001
-0.34442058 0.17550933 1.7320001
-0.33760253 0.17429967 1.7320002
-0.32825524 0.17155048 1.7320001
-0.35629717 0.18474667 1.7320001
-0.34640002 0.18309714 1.7320002
-0.33609048 0.18433429 1.7320002
-0.32429639 0.18540648 1.7320001
-0.31670859 0.18474668 1.732
-0.36454478 0.19629334 1.7320001
-0.35464764 0.19464383 1.7320001
-0.34640002 0.19464381 1.7320002
-0.33650288 0.19464381 1.7320002
-0.32495621 0.19464381 1.7320002
-0.31588385 0.19546857 1.7320001
-0.36399493 0.20344128 1.732
-0.35629714 0.20124191 1.732
-0.3454574 0.20406969 1.7320002
-0.33650288 0.20454094 1.7320002
-0.32495621 0.20454097 1.7320002
-0.31538898 0.20388117 1.7320001
-0.35588479 0.21443811 1.7320002
-0.3474997 0.21388827 1.7320002
-0.33760253 0.21223873 1.732
-0.32660571 0.21113904 1.732
-0.36289525 0.22433525 1.732
-0.35535455 0.22386394 1.7320002
-0.34640002 0.22433525 1.7320002
-0.33815241 0.22433524 1.7320002
-0.36372 0.23505715 1.7320001
-0.35629717 0.23423237 1.7320002
-0.34640002 0.2342324 1.7320002
-0.33815241 0.23423238 1.7320002
-0.36289525 0.24412954 1.732
-0.35629714 0.24412952 1.7320002
-0.34640002 0.24412952 1.7320002
-0.33716267 0.24215011 1.7320001
-0.36289525 0.25567621 1.7320001
-0.35629717 0.25402668 1.7320002
-0.3468124 0.25443903 1.7320002
-0.33980191 0.25732571 1.7320001
-0.32990476 0.25732571 1.7320001
-0.35670957 0.26351145 1.7320002
-0.34640002 0.26392385 1.7320002
-0.33980191 0.26392382 1.732
-0.32825524 0.2622743 1.7320001
-0.35629717 0.27382097 1.7320002
-0.3468124 0.27382097 1.7320002
-0.33980191 0.27382097 1.732
-0.32990476 0.27217144 1.7320001
-0.36487466 0.28503776 1.7320001
-0.35670957 0.2833057 1.7320002
-0.34859934 0.28151873 1.732
-0.37444192 0.29526478 1.7320001
-0.3657819 0.29402763 1.7320002
-0.35629717 0.29361525 1.7320002
-0.34969905 0.29691431 1.7320001
-0.37444195 0.30351236 1.7320002
-0.36619428 0.30351239 1.7320002
-0.35629717 0.30392477 1.7320002
-0.34640002 0.30351236 1.7320002
-0.33980191 0.30351239 1.732
-0.39258668 0.31340954 1.732
-0.38598859 0.31340954 1.7320002
-0.37514886 0.31388083 1.7320002
-0.36487466 0.31208992 1.7320001
-0.35629717 0.31176001 1.7320001
-0.34530035 0.31230983 1.7320002
-0.33815241 0.31340954 1.7320002
-0.38268954 0.32165715 1.7320001
-0.37609145 0.32495621 1.7320002
-0.36536953 0.32495621 1.7320002
-0.35547239 0.32908002 1.7320001
-0.34640002 0.32283539 1.7320002
-0.33980191 0.32000762 1.7320001
-0.38400915 0.33716267 1.7320001
-0.37650383 0.33609045 1.7320002
-0.36578193 0.33609048 1.7320002
-0.35670954 0.33609048 1.7320002
-0.39423621 0.34969905 1.7320001
-0.38557619 0.3468124 1.7320002
-0.37774098 0.34640002 1.7320002
-0.36487469 0.34639999 1.7320001
-0.42227811 0.35959619 1.7320001
-0.41897905 0.35959619 1.7320001
-0.40248382 0.35629714 1.732
-0.39494318 0.35676843 1.7320002
-0.38598856 0.35629717 1.7320002
-0.37703404 0.35629719 1.7320002
-0.39423621 0.36289525 1.7320001
-0.38516378 0.36372 1.7320001
-0.37650385 0.36660665 1.7320002
-0.36784381 0.36784381 1.7320001
-0.44317207 0.37719116 1.732
-0.43547431 0.37774098 1.7320002
-0.42516479 0.37650383 1.7320002
-0.41677967 0.37609145 1.732
-0.384339 0.37609145 1.7320002
-0.37526667 0.37444192 1.7320001
-0.36619434 0.37939048 1.732
-0.44442886 0.38598856 1.7320002
-0.43641689 0.38551733 1.7320002
-0.42722666 0.38268954 1.7320001
-0.41458032 0.38598856 1.7320002
-0.39341146 0.38681334 1.7320001
-0.38818792 0.38378921 1.732
-0.36372 0.38516381 1.7320001
-0.4445467 0.39506096 1.7320001
-0.43594557 0.39588571 1.7320002
-0.42640191 0.39836001 1.7320001
-0.41458032 0.39588571 1.7320002
-0.40619525 0.39629808 1.7320002
-0.39786515 0.39522594 1.7320001
-0.44537148 0.40578285 1.732
-0.43547431 0.40625414 1.7320002
-0.42557716 0.40578291 1.7320002
-0.41567999 0.40619528 1.7320002
-0.40578288 0.40578291 1.7320002
-0.39918479 0.40578285 1.732
-0.4448216 0.41677967 1.7320002
-0.43492448 0.41622987 1.7320002
-0.42557716 0.41568002 1.7320002
-0.41622987 0.41513014 1.7320002
-0.40578288 0.41520867 1.7320002
-0.39808509 0.41458032 1.732
-0.46186668 0.42722666 1.7320001
-0.45485622 0.42598954 1.7320002
-0.44537142 0.42557713 1.7320002
-0.43547431 0.42557713 1.7320002
-0.42557716 0.42557713 1.7320002
-0.41897905 0.42557716 1.732
-0.40413335 0.42557716 1.7320002
-0.39786515 0.42623696 1.7320001
-0.47176382 0.43382478 1.7320001
-0.46516573 0.43547434 1.7320002
-0.45526859 0.43547434 1.7320002
-0.44537142 0.43547428 1.7320002
-0.43547431 0.43547431 1.7320002
-0.42557716 0.43547431 1.7320002
-0.41677967 0.43327495 1.732
-0.40660763 0.43464956 1.7320001
-0.47341335 0.44537145 1.7320001
-0.46406603 0.44427177 1.7320002
-0.45526859 0.44537142 1.7320002
-0.44537142 0.44537142 1.7320002
-0.43547431 0.4449001 1.7320002
-0.42887619 0.44372192 1.7320001
-0.41403046 0.44537148 1.7320002
-0.40743241 0.44537142 1.7320002
-0.46318626 0.45460877 1.7320001
-0.45526859 0.45526859 1.7320002
-0.44867051 0.45526859 1.732
-0.41403046 0.45526862 1.7320002
-0.40672547 0.45526859 1.7320002
-0.39918476 0.45361906 1.7320001
-0.38763809 0.45856765 1.7320001
-0.47341335 0.46516573 1.7320001
-0.46186671 0.46516573 1.732
-0.45526859 0.46516573 1.7320002
-0.44784573 0.46434096 1.7320001
-0.41436037 0.46450591 1.7320001
-0.40644264 0.46318626 1.7320001
-0.39423621 0.46186668 1.7320001
-0.38708827 0.46296635 1.732
-0.46186668 0.47506288 1.7320001
-0.45485622 0.47465047 1.7320002
-0.44647112 0.47616255 1.7320002
-0.45394897 0.48430023 1.7320001
-0.44537142 0.48496002 1.7320002
-0.4915581 0.4915581 1.7320001
-0.48496002 0.49815622 1.7320001
-0.47836193 0.49815622 1.7320001
-0.46296635 0.49705651 1.732
-0.454326 0.49532846 1.7320002
-0.44631401 0.4943859 1.7320002
-0.46406606 0.50585395 1.7320002
-0.45526859 0.5047543 1.7320002
-0.44631404 0.5047543 1.7320002
-0.47506288 0.51630092 1.7320002
-0.46516576 0.51465148 1.7320002
-0.45636824 0.51355177 1.7320002
-0.48413527 0.5270229 1.7320001
-0.47506291 0.52454865 1.7320002
-0.46516573 0.52124953 1.732
-0.45856765 0.52124953 1.7320001
-0.50145525 0.53774476 1.7320001
-0.49287772 0.53510559 1.7320001
-0.48537239 0.53403342 1.7320002
-0.47836193 0.53114671 1.7320001
-0.50392956 0.54269332 1.7320001
-0.49568191 0.54186857 1.7320001
-0.4576343 -0.14922857 1.7410001
-0.36146477 -0.14922857 1.7410001
-0.35549563 -0.14657561 1.7409999
-0.34405476 -0.1442543 1.7410001
-0.33559847 -0.14458592 1.7409999
-0.31338 -0.1442543 1.7410001
-0.29735175 -0.14701778 1.7410001
-0.2851924 -0.1442543 1.7410001
-0.31338 -0.13928001 1.7410001
-0.30442628 -0.13795353 1.7409999
-0.29447773 -0.13463733 1.7409999
-0.28585565 -0.13662705 1.7409999
-0.27524382 -0.13264762 1.7410001
-0.28187621 -0.12933144 1.7410001
-0.27524379 -0.12767334 1.7410001
-0.2644662 -0.1251862 1.7410001
-0.25534669 -0.12490985 1.7410001
-0.2487143 -0.12269905 1.7410001
-0.24291095 -0.11689571 1.7410001
-0.23710763 -0.11275048 1.7410001
-0.22881715 -0.11275048 1.7410001
-0.24208191 -0.1061181 1.7410001
-0.23743924 -0.10678134 1.7409999
-0.22881715 -0.10611811 1.7410001
-0.24208191 -0.092853338 1.7410001
-0.23793668 -0.096998572 1.7410001
-0.22881715 -0.099485718 1.7410001
-0.24340837 -0.086884193 1.7409999
-0.23876572 -0.08622095 1.7410001
-0.25313589 -0.074061587 1.7410001
-0.2453981 -0.07793048 1.7410001
-0.23876572 -0.079588577 1.7410001
-0.25285953 -0.067152865 1.7410001
-0.2470562 -0.066323817 1.7410001
-0.26695335 -0.054717146 1.7410001
-0.25313589 -0.057480633 1.7410001
-0.2453981 -0.056375239 1.7410001
-0.23876572 -0.056375235 1.7410001
-0.26695335 -0.046426669 1.7410001
-0.25866288 -0.046426669 1.7410001
-0.24484541 -0.045321271 1.7410001
-0.23876572 -0.046426669 1.7410001
-0.27192762 -0.033161905 1.7410001
-0.26624274 -0.036004357 1.7410001
-0.25629419 -0.036004357 1.7410001
-0.24539812 -0.036478098 1.7410001
-0.23876572 -0.038136192 1.7410001
-0.27275667 -0.026529524 1.7410001
-0.265769 -0.027003268 1.7410001
-0.25534669 -0.029845715 1.7410001
-0.2453981 -0.029845715 1.7410001
-0.27477008 -0.015633469 1.7410001
-0.26861143 -0.016580954 1.7410001
-0.28187621 -0.0033161906 1.7410001
-0.27590704 -0.0072956197 1.7409999
-0.26861143 -0.0099485721 1.7410001
-0.28187621 0.0066323811 1.7410001
-0.27856001 0.0049742861 1.7410001
-0.29182476 0.019897144 1.7410001
-0.28477788 0.016995478 1.7410001
-0.27723354 0.017244192 1.7409999
-0.30177334 0.029845715 1.7410001
-0.29514095 0.029845715 1.7410001
-0.28424492 0.027003262 1.7410001
-0.2757965 0.026529521 1.7410001
-0.26861143 0.023213334 1.7410001
-0.30343145 0.036478095 1.7410001
-0.29597002 0.036478098 1.7410001
-0.28424489 0.036004357 1.7410001
-0.27690193 0.036478098 1.7410001
-0.30309981 0.045763429 1.7409999
-0.29608846 0.04690041 1.7410001
-0.28519243 0.046426669 1.7410001
-0.27723351 0.045763429 1.7409999
-0.30398414 0.056927934 1.7410001
-0.29514095 0.056375239 1.7410001
-0.2851924 0.054717142 1.7410001
-0.2769019 0.053059049 1.7410001
-0.30414203 0.065850072 1.7410001
-0.29555547 0.066323817 1.7410001
-0.3216705 0.079588577 1.7410001
-0.31503811 0.076272383 1.7410001
-0.30707926 0.075609148 1.7409999
-0.2955555 0.076686911 1.7410001
-0.32457218 0.08663547 1.7410001
-0.31669623 0.089537144 1.7410001
-0.30556324 0.08716844 1.7410001
-0.29514095 0.08622095 1.7410001
-0.28585562 0.086884193 1.7409999
-0.27856001 0.089537144 1.7410001
-0.31503811 0.094511434 1.7410001
-0.30508953 0.096169516 1.7410001
-0.29514095 0.096169524 1.7410001
-0.28602144 0.093682386 1.7410001
-0.2769019 0.092853338 1.7410001
-0.31172192 0.10777619 1.7410001
-0.30508953 0.1061181 1.7410001
-0.2976281 0.10528906 1.7410001
-0.31172192 0.11606667 1.7410001
-0.30674765 0.11606666 1.7410001
-0.32332858 0.12601525 1.7410001
-0.31393272 0.12712064 1.7410001
-0.30603701 0.12648898 1.7410001
-0.29679906 0.12933144 1.7410001
-0.3238813 0.13706921 1.7410001
-0.31503808 0.13596383 1.7410001
-0.30508953 0.13596381 1.7410001
-0.2976281 0.13596381 1.7410001
-0.32664478 0.14757048 1.7410001
-0.31393272 0.1437016 1.7410001
-0.30508953 0.14342524 1.7410001
-0.29845715 0.14591238 1.7410001
-0.30508953 0.15586096 1.7410001
-0.29845715 0.15917715 1.7410001
-0.33493525 0.16663858 1.7410001
-0.32609209 0.16691492 1.7410001
-0.30287874 0.16691492 1.7410001
-0.29845715 0.16912572 1.7410001
-0.33493525 0.17741621 1.7410001
-0.32664478 0.17658715 1.7410001
-0.31835431 0.17907429 1.7410001
-0.33161905 0.18239048 1.7410001
-0.32830286 0.18239048 1.7410001
-0.31420904 0.18487763 1.7410001
-0.30508953 0.18239048 1.7410001
-0.31503811 0.19399714 1.7410001
-0.36146477 0.20892 1.7410001
-0.35483241 0.20726192 1.7410001
-0.31338 0.20892 1.7410001
-0.34488386 0.21721049 1.7410001
-0.33540896 0.21649988 1.7410001
-0.32498667 0.2161051 1.7410001
-0.31669623 0.2122362 1.7410001
-0.33360878 0.22550097 1.7409999
-0.29845715 0.22881715 1.7410001
-0.33410621 0.23627858 1.7410001
-0.34156764 0.2487143 1.7410001
-0.33825144 0.2487143 1.7410001
-0.34488383 0.25203049 1.7410001
-0.32830286 0.25866288 1.7410001
-0.35483238 0.26861143 1.7410001
-0.33559847 0.26728496 1.7409999
-0.32830286 0.26861143 1.7410001
-0.34488383 0.27524382 1.7410001
-0.33588269 0.27571756 1.7410001
-0.32747382 0.27524382 1.7410001
-0.3531743 0.28850859 1.7410001
-0.34446931 0.28560692 1.7410001
-0.33626175 0.2838659 1.7409999
-0.32830286 0.28187621 1.7410001
-0.35549563 0.2944777 1.7409999
-0.34488383 0.29514095 1.7410001
-0.33493522 0.29561472 1.7410001
-0.32553938 0.29569367 1.7410001
-0.35814857 0.30177334 1.7410001
-0.33493522 0.30508953 1.7410001
-0.32664478 0.3050895 1.7410001
-0.33327714 0.31503811 1.7410001
-0.32830286 0.31338 1.7410001
-0.34156764 0.32498667 1.7410001
-0.33626172 0.32432348 1.7409999
-0.35151622 0.33493528 1.7410001
-0.34820002 0.33493525 1.7410001
-0.33825144 0.33327717 1.7410001
-0.37307143 0.34488383 1.7410001
-0.36257017 0.34709463 1.7410001
-0.35441789 0.34529838 1.7410001
-0.34819999 0.34488383 1.7410001
-0.37273982 0.35416916 1.7409999
-0.36478093 0.35538509 1.7410001
-0.35566145 0.3531743 1.7410001
-0.34820002 0.35151622 1.7410001
-0.37307143 0.36312288 1.7410001
-0.36533365 0.36478099 1.7410001
-0.4211562 0.37804574 1.7410001
-0.38136193 0.37804574 1.7410001
-0.3739005 0.37721667 1.7410001
-0.36478096 0.37520331 1.7410001
-0.35814857 0.37472954 1.7410001
-0.43276286 0.38799429 1.7410001
-0.42447239 0.38716525 1.7410001
-0.3835727 0.38578352 1.7410001
-0.37520328 0.3856256 1.7410001
-0.36312285 0.38550717 1.7410001
-0.35524693 0.38467813 1.7410001
-0.34820002 0.38467813 1.7410001
-0.43276286 0.39296857 1.7410001
-0.42447236 0.39462665 1.7410001
-0.39263695 0.39528993 1.7409999
-0.38799429 0.39131048 1.7410001
-0.37251875 0.39241588 1.7410001
-0.36588636 0.39462665 1.7410001
-0.35400337 0.39213952 1.7410001
-0.34820002 0.3929686 1.7410001
-0.39711383 0.40374619 1.7410001
-0.36478096 0.40291715 1.7410001
-0.40291715 0.41784 1.7410001
-0.39421213 0.41452384 1.7410001
-0.38467813 0.41452384 1.7410001
-0.3772167 0.41535288 1.7410001
-0.39421213 0.42405787 1.7410001
-0.38467813 0.42447236 1.7410001
-0.37638763 0.42447236 1.7410001
-0.40291715 0.43607908 1.7410001
-0.39462668 0.43442097 1.7410001
-0.38420439 0.4334735 1.7410001
-0.37694034 0.4333156 1.7410001
-0.43773717 0.44768572 1.7410001
-0.42399862 0.44531703 1.7410001
-0.40291718 0.44436955 1.7410001
-0.39711383 0.4451986 1.7410001
-0.38799429 0.44768572 1.7410001
-0.44436955 0.45597616 1.7410001
-0.434421 0.4547326 1.7410001
-0.42447239 0.45431811 1.7410001
-0.40346983 0.45210731 1.7410001
-0.39504117 0.4547326 1.7410001
-0.38515186 0.45526555 1.7410001
-0.37638766 0.45431811 1.7410001
-0.44395503 0.46426672 1.7410001
-0.434421 0.46426666 1.7410001
-0.42447239 0.46426666 1.7410001
-0.40258557 0.46426669 1.7409999
-0.39528993 0.46492997 1.7409999
-0.38302001 0.46426669 1.7410001
-0.3772167 0.46426672 1.7410001
-0.44395503 0.47380075 1.7410001
-0.43483552 0.47462979 1.7410001
-0.42541984 0.47374153 1.7410001
-0.41507652 0.47421527 1.7410001
-0.40623337 0.47089908 1.7410001
-0.39352128 0.47310987 1.7410001
-0.38467813 0.47222558 1.7409999
-0.44105336 0.48416385 1.7410001
-0.434421 0.48416382 1.7410001
-0.42541984 0.48369005 1.7410001
-0.41784 0.48416385 1.7410001
-0.39131048 0.48250574 1.7410001
-0.44188243 0.49494147 1.7410001
-0.434421 0.49411237 1.7410001
-0.42695954 0.49494147 1.7410001
-0.41784 0.4974286 1.7410001
-0.44237986 0.50339776 1.7409999
-0.434421 0.50406098 1.7410001
-0.4261305 0.5024029 1.7410001
-0.41701096 0.50406098 1.7410001
-0.45210731 0.51622033 1.7410001
-0.44436955 0.51400954 1.7410001
-0.43607906 0.51235145 1.7410001
-0.41651353 0.51334631 1.7409999
-0.47089908 0.52727431 1.7410001
-0.46426669 0.52727431 1.7410001
-0.45431811 0.52395809 1.7410001
-0.44484329 0.52443182 1.7410001
-0.43442097 0.52727431 1.7410001
-0.42447236 0.52727431 1.7410001
-0.40623337 0.52727431 1.7410001
-0.48084763 0.53722286 1.7410001
-0.47374153 0.53485417 1.7410001
-0.46426672 0.5339067 1.7410001
-0.45431811 0.5339067 1.7410001
-0.44436955 0.53059047 1.7410001
-0.43110478 0.53059047 1.7410001
-0.49079621 0.54385525 1.7410001
-0.48350063 0.54252875 1.7409999
-0.47421527 0.54053909 1.7410001
-0.46343765 0.54136813 1.7410001
-0.45498133 0.54186553 1.7409999
-0.29000002 -0.16000001 1.7500001
-0.28666669 -0.16000001 1.7500001
-0.45617431 -0.15038572 1.7545002
-0.35166669 -0.15000001 1.7500001
-0.34666669 -0.15000001 1.7500001
-0.29133335 -0.15266666 1.7500002
-0.28397906 -0.15368952 1.7540001
-0.35166669 -0.14666668 1.7500001
-0.31 -0.14666668 1.7500001
-0.30359045 -0.14457017 1.7515001
-0.29413146 -0.14393644 1.7522501
-0.28190663 -0.14345904 1.7515001
-0.27364382 -0.14349714 1.7520001
-0.2653577 -0.14206019 1.7590001
-0.25631142 -0.14072001 1.7590001
-0.28111112 -0.13555557 1.7500001
-0.27245364 -0.13456158 1.7515001
-0.26378477 -0.13356763 1.753
-0.25456214 -0.134185 1.755625
-0.24552192 -0.13259548 1.75675
-0.23453332 -0.13066858 1.7590002
-0.25333333 -0.12666667 1.7500001
-0.24464083 -0.12542422 1.7525715
-0.23413335 -0.12543143 1.756
-0.22448193 -0.12396763 1.7589999
-0.21577068 -0.12262744 1.7590001
-0.24000001 -0.11833333 1.7500001
-0.23333335 -0.11666667 1.7500001
-0.22383812 -0.11359429 1.7540001
-0.21418285 -0.11378857 1.757
-0.20479788 -0.11349739 1.7589999
-0.19544446 -0.11279938 1.7589999
-0.23416668 -0.10333334 1.7500001
-0.22371048 -0.10351048 1.753
-0.2144305 -0.10386476 1.7589999
-0.20437907 -0.10386477 1.7589999
-0.19432762 -0.10386476 1.7589999
-0.18762667 -0.10386477 1.7590001
-0.23333335 -0.093333334 1.7500001
-0.22371048 -0.093493342 1.753
-0.2140705 -0.093653344 1.756
-0.20414287 -0.093708575 1.757
-0.19432762 -0.093813345 1.7589999
-0.18595143 -0.093813337 1.7589999
-0.23333335 -0.083333336 1.7500001
-0.22371048 -0.083476193 1.753
-0.21443048 -0.083761908 1.7589999
-0.20437907 -0.083761908 1.7589999
-0.19432762 -0.083761908 1.7589999
-0.18595144 -0.087112382 1.7590001
-0.24333334 -0.072857141 1.7500001
-0.23333335 -0.07333333 1.7500001
-0.22409527 -0.07358095 1.756
-0.21443047 -0.073710479 1.7589999
-0.20437905 -0.073710471 1.7589999
-0.19516525 -0.076223336 1.7590001
-0.24166667 -0.064999998 1.7500001
-0.23333335 -0.063333333 1.7500001
-0.22435239 -0.063622862 1.7579999
-0.21443048 -0.06365905 1.7589999
-0.20605431 -0.06365905 1.7589999
-0.23386097 -0.053453337 1.7540001
-0.22448193 -0.053607624 1.7589999
-0.2144305 -0.05360762 1.7589999
-0.20605429 -0.053607624 1.7589999
-0.23412763 -0.043481905 1.756
-0.22496057 -0.044513468 1.7589999
-0.2144305 -0.046906669 1.7590002
-0.20437905 -0.046906669 1.7590001
-0.24333334 -0.030833334 1.7500001
-0.23531674 -0.033956461 1.7577143
-0.22783239 -0.036855239 1.7590001
-0.26285714 -0.022857143 1.7500001
-0.25446939 -0.022871839 1.7512858
-0.24477144 -0.023655068 1.7516365
-0.23495214 -0.023034526 1.7589999
-0.22783239 -0.023453334 1.7590001
-0.26333335 -0.013333334 1.7500001
-0.25376189 -0.01335619 1.753
-0.24416192 -0.013379048 1.756
-0.23453334 -0.013401904 1.7589999
-0.22783239 -0.016752381 1.7590001
-0.27266666 -0.0046666665 1.7500002
-0.26377904 -0.0050085722 1.7530001
-0.25425714 -0.0046700952 1.7518002
-0.24499594 -0.0052527892 1.7551429
-0.23453332 -0.0050257142 1.7589999
-0.27333334 0.0033333334 1.7500001
-0.2643829 0.0033485715 1.757
-0.2546362 0.0033504763 1.7589999
-0.24430288 0.0033485712 1.757
-0.23453334 0.0033504763 1.7589999
-0.22783239 0 1.7590001
-0.27291667 0.012916668 1.7500001
-0.26423049 0.013379049 1.756
-0.25463617 0.013401904 1.7589999
-0.24458478 0.011726666 1.7589999
-0.23788382 0.011726667 1.7590001
-0.27166668 0.023333335 1.7500001
-0.26407999 0.023400001 1.755
-0.2546362 0.023453334 1.7589999
-0.24793525 0.023453334 1.7590001
-0.27166668 0.033333335 1.7500001
-0.26453528 0.033487622 1.7579999
-0.25505501 0.033085953 1.7589999
-0.24793525 0.030154286 1.7590001
-0.27166668 0.043333337 1.7500001
-0.26468763 0.043556191 1.7589999
-0.25631142 0.043556195 1.7589999
-0.28 0.056666669 1.7500001
-0.27309024 0.053369768 1.7511251
-0.26453525 0.053577147 1.7579999
-0.25559348 0.053607617 1.7589999
-0.29083335 0.064166665 1.7500001
-0.28333333 0.063333333 1.7500001
-0.27426475 0.063550487 1.756
-0.26453522 0.063620955 1.7579999
-0.25505501 0.064077862 1.7589999
-0.30333334 0.075000003 1.7500001
-0.29083335 0.073333338 1.7500001
-0.28333333 0.07333333 1.7500001
-0.27426475 0.073584758 1.756
-0.26453528 0.073670477 1.7579999
-0.25505498 0.073291667 1.7589999
-0.32000002 0.085000008 1.7500001
-0.31466669 0.084000006 1.7500002
-0.30500001 0.081666671 1.7500001
-0.29000002 0.080000006 1.7500001
-0.28333333 0.08291667 1.7500001
-0.27364382 0.083424777 1.7520001
-0.26423052 0.083619051 1.756
-0.25559348 0.08328326 1.7589999
-0.31333333 0.091666669 1.7500001
-0.28416669 0.094999999 1.7500001
-0.27326596 0.093457624 1.7522501
-0.2643829 0.093708567 1.757
-0.25714904 0.092975721 1.7590001
-0.29222223 0.10444445 1.7500001
-0.28447047 0.10374857 1.757
-0.27473906 0.10386476 1.7589999
-0.26468763 0.10344595 1.7589999
-0.25798666 0.10051429 1.7590001
-0.30166665 0.11666667 1.7500001
-0.29347047 0.1146 1.7508183
-0.28463048 0.11385335 1.7579999
-0.27515787 0.1134974 1.7589999
-0.26803809 0.11224096 1.7590001
-0.30166668 0.125 1.7500001
-0.29354885 0.12437388 1.7512858
-0.28479049 0.12396763 1.7589999
-0.27473906 0.12396762 1.7589999
-0.26636285 0.12480524 1.7590001
-0.29280707 0.1335317 1.7525715
-0.28430095 0.13379429 1.756
-0.27473906 0.13401906 1.7589999
-0.26468763 0.13401905 1.7589999
-0.25798666 0.13066858 1.7590001
-0.3226667 0.14466667 1.7500002
-0.31166667 0.14666668 1.7500001
-0.29433334 0.14382477 1.756
-0.28574777 0.14359184 1.7589999
-0.27406898 0.14474058 1.7590001
-0.26535773 0.14541066 1.7590001
-0.33000001 0.15666667 1.7500001
-0.32353598 0.15363333 1.7533751
-0.31351236 0.15342285 1.751
-0.30333334 0.15166667 1.7500001
-0.29433334 0.15385905 1.756
-0.28646573 0.15412189 1.7589999
-0.27222621 0.15328428 1.7590001
-0.26692125 0.15188827 1.7590002
-0.33000001 0.16000001 1.7500001
-0.32374382 0.16333239 1.7545
-0.31440952 0.16389143 1.756
-0.30416667 0.16166668 1.7500001
-0.29433337 0.16389336 1.756
-0.28574777 0.16465198 1.7589999
-0.33333334 0.17333335 1.7500001
-0.32222226 0.17444445 1.7500001
-0.31404573 0.17373334 1.7540001
-0.3038533 0.1753 1.7530001
-0.29416955 0.17383237 1.755
-0.28462666 0.17412761 1.7579999
-0.32333335 0.18000001 1.7500001
-0.31301937 0.18324922 1.7545
-0.30408025 0.18404047 1.75675
-0.29467237 0.18416953 1.7579999
-0.28479049 0.18427619 1.7589999
-0.31246379 0.19383049 1.7545
-0.30454287 0.19410667 1.757
-0.29433715 0.19399238 1.756
-0.2850585 0.19514287 1.7577143
-0.27473906 0.19600286 1.7589999
-0.26669788 0.19499773 1.7590001
-0.31193236 0.20350479 1.7515001
-0.30385143 0.20367812 1.753
-0.29433528 0.20402859 1.756
-0.28479049 0.20437908 1.7589999
-0.27607924 0.20303889 1.7590001
-0.26468763 0.20102859 1.7590001
-0.32000002 0.21666667 1.7500001
-0.31222221 0.21444446 1.7500001
-0.30333331 0.21333335 1.7500001
-0.29383051 0.21369906 1.753
-0.28574777 0.21395184 1.7589999
-0.3311111 0.22555555 1.7500001
-0.32353595 0.22418502 1.7533751
-0.31422475 0.22397524 1.755
-0.30333331 0.22333333 1.7500001
-0.29366475 0.22358669 1.7520001
-0.28553715 0.22479403 1.7577143
-0.33133334 0.23400001 1.7500002
-0.32462668 0.23426668 1.757
-0.31458858 0.23427047 1.757
-0.30394498 0.23389786 1.7511251
-0.29469588 0.23242223 1.7515001
-0.33250511 0.24465017 1.7515001
-0.32407051 0.24388382 1.7540001
-0.31476572 0.24444382 1.7579999
-0.30454665 0.24431048 1.757
-0.29654703 0.24500799 1.7572
-0.34254524 0.25566 1.7545002
-0.3344762 0.25420761 1.756
-0.32444572 0.25420189 1.756
-0.31422666 0.25405526 1.755
-0.30489334 0.25415757 1.7589999
-0.29819238 0.2546362 1.7590002
-0.34 0.26166669 1.7500001
-0.3383981 0.26301241 1.7590001
-0.32481337 0.26453528 1.7579999
-0.31494474 0.26468766 1.7589999
-0.30656856 0.26552522 1.7590001
-0.28367367 0.26692125 1.7590002
-0.32312238 0.27309024 1.7511251
-0.31458288 0.27442476 1.757
-0.30489331 0.27473903 1.7589999
-0.29819238 0.27138859 1.7590001
-0.28311527 0.27473906 1.7590001
-0.27473906 0.27808952 1.7590001
-0.33333334 0.28666669 1.7500001
-0.32370096 0.28366095 1.7520001
-0.31458288 0.28446856 1.757
-0.30531216 0.2843717 1.7589999
-0.29819238 0.28479049 1.7590001
-0.33388889 0.29222223 1.7500001
-0.32222226 0.29222223 1.7500001
-0.31495643 0.2940481 1.75675
-0.307127 0.29260829 1.7590002
-0.32221529 0.30385616 1.7530001
-0.31745762 0.30405575 1.7590001
-0.32374167 0.31455785 1.7545
-0.31628495 0.31494477 1.7590001
-0.33200002 0.32400003 1.7500002
-0.32425144 0.32425526 1.755
-0.3154234 0.32595348 1.7589999
-0.30824381 0.32667142 1.7590001
-0.29819238 0.3249962 1.7590001
-0.28814095 0.32164574 1.7590001
-0.35000002 0.33333334 1.7500001
-0.345 0.33333334 1.7500001
-0.33333334 0.33333331 1.7500001
-0.32443619 0.3344762 1.756
-0.31494477 0.33504763 1.7589999
-0.30537197 0.33409041 1.7589999
-0.29707554 0.33281401 1.7590002
-0.35000002 0.34 1.7500001
-0.34333333 0.34333336 1.7500001
-0.33352569 0.3435314 1.751
-0.3240667 0.34411627 1.7540001
-0.31494477 0.34509909 1.7589999
-0.30601016 0.34621584 1.7589999
-0.36000001 0.35666668 1.7500001
-0.35333335 0.35666668 1.7500001
-0.34352759 0.3535372 1.751
-0.33429146 0.35434473 1.755
-0.32406858 0.35414472 1.7540001
-0.31494477 0.35515046 1.7589999
-0.305372 0.35515049 1.7589999
-0.36200002 0.36400002 1.7500002
-0.35333335 0.36333337 1.7500001
-0.34391621 0.36395618 1.753
-0.3348591 0.36499622 1.7579999
-0.32480952 0.36499622 1.7579999
-0.31494477 0.36520192 1.7589999
-0.30489334 0.36386174 1.7590001
-0.29819238 0.36520192 1.7590001
-0.36166668 0.37333333 1.7500001
-0.35333335 0.37333333 1.7500001
-0.34430858 0.37439814 1.755
-0.33485523 0.37503815 1.7579999
-0.32541502 0.37483457 1.7589999
-0.3171784 0.3730197 1.7590002
-0.35266668 0.38266668 1.7500002
-0.34391621 0.3839905 1.753
-0.33428195 0.38442671 1.755
-0.32834667 0.38362956 1.7590001
-0.39000002 0.39666668 1.7500001
-0.38333336 0.39500001 1.7500001
-0.37666669 0.39666668 1.7500001
-0.36166668 0.39666668 1.7500001
-0.35666668 0.39666668 1.7500001
-0.34372193 0.39378288 1.7520001
-0.33389905 0.39400765 1.753
-0.32834667 0.39535621 1.7590001
-0.39222226 0.40444446 1.7500001
-0.38333338 0.40333337 1.7500001
-0.37374997 0.40375003 1.7500001
-0.36197528 0.4036819 1.7515001
-0.35353523 0.40356576 1.751
-0.34431234 0.40449145 1.755
-0.33447239 0.40472004 1.756
-0.32595348 0.40540764 1.7589999
-0.39333335 0.41 1.7500001
-0.38398477 0.41070285 1.7530001
-0.37354863 0.41356766 1.751
-0.36415809 0.41427624 1.7540001
-0.35515046 0.41545904 1.7589999
-0.34643927 0.41411892 1.7590001
-0.3383981 0.4121086 1.7590001
-0.30154288 0.41880953 1.7590001
-0.37166667 0.42333338 1.7500001
-0.36395052 0.42405906 1.753
-0.35515049 0.42551053 1.7589999
-0.34844953 0.42383528 1.7590001
-0.37238094 0.43333337 1.7500001
-0.36395046 0.43407622 1.753
-0.35515046 0.43556193 1.7589999
-0.34844953 0.43891239 1.7590001
-0.39291671 0.44375002 1.7500001
-0.38333338 0.44375002 1.7500001
-0.37396958 0.44409716 1.753
-0.36478481 0.44511053 1.757
-0.35515049 0.44561332 1.7589999
-0.34643927 0.44695354 1.7590001
-0.33504763 0.44896379 1.7590002
-0.39333335 0.45166668 1.7500001
-0.38333336 0.45166668 1.7500001
-0.37363243 0.45378882 1.7533751
-0.36520195 0.45566478 1.7589999
-0.35515046 0.45566478 1.7589999
-0.34509903 0.45566478 1.7589999
-0.33705792 0.45499468 1.7590001
-0.38000003 0.46000001 1.7500001
-0.37435028 0.4647038 1.75675
-0.36520195 0.46571615 1.7589999
-0.35515049 0.46571621 1.7589999
-0.34509906 0.46571621 1.7589999
-0.3383981 0.46404096 1.7590001
-0.43333334 0.47333336 1.7500001
-0.42333335 0.47666669 1.7500001
-0.41166669 0.47666669 1.7500001
-0.40333334 0.47583336 1.7500001
-0.38222227 0.47555557 1.7500001
-0.37538046 0.47424573 1.7551429
-0.36520192 0.47241715 1.7590002
-0.35403368 0.47353399 1.7590002
-0.42333335 0.48333335 1.7500001
-0.41291672 0.48375002 1.7500001
-0.40402672 0.48416382 1.753
-0.39333335 0.48333335 1.7500001
-0.38355052 0.48360953 1.751
-0.37543005 0.48592931 1.757875
-0.42333338 0.49428573 1.7500001
-0.41427433 0.49446476 1.7540001
-0.40517908 0.49559054 1.7579999
-0.3937791 0.49389902 1.7520001
-0.38530475 0.49587053 1.7589999
-0.37525338 0.49587053 1.7589999
-0.36855239 0.49922097 1.7590001
-0.43000001 0.50999999 1.7500001
-0.42400002 0.50599998 1.7500002
-0.41474482 0.50542945 1.756
-0.40540764 0.5059219 1.7589999
-0.39356005 0.50362283 1.751
-0.38530475 0.5059219 1.7589999
-0.37692857 0.5059219 1.7589999
-0.43166667 0.51500005 1.7500001
-0.42500001 0.51500005 1.7500001
-0.41272387 0.51464766 1.7545
-0.40494478 0.51538289 1.757
-0.39513335 0.51568002 1.7579999
-0.38486287 0.51538479 1.757
-0.37567219 0.51639211 1.7589999
-0.36687714 0.51764858 1.7590001
-0.44222224 0.52333337 1.7500001
-0.43333337 0.52333337 1.7500001
-0.42375004 0.52375001 1.7500001
-0.41333339 0.52333331 1.7500001
-0.40379435 0.52392769 1.7520001
-0.39446285 0.52482861 1.755
