# .PCD v0.7 - Point Cloud Data file format
VERSION 0.7
FIELDS x y z
SIZE 4 4 4
TYPE F F F
COUNT 1 1 1
WIDTH 1525
HEIGHT 1
VIEWPOINT 0 0 0 1 0 0 0
POINTS 1525
DATA ascii
0.66604954 0.42484003 1.6340001
0.40274209 0.43635583 1.6340001
0.66501206 0.43573335 1.6340002
0.40460953 0.44507048 1.6339999
0.65982479 0.44351429 1.6340001
0.66293716 0.4419581 1.6340001
0.40549877 0.45485228 1.6339999
0.41083431 0.4544076 1.6340002
0.65982479 0.4544076 1.6340002
0.40564698 0.46478224 1.6339999
0.41083431 0.46530098 1.6340001
0.65982479 0.4621886 1.6340001
0.40585452 0.47619429 1.6340001
0.41083431 0.47308192 1.6340001
0.40772191 0.48553145 1.6340002
0.41355765 0.48592046 1.6339999
0.42017144 0.48708764 1.6340001
0.65982479 0.48553145 1.6340002
0.41705906 0.49331239 1.6340001
0.42328382 0.49486861 1.6339999
0.65982479 0.49331239 1.6340001
0.66293716 0.49486858 1.6340001
0.41705906 0.50420576 1.6340002
0.42397547 0.50420576 1.6339999
0.65671241 0.50576192 1.6340001
0.41705906 0.51043051 1.6340001
0.42546248 0.51478779 1.6340001
0.43262097 0.51821148 1.6340001
0.4295086 0.52599239 1.6340002
0.43534431 0.52638143 1.6339999
0.65437812 0.52599239 1.6340001
0.43573332 0.53429204 1.6339999
0.6551562 0.53532952 1.6340001
0.47308192 0.55089146 1.6340001
0.33605185 -0.14232191 1.6458
0.34478641 -0.14373687 1.6455716
0.35320571 -0.14065714 1.6410002
0.31723621 -0.13192001 1.649
0.32665905 -0.13371482 1.649
0.33535388 -0.13477312 1.6454444
0.34338206 -0.13529877 1.6409999
0.3511219 -0.13648953 1.6410002
0.30545762 -0.12328238 1.649
0.31454396 -0.12474068 1.649
0.32495525 -0.12558858 1.6483334
0.33384725 -0.12652573 1.6442001
0.29839048 -0.11464477 1.649
0.30467239 -0.11621524 1.649
0.314675 -0.11572745 1.646091
0.32390189 -0.11657762 1.643
0.33132574 -0.11877715 1.641
0.29839048 -0.1052219 1.649
0.30467239 -0.1052219 1.649
0.31444532 -0.10563811 1.6450002
0.32299051 -0.10835809 1.6410002
0.29629651 -0.093181588 1.649
0.30526879 -0.093779571 1.646091
0.31203237 -0.096012704 1.6436667
0.28896764 -0.08480572 1.649
0.29524952 -0.084805712 1.649
0.30536923 -0.084565707 1.6443334
0.28896764 -0.07224191 1.649
0.29524952 -0.075382859 1.649
0.30513299 -0.075500786 1.6453636
0.29629651 -0.067006983 1.649
0.3041746 -0.065853328 1.6463333
0.29760522 -0.055751909 1.649
0.30458009 -0.054503445 1.6459231
0.29682001 -0.043973338 1.649
0.30368191 -0.043831114 1.6436666
0.2971341 -0.035178669 1.6489999
0.3053692 -0.034451429 1.6443335
0.31257144 -0.032820001 1.641
0.29839048 -0.028268572 1.649
0.30500039 -0.025414284 1.6474001
0.31511328 -0.024761731 1.6439091
0.32194859 -0.021880001 1.641
0.30624285 -0.015704762 1.649
0.31495482 -0.015975066 1.6475456
0.32306367 -0.015190748 1.6421429
0.306557 -0.0069100955 1.6489999
0.31409526 -0.0062819049 1.649
0.32379442 -0.0065494371 1.6446363
0.33132574 -0.0093771433 1.641
0.30781335 0.0031409524 1.649
0.31409526 0.0047114287 1.649
0.32339785 0.0051448983 1.6438572
0.33132574 0.0093771433 1.641
0.31499267 0.015256055 1.649
0.32482186 0.015693333 1.6476668
0.33426264 0.016030716 1.642
0.34070286 0.018754287 1.641
0.66702747 0.01500343 1.641
0.67366672 0.017237144 1.645
0.31723621 0.02512762 1.649
0.32508856 0.02512762 1.649
0.33498985 0.025046349 1.6436667
0.34070286 0.025005715 1.641
0.66577715 0.021880001 1.641
0.6720286 0.021880001 1.641
0.69390863 0.026047619 1.6410002
0.70043242 0.02512762 1.649
0.31472343 0.035806857 1.6489999
0.32508856 0.034550484 1.649
0.33466643 0.034055002 1.6440001
0.70721829 0.033224002 1.6458
0.71456671 0.036120951 1.649
0.31723621 0.040832382 1.649
0.32665908 0.043188095 1.649
0.33487028 0.044259284 1.645
0.34070286 0.045322858 1.641
0.70875573 0.042978574 1.641
0.71605384 0.043919999 1.6470001
0.32845387 0.054293606 1.649
0.33553338 0.054877784 1.6463333
0.34070286 0.054700002 1.641
0.70953715 0.054700002 1.641
0.71613717 0.054966666 1.649
0.32980001 0.065959997 1.649
0.33608195 0.065960005 1.649
0.34228534 0.066329144 1.6426001
0.70805389 0.064942382 1.6430001
0.7140432 0.065960005 1.649
0.32854363 0.07475467 1.6489999
0.33589908 0.075343914 1.6481112
0.34385312 0.075501196 1.643
0.35164285 0.076580003 1.641
0.70755941 0.075144134 1.6436667
0.71299624 0.07381238 1.649
0.32854363 0.085433915 1.6489999
0.33608195 0.084805712 1.649
0.34406263 0.084154047 1.6439999
0.35164285 0.082831427 1.641
0.70755941 0.08452636 1.6436666
0.71299624 0.08637619 1.649
0.32854363 0.093600377 1.6489999
0.33608192 0.094228573 1.649
0.34293553 0.093324907 1.6409999
0.70649099 0.094670959 1.6430001
0.71299624 0.092658103 1.649
0.32917184 0.10427961 1.6489999
0.33580765 0.10513809 1.6476666
0.34354442 0.10513766 1.641
0.35348988 0.10599013 1.641
0.70341551 0.10560326 1.6444285
0.33647457 0.11582262 1.649
0.34457016 0.11590539 1.6445556
0.35520032 0.11579493 1.6430001
0.70664245 0.11528525 1.6470001
0.33697936 0.12608682 1.649
0.34531683 0.12557206 1.6481111
0.35358495 0.12516573 1.6427777
0.70328575 0.12502858 1.6410002
0.3379665 0.13506097 1.6489999
0.34550476 0.13506095 1.649
0.35434854 0.13484254 1.6463333
0.70286578 0.13462666 1.6436666
0.33817589 0.14238985 1.649
0.34550476 0.1444838 1.649
0.35543531 0.14451446 1.646091
0.36258286 0.14534572 1.641
0.70666891 0.14489049 1.6476668
0.34640217 0.15390667 1.649
0.35619798 0.15447864 1.6455715
0.36362478 0.15368097 1.6409999
0.70340127 0.15461597 1.6439999
0.34729958 0.16467567 1.649
0.35530162 0.16522695 1.6455716
0.36414573 0.16410001 1.641
0.70623916 0.16436827 1.6454444
0.34738931 0.17526513 1.6489999
0.35384572 0.17457858 1.6439999
0.70657057 0.17546667 1.645
0.34707522 0.18531619 1.649
0.35548222 0.18479301 1.6443335
0.36445829 0.18441714 1.641
0.70657045 0.18486668 1.645
0.34707522 0.19473904 1.649
0.35575119 0.19428311 1.6475456
0.36372629 0.19437794 1.6421429
0.70343715 0.19426668 1.645
0.34550476 0.20259143 1.649
0.3549276 0.20416191 1.649
0.36334497 0.20457818 1.6431819
0.69578397 0.20692229 1.641
0.70346445 0.20314057 1.6458
0.34864572 0.21986668 1.649
0.35478282 0.21506637 1.6483334
0.3614842 0.21588421 1.6474001
0.69599241 0.21463239 1.6410002
0.70357335 0.21515524 1.649
0.34864572 0.22614859 1.649
0.35538059 0.22572632 1.6482
0.36378261 0.22686557 1.6444286
0.69578397 0.2244263 1.641
0.70462036 0.22719556 1.649
0.34864572 0.23243049 1.649
0.35532025 0.23557144 1.649
0.36435813 0.23455864 1.6439091
0.6949504 0.23442858 1.6410002
0.70147943 0.23557144 1.649
0.35649809 0.2449943 1.649
0.36484155 0.24427933 1.646091
0.37310997 0.24442422 1.6421427
0.69347334 0.24420445 1.6436667
0.70043242 0.24342382 1.649
0.3570216 0.25232318 1.649
0.36547145 0.25410858 1.647
0.37352288 0.25474575 1.6409999
0.69453442 0.25495976 1.6467143
0.3643505 0.26384002 1.649
0.37276086 0.26521438 1.6445556
0.69401878 0.26534125 1.6444286
0.35806859 0.27326286 1.649
0.36463603 0.27440503 1.649
0.37272936 0.27524078 1.6458
0.69312716 0.27584431 1.641
0.70043248 0.27326286 1.649
0.36592099 0.28582668 1.649
0.37296236 0.2852087 1.6454445
0.68765718 0.28600287 1.641
0.69409382 0.28469858 1.6470001
0.36623508 0.29462132 1.6489999
0.3725594 0.29429463 1.6436666
0.68765718 0.2922543 1.641
0.69257998 0.29524952 1.649
0.36749145 0.30467239 1.649
0.37299335 0.30441222 1.6442
0.68458432 0.30513048 1.6430001
0.69100952 0.30467239 1.649
0.36749145 0.31409526 1.649
0.37316382 0.31462923 1.6463333
0.68463725 0.3148962 1.6450001
0.36749145 0.32508859 1.649
0.37315533 0.32523012 1.6475456
0.6857143 0.32456288 1.6463333
0.36623508 0.33671013 1.6489999
0.37421715 0.33623147 1.6482
0.38133717 0.33757716 1.641
0.68463725 0.33526668 1.6450001
0.36749145 0.34236383 1.649
0.37488285 0.34508574 1.6470002
0.38133717 0.34382856 1.6410002
0.68463725 0.34466669 1.645
0.37654552 0.3533299 1.6474001
0.38209417 0.35463196 1.6427778
0.67723817 0.35841525 1.6410002
0.68302149 0.35285097 1.6429999
0.37612903 0.36356527 1.649
0.3825154 0.36561376 1.6434
0.67828006 0.36570859 1.6410002
0.68306673 0.3650257 1.645
0.37691429 0.37377334 1.649
0.38336098 0.37475765 1.643
0.39071429 0.3766486 1.641
0.67749858 0.37586716 1.641
0.68594784 0.37403581 1.6474001
0.38457981 0.38458437 1.6442
0.3914957 0.38368145 1.641
0.67702973 0.38383773 1.641
0.68629813 0.3847667 1.649
0.38508254 0.39448002 1.6436666
0.39071429 0.39383999 1.6410002
0.67515439 0.39383999 1.6410002
0.68158668 0.39575997 1.649
0.38589543 0.40502173 1.6458
0.39071429 0.40478 1.641
0.67515433 0.40478003 1.641
0.68158668 0.40518287 1.649
0.38549903 0.41475198 1.6454444
0.39149573 0.41650143 1.641
0.67390406 0.41634518 1.641
0.68158668 0.41460574 1.649
0.38520798 0.42435566 1.6442
0.3927981 0.42613909 1.6409999
0.40009144 0.42822286 1.641
0.67327893 0.42447203 1.641
0.68158668 0.42402855 1.649
0.38564664 0.43554363 1.6473999
0.39384004 0.43447426 1.6409999
0.40009144 0.43447432 1.6410002
0.67616361 0.43509197 1.6467143
0.38633716 0.4460153 1.649
0.39405167 0.44409192 1.6418889
0.40009144 0.44385147 1.6410002
0.66786098 0.44385144 1.6410002
0.67451954 0.4468005 1.649
0.38633716 0.45543814 1.649
0.3941575 0.45515838 1.6423334
0.40113333 0.45479146 1.6409999
0.66515201 0.4538537 1.641
0.67216378 0.45543814 1.649
0.38633716 0.46486098 1.649
0.39383999 0.46573147 1.6409999
0.40134174 0.46635658 1.641
0.66577715 0.46573147 1.6410002
0.67216384 0.46643144 1.649
0.38480034 0.47429678 1.646091
0.39416 0.4739292 1.6423331
0.40277061 0.47555512 1.6409999
0.66577715 0.47510859 1.6410002
0.67216384 0.47585428 1.649
0.3866227 0.48570547 1.649
0.39511749 0.48448732 1.6463333
0.40282646 0.48487645 1.6409999
0.66655862 0.4837043 1.641
0.67491221 0.48606241 1.649
0.38672978 0.49587786 1.649
0.3949033 0.49520212 1.6454444
0.4043538 0.49414703 1.641
0.41415715 0.4954257 1.641
0.66765261 0.49323773 1.641
0.67530471 0.49627051 1.649
0.38947812 0.50569338 1.649
0.39511666 0.50487733 1.6463333
0.40490195 0.5049572 1.6415002
0.4146781 0.50428194 1.6409999
0.42509717 0.50323999 1.641
0.66529626 0.50406033 1.6436666
0.67216384 0.50412285 1.649
0.38947812 0.51197523 1.649
0.39665744 0.51466751 1.649
0.40510514 0.51616061 1.6423334
0.41532931 0.51613355 1.6409999
0.4235343 0.51886857 1.641
0.65848386 0.51574284 1.6410002
0.66588193 0.51511621 1.649
0.39733049 0.52453905 1.649
0.40478006 0.52511996 1.6410002
0.41572002 0.52512002 1.6409999
0.4247064 0.52551073 1.6409999
0.65640002 0.52199429 1.641
0.66513914 0.52618814 1.6454445
0.67211872 0.52682161 1.6463333
0.39733046 0.53082097 1.649
0.4038775 0.53223497 1.6436667
0.41568682 0.53382343 1.6444285
0.42642751 0.53471869 1.6444285
0.43134859 0.53605998 1.641
0.65952575 0.53293431 1.641
0.66577721 0.5344972 1.6409999
0.67441428 0.53201526 1.6429999
0.68158668 0.53082097 1.649
0.43578145 0.54218906 1.6429999
0.44072574 0.54387432 1.641
0.66577715 0.5407486 1.6410002
0.31719714 -0.14202857 1.6570001
0.32587668 -0.14281762 1.6570001
0.33392495 -0.145816 1.6569999
0.2998381 -0.13256 1.6570001
0.30678171 -0.13382249 1.6569999
0.3152245 -0.13611072 1.6569998
0.32445639 -0.13760991 1.6569999
0.28616127 -0.1241435 1.6570001
0.29553419 -0.12596071 1.6569997
0.30551925 -0.12814134 1.6569999
0.31404096 -0.12940381 1.6570001
0.27774477 -0.11362286 1.6570001
0.28405714 -0.11520097 1.6569997
0.29401129 -0.11556514 1.6569997
0.27774477 -0.10415429 1.6570001
0.28405714 -0.10415429 1.6569998
0.29352573 -0.10415429 1.6569998
0.27669272 -0.092581593 1.6570001
0.28405714 -0.094685718 1.6569998
0.29247364 -0.095737785 1.6569999
0.27616668 -0.085217148 1.6569999
0.28405714 -0.085217148 1.6569998
0.27616668 -0.07574857 1.6569999
0.28405714 -0.07574857 1.6569998
0.29036954 -0.07732667 1.6570001
0.27669272 -0.068384133 1.6570001
0.28405714 -0.066280007 1.6569998
0.29247364 -0.065227941 1.6569999
0.28563523 -0.055233333 1.6569998
0.29378873 -0.05497032 1.6569997
0.29226324 -0.044817906 1.6569999
0.29262397 -0.034267213 1.6569998
0.28721336 -0.022093333 1.6570001
0.29467341 -0.024962597 1.6569997
0.29510382 -0.015780954 1.6569997
0.30299431 -0.015780954 1.6570001
0.29510382 -0.006312381 1.6569997
0.30378336 -0.0055233333 1.6570001
0.29696882 0.0043038963 1.6569997
0.30509841 0.0052603176 1.6569998
0.30654499 0.015386431 1.6569998
0.31246287 0.017359048 1.6570001
0.3080442 0.024618287 1.6569999
0.31404093 0.025249526 1.6569999
0.70698667 0.028405715 1.6570001
0.711721 0.028405715 1.6570001
0.30772856 0.034718096 1.6569999
0.31483001 0.033140004 1.6570001
0.71961147 0.034718096 1.6570001
0.72276765 0.037874289 1.6570001
0.30772856 0.04418667 1.6569999
0.3152245 0.04458119 1.6569998
0.32350954 0.045764767 1.6570001
0.72276765 0.044186667 1.6570001
0.30772856 0.055233333 1.6569998
0.31561902 0.055233341 1.6569997
0.32403556 0.055759363 1.6569998
0.72276765 0.055233337 1.6570001
0.30930668 0.063123815 1.6570001
0.31561902 0.066280007 1.6569998
0.32508764 0.066280007 1.6569998
0.71961147 0.0678581 1.6570001
0.72276765 0.064701907 1.6570001
0.31652078 0.075297691 1.6569998
0.32418588 0.076199457 1.6569998
0.71803337 0.075748578 1.6570001
0.31652078 0.085668035 1.6569998
0.32418588 0.084766269 1.6569998
0.71803337 0.085217148 1.6570001
0.31652078 0.095136605 1.6569998
0.32418588 0.095136605 1.6569998
0.71855944 0.094685711 1.6570001
0.31751275 0.10352305 1.6569999
0.32469311 0.10454881 1.6569998
0.7132991 0.10415429 1.6570001
0.31877524 0.11046667 1.6570001
0.32571885 0.11488535 1.6569998
0.33218905 0.1175681 1.6570001
0.7132991 0.11993524 1.6570001
0.32613972 0.12677366 1.6569999
0.33266249 0.1256164 1.6569999
0.7132991 0.12624763 1.6570001
0.32745478 0.13492715 1.6570001
0.3336544 0.1357162 1.6569998
0.7132991 0.13256 1.6570001
0.32745478 0.14597382 1.6570001
0.33416164 0.14557929 1.6569998
0.34086859 0.14834096 1.6570001
0.32824382 0.15465334 1.6570001
0.33455622 0.15465333 1.6569998
0.34213108 0.15465334 1.6569999
0.7132991 0.15307525 1.6570001
0.32824382 0.16096573 1.6570001
0.33495069 0.16372739 1.6569998
0.34312302 0.16457281 1.6569998
0.33613431 0.17359048 1.6569999
0.3429727 0.1756946 1.6569998
0.71645528 0.17990287 1.6570001
0.33613431 0.18621527 1.6569999
0.34244668 0.18621527 1.6569999
0.71645528 0.18621524 1.6570001
0.33644992 0.19505258 1.6569999
0.34244668 0.19568382 1.6569999
0.71408814 0.19568382 1.6570001
0.33644992 0.20578364 1.6569999
0.34312302 0.20560327 1.6569998
0.35033715 0.20515239 1.6570001
0.71224707 0.20515239 1.6570001
0.33644992 0.21525221 1.6569999
0.34402478 0.21462095 1.6569998
0.35033715 0.21462095 1.6570001
0.71014291 0.21462095 1.6570001
0.33455622 0.22408952 1.6569998
0.34402478 0.22408952 1.6569998
0.70698667 0.22724572 1.6570001
0.71014291 0.22093335 1.6570001
0.33484313 0.23470582 1.6569997
0.34402475 0.23513621 1.6569997
0.3513892 0.23776634 1.6570001
0.70698667 0.2382924 1.6570001
0.34492657 0.24573199 1.6569998
0.35191524 0.24618287 1.6569999
0.70593458 0.24618286 1.6570001
0.34718096 0.25565144 1.6570001
0.35384402 0.25635281 1.6569998
0.70383048 0.25565144 1.6570001
0.34718096 0.26669812 1.6570001
0.35507143 0.26512003 1.6569997
0.70383048 0.26512 1.6570001
0.34718096 0.27301049 1.6570001
0.35349333 0.27458858 1.6569998
0.35507146 0.28405714 1.6569997
0.36296192 0.28405714 1.6570001
0.7027784 0.28405714 1.6570001
0.35552233 0.29442748 1.6569997
0.36359316 0.29605067 1.6569999
0.69751811 0.29826 1.6570001
0.7006743 0.29194763 1.6570001
0.35854325 0.30551925 1.6569999
0.36454001 0.30615047 1.6569999
0.69672906 0.3061505 1.6570001
0.35901669 0.31483001 1.6570001
0.36454001 0.31561902 1.6569999
0.69562441 0.31625026 1.6569999
0.35901669 0.32587668 1.6570001
0.36454001 0.32508764 1.6569999
0.69436193 0.32508764 1.6570001
0.35822764 0.33455619 1.6569999
0.36422437 0.33392498 1.6569999
0.69436193 0.33455619 1.6570001
0.35980573 0.34402478 1.6570001
0.36506605 0.34507683 1.6569999
0.69436193 0.34086859 1.6570001
0.35845309 0.35574776 1.6569998
0.36640504 0.35492799 1.6569997
0.37369299 0.35728076 1.6569999
0.69120574 0.35822764 1.6570001
0.35822764 0.3661181 1.6569999
0.36611813 0.36611813 1.6569998
0.37369299 0.36674935 1.6569999
0.69120574 0.3661181 1.6570001
0.35875368 0.37348256 1.6570001
0.36611813 0.37558672 1.6569998
0.37400863 0.37558672 1.6569999
0.69436193 0.37716478 1.6570001
0.36927429 0.38189906 1.6570001
0.37558672 0.38505527 1.6569998
0.38189906 0.38663334 1.6570001
0.69436193 0.38505521 1.6570001
0.36927429 0.39768001 1.6570001
0.37558672 0.39452383 1.6569998
0.38189903 0.39452383 1.6570001
0.68804955 0.39610192 1.6570001
0.69436193 0.39136764 1.6570001
0.36927429 0.40399241 1.6570001
0.37558672 0.40399241 1.6569998
0.38189903 0.40399241 1.6570001
0.68804955 0.4008362 1.6570001
0.36864305 0.41472346 1.6569999
0.37558672 0.41503906 1.6569997
0.38189906 0.41503906 1.6570001
0.68804955 0.41451302 1.6570001
0.35980573 0.42608574 1.6570001
0.3676962 0.42608574 1.6569999
0.37558672 0.42608574 1.6569998
0.38189903 0.42608571 1.6570001
0.36927429 0.4355543 1.6570001
0.37558672 0.4355543 1.6569998
0.38189903 0.4355543 1.6570001
0.68568242 0.43476525 1.6570001
0.37648848 0.44457197 1.6569998
0.38189903 0.44502291 1.6570001
0.68173718 0.44660097 1.6570001
0.37716481 0.45449141 1.6569999
0.38189903 0.45449147 1.6570001
0.678581 0.45606953 1.6570001
0.68173718 0.45291334 1.6570001
0.37795383 0.46317098 1.6570001
0.38189903 0.46396002 1.6570001
0.67779195 0.46396002 1.6570001
0.37769082 0.47605872 1.6569999
0.38189903 0.47342861 1.6570001
0.67794979 0.47469106 1.6569999
0.37795383 0.4852643 1.6570001
0.38189903 0.48605335 1.6570001
0.37874287 0.49236572 1.6570001
0.38189906 0.49236572 1.6570001
0.38631773 0.50562179 1.6569999
0.678581 0.50499052 1.6570001
0.38663337 0.51445907 1.6569999
0.39294574 0.51761526 1.6570001
0.67332059 0.51445907 1.6570001
0.38663334 0.52077144 1.6570001
0.39373478 0.52313858 1.6570001
0.66911238 0.52550572 1.6570001
0.67226857 0.52234954 1.6570001
0.39452383 0.53024 1.6570001
0.30683571 -0.14667857 1.6650001
0.31357503 -0.14628215 1.6650001
0.32348573 -0.14588572 1.6650001
0.28701431 -0.13002858 1.6650001
0.29494286 -0.13372858 1.6650001
0.30445716 -0.13742858 1.6650001
0.31080002 -0.13954286 1.6650001
0.27697143 -0.12157143 1.6650001
0.28331429 -0.1258 1.6650001
0.26957145 -0.11258572 1.6650001
0.27551788 -0.11417143 1.6650001
0.26957145 -0.10465714 1.6650001
0.27432859 -0.10465714 1.6650001
0.27485713 -0.096200012 1.6650001
0.27274287 -0.085628577 1.6650001
0.26830286 -0.075479999 1.6650002
0.27274287 -0.076114289 1.6650001
0.27551788 -0.064221434 1.6650001
0.28225714 -0.060257144 1.6650001
0.27908573 -0.05391429 1.6650001
0.28225714 -0.05391429 1.6650001
0.28701428 -0.044400003 1.6650001
0.29177144 -0.041228574 1.6650001
0.28701428 -0.034885716 1.6650001
0.28669715 -0.026005715 1.6650002
0.28633469 -0.015404083 1.6650001
0.28542855 -0.0063428576 1.6650001
0.28574568 0.0038057144 1.6650002
0.29240569 0.0057085715 1.6650002
0.29533929 0.015857143 1.6650001
0.30207857 0.016650001 1.6650001
0.29573572 0.022992859 1.6650001
0.30355102 0.025824491 1.6650001
0.68502861 0.022200001 1.6650001
0.70564288 0.022200001 1.6650001
0.71462852 0.026428571 1.6650001
0.72308576 0.028542858 1.6650001
0.2981143 0.034885716 1.6650001
0.30287144 0.034885716 1.6650001
0.71991432 0.031714287 1.6650001
0.72625715 0.033828571 1.6650001
0.30287144 0.044400003 1.6650001
0.72942859 0.044400003 1.6650001
0.30287144 0.05391429 1.6650001
0.72942859 0.05391429 1.6650001
0.30525002 0.065014288 1.6650001
0.31080002 0.068185717 1.6650001
0.72863573 0.065014288 1.6650001
0.30683571 0.075321436 1.6650001
0.31206855 0.076748572 1.6650002
0.72562283 0.075479999 1.6650002
0.30762857 0.088800006 1.6650001
0.31206855 0.084994286 1.6650002
0.72308576 0.084042862 1.6650001
0.30762857 0.098314293 1.6650001
0.31206858 0.094508581 1.6650002
0.72308576 0.098314293 1.6650001
0.31306532 0.10511021 1.6650001
0.71991426 0.10465714 1.6650001
0.72308576 0.10148571 1.6650001
0.31436789 0.11417143 1.6650001
0.32137144 0.11522857 1.6650001
0.71864575 0.11417143 1.6650002
0.31555715 0.12368572 1.6650001
0.32257959 0.12413877 1.6650001
0.71991426 0.12368572 1.6650001
0.31714287 0.1316143 1.6650001
0.32308927 0.13557857 1.6650001
0.7183286 0.13478571 1.6650001
0.3256 0.14588572 1.6650001
0.71912146 0.14509286 1.6650001
0.32586429 0.15619287 1.6650001
0.71991426 0.15540002 1.6650001
0.32745001 0.16412143 1.6650001
0.333 0.16808572 1.6650001
0.71991426 0.1649143 1.6650001
0.32856002 0.17506287 1.6650002
0.333 0.17442858 1.6650001
0.71991426 0.17442858 1.6650001
0.32705358 0.18433931 1.6650001
0.33490285 0.1826743 1.6650002
0.7230857 0.18394287 1.6650001
0.32982859 0.19028573 1.6650001
0.33363429 0.1959943 1.6650002
0.71991432 0.19662859 1.6650001
0.72308576 0.19028573 1.6650001
0.33379287 0.20535 1.6650001
0.71885711 0.20614286 1.6650001
0.32824287 0.21724287 1.6650001
0.33379287 0.2148643 1.6650001
0.32705358 0.224775 1.6650001
0.71357143 0.22675714 1.6650001
0.32824287 0.23468572 1.6650001
0.71357143 0.23627144 1.6650001
0.33571836 0.24510612 1.6650001
0.34251431 0.24737144 1.6650001
0.71357143 0.24102858 1.6650001
0.33775714 0.25292146 1.6650001
0.34378284 0.25434858 1.6650002
0.71040004 0.25371432 1.6650001
0.34489286 0.26481429 1.6650001
0.71040004 0.2632286 1.6650001
0.34477958 0.27636737 1.6650001
0.71040004 0.27591431 1.6650001
0.34727144 0.28542855 1.6650001
0.7072286 0.2886 1.6650001
0.71040004 0.28225714 1.6650001
0.34608215 0.29494286 1.6650001
0.70617145 0.29494286 1.6650001
0.34695429 0.30382288 1.6650002
0.3536143 0.30445716 1.6650001
0.70405716 0.30445716 1.6650001
0.35520002 0.31291434 1.6650001
0.7032643 0.31397143 1.6650001
0.35565308 0.32620409 1.6650001
0.70247144 0.32348573 1.6650001
0.3536143 0.33617142 1.6650001
0.70088571 0.33775717 1.6650001
0.35678574 0.34568572 1.6650001
0.69771433 0.34727144 1.6650001
0.70088571 0.34251431 1.6650001
0.35599288 0.35440716 1.6650001
0.36471429 0.35837144 1.6650001
0.69771433 0.3536143 1.6650001
0.70088571 0.35202858 1.6650001
0.35393146 0.36534861 1.6650002
0.69771433 0.36471432 1.6650001
0.35467145 0.37422857 1.6650001
0.69771433 0.37264287 1.6650001
0.35757858 0.38295004 1.6650001
0.36426124 0.38464898 1.6650001
0.37105715 0.38691431 1.6650001
0.70088571 0.3837429 1.6650001
0.35837141 0.39431429 1.6650001
0.36471429 0.39484286 1.6650003
0.37105715 0.39325714 1.6650001
0.69560003 0.39748573 1.6650001
0.70088571 0.39008573 1.6650001
0.35837144 0.40752858 1.6650001
0.36471432 0.40594289 1.6650001
0.69137144 0.40752858 1.6650001
0.35837141 0.41545716 1.6650001
0.36431789 0.41545719 1.6650001
0.69137144 0.41862857 1.6650001
0.35710287 0.42560571 1.6650002
0.36418572 0.42391428 1.6650001
0.69137144 0.42655715 1.6650001
0.35678571 0.43290001 1.6650001
0.36431789 0.43488213 1.6650001
0.69137144 0.43131429 1.6650001
0.36577144 0.44294286 1.6650001
0.3721143 0.4461143 1.6650001
0.6882 0.44558573 1.6650001
0.36788574 0.45351431 1.6650001
0.37264287 0.45510003 1.6650001
0.68756568 0.45605144 1.6650002
0.37475717 0.46620002 1.6650001
0.68502861 0.46619999 1.6650001
0.37549716 0.47508001 1.6650002
0.68502861 0.47254288 1.6650001
0.37502146 0.48602143 1.6650001
0.68344289 0.48364288 1.6650001
0.37740001 0.49474287 1.6650001
0.38215715 0.49791431 1.6650001
0.68502861 0.49632859 1.6650001
0.38215718 0.50425714 1.6650001
0.68502861 0.5042572 1.6650001
0.38374287 0.51218575 1.6650001
0.67868572 0.51694286 1.6650001
0.68185717 0.51218575 1.6650001
0.38691431 0.52645719 1.6650001
0.39167145 0.52804291 1.6650001
0.67868572 0.52328575 1.6650001
0.68185717 0.52328575 1.6650001
0.39325714 0.53438574 1.6650001
0.68502855 0.53280002 1.6650001
0.29476666 -0.15296 1.6730001
0.28998667 -0.14977334 1.6730001
0.29715669 -0.14579001 1.6730002
0.30409902 -0.14431047 1.6730002
0.28626892 -0.13384001 1.6730002
0.29317334 -0.13702667 1.6730001
0.26449335 -0.12109334 1.6730001
0.27485001 -0.12268668 1.6730001
0.28042668 -0.12746668 1.6730001
0.26489168 -0.11472 1.6730002
0.27086666 -0.11790667 1.6730001
0.26540384 -0.10561524 1.6730002
0.26640537 -0.095599994 1.6730001
0.27086666 -0.095600002 1.673
0.26540384 -0.085584767 1.6730002
0.27086666 -0.086039998 1.673
0.26385602 -0.07488668 1.6730001
0.27086666 -0.07010667 1.6730001
0.26688334 -0.064530008 1.6730001
0.27166331 -0.062936671 1.6730001
0.27724001 -0.054173335 1.673
0.27724001 -0.047800001 1.6730001
0.28233868 -0.045250669 1.6730001
0.28233868 -0.035690673 1.6730001
0.28202 -0.025493333 1.6730002
0.28170139 -0.016570669 1.6730001
0.27724001 -0.0079666674 1.6730001
0.28042668 -0.0063733333 1.673
0.28202 0.0063733333 1.6730002
0.2868 0.015933335 1.6730002
0.29317334 0.015933335 1.6730001
0.2875967 0.023103334 1.6730001
0.29572266 0.027405333 1.6730001
0.69389665 0.023103334 1.6730001
0.71540666 0.022306668 1.6730001
0.72592276 0.026130671 1.6730001
0.29596168 0.035053335 1.6730002
0.7297467 0.03186667 1.6730001
0.73484534 0.035053335 1.6730001
0.29675835 0.044215005 1.6730002
0.73612005 0.044613335 1.673
0.29636002 0.054173335 1.6730002
0.73612005 0.054173335 1.673
0.29742226 0.062671117 1.6730002
0.30273333 0.065326676 1.6730001
0.73612005 0.063733339 1.673
0.29848447 0.072231114 1.673
0.30379555 0.075948887 1.6730002
0.7297467 0.079666667 1.6730001
0.73420799 0.073930666 1.6730001
0.30592003 0.086040005 1.6730002
0.72974664 0.086039998 1.673
0.30645111 0.095600009 1.6730002
0.72974664 0.095600009 1.673
0.30631834 0.10555834 1.6730002
0.72815335 0.10516001 1.6730001
0.30683047 0.11426476 1.6730002
0.31229335 0.11472 1.6730001
0.72656006 0.11471999 1.673
0.30751336 0.12587334 1.6730001
0.31229335 0.12428001 1.673
0.72656006 0.12428001 1.673
0.30910668 0.13384001 1.673
0.31456953 0.13429524 1.6730002
0.72576338 0.13463667 1.6730001
0.31627667 0.14340001 1.6730002
0.32291555 0.14499334 1.6730002
0.7259227 0.14403734 1.6730001
0.31866667 0.15614666 1.673
0.32312801 0.15550932 1.6730001
0.72735673 0.15535 1.6730001
0.31866667 0.16252001 1.6730001
0.32458478 0.16661716 1.6730002
0.72656006 0.16570668 1.673
0.31866667 0.17526668 1.6730001
0.32412955 0.17481145 1.6730002
0.72656006 0.17526667 1.673
0.31866667 0.18164001 1.6730001
0.32265002 0.18403001 1.6730001
0.72974664 0.18482667 1.673
0.32543835 0.19398834 1.6730002
0.33141336 0.19598001 1.6730001
0.72656006 0.19598001 1.6730001
0.32743001 0.20474334 1.6730001
0.33141336 0.20394666 1.673
0.72656006 0.20394666 1.673
0.32504001 0.21470167 1.6730002
0.33141336 0.21191335 1.6730001
0.72098339 0.21510001 1.6730001
0.31866667 0.22466001 1.6730001
0.32265002 0.22705001 1.6730001
0.72018671 0.22625335 1.673
0.32344666 0.23581333 1.6730002
0.72018671 0.23581333 1.673
0.32695201 0.244736 1.6730001
0.33141336 0.24537335 1.673
0.71700001 0.24696667 1.6730001
0.72018671 0.24218668 1.6730001
0.32822669 0.25334001 1.6730001
0.3346 0.2553317 1.6730002
0.71700001 0.25493336 1.673
0.33699 0.26369667 1.6730001
0.34177002 0.26449335 1.6730001
0.71700001 0.26449335 1.673
0.34097335 0.27405334 1.6730001
0.71381336 0.27086666 1.6730001
0.34233907 0.28588954 1.6730002
0.71540666 0.28520668 1.6730001
0.33778667 0.29954669 1.6730001
0.34177002 0.29636002 1.6730001
0.71301669 0.29715669 1.6730001
0.33699 0.30592 1.6730001
0.3425667 0.30592 1.6730002
0.35053334 0.30910668 1.6730001
0.71190137 0.30528265 1.6730001
0.33566222 0.31441778 1.673
0.34416002 0.31547999 1.6730002
0.35244536 0.31675467 1.6730001
0.7114234 0.31468335 1.6730001
0.3346 0.32185334 1.6730001
0.34522226 0.3239778 1.6730002
0.35326475 0.32412952 1.6730002
0.70744002 0.32822669 1.6730001
0.71062672 0.32344669 1.6730001
0.34575334 0.3346 1.6730002
0.35053334 0.3346 1.673
0.70616543 0.33396268 1.6730001
0.34575337 0.34097335 1.6730001
0.35212666 0.34415999 1.6730001
0.70664334 0.34495667 1.6730001
0.35372004 0.35372004 1.673
0.70616531 0.35372001 1.6730001
0.71062672 0.35372001 1.6730001
0.35180801 0.3645547 1.6730001
0.7031911 0.36434221 1.6730002
0.35132998 0.37682334 1.6730001
0.70425338 0.37602666 1.673
0.35332167 0.38598505 1.6730002
0.34734669 0.39833334 1.6730001
0.35371998 0.39514667 1.6730002
0.36009336 0.39833334 1.6730001
0.70425338 0.39674002 1.6730001
0.35463047 0.40425149 1.6730002
0.36009336 0.40470669 1.6730001
0.69788003 0.40630001 1.6730001
0.70106667 0.40470669 1.673
0.35563201 0.41362935 1.6730001
0.69788003 0.41426668 1.673
0.35372004 0.4243578 1.6730002
0.69788003 0.42382669 1.673
0.35292333 0.43498003 1.6730002
0.36009336 0.43976003 1.6730001
0.69708335 0.43498001 1.6730001
0.35584447 0.44400892 1.673
0.36328003 0.44693005 1.6730001
0.69469339 0.44613335 1.6730001
0.36487338 0.45569333 1.6730002
0.69469339 0.45728669 1.6730001
0.36774135 0.46397868 1.6730001
0.37284002 0.46844003 1.6730001
0.69256896 0.46525335 1.673
0.36965334 0.47162667 1.6730001
0.37284002 0.47481334 1.673
0.68832004 0.47800002 1.6730001
0.69150668 0.47481334 1.673
0.36965334 0.48437336 1.673
0.37284002 0.48437333 1.673
0.68832004 0.48437333 1.6730001
0.69150668 0.48118669 1.6730001
0.36965334 0.49393335 1.673
0.37411469 0.49457067 1.6730001
0.69150668 0.49393335 1.673
0.37841666 0.50508666 1.6730001
0.69256896 0.50508666 1.6730002
0.37921333 0.51464665 1.6730001
0.38346222 0.51624 1.673
0.68752337 0.51703668 1.6730001
0.69150668 0.51624 1.6730001
0.38558668 0.52420664 1.6730001
0.6870454 0.52579999 1.6730001
0.69341868 0.52579999 1.6730001
0.70106667 0.52579999 1.6730001
0.38877335 0.53536004 1.673
0.39196002 0.53854668 1.6730001
0.68672669 0.53217334 1.6730001
0.69150668 0.53217334 1.6730001
0.28710413 -0.15155683 1.6810001
0.29137334 -0.15369144 1.6810001
0.28817144 -0.14408572 1.6810001
0.29297429 -0.14408572 1.6810001
0.30097905 -0.14408572 1.6810001
0.27749845 -0.13234539 1.6810001
0.28390226 -0.1355473 1.6810001
0.25679278 -0.12295314 1.6810001
0.2657581 -0.12359352 1.6810001
0.27456331 -0.12727572 1.6810001
0.24974859 -0.11526857 1.6810001
0.25615239 -0.11526857 1.681
0.2625562 -0.11526857 1.6810001
0.24974859 -0.10566286 1.6810001
0.25615239 -0.10566287 1.681
0.2625562 -0.10406191 1.6810001
0.24654667 -0.095256671 1.681
0.25615239 -0.096057147 1.681
0.26335669 -0.096057147 1.6810001
0.24683775 -0.085287094 1.6809999
0.25615239 -0.084850468 1.6809999
0.2625562 -0.088052385 1.6810001
0.24894811 -0.074444294 1.6810001
0.25615239 -0.073643811 1.681
0.25706723 -0.064495511 1.681
0.26383695 -0.06339772 1.6810001
0.25935429 -0.056033336 1.6810001
0.2657581 -0.054432388 1.681
0.27376288 -0.054432381 1.6810001
0.25935429 -0.043225713 1.6810001
0.2657581 -0.044826671 1.681
0.27496359 -0.044426426 1.681
0.28176764 -0.041624762 1.6810001
0.25935429 -0.036821909 1.6810001
0.26703885 -0.036501717 1.6810001
0.2753638 -0.035220951 1.681
0.28176764 -0.032019049 1.6810001
0.2662155 -0.024700409 1.681
0.2753638 -0.02561524 1.681
0.2657581 -0.016009526 1.681
0.2753638 -0.016009524 1.681
0.26615834 -0.0068040481 1.681
0.27444902 -0.005946395 1.681
0.26896 0.0016009525 1.6810001
0.27536383 0.004802858 1.6809999
0.27856573 0.016009524 1.6810001
0.28176764 0.016009524 1.6810001
0.69481337 0.01921143 1.6810001
0.73003429 0.01921143 1.6810001
0.27856573 0.02561524 1.6810001
0.2845121 0.02653007 1.681
0.29137334 0.028817143 1.6810001
0.69801527 0.02561524 1.6810001
0.70441908 0.023480637 1.6810001
0.72523141 0.022413334 1.6810001
0.73515737 0.02561524 1.6810001
0.27856573 0.036821909 1.6810001
0.28496951 0.035220955 1.681
0.29137334 0.035220955 1.6810001
0.74412274 0.034580573 1.6810001
0.27856573 0.044826668 1.6810001
0.28496954 0.044826664 1.681
0.29217383 0.045627147 1.6810001
0.74284196 0.044826668 1.6810001
0.27856573 0.052831434 1.6810001
0.28496954 0.054432388 1.681
0.29137334 0.054432381 1.6810001
0.74284196 0.051230479 1.6810001
0.28603682 0.062970795 1.6810001
0.29350796 0.065105401 1.6810001
0.74284196 0.064038098 1.6810001
0.28657049 0.073643811 1.6810001
0.294175 0.073643811 1.681
0.30097905 0.07684572 1.6810001
0.73964 0.07684572 1.6810001
0.7439093 0.072576515 1.6810001
0.28817144 0.083249524 1.6810001
0.29457524 0.084850468 1.6809999
0.30161944 0.084530279 1.6810001
0.73803902 0.084850483 1.6810001
0.29457524 0.096057139 1.681
0.3022598 0.095416769 1.6810001
0.7364381 0.096057147 1.6810001
0.29457524 0.10566287 1.681
0.30177951 0.10486239 1.6810001
0.73537081 0.10566286 1.6810001
0.2961762 0.11366762 1.6810001
0.3022598 0.11590896 1.6810001
0.73323613 0.11526858 1.6810001
0.29697669 0.12407382 1.6810001
0.30326611 0.12441688 1.681
0.31058478 0.12167238 1.6810001
0.73323613 0.12487429 1.6810001
0.30418095 0.13448 1.681
0.73403668 0.13528048 1.6810001
0.30418098 0.14408571 1.681
0.3125059 0.14536647 1.6810001
0.73483711 0.14408572 1.6810001
0.30418098 0.15369144 1.681
0.31378669 0.15369144 1.681
0.73515731 0.15369144 1.6810001
0.29777715 0.16970097 1.6810001
0.30538169 0.16609882 1.681
0.31378672 0.1648981 1.6809999
0.32019049 0.1681 1.6810001
0.73430353 0.16436444 1.6810001
0.29777715 0.17450382 1.6810001
0.3061021 0.17610477 1.6810001
0.31378672 0.17610477 1.681
0.32019049 0.17610477 1.6810001
0.73323613 0.17610477 1.6810001
0.30738288 0.18571049 1.6810001
0.31378669 0.18571049 1.681
0.32019049 0.18731144 1.6810001
0.30738288 0.1953162 1.6810001
0.31378669 0.19531621 1.681
0.32099098 0.19611667 1.6810001
0.73323613 0.1953162 1.6810001
0.30738288 0.20652287 1.6810001
0.3147015 0.20537935 1.681
0.32299215 0.20452167 1.681
0.73323619 0.20332097 1.6810001
0.30738288 0.21452762 1.6810001
0.31418693 0.21452764 1.681
0.32147127 0.21452764 1.6810001
0.72683239 0.21612859 1.6810001
0.73003429 0.21292667 1.6810001
0.30738288 0.22413333 1.6810001
0.31378666 0.22413333 1.681
0.32019049 0.22093144 1.6810001
0.72683239 0.22413333 1.6810001
0.31470153 0.23328164 1.681
0.32019049 0.23373906 1.6810001
0.72683239 0.23373906 1.6810001
0.31698859 0.24174382 1.6810001
0.32219166 0.24614643 1.681
0.72523141 0.24494572 1.6810001
0.31698859 0.25935429 1.6810001
0.32403278 0.25647259 1.681
0.72491121 0.25679278 1.6810001
0.32499334 0.26575807 1.6809999
0.33427888 0.26639849 1.6810001
0.72491121 0.2651177 1.6810001
0.32699454 0.27496359 1.681
0.3362 0.2753638 1.681
0.34260383 0.27536383 1.6810001
0.72122908 0.27456334 1.6810001
0.32699454 0.28536978 1.681
0.3362 0.28496954 1.681
0.72042859 0.28496954 1.6810001
0.32499337 0.29457524 1.6809999
0.3362 0.29457524 1.681
0.71722668 0.29137334 1.6810001
0.72042865 0.29457524 1.6810001
0.32659429 0.30418095 1.681
0.33427888 0.30354056 1.6810001
0.72042865 0.30418095 1.6810001
0.32699454 0.31338647 1.681
0.33513272 0.31432033 1.6810001
0.71722668 0.31378669 1.6810001
0.72042859 0.31538764 1.6810001
0.3268854 0.32542995 1.6809999
0.3362 0.3256337 1.681
0.34367111 0.32872888 1.6810001
0.71642619 0.32499334 1.6810001
0.72042859 0.32019049 1.6810001
0.3289957 0.33539954 1.6810001
0.3362 0.3362 1.681
0.34260383 0.3362 1.6810001
0.71402478 0.3362 1.6810001
0.3297962 0.34260383 1.6810001
0.33660024 0.34540549 1.681
0.34534833 0.34672055 1.681
0.35220954 0.34900764 1.6810001
0.71562576 0.34580573 1.6810001
0.33660024 0.35501119 1.681
0.34580573 0.35541144 1.681
0.35220954 0.35541144 1.6810001
0.71509212 0.35647872 1.6810001
0.33780098 0.36501715 1.6810001
0.34580573 0.36501715 1.681
0.35220954 0.36181524 1.6810001
0.71210361 0.36437678 1.6810001
0.33812118 0.37398252 1.6810001
0.34580573 0.37462282 1.681
0.71082288 0.37462291 1.6810001
0.3362 0.38422859 1.681
0.34580573 0.38422859 1.681
0.71082288 0.38422859 1.6810001
0.3362 0.39383426 1.681
0.34580573 0.39383429 1.681
0.71082288 0.39223334 1.6810001
0.33711484 0.40298262 1.681
0.3458057 0.40504098 1.681
0.35220954 0.40824288 1.6810001
0.70762098 0.40504098 1.6810001
0.34672055 0.41670507 1.681
0.35301003 0.41704813 1.6810001
0.70441908 0.41624764 1.6810001
0.34580573 0.42585331 1.681
0.35381049 0.42265144 1.6810001
0.70441908 0.42585334 1.6810001
0.34580573 0.43545908 1.681
0.70441908 0.43545905 1.6810001
0.34687304 0.44399747 1.6810001
0.35301003 0.44586527 1.6810001
0.36181524 0.44826669 1.6810001
0.69801527 0.44826669 1.6810001
0.70121717 0.44186288 1.6810001
0.34900764 0.45627144 1.6810001
0.35541144 0.45467049 1.681
0.36181524 0.45467052 1.6810001
0.69801527 0.45467049 1.6810001
0.34900764 0.46427619 1.6810001
0.35541144 0.46427625 1.681
0.36373636 0.46555695 1.6810001
0.69801527 0.46747813 1.6810001
0.34687304 0.47281465 1.6810001
0.35541144 0.47388193 1.681
0.36501715 0.47388193 1.681
0.37142098 0.47708383 1.6810001
0.69801527 0.47388193 1.6810001
0.34900764 0.48508859 1.6810001
0.35541144 0.48508859 1.6809999
0.36501715 0.48508859 1.6809999
0.37142098 0.48028573 1.6810001
0.69694799 0.4861559 1.6810001
0.34820715 0.49709573 1.6810001
0.35541144 0.49629524 1.681
0.36501718 0.49629524 1.681
0.69801527 0.49629524 1.6810001
0.34900764 0.50590092 1.6810001
0.35647872 0.5048337 1.6810001
0.36501715 0.50590098 1.681
0.37422264 0.50630122 1.681
0.69801527 0.50269908 1.6810001
0.36541739 0.51510644 1.681
0.37462288 0.51550668 1.681
0.69721478 0.51550668 1.6810001
0.37462288 0.52511239 1.681
0.38262764 0.52511239 1.6810001
0.69694799 0.52297777 1.6810001
0.70281816 0.52511239 1.6810001
0.38663003 0.53391761 1.6810001
0.38743049 0.5411219 1.6810001
0.2832762 -0.15129524 1.6900001
0.28431773 -0.14506288 1.6924002
0.24580573 -0.13260572 1.6980001
0.25550857 -0.13260572 1.6980001
0.26535544 -0.13364953 1.6948001
0.27323124 -0.13404039 1.6916001
0.2816667 -0.13841905 1.6900001
0.23772001 -0.12290286 1.6980001
0.24490158 -0.1256766 1.6917779
0.25323176 -0.12661587 1.6900002
0.26396191 -0.1287619 1.6900001
0.27040002 -0.1287619 1.6900001
0.22801715 -0.11481714 1.6980001
0.23585227 -0.11631408 1.6962223
0.24464764 -0.11588572 1.6900003
0.21993144 -0.10349715 1.6980001
0.22669405 -0.10467324 1.6980001
0.23560339 -0.10650963 1.6944447
0.24464761 -0.10622858 1.6900003
0.21993144 -0.095411435 1.6980001
0.2264 -0.093794286 1.6980001
0.23517458 -0.09503302 1.6913337
0.24271619 -0.096571431 1.6900002
0.23680508 -0.085034914 1.6953335
0.24223334 -0.082890481 1.6900001
0.23933715 -0.074388571 1.6980001
0.24467382 -0.073767148 1.6930001
0.24528593 -0.064550266 1.6944444
0.25237334 -0.063737139 1.6900002
0.24622913 -0.055331707 1.6945716
0.25430477 -0.05472381 1.6900003
0.26074287 -0.051504765 1.6900001
0.24502857 -0.045137778 1.6926668
0.25430477 -0.04506667 1.6900003
0.26074287 -0.048285715 1.6900001
0.23933715 -0.032342859 1.6980001
0.24502857 -0.035465401 1.6926668
0.25430477 -0.035409525 1.6900003
0.2646057 -0.033478092 1.6900002
0.24541463 -0.025833653 1.6953335
0.25430477 -0.025752382 1.6900003
0.26267427 -0.027040001 1.6900002
0.24823144 -0.01698 1.6980001
0.25430477 -0.01609524 1.6900003
0.26074287 -0.016095238 1.6900001
0.24904001 -0.0064685717 1.6980001
0.25443685 -0.0064397887 1.6908891
0.26154765 -0.0056333337 1.6900001
0.2551035 0.0048476192 1.6953335
0.26396188 0.0048285718 1.6900004
0.27040002 0.0080476198 1.6900001
0.69860572 0.0097028576 1.6980001
0.24904001 0.019405715 1.6980001
0.25591287 0.015767142 1.6980001
0.26409906 0.016105399 1.6908891
0.27361906 0.01609524 1.6900003
0.69615149 0.015320953 1.6940001
0.70451814 0.016695239 1.6966667
0.71474749 0.018093716 1.6964
0.72255701 0.01683598 1.6926668
0.73306733 0.015617144 1.6966667
0.24904001 0.025874287 1.6980001
0.25712574 0.025874287 1.6980001
0.26507092 0.025862433 1.6971111
0.27361906 0.025752384 1.6900003
0.74360007 0.025752382 1.6900001
0.75003815 0.02897143 1.6900001
0.25874287 0.035577144 1.6980001
0.26521146 0.035577144 1.6980001
0.27361906 0.035409525 1.6900003
0.28005716 0.032190476 1.6900001
0.75334382 0.036260001 1.692
0.25874287 0.045280002 1.6980001
0.26521146 0.045280002 1.6980001
0.27361906 0.045066662 1.6900003
0.75343055 0.045173332 1.6939999
0.25874287 0.05498286 1.6980001
0.26478985 0.054896511 1.6953335
0.27361906 0.054723814 1.6900003
0.28005716 0.05794286 1.6900001
0.74681908 0.056333333 1.6900001
0.75417221 0.054287244 1.6964
0.26613554 0.064223677 1.6980001
0.27376127 0.064416505 1.6908891
0.2822032 0.065453969 1.6900002
0.75173432 0.063648574 1.692
0.2668286 0.074388571 1.6980001
0.27404574 0.074154921 1.6926668
0.2816667 0.074038096 1.6900002
0.74681908 0.077257149 1.6900001
0.75358862 0.074388579 1.6980001
0.2668286 0.084091425 1.6980001
0.27404571 0.083827309 1.6926668
0.28392002 0.08369524 1.6900003
0.74681908 0.08369524 1.6900001
0.75358862 0.084091425 1.6980001
0.26613551 0.093794294 1.6980001
0.27433524 0.093601272 1.6944444
0.2848857 0.094961911 1.6900004
0.74360001 0.094961911 1.6900001
0.75035429 0.093794286 1.6980001
0.2668286 0.10511429 1.6980001
0.27584678 0.10559916 1.6971111
0.28488573 0.10622857 1.6900004
0.74367523 0.10716286 1.692
0.75035429 0.10511429 1.6980001
0.26844573 0.1132 1.6980001
0.27491426 0.11643428 1.6980001
0.28488573 0.11588571 1.6900004
0.29486477 0.11717334 1.6900002
0.74375051 0.11616001 1.6939999
0.75035429 0.11643428 1.6980001
0.27599239 0.12505905 1.6980001
0.28566539 0.12588824 1.6946667
0.29422095 0.12618667 1.6900002
0.74375051 0.12583999 1.6939999
0.75035429 0.12290286 1.6980001
0.27814859 0.13584 1.6980001
0.28589144 0.13568 1.6960001
0.29615238 0.13519999 1.6900003
0.74442446 0.13494019 1.6948001
0.75035429 0.13745715 1.6980001
0.27814859 0.14554286 1.6980001
0.28566539 0.14525841 1.6946667
0.29615238 0.14485714 1.6900003
0.74594671 0.14530921 1.6953334
0.75035429 0.14554286 1.6980001
0.2768549 0.15589258 1.6980002
0.28566542 0.15494096 1.6946667
0.29615241 0.15451428 1.6900003
0.74440479 0.1545143 1.6900001
0.75035429 0.15524572 1.6980001
0.2864686 0.16405885 1.6962223
0.29564574 0.16457257 1.6908003
0.30339524 0.16336668 1.6900001
0.74279529 0.16417143 1.6900001
0.75035429 0.16494858 1.6980001
0.28708383 0.17343873 1.6966667
0.29367855 0.17443857 1.6920002
0.30366349 0.17597461 1.6900001
0.74257714 0.17396827 1.6913334
0.75035429 0.17141715 1.6980001
0.29572719 0.18467665 1.6918464
0.30397007 0.18578504 1.6900003
0.74287045 0.18531048 1.6920002
0.75035429 0.18435429 1.6980001
0.29620191 0.19585486 1.694
0.30419999 0.19636191 1.6900002
0.74294192 0.19601811 1.6940001
0.28785145 0.2069943 1.6980001
0.29484221 0.20507517 1.6924617
0.30488983 0.20555918 1.6900003
0.31224763 0.20440954 1.6900001
0.73716193 0.2092381 1.6900001
0.74213338 0.20488954 1.694
0.29442635 0.21538065 1.6940001
0.30371264 0.21628408 1.691143
0.31224763 0.2156762 1.6900001
0.73555243 0.21567619 1.6900001
0.74280763 0.21615811 1.6980001
0.29468647 0.22424915 1.6964
0.30352622 0.22533096 1.6930001
0.73474759 0.22533333 1.6900001
0.74226856 0.22720857 1.6980001
0.30790159 0.23536384 1.6926666
0.31224763 0.23660001 1.6900001
0.73394281 0.23499048 1.6900001
0.74145997 0.23691145 1.6980001
0.31333032 0.24531695 1.6924002
0.73394287 0.24464765 1.6900002
0.74226856 0.24580573 1.6980001
0.30814287 0.25813335 1.694
0.31456211 0.25422961 1.6914548
0.73265523 0.25366098 1.6900002
0.74065143 0.25550857 1.6980001
0.29626057 0.26456457 1.6980002
0.30502403 0.26431623 1.6964
0.31455624 0.2648178 1.6908891
0.73394281 0.26396191 1.6900001
0.74065143 0.26521146 1.6980001
0.29755428 0.27653146 1.6980001
0.30442718 0.27531859 1.6980001
0.31422284 0.27394286 1.6920003
0.32190478 0.27522856 1.6900001
0.72750479 0.27683809 1.6900001
0.73406798 0.27426922 1.6940002
0.74065143 0.27491429 1.6980001
0.30725715 0.28461716 1.6980001
0.31447163 0.284832 1.6916003
0.32297778 0.2838127 1.6900002
0.72750479 0.2832762 1.6900001
0.73418289 0.2839703 1.6980002
0.30676952 0.29493082 1.6953335
0.31496915 0.29564571 1.6908003
0.72750479 0.29776192 1.6900001
0.7321974 0.29533032 1.6964
0.30644858 0.30321431 1.6980001
0.31456211 0.30577871 1.6914548
0.32190478 0.30580953 1.6900001
0.72750479 0.30580953 1.6900001
0.73245335 0.30492383 1.694
0.30644858 0.31291717 1.6980001
0.31453681 0.31483501 1.6929092
0.32270953 0.31627145 1.6900001
0.72428572 0.31224763 1.6900001
0.73256576 0.31453431 1.6980001
0.30725715 0.3201943 1.6980001
0.31523529 0.32493049 1.6960001
0.32270953 0.32431906 1.6900001
0.72428572 0.32673335 1.6900001
0.73094863 0.32342857 1.6980001
0.31645715 0.33583748 1.6953335
0.32405081 0.33585396 1.6900002
0.72381908 0.33531177 1.6926666
0.30725715 0.34930286 1.6980001
0.31462756 0.34547949 1.6965455
0.32463089 0.3449246 1.6908003
0.33156192 0.34765714 1.6900001
0.7260524 0.3448562 1.696
0.30725715 0.35415429 1.6980001
0.3135598 0.35558692 1.6971111
0.32389143 0.35451433 1.6920003
0.33236668 0.3532905 1.6900001
0.72436953 0.3554126 1.6931999
0.31413004 0.36506999 1.6980001
0.32389143 0.36418286 1.6920003
0.33317143 0.36375239 1.6900002
0.72436953 0.36508194 1.6932001
0.31534287 0.37194288 1.6980001
0.32473028 0.3745603 1.6918464
0.33370793 0.37555557 1.6900003
0.71784765 0.37501907 1.6900001
0.72577381 0.37453029 1.6980002
0.32427242 0.38558289 1.6940001
0.33156192 0.38628569 1.6900001
0.71784765 0.38628569 1.6900001
0.72447997 0.38487998 1.6980001
0.32464311 0.39561871 1.6936364
0.33156192 0.3959429 1.6900001
0.71462858 0.39916191 1.6900001
0.72232389 0.39458287 1.6980001
0.31696001 0.40105143 1.6980001
0.32459506 0.40429753 1.694
0.33284953 0.4062438 1.6900002
0.71462852 0.40559998 1.6900001
0.72205436 0.40347716 1.6980001
0.32648429 0.41406 1.6950002
0.33478096 0.41525713 1.6900003
0.3428286 0.41525713 1.6900002
0.71337378 0.41500649 1.6916001
0.72124577 0.41237146 1.6980001
0.32694289 0.4244343 1.6966667
0.33478096 0.42491427 1.6900003
0.34121907 0.42491433 1.6900001
0.71471047 0.42430285 1.6939999
0.32739556 0.43401358 1.6962222
0.33478096 0.43457142 1.6900003
0.34121907 0.43457147 1.6900001
0.71539736 0.43427962 1.6964
0.32828003 0.44633141 1.6980001
0.33495533 0.44446394 1.6908891
0.34202382 0.44503337 1.6900001
0.706581 0.44583809 1.6900001
0.7136991 0.44633141 1.6980001
0.32989717 0.45280001 1.6980001
0.33637968 0.45352638 1.6926666
0.34443811 0.45388576 1.6900003
0.35087621 0.45388573 1.6900001
0.70608377 0.45460701 1.6926666
0.7115429 0.45441717 1.6980001
0.33767313 0.46526933 1.6916001
0.34443808 0.46515241 1.6900004
0.70719624 0.46501079 1.6953335
0.32989717 0.47705716 1.6980001
0.33637619 0.47673622 1.694
0.34336507 0.47749209 1.6900002
0.70580566 0.47536573 1.692
0.32860345 0.48578972 1.6980002
0.33530414 0.4857651 1.692667
0.34443814 0.48607621 1.6900003
0.35087621 0.48768574 1.6900001
0.70497149 0.48607621 1.6900001
0.7115429 0.48837715 1.6980001
0.32881907 0.49268952 1.6980001
0.33544874 0.49510369 1.6957144
0.34443814 0.49573332 1.6900003
0.70497149 0.49573335 1.6900001
0.7115429 0.49484575 1.6980001
0.33677003 0.50414425 1.6980001
0.34403574 0.50579286 1.6900003
0.35409525 0.50860953 1.6900001
0.70497149 0.50539047 1.6900001
0.7115429 0.50778288 1.6980001
0.33728984 0.51471347 1.6980001
0.34484047 0.51464522 1.6900003
0.35449764 0.51545 1.6900003
0.36053336 0.51665711 1.6900001
0.70577621 0.51585239 1.6900001
0.71283662 0.51425141 1.6980002
0.3363657 0.52395433 1.6980001
0.34467047 0.52346343 1.6934286
0.35409525 0.52430242 1.6900003
0.36335003 0.52510715 1.6900003
0.3701905 0.52631426 1.6900001
0.7060445 0.52255875 1.6900001
0.71570122 0.52441633 1.6980001
0.33852196 0.532579 1.6980001
0.34671545 0.53236347 1.6980002
0.35505527 0.53350151 1.6945714
0.36443505 0.53343928 1.6932001
0.37448257 0.53543496 1.6900003
0.38413969 0.5365079 1.6900001
0.71477717 0.53042287 1.6980001
0.37823811 0.54080003 1.6900001
0.38467622 0.54080003 1.6900001
0.27945906 -0.14297906 1.7060001
0.23721525 -0.13323048 1.7060001
0.24371429 -0.13539682 1.706
0.25508764 -0.13648 1.7060001
0.26321143 -0.13648 1.7060001
0.27945906 -0.13972953 1.7060001
0.22502953 -0.12104477 1.7060001
0.23396574 -0.12510668 1.7060002
0.24046478 -0.12835619 1.7060001
0.21771811 -0.11048381 1.7060001
0.2225924 -0.11373334 1.7060002
0.21446858 -0.10357858 1.7060002
0.21446858 -0.094236195 1.7060002
0.22096762 -0.090986669 1.7060001
0.21487477 -0.084893808 1.7060002
0.22421715 -0.084487617 1.7060002
0.23288256 -0.083404444 1.7060002
0.22584191 -0.076363809 1.7060001
0.23489417 -0.075203262 1.7060002
0.2355905 -0.064990468 1.7060002
0.24046476 -0.064990476 1.706
0.23640287 -0.056054287 1.7060001
0.24176458 -0.054592002 1.7060001
0.23721524 -0.045493335 1.706
0.24046476 -0.045493335 1.706
0.23721524 -0.035744764 1.706
0.24046478 -0.037369527 1.7060001
0.23721524 -0.025996191 1.706
0.24046476 -0.025996191 1.706
0.23721524 -0.016247621 1.706
0.24330813 -0.015841428 1.7060002
0.24371432 -0.0069052381 1.7060002
0.24696381 0.0032495239 1.706
0.25021335 0.0048742858 1.7060001
0.70731306 0.0086653968 1.706
0.71489525 0.0097485716 1.706
0.72301906 0.0097485716 1.7060001
0.24533905 0.017872382 1.7060001
0.25129652 0.016247619 1.706
0.7083962 0.012998096 1.7060001
