# .PCD v0.7 - Point Cloud Data file format
VERSION 0.7
FIELDS x y z
SIZE 4 4 4
TYPE F F F
COUNT 1 1 1
WIDTH 1521
HEIGHT 1
VIEWPOINT 0 0 0 1 0 0 0
POINTS 1521
DATA ascii
0.53536075 0.40408453 1.7229998
0.24942477 0.41187906 1.723
0.25434762 0.41352001 1.7229999
0.52729273 0.41570795 1.723
0.53330958 0.41023812 1.723
0.25569022 0.42545417 1.7229997
0.52698016 0.42524108 1.7229998
0.24942477 0.43977526 1.723
0.25598857 0.43649337 1.7229998
0.26255238 0.43649331 1.723
0.52707398 0.43649334 1.7229999
0.23957905 0.44798002 1.723
0.24778382 0.4463391 1.7229999
0.25598857 0.44633907 1.7229998
0.26255238 0.44633904 1.723
0.52510482 0.44633907 1.7229998
0.23957905 0.45454383 1.723
0.24778382 0.45618474 1.7229999
0.25557834 0.45577458 1.7229998
0.26255238 0.45618477 1.723
0.52444839 0.45552841 1.7229999
0.24942477 0.46274859 1.723
0.25598857 0.46603048 1.7229998
0.26337287 0.466851 1.723
0.52182287 0.46603051 1.723
0.25645742 0.47493848 1.7229998
0.26386517 0.47653261 1.7229999
0.51854098 0.47751716 1.723
0.25927049 0.48572192 1.723
0.26419336 0.48572195 1.7229999
0.51722825 0.48637828 1.7229999
0.25927049 0.49556765 1.723
0.26419336 0.49556768 1.7229999
0.5169 0.49556768 1.7229999
0.25927049 0.50377238 1.723
0.26583427 0.50541329 1.7229998
0.5169 0.50541335 1.7229999
0.52510476 0.50869524 1.723
0.25680906 0.51772052 1.723
0.26583427 0.51525903 1.7229998
0.51566929 0.51484883 1.7229998
0.25434762 0.52182287 1.723
0.2658343 0.52182287 1.723
0.27896193 0.52838671 1.723
0.51591545 0.52510482 1.7229999
0.52182287 0.52510476 1.723
0.32490858 0.55792385 1.723
0.33311334 0.55792385 1.723
0.57238483 0.019794287 1.7320001
0.57733333 0.023093333 1.7320001
0.58459127 0.02705219 1.7320001
0.59052956 0.02969143 1.7320001
0.59327883 0.036289528 1.7320002
0.59514821 0.046846479 1.7320001
0.59382862 0.056083813 1.7320001
0.60042667 0.052784763 1.7320001
0.59250897 0.065321147 1.7320001
0.5872305 0.077527627 1.7320001
0.59135437 0.075053342 1.7320001
0.5872305 0.082476191 1.7320001
0.59135431 0.084950477 1.7320001
0.5872305 0.092373334 1.7320001
0.59135431 0.094847627 1.7320001
0.5872305 0.10886858 1.7320001
0.59052956 0.10556952 1.732
0.5844813 0.11546668 1.7320002
0.58063239 0.12536381 1.732
0.5814572 0.13443619 1.7320001
0.57733333 0.14845715 1.7320001
0.58063239 0.14350858 1.7320001
0.57403427 0.15505524 1.7320002
0.57403433 0.16495238 1.7320002
0.57601374 0.17550933 1.7320001
0.58063239 0.17155048 1.7320001
0.57458419 0.18474668 1.7320002
0.57073528 0.1929943 1.7320001
0.23753144 0.20784001 1.7320001
0.24412954 0.20784001 1.732
0.25402665 0.20619048 1.7320001
0.26309907 0.20536572 1.7320001
0.27382097 0.20454095 1.7320001
0.28371811 0.20454095 1.732
0.29361525 0.20344128 1.732
0.30351239 0.20454095 1.732
0.31505907 0.20784001 1.7320001
0.32495621 0.20454095 1.7320001
0.33650285 0.20289144 1.7320001
0.57403433 0.20454097 1.732
0.20619048 0.21773715 1.7320001
0.2144381 0.21773715 1.732
0.22433525 0.21388827 1.7320002
0.23093334 0.21113905 1.7320001
0.57485908 0.21361333 1.7320001
0.20322135 0.22301562 1.7320001
0.21113905 0.2210362 1.7320001
0.57320958 0.22516002 1.7320001
0.20124191 0.2342324 1.7320001
0.56611663 0.23423238 1.7320001
0.57073528 0.23423238 1.732
0.1971181 0.2449543 1.7320001
0.20124191 0.24248001 1.7320001
0.56358737 0.24412952 1.7320002
0.19464381 0.25402665 1.7320002
0.56413716 0.25402668 1.7320001
0.17814858 0.26062477 1.7320001
0.18804573 0.26392382 1.732
0.19370124 0.26345253 1.7320002
0.56331241 0.26309907 1.7320001
0.18804573 0.27382097 1.732
0.19266438 0.27448076 1.7320001
0.56496191 0.27464572 1.7320001
0.18804573 0.28206858 1.7320001
0.1929943 0.28371811 1.7320002
0.56248766 0.28371811 1.7320002
0.1955864 0.29314399 1.7320002
0.20124191 0.29361525 1.7320001
0.56193775 0.29361525 1.732
0.19596343 0.30285257 1.7320001
0.5608381 0.30351239 1.732
0.19244444 0.31340954 1.732
0.55588955 0.31670859 1.7320001
0.5608381 0.31011048 1.7320001
0.19464381 0.32495618 1.7320002
0.5545699 0.32396647 1.7320001
0.1955864 0.33603159 1.7320002
0.20124191 0.33815241 1.7320001
0.5534153 0.33732763 1.7320001
0.19794287 0.34310097 1.7320001
0.20399112 0.34640002 1.7320002
0.21113905 0.34969905 1.7320001
0.54764193 0.34640002 1.732
0.55204064 0.34420064 1.732
0.22516002 0.35382286 1.7320001
0.23093334 0.35794669 1.7320001
0.54764193 0.35629717 1.732
0.24083048 0.36784381 1.7320001
0.54632229 0.36619431 1.7320001
0.55094099 0.36949334 1.7320001
0.2435797 0.37609145 1.7320002
0.54434288 0.37444192 1.7320001
0.23753144 0.38928762 1.7320001
0.24165525 0.38516378 1.7320001
0.54566252 0.38664836 1.7320001
0.24280992 0.39522591 1.7320001
0.54599243 0.39588571 1.7320002
0.24544916 0.40644264 1.7320001
0.54434288 0.40248382 1.7320001
0.24660382 0.41485524 1.7320001
0.25072762 0.41897905 1.7320001
0.53609526 0.41732952 1.7320001
0.54269338 0.41238096 1.7320001
0.25072762 0.42557716 1.732
0.53609526 0.42557716 1.7320002
0.24742858 0.43877336 1.7320001
0.25072762 0.43547431 1.732
0.53609526 0.43547431 1.7320002
0.23753144 0.44867051 1.7320001
0.24412954 0.44537145 1.7320001
0.53527051 0.44454667 1.7320001
0.23753144 0.45361906 1.7320001
0.24412954 0.45526859 1.732
0.53224641 0.45526859 1.732
0.24412954 0.46296635 1.732
0.25072762 0.46846479 1.7320001
0.52784765 0.46516573 1.732
0.53114671 0.46516573 1.732
0.25072762 0.47506288 1.732
0.5256483 0.47506288 1.732
0.53114671 0.47176382 1.7320001
0.25496921 0.48448876 1.7320002
0.26062477 0.48496002 1.7320001
0.52454859 0.48495999 1.732
0.25600609 0.49551696 1.7320001
0.26062477 0.4915581 1.7320001
0.52537334 0.49568191 1.7320001
0.53114671 0.49815622 1.7320001
0.25567618 0.5047543 1.7320002
0.52619815 0.5047543 1.7320002
0.53114671 0.5064038 1.7320001
0.25567618 0.51465148 1.7320002
0.26062477 0.51300192 1.7320001
0.52586818 0.51531124 1.7320001
0.53114671 0.51630092 1.7320001
0.24742858 0.52289903 1.7320001
0.25072762 0.52289903 1.7320001
0.52619815 0.52124953 1.7320001
0.53114671 0.52124953 1.7320001
0.56375241 0.016580952 1.7410001
0.57436419 0.015254475 1.7409999
0.58364958 0.018239049 1.7410001
0.58696574 0.023213334 1.7410001
0.59426135 0.025866289 1.7409999
0.6018886 0.029845715 1.7410001
0.60396123 0.036063574 1.7410001
0.61017907 0.039794289 1.7410001
0.60449415 0.045952924 1.7410001
0.61017907 0.046426669 1.7410001
0.60288346 0.057038475 1.7409999
0.6018886 0.066323809 1.7410001
0.59691429 0.07793048 1.7410001
0.60155696 0.075609148 1.7409999
0.59691429 0.087879047 1.7410001
0.60023052 0.08622095 1.7410001
0.59691429 0.097827621 1.7410001
0.60023052 0.094511434 1.7410001
0.59691429 0.10611811 1.7410001
0.60023052 0.10943429 1.7410001
0.59454566 0.11654042 1.7410001
0.60023052 0.11275048 1.7410001
0.58696574 0.12601525 1.7410001
0.59359813 0.12601525 1.7410001
0.58696574 0.13762191 1.7410001
0.59265059 0.13549007 1.7410001
0.5861367 0.14674143 1.7410001
0.59194005 0.14591238 1.7410001
0.58459705 0.15633471 1.7410001
0.5902819 0.15586096 1.7410001
0.58530766 0.16580953 1.7410001
0.5902819 0.16580953 1.7410001
0.58563924 0.17642134 1.7409999
0.5902819 0.17244191 1.7410001
0.58364952 0.18570669 1.7409999
0.57701719 0.19565524 1.7410001
0.58199143 0.19565524 1.7410001
0.22881715 0.20892 1.7410001
0.23544954 0.20781462 1.7410001
0.2453981 0.20560382 1.7410001
0.25534669 0.20394573 1.7410001
0.26363713 0.20228763 1.7410001
0.2769019 0.20394573 1.7410001
0.2851924 0.20228763 1.7410001
0.29514095 0.20228763 1.7410001
0.30508956 0.20228763 1.7410001
0.31503811 0.20560382 1.7410001
0.32498667 0.20228763 1.7410001
0.33825144 0.20228763 1.7410001
0.58199143 0.20560382 1.7410001
0.19897144 0.21886858 1.7410001
0.20560382 0.2166578 1.7410001
0.21621564 0.21422592 1.7409999
0.22218478 0.2122362 1.7410001
0.58309686 0.21555239 1.7410001
0.19606976 0.22591548 1.7410001
0.58116239 0.22633001 1.7410001
0.19606976 0.23544955 1.7410001
0.57701719 0.23544954 1.7410001
0.58165979 0.2347863 1.7409999
0.17907429 0.2487143 1.7410001
0.18819383 0.24622715 1.7410001
0.19366553 0.24473485 1.7409999
0.57411551 0.24581262 1.7410001
0.17686351 0.25645208 1.7410001
0.18570668 0.25534666 1.7410001
0.57411551 0.25576121 1.7410001
0.17534359 0.26570979 1.7410001
0.18404858 0.26529524 1.7410001
0.57370102 0.26529524 1.7410001
0.17670558 0.27477008 1.7410001
0.18404858 0.27524385 1.7410001
0.57411551 0.27482927 1.7410001
0.17575811 0.28519237 1.7410001
0.18475918 0.28566617 1.7410001
0.57370102 0.28519237 1.7410001
0.17686351 0.29293016 1.7410001
0.18665417 0.29466721 1.7410001
0.19233905 0.29679906 1.7410001
0.56706858 0.29679906 1.7410001
0.57237446 0.29381448 1.7409999
0.58033335 0.29182476 1.7410001
0.18902285 0.30508956 1.7410001
0.19233905 0.30508956 1.7410001
0.56706858 0.3050895 1.7410001
0.1876964 0.31570134 1.7409999
0.19233905 0.31172192 1.7410001
0.56485778 0.31503811 1.7410001
0.18736477 0.3249867 1.7410001
0.56375241 0.32498667 1.7410001
0.18819383 0.33410618 1.7410001
0.19233905 0.33825144 1.7410001
0.56154162 0.33493528 1.7410001
0.19454984 0.34488383 1.7410001
0.55712003 0.34820002 1.7410001
0.56043619 0.34488383 1.7410001
0.21721049 0.35483238 1.7410001
0.22384286 0.35814857 1.7410001
0.55546194 0.35483241 1.7410001
0.22715905 0.36146477 1.7410001
0.23544954 0.36643907 1.7410001
0.55546188 0.36478099 1.7410001
0.23876572 0.37472954 1.7410001
0.24208191 0.37804574 1.7410001
0.55314058 0.37539279 1.7409999
0.56043619 0.37141335 1.7410001
0.23710763 0.38467813 1.7410001
0.54717147 0.38136193 1.7410001
0.55314052 0.3846781 1.7409999
0.56043619 0.38799429 1.7410001
0.23876572 0.39628476 1.7410001
0.55546188 0.39462665 1.7410001
0.56043619 0.39131048 1.7410001
0.23876572 0.40457526 1.7410001
0.24208193 0.40457526 1.7410001
0.54717147 0.40789145 1.7410001
0.55421841 0.40498978 1.7410001
0.23743924 0.41518706 1.7409999
0.24291095 0.41535288 1.7410001
0.54606605 0.41562924 1.7410001
0.55269843 0.41397116 1.7410001
0.24595077 0.42447236 1.7410001
0.54551333 0.42447242 1.7410001
0.24738784 0.43508425 1.7409999
0.54518175 0.43375772 1.7409999
0.23793668 0.4451986 1.7410001
0.24373999 0.44271147 1.7410001
0.54385525 0.44436955 1.7410001
0.23544954 0.45431814 1.7410001
0.53722286 0.45431811 1.7410001
0.54136813 0.45514715 1.7410001
0.23876572 0.46426669 1.7410001
0.24374001 0.46758288 1.7410001
0.53722286 0.46426669 1.7410001
0.54053909 0.46426669 1.7410001
0.23876572 0.47089908 1.7410001
0.24622715 0.47255719 1.7410001
0.53523314 0.47554174 1.7409999
0.24871428 0.48416385 1.7410001
0.25203049 0.48748001 1.7410001
0.53295922 0.48463753 1.7410001
0.2487143 0.4941124 1.7410001
0.25285953 0.4941124 1.7410001
0.53224862 0.4941124 1.7410001
0.24871428 0.50406098 1.7410001
0.25203049 0.50406098 1.7410001
0.53611749 0.50295562 1.7410001
0.54053909 0.50074476 1.7410001
0.24871428 0.51400954 1.7410001
0.25203049 0.51400954 1.7410001
0.53722286 0.51732576 1.7410001
0.2453981 0.52285272 1.7410001
0.25203049 0.52064192 1.7410001
0.53722286 0.52064192 1.7410001
0.54053909 0.52064192 1.7410001
0.33659333 0.56706858 1.7410001
0.58500004 0.013333334 1.7500001
0.59485483 0.015034286 1.7545002
0.60308576 0.016752381 1.7590001
0.59500003 0.020000001 1.7500001
0.6042223 0.023365172 1.7525715
0.61455929 0.025408765 1.7554001
0.62653905 0.026803812 1.7590002
0.61428577 0.032857142 1.7500001
0.62582856 0.033464763 1.757
0.63324004 0.033504762 1.7590001
0.61666667 0.043333337 1.7500001
0.62547618 0.043481905 1.756
0.61497307 0.054493021 1.7515001
0.62511998 0.053485718 1.755
0.63324004 0.05360762 1.7590001
0.61439049 0.063441902 1.753
0.62402624 0.062821433 1.7590001
0.61439055 0.073459052 1.753
0.62318861 0.070360005 1.7590001
0.60666668 0.083333336 1.7500001
0.61449814 0.083130948 1.7545
0.60666668 0.093333334 1.7500001
0.61447734 0.09314324 1.7590001
0.60656005 0.10359905 1.7545
0.60607558 0.11620539 1.7515001
0.61313719 0.1139162 1.7590002
0.60500002 0.125 1.7500001
0.61313719 0.12396763 1.7590002
0.6047315 0.13390993 1.7512858
0.61313719 0.13401906 1.7590002
0.60437334 0.14357905 1.753
0.61313719 0.14407048 1.7590001
0.59666669 0.155 1.7500001
0.60371315 0.15319511 1.7538573
0.59666669 0.16333334 1.7500001
0.60321808 0.16375335 1.7545
0.59583336 0.17416668 1.7500001
0.60380876 0.1733764 1.7572
0.59428567 0.18380952 1.7500001
0.60424668 0.18411906 1.7575001
0.30489334 0.1976781 1.7590002
0.31159431 0.1976781 1.7590001
0.59333342 0.19333336 1.7500001
0.60601741 0.19432762 1.7589999
0.20102859 0.20772953 1.7590001
0.2144305 0.20772953 1.7590002
0.22474097 0.20636047 1.7545002
0.23393333 0.20552288 1.7545
0.24448381 0.20275715 1.7522502
0.25398478 0.20218098 1.7545
0.26379049 0.20034285 1.7530001
0.27322555 0.20241144 1.7536001
0.28541589 0.20179684 1.7560002
0.29484192 0.20102859 1.7590002
0.30333334 0.2 1.7500001
0.314648 0.20174477 1.7536001
0.32366443 0.20195051 1.7554001
0.33333334 0.20333333 1.7500001
0.34666669 0.20333335 1.7500001
0.59333342 0.20333336 1.7500001
0.60424668 0.20420192 1.7575001
0.17645842 0.21666414 1.7590002
0.18427621 0.2144305 1.7589999
0.19410475 0.21418287 1.757
0.20330884 0.21332169 1.7533751
0.2131021 0.21176536 1.7536001
0.22333334 0.20999999 1.7500001
0.59451509 0.21361193 1.7522501
0.60392338 0.21359287 1.7590001
0.1759 0.22448193 1.7589999
0.18364763 0.22371048 1.753
0.19238508 0.22241081 1.7515001
0.5866667 0.22500001 1.7500001
0.5931924 0.22390763 1.7545
0.17559715 0.23413049 1.756
0.18333334 0.23333335 1.7500001
0.19083335 0.23416668 1.7500001
0.59000003 0.23333335 1.7500001
0.16501096 0.24709764 1.7590001
0.17382285 0.24402669 1.755
0.18333334 0.24333334 1.7500001
0.19000001 0.24000001 1.7500001
0.58533335 0.244 1.7500002
0.59235477 0.24312572 1.7545002
0.15663476 0.25547379 1.7590001
0.16388953 0.25419813 1.756
0.17302595 0.25307739 1.7511251
0.18333334 0.25 1.7500001
0.58500004 0.25333333 1.7500001
0.59255058 0.25452113 1.7536001
0.15579714 0.26468763 1.7589999
0.16342478 0.26348191 1.751
0.17 0.26333335 1.7500001
0.58500004 0.26333335 1.7500001
0.5931924 0.26401049 1.7545
0.15579714 0.27473906 1.7589999
0.16333334 0.27333334 1.7500001
0.17083335 0.27416667 1.7500001
0.58500004 0.27333334 1.7500001
0.59470952 0.27473903 1.7589999
0.15394285 0.28446856 1.757
0.16333334 0.28333333 1.7500001
0.17083333 0.2825 1.7500001
0.58500004 0.28333333 1.7500001
0.59437448 0.28412038 1.7590001
0.15385334 0.29433906 1.756
0.16333334 0.29333332 1.7500001
0.17133334 0.294 1.7500002
0.18166667 0.29666668 1.7500001
0.57666671 0.29666668 1.7500001
0.58444446 0.2938889 1.7500001
0.59387195 0.29484192 1.7590001
0.15412191 0.30489334 1.7589999
0.16388953 0.30437711 1.756
0.1734305 0.30350855 1.751
0.18291667 0.30374998 1.7500001
0.57533342 0.30399999 1.7500002
0.58442098 0.30369666 1.7545
0.59303433 0.30154288 1.7590001
0.15579715 0.31159431 1.7590001
0.16459216 0.31452596 1.7589999
0.17412382 0.31476763 1.7579999
0.18291667 0.31291667 1.7500001
0.56999999 0.31666669 1.7500001
0.57648283 0.31413907 1.7545
0.5829829 0.31159431 1.7590001
0.16752382 0.32164574 1.7590001
0.1739219 0.32444191 1.756
0.18166667 0.32333335 1.7500001
0.56999999 0.32333335 1.7500001
0.57762212 0.32566628 1.7590001
0.17574859 0.33476475 1.7575001
0.18238094 0.33380952 1.7500001
0.5688889 0.33333334 1.7500001
0.57636231 0.33403471 1.7572
0.17757525 0.3417486 1.7590001
0.18482448 0.34386852 1.7551429
0.19143684 0.34614983 1.7530001
0.56666666 0.34333336 1.7500001
0.57293147 0.34509906 1.7590002
0.19549716 0.35256669 1.7545002
0.20308153 0.35473031 1.7536001
0.21166667 0.35666668 1.7500001
0.56649905 0.35473031 1.7536001
0.57293147 0.35515049 1.7590002
0.20772953 0.36185145 1.7590001
0.2153616 0.36377653 1.7575001
0.22241081 0.36475873 1.7515001
0.23 0.36666667 1.7500001
0.565 0.36333334 1.7500001
0.57427162 0.36587203 1.7590001
0.21778096 0.37190288 1.7590001
0.22422478 0.37483051 1.757
0.23291668 0.37375003 1.7500001
0.56523806 0.37380955 1.7500001
0.57494175 0.37525335 1.7590001
0.21694335 0.38614237 1.7590001
0.22409333 0.38464761 1.756
0.23238097 0.38285717 1.7500001
0.55666667 0.38666669 1.7500001
0.56365716 0.38355434 1.751
0.57427162 0.38463467 1.7590001
0.21610571 0.39535618 1.7589999
0.22409336 0.39468193 1.756
0.23291668 0.39375004 1.7500001
0.56729048 0.39518237 1.7545002
0.57293147 0.39200574 1.7590001
0.21610571 0.40540764 1.7589999
0.22371238 0.4040229 1.753
0.23333335 0.40333337 1.7500001
0.56548566 0.40367624 1.7515001
0.57293147 0.4087581 1.7590001
0.21610571 0.41545907 1.7589999
0.22409336 0.41475052 1.756
0.23291668 0.41291672 1.7500001
0.56553471 0.41424438 1.7538573
0.57293147 0.4121086 1.7590001
0.21610571 0.4255105 1.7589999
0.22448193 0.4255105 1.7589999
0.23291668 0.42375004 1.7500001
0.24111111 0.42555556 1.7500001
0.55533332 0.42400002 1.7500002
0.56473166 0.42427528 1.755625
0.21484929 0.43514311 1.7589999
0.2243543 0.43531239 1.7579999
0.23333335 0.43333337 1.7500001
0.24238096 0.43333337 1.7500001
0.55547714 0.43370762 1.7515001
0.56371766 0.43472433 1.7590001
0.21538775 0.44561338 1.7589999
0.22397526 0.44460386 1.755
0.23346478 0.44358861 1.751
0.24166667 0.44000003 1.7500001
0.55482358 0.44377169 1.7533751
0.56288004 0.44728857 1.7590001
0.21778096 0.45231432 1.7590001
0.22490074 0.45524597 1.7589999
0.23206097 0.45410764 1.7530001
0.54666668 0.45333335 1.7500001
0.55278993 0.45414504 1.7512858
0.22699477 0.46655384 1.7590001
0.2332124 0.46434787 1.7522501
0.54666668 0.46500003 1.7500001
0.55428767 0.4641276 1.753
0.22649221 0.47509757 1.7590001
0.2335981 0.47387812 1.7520001
0.24333334 0.47666669 1.7500001
0.25 0.47666669 1.7500001
0.54533333 0.47400004 1.7500002
0.55460382 0.47441334 1.7540001
0.22490074 0.48623788 1.7589999
0.23412763 0.48499048 1.756
0.24333334 0.48333338 1.7500001
0.54374999 0.48375002 1.7500001
0.5540095 0.48427513 1.7551429
0.22559875 0.49531209 1.7589999
0.2343981 0.49559048 1.7579999
0.24333334 0.49333334 1.7500001
0.25 0.4966667 1.7500001
0.54374999 0.49375001 1.7500001
0.5530895 0.49460194 1.7545
0.22783239 0.50257146 1.7590001
0.23549061 0.50544327 1.7589999
0.24374858 0.50478232 1.7508184
0.54374999 0.50458336 1.7500001
0.55459082 0.50604886 1.7575001
0.23704621 0.51513571 1.7590001
0.24320981 0.51503754 1.7525715
0.53666669 0.51666671 1.7500001
0.54501444 0.51541716 1.7538573
0.5545038 0.51597333 1.7589999
0.56623048 0.51429808 1.7590001
0.244 0.52200001 1.7500002
0.54555559 0.52111119 1.7500001
0.55282861 0.52267432 1.7590001
0.5316667 0.53000003 1.7500001
0.60549796 0.012796951 1.768
0.61290669 0.016838096 1.7680001
0.6162743 0.020205716 1.7680001
0.62553525 0.022731429 1.7680001
0.63479626 0.025257144 1.7680001
0.63760257 0.033676192 1.7680001
0.63732195 0.042937145 1.7680001
0.63648003 0.053881906 1.7680001
0.62974477 0.065668575 1.7680001
0.6344595 0.063984767 1.768
0.6283977 0.074761137 1.768
0.63311243 0.070720002 1.7680001
0.62553525 0.085032389 1.7680001
0.6196419 0.097660959 1.7680001
0.62300956 0.092609525 1.7680001
0.61711621 0.10355428 1.7680001
0.6196419 0.11449905 1.7680001
0.6196419 0.12460191 1.7680001
0.6196419 0.13470477 1.7680001
0.62300956 0.13470477 1.7680001
0.61851937 0.14480762 1.7680001
0.61492729 0.15558401 1.768
0.61425376 0.16501334 1.768
0.60953909 0.17848381 1.7680001
0.61425376 0.17444268 1.768
0.61425376 0.18589257 1.768
0.28288001 0.19868954 1.7680001
0.31824002 0.19868954 1.7680001
0.32497525 0.19868954 1.7680001
0.61543244 0.19532192 1.7680001
0.18521905 0.20879239 1.7680001
0.19532192 0.20879239 1.7680001
0.20542477 0.20766985 1.7680001
0.21721143 0.20542477 1.7680001
0.22394666 0.20542477 1.7680001
0.2441524 0.20205715 1.7680001
0.27951241 0.20205715 1.7680001
0.28624764 0.20205715 1.7680001
0.33339429 0.20205715 1.7680001
0.61425376 0.20475122 1.768
0.16838096 0.21721143 1.7680001
0.17399365 0.2144051 1.768
0.60953909 0.21721143 1.7680001
0.61459053 0.21216001 1.7680001
0.16838096 0.22563048 1.7680001
0.17174858 0.22563048 1.7680001
0.60448766 0.22563046 1.768
0.16613588 0.23685588 1.768
0.17174858 0.23573335 1.7680001
0.59943622 0.23573335 1.7680001
0.60364574 0.23489143 1.7680001
0.15659429 0.24920382 1.7680001
0.16433983 0.24381563 1.768
0.59943622 0.24752 1.7680001
0.60280383 0.2458362 1.7680001
0.1468282 0.2566126 1.768
0.15288991 0.25526553 1.768
0.59943622 0.25257143 1.7680001
0.60280383 0.25593904 1.7680001
0.14649144 0.2660419 1.768
0.15154286 0.2660419 1.7680001
0.60280383 0.26604193 1.7680001
0.14817524 0.27446097 1.7680001
0.15154286 0.27614477 1.7680001
0.60280383 0.27614477 1.7680001
0.14733334 0.28708953 1.7680001
0.59943622 0.28961524 1.7680001
0.60280383 0.28456384 1.7680001
0.1468282 0.29567695 1.768
0.59943622 0.29635048 1.7680001
0.1468282 0.30577981 1.768
0.59494609 0.30869842 1.7680001
0.14817524 0.31318858 1.7680001
0.15491049 0.31711748 1.768
0.16164573 0.31992382 1.7680001
0.58708829 0.31655622 1.7680001
0.59270096 0.31318858 1.7680001
0.16433983 0.32531202 1.768
0.58484322 0.32441399 1.7680001
0.16703391 0.33272079 1.768
0.17174858 0.33507812 1.7680001
0.58680761 0.3342362 1.7680001
0.16725843 0.34125206 1.7680001
0.1742743 0.34349716 1.7680001
0.18185143 0.34686476 1.7680001
0.57923049 0.34349716 1.7680001
0.58428192 0.34349713 1.768
0.18521905 0.35191619 1.7680001
0.19363812 0.35528383 1.7680001
0.57923049 0.35360003 1.7680001
0.58259809 0.35360003 1.7680001
0.19868954 0.36033526 1.7680001
0.20542477 0.36370289 1.7680001
0.21216001 0.3670705 1.7680001
0.57923049 0.36201906 1.7680001
0.58259809 0.36370289 1.7680001
0.20879239 0.3704381 1.7680001
0.21496636 0.37380573 1.768
0.58344001 0.37464762 1.7680001
0.21496636 0.3839086 1.768
0.58259809 0.3839086 1.7680001
0.20795049 0.39401144 1.7680001
0.21216001 0.39401147 1.7680001
0.57810795 0.39401147 1.7680001
0.20879239 0.40411434 1.7680001
0.21216001 0.40411428 1.7680001
0.57586288 0.40411434 1.7680001
0.20879239 0.41421714 1.7680001
0.21216001 0.41421714 1.7680001
0.57810795 0.41421714 1.7680001
0.20795049 0.42516193 1.7680001
0.21216001 0.42432001 1.7680001
0.57586288 0.42432001 1.7680001
0.20710857 0.43442285 1.768
0.21216001 0.43105525 1.7680001
0.56912762 0.43779048 1.7680001
0.5733372 0.43358096 1.7680001
0.20879239 0.44789335 1.7680001
0.21216001 0.44284192 1.7680001
0.5682857 0.44452572 1.7680001
0.20879239 0.45126095 1.7680001
0.21468571 0.45462859 1.7680001
0.56508654 0.45530209 1.768
0.21889524 0.46473145 1.7680001
0.22360989 0.46540499 1.768
0.56660193 0.46473145 1.7680001
0.21889524 0.47483432 1.7680001
0.22226286 0.47483429 1.7680001
0.56576002 0.47483429 1.7680001
0.21805334 0.48577908 1.7680001
0.22338539 0.48269209 1.7680001
0.56463748 0.48493716 1.7680001
0.21721143 0.49504003 1.768
0.22394666 0.49840763 1.7680001
0.56239241 0.49504003 1.7680001
0.21648979 0.505624 1.7679999
0.22450794 0.5062654 1.768
0.23236573 0.50851047 1.7680001
0.55902481 0.50514287 1.7680001
0.56239241 0.50177526 1.7680001
0.21687467 0.5145722 1.768
0.22563049 0.51524568 1.7679999
0.23320763 0.51608765 1.7680001
0.56463748 0.51412314 1.768
0.23573335 0.52310354 1.7680001
0.24246858 0.5253486 1.7680001
0.6160267 0.012974921 1.7770001
0.62550402 0.015569905 1.7770001
0.63464284 0.016923809 1.7770001
0.62956572 0.020308573 1.7770001
0.6371814 0.021154761 1.7770001
0.64479721 0.027078096 1.7770001
0.64648956 0.033364084 1.7770002
0.6451357 0.044678859 1.7770001
0.643951 0.053309999 1.7770001
0.63972002 0.064310476 1.7770001
0.64310479 0.064310484 1.7770001
0.6383661 0.07514172 1.7770001
0.64310479 0.071079999 1.7770001
0.63536823 0.084135517 1.7770002
0.62871951 0.095619522 1.7770001
0.63379669 0.094773337 1.7770001
0.62660402 0.10535071 1.7770002
0.6278733 0.11508191 1.7770001
0.63295048 0.11677429 1.7770001
0.6278733 0.1252362 1.7770001
0.63295048 0.12185143 1.7770001
0.6282118 0.13539048 1.7770001
0.62618095 0.14622173 1.7770001
0.62521392 0.15521552 1.7770002
0.61941147 0.16585334 1.7770001
0.62448859 0.16585334 1.7770001
0.61941147 0.17939238 1.7770001
0.62364244 0.17516144 1.7770001
0.61941147 0.18277715 1.7770001
0.62279624 0.18616192 1.7770001
0.27755049 0.19970097 1.7770001
0.28432 0.19970097 1.7770001
0.2944743 0.19970097 1.7770001
0.30124381 0.19970097 1.7770001
0.33170667 0.19970097 1.7770001
0.62279624 0.1963162 1.7770001
0.16923811 0.20985524 1.7770001
0.17600763 0.20985524 1.7770001
0.18785429 0.20647049 1.7770001
0.1963162 0.20647049 1.7770001
0.20816287 0.20647049 1.7770001
0.21324001 0.20647049 1.7770001
0.23354858 0.20308572 1.7770001
0.2403181 0.20308572 1.7770001
0.33847621 0.20308572 1.7770001
0.34355336 0.20308572 1.7770001
0.61941147 0.20985524 1.7770001
0.62415016 0.20714745 1.7770001
0.15908381 0.21662477 1.7770001
0.16585334 0.21549653 1.7770001
0.61771905 0.21662477 1.7770001
0.62448859 0.2149324 1.7770001
0.15739144 0.22339432 1.7770001
0.16416097 0.22339429 1.7770001
0.61644977 0.22381739 1.7770002
0.15739144 0.23354858 1.7770001
0.16382249 0.23287162 1.7770001
0.60925716 0.23693334 1.7770001
0.6160267 0.23354858 1.7770002
0.15569906 0.24370286 1.7770002
0.60925716 0.24370284 1.7770001
0.61505955 0.24321933 1.7770002
0.14486781 0.25318021 1.7770001
0.15231429 0.2504724 1.7770001
0.60925716 0.25385717 1.7770001
0.61264193 0.25216478 1.7770001
0.14216 0.26401144 1.7770001
0.60841101 0.26485765 1.7770001
0.13539048 0.27585813 1.7770001
0.1435139 0.27484268 1.7770001
0.60925716 0.27416572 1.7770001
0.13877524 0.28432 1.7770001
0.1445777 0.28383648 1.7770002
0.60925716 0.28432 1.7770001
0.13877524 0.29278192 1.7770001
0.14216 0.2944743 1.7770001
0.60722631 0.29379734 1.7770001
0.14328825 0.30462858 1.7770001
0.60361582 0.30462858 1.7770001
0.14667302 0.31478286 1.7770001
0.59656429 0.31732142 1.7770001
0.60248762 0.3130905 1.7770001
0.14892954 0.3215524 1.7770001
0.15569906 0.32550129 1.7770001
0.59571815 0.32493713 1.7770002
0.60248762 0.3283219 1.7770001
0.15908381 0.33509144 1.7770001
0.16331477 0.33593765 1.7770001
0.59614122 0.33466834 1.7770002
0.60248762 0.33509144 1.7770001
0.15908381 0.34186098 1.7770001
0.16585334 0.34524572 1.7770001
0.17431524 0.34863049 1.7770001
0.59475106 0.34476218 1.7770002
0.16923811 0.35201526 1.7770001
0.17770001 0.35201526 1.7770001
0.18616192 0.35652828 1.7770001
0.19293143 0.35878477 1.7770001
0.58894861 0.3554 1.7770001
0.59317952 0.35455382 1.7770001
0.19800858 0.36386192 1.7770001
0.20477811 0.36724669 1.7770001
0.58894861 0.3655543 1.7770001
0.59233338 0.3655543 1.7770001
0.20782439 0.37638554 1.7770001
0.21324001 0.37909335 1.7770001
0.58894861 0.3740162 1.7770001
0.59475106 0.37619209 1.7770002
0.20816286 0.38586286 1.7770001
0.21324001 0.38247812 1.7770001
0.58894861 0.38417047 1.7770001
0.59233338 0.38247812 1.7770001
0.20534223 0.39601716 1.7770001
0.58443558 0.39601716 1.7770001
0.20477812 0.40617144 1.7770001
0.58217907 0.40617144 1.7770001
0.19970097 0.41632572 1.7770001
0.20477812 0.41632569 1.7770001
0.58387148 0.4180181 1.7770001
0.19834706 0.42648 1.7770001
0.20443964 0.4258031 1.7770001
0.58353299 0.42648 1.7770001
0.19857271 0.43437779 1.7770001
0.20308572 0.43494192 1.7770001
0.5787943 0.4366343 1.7770001
0.58387148 0.43494192 1.7770001
0.19970097 0.44001907 1.7770001
0.20714745 0.44408077 1.7770001
0.57744038 0.44408077 1.7770001
0.58217907 0.44340384 1.7770001
0.20647049 0.45355812 1.7770001
0.57637656 0.45404166 1.7770002
0.20985524 0.46540478 1.7770001
0.21527088 0.46438938 1.7770001
0.22000954 0.46709716 1.7770001
0.57540953 0.46322885 1.7770002
0.58217907 0.46709716 1.7770001
0.20985524 0.47048193 1.7770001
0.21527085 0.47386664 1.7770001
0.57428128 0.47273842 1.7770001
0.20900907 0.48486719 1.7770001
0.21493238 0.48402095 1.7770001
0.57202476 0.48402095 1.7770001
0.20816286 0.49417529 1.7770001
0.21324001 0.49417529 1.7770001
0.56863999 0.49417529 1.7770001
0.57202476 0.49417529 1.7770001
0.20816286 0.5043295 1.7770001
0.21324001 0.50432956 1.7770001
0.56779385 0.50517577 1.7770001
0.57287097 0.50432956 1.7770001
0.20985524 0.51448375 1.7770001
0.21324001 0.51617622 1.7770001
0.56863999 0.51109904 1.7770001
0.57540953 0.51194525 1.7770001
0.20985524 0.52294576 1.7770001
0.21436827 0.52350992 1.7770001
0.2225481 0.52379191 1.7770001
0.23016381 0.52463812 1.7770001
0.62595052 0.010205715 1.7860001
0.63615626 0.013607618 1.7860001
0.64636189 0.017009525 1.7860001
0.64806288 0.022112381 1.7860001
0.65401626 0.02466381 1.7860001
0.65713459 0.034019049 1.7860001
0.65452647 0.044224761 1.786
0.64976382 0.05613143 1.7860001
0.6548667 0.051028572 1.7860001
0.64976382 0.064636193 1.7860001
0.65316576 0.064636193 1.7860001
0.64840305 0.075522289 1.786
0.65316576 0.073140956 1.7860001
0.64678717 0.085472859 1.7860001
0.63955814 0.095253333 1.7860001
0.64432079 0.095253333 1.786
0.63785714 0.10545904 1.7860001
0.64296001 0.10545904 1.7860001
0.63870764 0.1148143 1.7860001
0.64296001 0.11566477 1.7860001
0.63819736 0.12655087 1.786
0.64296001 0.12587048 1.7860001
0.63785714 0.1360762 1.7860001
0.64296001 0.13267429 1.7860001
0.6361562 0.14579593 1.7860001
0.63558918 0.15648763 1.7860001
0.63445526 0.16499239 1.7860001
0.62935239 0.17689906 1.7860001
0.63411504 0.17281678 1.786
0.62935239 0.18370287 1.7860001
0.63275433 0.18370287 1.7860001
0.32318097 0.19731048 1.7860001
0.62935239 0.19390857 1.7860001
0.63275433 0.19390857 1.7860001
0.17349716 0.20751619 1.7860001
0.18370287 0.20638223 1.7860001
0.20411427 0.20411427 1.7860001
0.21432 0.20411427 1.7860001
0.22112381 0.20411429 1.7860001
0.25854477 0.20071238 1.7860001
0.26194668 0.20071238 1.7860001
0.27385336 0.20071238 1.7860001
0.35209715 0.20411429 1.7860001
0.62935239 0.20241334 1.7860001
0.63275433 0.20411427 1.7860001
0.14968382 0.21772191 1.7860001
0.15648763 0.21431999 1.7860001
0.16499239 0.21261904 1.7860001
0.63275433 0.21432 1.7860001
0.14798287 0.2245257 1.7860001
0.15308572 0.22452573 1.7860001
0.62765145 0.22452573 1.7860001
0.63275433 0.22452573 1.7860001
0.13777715 0.23813334 1.7860001
0.14628191 0.23473144 1.7860001
0.15308572 0.23473144 1.7860001
0.62765145 0.23473144 1.7860001
0.63275433 0.23473144 1.7860001
0.13777715 0.24153525 1.7860001
0.1462819 0.24493715 1.7860001
0.62637573 0.2453624 1.7860001
0.63275433 0.2432362 1.7860001
0.12757143 0.25684381 1.7860001
0.1360762 0.25684384 1.7860001
0.14288001 0.25174096 1.7860001
0.61801273 0.2551429 1.7860001
0.62254858 0.25344193 1.7860001
0.12672096 0.26790002 1.7860001
0.1360762 0.26534855 1.7860001
0.61574477 0.26534858 1.7860001
0.12629573 0.27597952 1.7860001
0.1360762 0.27215239 1.7860001
0.61659527 0.27470383 1.7860001
0.12629572 0.28618526 1.7860001
0.13437524 0.28576002 1.7860001
0.61710554 0.28507963 1.786
0.12587048 0.29256383 1.7860001
0.13510422 0.29645175 1.7860001
0.61574477 0.29664612 1.786
0.13650143 0.3065967 1.7860001
0.14288001 0.30276954 1.7860001
0.60894096 0.30787241 1.7860001
0.61319333 0.30532098 1.7860001
0.13777715 0.31637716 1.7860001
0.14373049 0.31722763 1.7860001
0.60809052 0.31722763 1.7860001
0.61319339 0.31637716 1.7860001
0.13777715 0.32488191 1.7860001
0.14628193 0.32658288 1.7860001
0.15308572 0.32998478 1.7860001
0.60758024 0.32590252 1.786
0.61234289 0.32828385 1.7860001
0.14968382 0.33508766 1.7860001
0.15478668 0.33508766 1.7860001
0.60780698 0.33565462 1.7860001
0.61347681 0.33452067 1.7860001
0.15551566 0.34407839 1.7860001
0.16329144 0.34699431 1.7860001
0.606673 0.34472635 1.7860001
0.61234289 0.3401905 1.7860001
0.15818858 0.35209715 1.7860001
0.16499239 0.35379812 1.7860001
0.17349716 0.35634956 1.7860001
0.18030097 0.35720003 1.7860001
0.59873527 0.35720003 1.7860001
0.60383809 0.35379812 1.7860001
0.17689906 0.36060193 1.7860001
0.18455334 0.3614524 1.7860001
0.19390857 0.3657048 1.7860001
0.59873527 0.36400387 1.7860001
0.60383809 0.36400387 1.7860001
0.19594972 0.37352914 1.786
0.20241334 0.37420952 1.7860001
0.59873527 0.37080762 1.7860001
0.60383809 0.37420952 1.7860001
0.19646001 0.38356477 1.7860001
0.20241334 0.38441524 1.7860001
0.59760129 0.3866832 1.7860001
0.60383809 0.38271427 1.7860001
0.19731049 0.39462093 1.7860001
0.20207314 0.3939406 1.786
0.59436136 0.39462095 1.7860001
0.19390857 0.40686783 1.786
0.20156285 0.4039762 1.7860001
0.58852953 0.40482664 1.7860001
0.59329218 0.40482664 1.786
0.19390857 0.41503242 1.7860001
0.20071238 0.41163048 1.7860001
0.58852953 0.41333145 1.7860001
0.5936324 0.41503242 1.7860001
0.18710476 0.42693907 1.7860001
0.19447555 0.42523813 1.7860001
0.58852953 0.4252381 1.7860001
0.59329218 0.42591849 1.786
0.18370287 0.43204191 1.7860001
0.19390857 0.43544382 1.786
0.59329218 0.43476343 1.786
0.18710476 0.44224763 1.7860001
0.19646001 0.44479904 1.7860001
0.20241335 0.44735047 1.7860001
0.58852953 0.44564953 1.7860001
0.59193146 0.44564953 1.7860001
0.19731049 0.45585525 1.7860001
0.20207314 0.45653564 1.786
0.58682859 0.45585525 1.7860001
0.5927819 0.45500478 1.7860001
0.19560952 0.46946287 1.7860001
0.20411427 0.46606097 1.7860001
0.21261905 0.46265906 1.7860001
0.58626163 0.46549401 1.7860001
0.5927819 0.46691144 1.7860001
0.18710476 0.47966859 1.7860001
0.19390857 0.47626671 1.7860001
0.20411429 0.47626671 1.7860001
0.21205206 0.47740066 1.7860001
0.57832384 0.47966859 1.7860001
0.58555287 0.47669196 1.7860001
0.59193146 0.47626665 1.7860001
0.19475904 0.48392096 1.7860001
0.20368907 0.48604718 1.7860001
0.57832384 0.4864724 1.7860001
0.58512759 0.4864724 1.7860001
0.20241335 0.49497718 1.7860001
0.57832384 0.49497718 1.7860001
0.58285969 0.49441019 1.7860001
0.20411429 0.50178099 1.7860001
0.57832384 0.50178099 1.7860001
0.58172572 0.50348192 1.7860001
0.20638223 0.51482159 1.7860001
0.57832384 0.51028574 1.7860001
0.58285969 0.51482159 1.7860001
0.20615545 0.52457368 1.786
0.23643239 0.53069717 1.7860001
0.63594288 0.010257144 1.7950001
0.64790952 0.013676191 1.7950001
0.65474766 0.015385714 1.7950001
0.65987623 0.022223812 1.7950001
0.66329527 0.025642857 1.7950001
0.66557461 0.03419048 1.7950001
0.65987623 0.044447619 1.7950001
0.66329527 0.044447619 1.7950001
0.65759689 0.055844445 1.7950001
0.66329527 0.051285718 1.7950001
0.65987623 0.06496191 1.7950001
0.65873653 0.075219058 1.7950001
0.65645719 0.08547619 1.7950001
0.64961904 0.095733337 1.7950001
0.65474766 0.095733345 1.7950001
0.64961904 0.10599049 1.7950001
0.65440577 0.10530667 1.7950001
0.64961904 0.11624762 1.7950001
0.65303814 0.11282858 1.7950001
0.64961904 0.1282143 1.7950001
0.64790952 0.13505238 1.7950001
0.65303814 0.13334286 1.7950001
0.64534521 0.14445478 1.7950001
0.6450603 0.15385714 1.7950001
0.64278096 0.1641143 1.7950001
0.63936192 0.17779048 1.7950001
0.64278096 0.17437144 1.7950001
0.63936192 0.18462859 1.7950001
0.64278096 0.18462859 1.7950001
0.20685239 0.19830477 1.7950001
0.21540001 0.19830477 1.7950001
0.22223811 0.19830477 1.7950001
0.27694288 0.19830477 1.7950001
0.2829262 0.19745001 1.7950001
0.29403812 0.19830477 1.7950001
0.32822859 0.19830477 1.7950001
0.63936192 0.19488573 1.7950001
0.64278096 0.19488573 1.7950001
0.1641143 0.20856191 1.7950001
0.1752262 0.20428811 1.7950001
0.18394478 0.20309143 1.7950001
0.19556955 0.20377526 1.7950001
0.20514286 0.20172381 1.7950001
0.21540003 0.20172381 1.7950001
0.22634096 0.20309143 1.7950001
0.23591429 0.20172381 1.7950001
0.24617143 0.20172381 1.7950001
0.25471905 0.20172381 1.7950001
0.26668572 0.20172381 1.7950001
0.27010477 0.20172381 1.7950001
0.33848572 0.20172381 1.7950001
0.34532383 0.20172381 1.7950001
0.35387143 0.20172381 1.7950001
0.63936192 0.20514286 1.7950001
0.64278096 0.20514286 1.7950001
0.14408843 0.21637687 1.7950001
0.15157779 0.21312064 1.7950001
0.63936192 0.2154 1.7950001
0.64278096 0.21198095 1.7950001
0.12992382 0.22907619 1.7950001
0.13562222 0.22793651 1.7950001
0.14189048 0.22565715 1.7950001
0.63936192 0.22565715 1.7950001
0.64278096 0.22907619 1.7950001
0.11693142 0.23796573 1.7950001
0.12693216 0.23634169 1.7950001
0.13471048 0.23523049 1.7950001
0.14018096 0.23420477 1.7950001
0.63936192 0.23591429 1.7950001
0.10940953 0.24959049 1.7950001
0.11624762 0.24617144 1.7950001
0.12650478 0.24617144 1.7950001
0.13471048 0.24685526 1.7950001
0.14018096 0.24788097 1.7950001
0.63850719 0.24702621 1.7950001
0.1080419 0.25711241 1.7950001
0.11624762 0.2564286 1.7950001
0.12513715 0.25506097 1.7950001
0.13505238 0.25300953 1.7950001
0.14018096 0.25300953 1.7950001
0.62654054 0.25728336 1.7950001
0.63423336 0.25471905 1.7950001
0.10770001 0.2649762 1.7950001
0.11624763 0.2649762 1.7950001
0.12582096 0.26463431 1.7950001
0.62340641 0.26440635 1.7950001
0.10770001 0.27181429 1.7950001
0.116675 0.27309644 1.7950001
0.12308572 0.27352381 1.7950001
0.62431812 0.27352381 1.7950001
0.11722449 0.28426939 1.7950001
0.12308572 0.28378096 1.7950001
0.62483096 0.2829262 1.7950001
0.11673606 0.29354969 1.7950001
0.12650478 0.29608956 1.7950001
0.62511593 0.29403815 1.7950001
0.11881191 0.30344048 1.7950001
0.12650478 0.30429524 1.7950001
0.13334286 0.30429524 1.7950001
0.61884767 0.30771428 1.7950001
0.6231215 0.30344048 1.7950001
0.11966667 0.31284288 1.7950001
0.12650478 0.3145524 1.7950001
0.13334286 0.31626192 1.7950001
0.61884767 0.31284288 1.7950001
0.62226671 0.3145524 1.7950001
0.12650478 0.32480952 1.7950001
0.13334286 0.32480955 1.7950001
0.61799288 0.32480955 1.7950001
0.62226671 0.32480955 1.7950001
0.1282143 0.33335716 1.7950001
0.13539429 0.33438286 1.7950001
0.14317262 0.33549407 1.7950001
0.61884767 0.33506668 1.7950001
0.62226671 0.33335716 1.7950001
0.14428382 0.34327239 1.7950001
0.1504381 0.34532383 1.7950001
0.61656827 0.34532383 1.7950001
0.15385714 0.35387143 1.7950001
0.16069524 0.35900003 1.7950001
0.61371905 0.35558096 1.7950001
0.1572762 0.36241907 1.7950001
0.1641143 0.36241904 1.7950001
0.17323177 0.36526823 1.7950001
0.18394478 0.36788949 1.7950001
0.19146667 0.36925715 1.7950001
0.6150012 0.36626554 1.7950001
0.17437144 0.37438571 1.7950001
0.18505597 0.37566784 1.7950001
0.19232143 0.37695003 1.7950001
0.61445171 0.37560681 1.7950001
0.1752262 0.38891667 1.7950001
0.18462859 0.38635239 1.7950001
0.19283429 0.3870362 1.7950001
0.60688096 0.38806191 1.7950001
0.61200953 0.38293335 1.7950001
0.17779048 0.39490002 1.7950001
0.18462859 0.39489999 1.7950001
0.1931762 0.39490002 1.7950001
0.60585529 0.39455813 1.7950001
0.17779048 0.40515715 1.7950001
0.18505597 0.40387499 1.7950001
0.1943159 0.40287781 1.7950001
0.59833336 0.40686667 1.7950001
0.60311997 0.40276384 1.7950001
0.18633811 0.41370478 1.7950001
0.60260713 0.41285002 1.7950001
0.18462859 0.42396194 1.7950001
0.19146667 0.42396191 1.7950001
0.59833336 0.42396191 1.7950001
0.6017524 0.42396191 1.7950001
0.17779048 0.43592858 1.7950001
0.18414016 0.43470746 1.7950001
0.19146667 0.43421906 1.7950001
0.6017524 0.43421903 1.7950001
0.17779048 0.44447622 1.7950001
0.18420121 0.44447619 1.7950001
0.19232143 0.44533098 1.7950001
0.59833336 0.44447622 1.7950001
0.6017524 0.44105715 1.7950001
0.17779048 0.4513143 1.7950001
0.18462859 0.45473331 1.7950001
0.1931762 0.45473334 1.7950001
0.59833336 0.45473334 1.7950001
0.6017524 0.45815238 1.7950001
0.18511702 0.46401364 1.7950001
0.19445835 0.46541789 1.7950001
0.59833336 0.4649905 1.7950001
0.6017524 0.4649905 1.7950001
0.17779048 0.47866669 1.7950001
0.18462859 0.47524759 1.7950001
0.19146667 0.47182858 1.7950001
0.59833336 0.47695717 1.7950001
0.6017524 0.47182858 1.7950001
0.17779048 0.48208573 1.7950001
0.18420121 0.4859322 1.7950001
0.1931762 0.48892382 1.7950001
0.59696579 0.48618859 1.7950001
0.18462858 0.49234289 1.7950001
0.19602542 0.49519214 1.7950001
0.58807623 0.49918097 1.7950001
0.59534174 0.49618933 1.7950001
0.19830477 0.50601906 1.7950001
0.20257857 0.50687379 1.7950001
0.58807623 0.50601906 1.7950001
0.59423053 0.50396764 1.7950001
0.19830477 0.51627618 1.7950001
0.20309143 0.51627624 1.7950001
0.58807623 0.51456666 1.7950001
0.59149528 0.51627618 1.7950001
0.20343333 0.52311432 1.7950001
0.64600384 0.010308572 1.8040003
0.66490287 0.017180953 1.8040001
0.66662097 0.020617144 1.8040001
0.67177528 0.024053335 1.804
0.67263436 0.035220955 1.8040001
0.67005712 0.044670478 1.8040003
0.66547555 0.057269841 1.8040003
0.67177528 0.05154286 1.8040001
0.66662097 0.06528762 1.8040003
0.66576195 0.076455243 1.8040001
0.66455925 0.085217521 1.8040001
0.66490287 0.092777148 1.8040001
0.65974861 0.1099581 1.8040001
0.66318476 0.10652191 1.8040003
0.65860319 0.11568508 1.8040003
0.65516704 0.12255746 1.8040003
0.6528762 0.13744763 1.8040001
0.6528762 0.14432001 1.8040003
0.64944005 0.15806477 1.8040001
0.65373522 0.15462857 1.8040001
0.64944005 0.16493715 1.8040003
0.6528762 0.16493715 1.8040003
0.64944005 0.17524572 1.8040003
0.6528762 0.17524572 1.8040001
0.64944005 0.18555431 1.8040003
0.17868191 0.19929905 1.8040001
0.1872724 0.19929905 1.8040001
0.19815366 0.19815366 1.8040003
0.20531239 0.19672191 1.8040001
0.21648 0.19700825 1.8040003
0.22678858 0.19929905 1.8040001
0.23366098 0.19929905 1.8040003
0.24396954 0.19929905 1.8040003
0.25084192 0.19929905 1.8040001
0.26458669 0.19929905 1.8040001
0.27661335 0.19758096 1.8040001
0.28520381 0.19586286 1.8040001
0.30582097 0.19929905 1.8040003
0.31441146 0.19929905 1.8040001
0.33331048 0.19929905 1.8040001
0.64944005 0.19586284 1.8040003
0.1460381 0.20960763 1.8040001
0.15462857 0.20960765 1.8040003
0.16722794 0.20617144 1.8040003
0.17352763 0.20273525 1.8040001
0.19242667 0.20273525 1.8040001
0.64944005 0.20445335 1.8040001
0.13572952 0.21991619 1.8040001
0.14260191 0.21304382 1.8040001
0.64714926 0.21762539 1.8040003
0.12713905 0.22678858 1.8040001
0.13332421 0.22472687 1.8040001
0.64600384 0.22507048 1.8040001
0.1099581 0.23709716 1.8040001
0.11511238 0.23366098 1.8040001
0.12301563 0.23159926 1.8040001
0.64600384 0.23537907 1.8040001
0.10995809 0.24396951 1.8040003
0.64600384 0.24396951 1.8040003
0.10480382 0.25427809 1.8040001
0.64371306 0.25427809 1.8040003
0.098790474 0.26372764 1.8040001
0.10308572 0.26458669 1.8040003
0.62882286 0.26802287 1.8040001
0.63526577 0.26415718 1.804
0.099649526 0.27317715 1.8040001
0.10514744 0.27626973 1.8040001
0.11339429 0.27833143 1.8040001
0.63526571 0.27532476 1.804
0.1088127 0.28405842 1.8040003
0.11339429 0.28348571 1.8040001
0.63397717 0.28520381 1.804
0.1099581 0.29379427 1.8040001
0.11511239 0.29723048 1.8040001
0.6343208 0.29482514 1.8040001
0.11476877 0.30650821 1.8040001
0.62882286 0.30753905 1.8040001
0.11597143 0.31527048 1.8040001
0.12026667 0.31956571 1.8040001
0.62882286 0.31612954 1.8040003
0.11683048 0.32472003 1.8040001
0.12026667 0.3264381 1.8040003
0.62882286 0.3264381 1.8040003
0.12370286 0.33502859 1.8040001
0.62882286 0.33502859 1.8040001
0.12713905 0.34018287 1.8040001
0.13401145 0.34190094 1.8040001
0.14088382 0.34705526 1.8040001
0.62538666 0.34247366 1.8040003
0.14775619 0.35049143 1.8040001
0.15119238 0.35564572 1.8040001
0.62195051 0.35392761 1.8040003
0.15806477 0.36080003 1.8040001
0.16665524 0.36767238 1.8040001
0.62309593 0.36423621 1.8040003
0.16591892 0.3750357 1.804
0.1758184 0.37454477 1.804
0.62424129 0.37454477 1.8040003
0.16837335 0.38485336 1.8040003
0.17481622 0.38442379 1.804
0.1821181 0.38141716 1.8040001
0.61736888 0.38714412 1.8040003
0.62309593 0.38370797 1.8040003
0.16837335 0.39172572 1.8040001
0.17352761 0.39688003 1.8040001
0.61507809 0.39378744 1.8040001
0.16837335 0.40890667 1.8040001
0.1752457 0.40547052 1.8040001
0.1821181 0.40203431 1.8040001
0.60820574 0.40890667 1.8040001
0.61164194 0.40547049 1.8040003
0.16837335 0.41577908 1.8040003
0.17696381 0.41577908 1.804
0.1821181 0.41577902 1.8040003
0.60820574 0.41749716 1.8040001
0.61164194 0.41577902 1.8040003
0.16837335 0.42265144 1.8040001
0.17524573 0.42608768 1.804
0.1821181 0.42265144 1.8040001
0.60820574 0.42608762 1.8040003
0.61250097 0.42694667 1.8040001
0.17467302 0.43525079 1.804
0.60820574 0.43639621 1.8040003
0.61164194 0.43639621 1.8040003
0.17410032 0.44555938 1.8040003
0.60648763 0.4449867 1.8040001
0.17467302 0.45357716 1.804
0.60648763 0.45357713 1.804
0.17868191 0.46388569 1.8040003
0.60820574 0.46388569 1.8040003
0.17639112 0.47533974 1.804
0.18383619 0.47075811 1.8040001
0.60648763 0.47591239 1.8040001
0.17467302 0.48450288 1.804
0.60476953 0.48450288 1.8040003
0.17696381 0.49309334 1.8040001
0.1855543 0.49687314 1.8040001
0.19414476 0.49824762 1.8040001
0.60476953 0.49481145 1.8040003
0.1878451 0.50282925 1.8040003
0.19414476 0.50512004 1.8040001
0.60391045 0.50597906 1.8040001
0.19586284 0.51611584 1.8040001
0.59652269 0.51474136 1.8040001
0.60133338 0.5154286 1.8040001
0.19929905 0.52401906 1.8040001
0.65822291 0.0069104764 1.8140001
0.65822291 0.010365714 1.8140001
0.66513336 0.013820953 1.8140001
0.67549908 0.01727619 1.8140001
0.68068194 0.024186665 1.8140001
0.68068194 0.03455238 1.8140001
0.67722672 0.044918101 1.8140001
0.68068194 0.044918101 1.8140001
0.67549908 0.057011433 1.8140001
0.68068194 0.051828574 1.8140001
0.67549902 0.065649524 1.8140001
0.67549902 0.076015241 1.8140001
0.68068194 0.07774286 1.8140001
0.67475861 0.086874552 1.8140001
0.68068194 0.086380959 1.8140001
0.666861 0.096746668 1.8140001
0.67549908 0.093291432 1.8140001
0.666861 0.1002019 1.8140001
0.67146796 0.1048089 1.8140001
0.666861 0.11575048 1.8140001
0.67031622 0.11229524 1.8140001
0.65995049 0.12784381 1.8140001
0.66513336 0.12438858 1.8140001
0.67031622 0.12438858 1.8140001
0.65995049 0.13475429 1.8140001
0.66513336 0.13475429 1.8140001
0.67031622 0.13475429 1.8140001
0.65995049 0.14512001 1.8140001
0.66513336 0.14512001 1.8140001
0.65995049 0.15548572 1.8140001
0.66340572 0.15548573 1.8140001
0.65995049 0.16585143 1.8140001
0.66340572 0.1641238 1.8140001
0.65856844 0.17621714 1.8140001
0.66340572 0.17621715 1.8140001
0.65822291 0.18485525 1.8140001
0.19349334 0.19694857 1.8140001
0.20213144 0.19349334 1.8140001
0.21768001 0.19694857 1.8140001
0.22631809 0.19694857 1.8140001
0.23322859 0.19694857 1.8140001
0.24186668 0.19694857 1.8140001
0.26605335 0.19694857 1.8140001
0.27641904 0.19694857 1.8140001
0.29542285 0.19694857 1.8140001
0.30233335 0.19694857 1.8140001
0.65822291 0.19349335 1.8140001
0.66340572 0.19349334 1.8140001
0.14512001 0.2073143 1.8140001
0.15548572 0.2073143 1.8140001
0.16585143 0.20472287 1.8140001
0.17448953 0.20040381 1.8140001
0.18312763 0.20040381 1.8140001
0.19349334 0.20040381 1.8140001
0.25741524 0.20040381 1.8140001
0.26605332 0.20040381 1.8140001
0.27296382 0.20040381 1.8140001
0.32306477 0.20040381 1.8140001
0.33861333 0.20040381 1.8140001
0.34552383 0.20040381 1.8140001
0.35416192 0.20040381 1.8140001
0.65822291 0.20385905 1.8140001
0.66340572 0.20385905 1.8140001
0.13682744 0.2149158 1.8140001
0.14166477 0.21076953 1.8140001
0.65692717 0.21379288 1.8140001
0.11632635 0.22689396 1.8140001
0.12438858 0.22516637 1.8140001
0.13129905 0.22113524 1.8140001
0.65390384 0.22372667 1.8140001
0.10711239 0.23841144 1.8140001
0.11171937 0.23265272 1.8140001
0.65304005 0.2349562 1.8140001
0.10538477 0.24532191 1.8140001
0.65304005 0.24532191 1.8140001
0.096746661 0.25568762 1.8140001
0.10106571 0.25482383 1.8140001
0.64958477 0.25741524 1.8140001
0.094673529 0.26674441 1.8140001
0.64670545 0.26605332 1.8140001
0.095364586 0.27572802 1.8140001
0.1002019 0.27987429 1.8140001
0.64711672 0.27592543 1.8140001
0.089836195 0.28332955 1.8140001
0.09501905 0.28332955 1.8140001
0.1048089 0.28563303 1.8140001
0.11056762 0.28678477 1.8140001
0.64440191 0.28505716 1.8140001
0.10464436 0.29418883 1.8140001
0.64440197 0.29369524 1.8140001
0.10711239 0.30060571 1.8140001
0.11056762 0.30406097 1.8140001
0.63749146 0.30578858 1.8140001
0.64353812 0.30319715 1.8140001
0.11143143 0.31529048 1.8140001
0.63749146 0.31442669 1.8140001
0.11402286 0.32306477 1.8140001
0.63576382 0.32479239 1.8140001
0.11575048 0.33170286 1.8140001
0.12093334 0.33688572 1.8140001
0.63576382 0.33515811 1.8140001
0.1261162 0.34379619 1.8140001
0.13475429 0.34725145 1.8140001
0.62885338 0.34725145 1.8140001
0.63507283 0.34483275 1.8140001
0.14650211 0.35658059 1.8140001
0.62885338 0.35588956 1.8140001
0.63369066 0.35658056 1.8140001
0.15548572 0.3628 1.8140001
0.16239619 0.36971048 1.8140001
0.62885338 0.36452764 1.8140001
0.6323086 0.36625525 1.8140001
0.15894096 0.37489337 1.8140001
0.16239619 0.37489337 1.8140001
0.63403618 0.37489337 1.8140001
0.15548572 0.3800762 1.8140001
0.16585143 0.38525906 1.8140001
0.62885338 0.38180381 1.8140001
0.63317239 0.3826676 1.8140001
0.16671523 0.39476097 1.8140001
0.625974 0.39389718 1.8140001
0.16757905 0.4042629 1.8140001
0.17276192 0.40599048 1.8140001
0.61848766 0.40599048 1.8140001
0.6249662 0.40469477 1.8140001
0.16446933 0.41531962 1.8140001
0.17276192 0.41635621 1.8140001
