# .PCD v0.7 - Point Cloud Data file format
VERSION 0.7
FIELDS x y z
SIZE 4 4 4
TYPE F F F
COUNT 1 1 1
WIDTH 1435
HEIGHT 1
VIEWPOINT 0 0 0 1 0 0 0
POINTS 1435
DATA ascii
0.21560444 0.034124445 2.4430001
0.32800001 -0.20148572 2.46
0.33268574 -0.20617144 2.46
0.29520002 -0.15697142 2.46
0.29500002 -0.16284001 2.4780002
0.30208001 -0.16520001 2.4780002
0.31152001 -0.16992001 2.4780002
0.3090286 -0.17115429 2.4960001
0.31616002 -0.17590858 2.4960001
0.32562286 -0.20590858 2.5140002
0.32562286 -0.19393715 2.5140002
0.30646858 -0.17238858 2.5140002
0.29689145 -0.15802287 2.5140002
0.32313144 -0.20738286 2.5320001
0.33277714 -0.20738286 2.5320001
0.31830859 -0.18326858 2.5320001
0.32313144 -0.18326858 2.5320001
0.30625144 -0.1760343 2.5320001
0.31348571 -0.17844573 2.5320001
0.29901716 -0.16880001 2.5320001
0.29901716 -0.15433143 2.5320001
0.3158381 -0.20893906 2.5510001
0.32312667 -0.20650953 2.5510001
0.33041525 -0.20408 2.5510001
0.32555619 -0.19679144 2.5510001
0.31340858 -0.18707335 2.5510001
0.32312667 -0.18950287 2.5510001
0.31655872 -0.20233651 2.5700002
0.32308573 -0.20315239 2.5700002
0.31574285 -0.19580953 2.5700002
0.32308573 -0.19580953 2.5700002
0.30840001 -0.18601905 2.5700002
0.30350477 -0.15175238 2.5700002
0.29860952 -0.14196192 2.5700002
0.30350477 -0.14685714 2.5700002
0.29371428 -0.13706668 2.5700002
0.26679051 -0.063638099 2.5700002
0.31068 -0.20218858 2.5890002
0.31068 -0.19479144 2.5890002
0.31068 -0.18246287 2.5890002
0.30574858 -0.17753144 2.5890002
0.30081716 -0.16520286 2.5890002
0.30081716 -0.15534002 2.5890002
0.29588571 -0.14301144 2.5890002
0.30081716 -0.14794286 2.5890002
0.29095429 -0.13808 2.5890002
0.28109145 -0.12821715 2.5890002
0.2745162 -0.095340945 2.5890002
0.28109145 -0.093697146 2.5890002
0.27369428 -0.086300001 2.5890002
0.28109145 -0.086300001 2.5890002
0.26629716 -0.06904 2.5890002
0.27122858 -0.06904 2.5890002
0.25643429 -0.039451431 2.5890002
0.26136571 -0.039451431 2.5890002
0.30811048 -0.19381143 2.6090002
0.30645397 -0.18552889 2.6090002
0.30314097 -0.1764181 2.6090002
0.29817143 -0.15654001 2.6090002
0.29485843 -0.14742921 2.6090002
0.28326288 -0.13417715 2.6090002
0.28326288 -0.1242381 2.6090002
0.2683543 -0.094420955 2.6090002
0.2683543 -0.086966671 2.6090002
0.2683543 -0.077027619 2.6090002
0.27580857 -0.079512388 2.6090002
0.26338476 -0.064603813 2.6090002
0.25675872 -0.046382222 2.6090002
0.25344571 -0.039756194 2.6090002
0.25841525 -0.02733238 2.6090002
0.30045715 -0.17025906 2.6290002
0.29544953 -0.16024381 2.6290002
0.30045715 -0.16525143 2.6290002
0.29294574 -0.15273239 2.6290002
0.28543431 -0.14021334 2.6290002
0.29044193 -0.14271715 2.6290002
0.28042668 -0.13019811 2.6290002
0.27541906 -0.11016762 2.6290002
0.28293049 -0.11016762 2.6290002
0.27541906 -0.10015239 2.6290002
0.26540381 -0.072610483 2.6290002
0.27541906 -0.075114287 2.6290002
0.26289999 -0.062595241 2.6290002
0.25538859 -0.050076194 2.6290002
0.25038096 -0.042564765 2.6290002
0.25371936 -0.03171492 2.6290002
0.26039621 -0.035053335 2.6290002
0.25538859 -0.025038097 2.6290002
0.30778858 -0.19173715 2.6490002
0.30274287 -0.18416858 2.6490002
0.29769716 -0.1715543 2.6490002
0.30274287 -0.17660001 2.6490002
0.2951743 -0.16398571 2.6490002
0.28760573 -0.15389429 2.6490002
0.29265144 -0.15641715 2.6490002
0.28760573 -0.14632572 2.6490002
0.27751431 -0.13118857 2.6490002
0.28256002 -0.13623428 2.6490002
0.29265144 -0.13623428 2.6490002
0.27751431 -0.12362 2.6490002
0.28256002 -0.12362 2.6490002
0.27499145 -0.11352858 2.6490002
0.28256002 -0.11605144 2.6490002
0.27751431 -0.10596 2.6490002
0.28256002 -0.10596 2.6490002
0.26742285 -0.093345717 2.6490002
0.26742285 -0.083254293 2.6490002
0.26237714 -0.073162861 2.6490002
0.25733143 -0.06307143 2.6490002
0.26237714 -0.060548574 2.6490002
0.25396761 -0.053820953 2.6490002
0.2649 -0.055502858 2.6490002
0.24724001 -0.042888574 2.6490002
0.24724001 -0.032797143 2.6490002
0.25228572 -0.035320003 2.6490002
0.24724001 -0.022705715 2.6490002
0.25396761 -0.021864763 2.6490002
0.24219429 0.0050457143 2.6490002
0.23714858 0.012614286 2.6490002
0.24219429 0.012614286 2.6490002
0.23714858 0.020182857 2.6490002
0.24219429 0.020182857 2.6490002
0.22705714 0.035320003 2.6490002
0.23462573 0.030274287 2.6490002
0.21696572 0.04541143 2.6490002
0.22453429 0.042888574 2.6490002
0.23210287 0.04541143 2.6490002
0.21696572 0.052980002 2.6490002
0.22453429 0.052980002 2.6490002
0.23210287 0.052980002 2.6490002
0.22201143 0.060548574 2.6490002
0.30502859 -0.19318476 2.6690001
0.29994476 -0.18555906 2.6690001
0.29740286 -0.17539144 2.6690001
0.28977716 -0.16268191 2.6690001
0.29486096 -0.16776572 2.6690001
0.28469333 -0.15251429 2.6690001
0.27960953 -0.14234667 2.6690001
0.28469333 -0.14488858 2.6690001
0.2694419 -0.13217905 2.6690001
0.27706763 -0.13472095 2.6690001
0.27452573 -0.12709524 2.6690001
0.2694419 -0.11184382 2.6690001
0.2694419 -0.1042181 2.6690001
0.27452573 -0.1042181 2.6690001
0.2643581 -0.094050482 2.6690001
0.2592743 -0.081340954 2.6690001
0.2643581 -0.083882861 2.6690001
0.25757971 -0.072867937 2.6689999
0.25419047 -0.063547619 2.6690001
0.24741207 -0.052532703 2.6689999
0.24402286 -0.043212384 2.6690001
0.24402286 -0.033044763 2.6690001
0.23893906 -0.025419049 2.6690001
0.24402286 -0.022877144 2.6690001
0.23893906 -0.012709524 2.6690001
0.24656478 -0.012709524 2.6690001
0.25419047 -0.012709524 2.6690001
0.23893906 -0.0050838096 2.6690001
0.24656478 -0.0050838096 2.6690001
0.23639715 0.0025419048 2.6690001
0.24656478 0 2.6690001
0.23385525 0.012709524 2.6690001
0.22707683 0.023724446 2.6689999
0.23554985 0.023724446 2.6689999
0.22538222 0.032197461 2.6689999
0.20589429 0.045754287 2.6690001
0.21521461 0.042365078 2.6689999
0.19826858 0.050838098 2.6690001
0.20589429 0.053380005 2.6690001
0.21352001 0.053380005 2.6690001
0.18810096 0.063547619 2.6690001
0.19318476 0.066089526 2.6690001
0.20589429 0.063547619 2.6690001
0.21606191 0.063547619 2.6690001
0.22877143 0.061005715 2.6690001
0.23385525 0.061005715 2.6690001
0.18810096 0.071173333 2.6690001
0.19657397 0.074562542 2.6689999
0.205047 0.072867937 2.6689999
0.19657397 0.083035558 2.6689999
0.20335239 0.086424768 2.6690001
0.30230477 -0.19470477 2.6900001
0.29461905 -0.18701907 2.6900001
0.2937651 -0.1776254 2.6899998
0.28693333 -0.16396192 2.6900001
0.29205716 -0.16908573 2.6900001
0.27668571 -0.15371428 2.6900001
0.28351748 -0.15713017 2.6899998
0.28180954 -0.14859048 2.6900001
0.27668571 -0.13834286 2.6900001
0.29718095 -0.13321905 2.6900001
0.27326986 -0.12467936 2.6899998
0.2664381 -0.11272381 2.6900001
0.27412382 -0.11784762 2.6900001
0.25619048 -0.10503809 2.6900001
0.2638762 -0.1050381 2.6900001
0.25619048 -0.094790481 2.6900001
0.2613143 -0.094790481 2.6900001
0.25619048 -0.084542863 2.6900001
0.2613143 -0.087104768 2.6900001
0.24594286 -0.076857142 2.6900001
0.25277463 -0.075149208 2.6899998
0.24594286 -0.061485715 2.6900001
0.25106668 -0.06404762 2.6900001
0.24338096 -0.053800002 2.6900001
0.24081905 -0.043552384 2.6900001
0.24081905 -0.033304762 2.6900001
0.23569524 -0.023057144 2.6900001
0.24081905 -0.02049524 2.6900001
0.23569524 -0.012809524 2.6900001
0.23569524 -0.0051238099 2.6900001
0.23057143 0.002561905 2.6900001
0.22544762 0.012809524 2.6900001
0.23057143 0.012809524 2.6900001
0.22203176 0.022203177 2.6899998
0.21520001 0.033304762 2.6900001
0.22032382 0.033304762 2.6900001
0.20495239 0.040990479 2.6900001
0.2100762 0.040990479 2.6900001
0.1964127 0.054653972 2.6899998
0.19812064 0.063193649 2.6899998
0.23569524 0.066609524 2.6900001
0.24081905 0.066609524 2.6900001
0.19470477 0.071733333 2.6900001
0.29691905 -0.19622476 2.7110002
0.28917333 -0.18073334 2.7110002
0.28917333 -0.17298763 2.7110002
0.28400955 -0.16524191 2.7110002
0.27884573 -0.14716858 2.7110002
0.26851809 -0.13425905 2.7110002
0.27368191 -0.13942286 2.7110002
0.26851809 -0.12651333 2.7110002
0.25819048 -0.11360382 2.7110002
0.2659362 -0.11618572 2.7110002
0.24786286 -0.10327619 2.7110002
0.25302666 -0.10585809 2.7110002
0.24786286 -0.092948578 2.7110002
0.25302666 -0.09553048 2.7110002
0.24786286 -0.085202858 2.7110002
0.25302666 -0.085202858 2.7110002
0.24786286 -0.072293334 2.7110002
0.24786286 -0.067129523 2.7110002
0.24269906 -0.056801908 2.7110002
0.23753525 -0.043892384 2.7110002
0.23753525 -0.033564761 2.7110002
0.23237143 -0.01032762 2.7110002
0.23237143 -0.0051638098 2.7110002
0.22548635 0.0034425398 2.7110002
0.21688001 0.015491429 2.7110002
0.22204381 0.012909524 2.7110002
0.21688001 0.023237143 2.7110002
0.20483112 0.034425396 2.7110002
0.2117162 0.033564761 2.7110002
0.20138858 0.041310478 2.7110002
0.29152 -0.18740572 2.733
0.27590287 -0.14576 2.733
0.26549143 -0.13274571 2.733
0.26549143 -0.12493715 2.733
0.25508001 -0.11452572 2.733
0.26549143 -0.11973143 2.733
0.24987429 -0.10932001 2.733
0.24987429 -0.098908573 2.733
0.24466857 -0.078085721 2.733
0.24466857 -0.065071434 2.733
0.23946287 -0.052057143 2.733
0.23425715 -0.023425715 2.733
0.23425715 -0.015617143 2.733
0.22905144 -0.0052057146 2.733
0.20822857 0.026028572 2.733
0.21343429 0.026028572 2.733
0.30687428 -0.20458287 2.7540002
0.26228571 -0.13114285 2.7540002
0.25704002 -0.1232743 2.7540002
0.26228571 -0.1232743 2.7540002
0.24392572 -0.11016 2.7540002
0.25179431 -0.11540572 2.7540002
0.24392572 -0.10491429 2.7540002
0.24392572 -0.09704572 2.7540002
0.24480002 -0.08742857 2.7540004
0.24392572 -0.076062858 2.7540002
0.23343429 -0.041965716 2.7540002
0.23605715 -0.034097143 2.7540002
0.23081143 -0.013114287 2.7540002
0.22556572 -0.0052457144 2.7540002
0.22556572 0 2.7540002
0.20982859 0.015737144 2.7540002
0.2150743 0.015737144 2.7540002
0.22032 0.010491429 2.7540002
0.20982859 0.020982858 2.7540002
0.2150743 0.020982858 2.7540002
0.29092383 -0.17455429 2.7770002
0.26976573 -0.14281715 2.7770002
0.27505526 -0.14281715 2.7770002
0.25918669 -0.1322381 2.7770002
0.26447621 -0.13752763 2.7770002
0.25389716 -0.12430382 2.7770002
0.24860764 -0.11636953 2.7770002
0.24331811 -0.084632382 2.7770002
0.22744954 -0.042316191 2.7770002
0.23538382 -0.047605716 2.7770002
0.22744954 -0.034381907 2.7770002
0.23273906 -0.034381907 2.7770002
0.23273906 -0.023802858 2.7770002
0.22744954 -0.01322381 2.7770002
0.22216001 0.0052895239 2.7770002
0.21422572 0.010579048 2.7770002
0.2932286 -0.18126857 2.799
0.25590858 -0.13328572 2.799
0.26124001 -0.13861714 2.799
0.25057715 -0.12528858 2.799
0.24524572 -0.074640006 2.799
0.22925144 -0.023991428 2.799
0.22392 -0.013328572 2.799
0.22392 -0.0053314287 2.799
0.21592286 0.0026657144 2.799
0.22392 0 2.799
0.29026288 -0.18275811 2.822
0.29026288 -0.17469524 2.822
0.28488764 -0.16663238 2.822
0.29026288 -0.16663238 2.822
0.27951241 -0.15050668 2.822
0.2687619 -0.14513144 2.822
0.25801143 -0.1397562 2.822
0.24188572 -0.083316192 2.822
0.23651049 -0.075253338 2.822
0.24188572 -0.075253338 2.822
0.23651049 -0.069878101 2.822
0.24457332 -0.067190483 2.822
0.23382287 -0.053752381 2.822
0.24367745 -0.057335872 2.8219998
0.22576001 -0.021500953 2.822
0.21500953 -0.0053752381 2.822
0.22038478 -0.0053752381 2.822
0.28540316 -0.17702223 2.845
0.28179049 -0.16799048 2.845
0.27637145 -0.15173334 2.845
0.2845 -0.15715238 2.845
0.26282382 -0.14631429 2.845
0.2384381 -0.065028571 2.845
0.2384381 -0.059609525 2.845
0.22760001 -0.032514285 2.845
0.21676192 -0.021676192 2.845
0.22489049 -0.024385717 2.845
0.21676192 -0.01354762 2.845
0.22218096 -0.01354762 2.845
0.28416762 -0.17487238 2.8690002
0.28689998 -0.16394286 2.8690002
0.27323809 -0.15301333 2.8690002
0.23170859 -0.033908572 2.9670002
0.22605716 -0.028257145 2.9670002
0.23170859 -0.028257145 2.9670002
0.20910287 0.045211431 2.9670002
0.2147543 0.045211431 2.9670002
0.21378572 0.051308572 2.993
0.22233716 0.051308572 2.993
0.2378781 -0.040613335 3.0460002
0.24368002 -0.040613335 3.0460002
0.23998667 -0.055606671 3.0730002
0.24584001 -0.055606671 3.0730002
0.25169334 -0.052680001 3.0730002
0.23998667 -0.046826668 3.0730002
0.24584001 -0.046826668 3.0730002
0.22828001 -0.011706667 3.0730002
0.22828001 -0.0058533335 3.0730002
0.22535333 0 3.0730002
0.22828001 0.017560001 3.0730002
0.21657334 0.040973336 3.0730002
0.22242667 0.040973336 3.0730002
0.10632 -0.10336667 3.1010001
0.11222667 -0.10336667 3.1010001
0.10632 -0.094506674 3.1010001
0.11222667 -0.094506674 3.1010001
0.18310668 -0.094506674 3.1010001
0.18507557 -0.084662229 3.1010001
0.19492 -0.082693338 3.1010001
0.20082667 -0.082693338 3.1010001
0.18310668 -0.076786667 3.1010001
0.19492 -0.076786667 3.1010001
0.24512668 -0.070880003 3.1010001
0.25398669 -0.070880003 3.1010001
0.24512668 -0.064973339 3.1010001
0.25398669 -0.064973339 3.1010001
0.23626667 -0.056113333 3.1010001
0.23626667 -0.047253337 3.1010001
0.23626667 -0.035440002 3.1010001
0.22445334 -0.014766667 3.1010001
0.23036 -0.017720001 3.1010001
0.22445334 -0.0059066671 3.1010001
0.21854667 0 3.1010001
0.22445334 0.017720001 3.1010001
0.21854667 0.029533334 3.1010001
0.22445334 0.029533334 3.1010001
0.23036 0.029533334 3.1010001
0.21854667 0.035440002 3.1010001
0.22445334 0.035440002 3.1010001
0.23036 0.035440002 3.1010001
0.21264 0.041346669 3.1010001
0.21264 0.053160001 3.1010001
-0.0059600002 -0.11324 3.1290002
0 -0.11324 3.1290002
-0.18476 -0.10132001 3.1290002
-0.17581999 -0.10132001 3.1290002
-0.16390002 -0.10132001 3.1290002
-0.15496001 -0.10132001 3.1290002
-0.14602 -0.10728 3.1290002
-0.02682 -0.10728 3.1290002
-0.0059600002 -0.10728 3.1290002
0.0039733336 -0.10529333 3.1290004
0.10132001 -0.10430001 3.1290002
0.18476 -0.10132001 3.1290002
0.19370002 -0.10132001 3.1290002
0.20562002 -0.10132001 3.1290002
0.21456 -0.10132001 3.1290002
0.24436001 -0.10728 3.1290002
0.25032002 -0.10728 3.1290002
0.1788 -0.095360003 3.1290002
0.19370002 -0.095360003 3.1290002
0.20562002 -0.095360003 3.1290002
0.21456 -0.095360003 3.1290002
0.22350001 -0.095360003 3.1290002
0.11522668 -0.085426666 3.1290004
0.13112001 -0.08642 3.1290002
0.17681332 -0.087413333 3.1290004
0.19370002 -0.089400001 3.1290002
0.20661335 -0.087413333 3.1290004
0.21456 -0.08642 3.1290002
0.22350001 -0.08642 3.1290002
0.23542002 -0.08642 3.1290002
0.24436001 -0.08642 3.1290002
0.25330001 -0.083440006 3.1290002
-0.03576 -0.071520001 3.1290002
0.059600003 -0.071520001 3.1290002
0.065560006 -0.071520001 3.1290002
0.074500002 -0.071520001 3.1290002
0.087413333 -0.073506668 3.1290004
0.095360003 -0.074500002 3.1290002
0.10430001 -0.074500002 3.1290002
0.11324 -0.071520001 3.1290002
0.13310666 -0.075493336 3.1290004
0.16688001 -0.074500002 3.1290002
0.17581999 -0.074500002 3.1290002
0.18476 -0.071520001 3.1290002
0.19270669 -0.073506668 3.1290004
0.20562001 -0.074500002 3.1290002
0.21456 -0.074500002 3.1290002
0.22350001 -0.074500002 3.1290002
0.23542002 -0.074500002 3.1290002
0.24436001 -0.077480003 3.1290002
0.25330001 -0.077480003 3.1290002
0.047680002 -0.065560006 3.1290002
0.056620002 -0.065560006 3.1290002
0.065560006 -0.065560006 3.1290002
0.074500002 -0.065560006 3.1290002
0.08642 -0.065560006 3.1290002
0.095360003 -0.065560006 3.1290002
0.10430001 -0.065560006 3.1290002
0.11324 -0.065560006 3.1290002
0.12516001 -0.065560006 3.1290002
0.13410001 -0.065560006 3.1290002
0.14304 -0.065560006 3.1290002
0.16688001 -0.065560006 3.1290002
0.17581999 -0.065560006 3.1290002
0.18476 -0.065560006 3.1290002
0.19370002 -0.065560006 3.1290002
0.20562002 -0.065560006 3.1290002
0.21456 -0.065560006 3.1290002
0.22350001 -0.065560006 3.1290002
0.23542002 -0.065560006 3.1290002
0.047680002 -0.056620002 3.1290002
0.056620002 -0.056620002 3.1290002
0.065560006 -0.056620002 3.1290002
0.074500002 -0.056620002 3.1290002
0.08642 -0.056620002 3.1290002
0.095360003 -0.056620002 3.1290002
0.10430001 -0.056620002 3.1290002
0.11622001 -0.056620002 3.1290002
0.12516001 -0.056620002 3.1290002
0.13410001 -0.056620002 3.1290002
0.14304 -0.056620002 3.1290002
0.16390002 -0.059600003 3.1290002
0.17284 -0.056620002 3.1290002
0.18476 -0.059600003 3.1290002
0.19370002 -0.059600003 3.1290002
0.20661335 -0.057613332 3.1290004
0.21456 -0.059600003 3.1290002
0.22250669 -0.057613332 3.1290004
0.23244001 -0.056620002 3.1290002
0.059600003 -0.044700004 3.1290002
0.065560006 -0.041720003 3.1290002
0.074500002 -0.044700004 3.1290002
0.08642 -0.044700004 3.1290002
0.10430001 -0.047680002 3.1290002
0.11622001 -0.044700004 3.1290002
0.12516001 -0.044700004 3.1290002
0.13410001 -0.044700004 3.1290002
0.18476 -0.044700004 3.1290002
0.19370002 -0.044700004 3.1290002
0.20562002 -0.041720003 3.1290002
0.21456 -0.041720003 3.1290002
0.22350001 -0.044700004 3.1290002
0.23442668 -0.04370667 3.1290004
0.059600003 -0.03576 3.1290002
0.065560006 -0.03576 3.1290002
0.074500002 -0.03576 3.1290002
0.08642 -0.03576 3.1290002
0.11622001 -0.03576 3.1290002
0.12516001 -0.03576 3.1290002
0.13410001 -0.03576 3.1290002
0.18476 -0.03576 3.1290002
0.19370002 -0.03576 3.1290002
0.20562002 -0.03576 3.1290002
0.21456 -0.03576 3.1290002
0.22350001 -0.03576 3.1290002
0.23244001 -0.03576 3.1290002
-0.013906668 -0.027813336 3.1290004
-0.0059600002 -0.02682 3.1290002
0.0029800001 -0.026820002 3.1290002
0.014900001 -0.026820002 3.1290002
0.047680002 -0.029800002 3.1290002
0.056620002 -0.02682 3.1290002
0.065560006 -0.02682 3.1290002
0.074500002 -0.026820002 3.1290002
0.085426666 -0.027813336 3.1290004
0.10430001 -0.029800002 3.1290002
0.11622001 -0.02682 3.1290002
0.12516001 -0.02682 3.1290002
0.13410001 -0.02682 3.1290002
0.14304 -0.02682 3.1290002
0.18476 -0.02682 3.1290002
0.19370002 -0.026820002 3.1290002
0.20462668 -0.027813336 3.1290004
0.21456 -0.02682 3.1290002
0.22350001 -0.02682 3.1290002
0.23244001 -0.02682 3.1290002
-0.01192 -0.014900001 3.1290002
-0.0059600002 -0.014900001 3.1290002
0.0039733336 -0.015893335 3.1290004
0.013906668 -0.015893335 3.1290004
0.077480003 -0.01788 3.1290002
0.08642 -0.014900001 3.1290002
0.10728 -0.01788 3.1290002
0.11622001 -0.014900001 3.1290002
0.12516001 -0.014900001 3.1290002
0.13310666 -0.015893335 3.1290004
0.14502667 -0.013906668 3.1290004
0.18476 -0.01788 3.1290002
0.19370002 -0.014900001 3.1290002
0.20462668 -0.015893335 3.1290004
0.21456 -0.014900001 3.1290002
0.22052 -0.014900001 3.1290002
-0.0059600002 -0.0059600002 3.1290002
0 -0.0059600002 3.1290002
0.01192 -0.0059600002 3.1290002
0.077480003 -0.0059600002 3.1290002
0.08642 -0.0059600002 3.1290002
0.095360003 -0.0059600002 3.1290002
0.10728 -0.0059600002 3.1290002
0.11622001 -0.0059600002 3.1290002
0.19072001 -0.0059600002 3.1290002
0.20264001 -0.0059600002 3.1290002
0.21456 -0.0059600002 3.1290002
0.22052 -0.0059600002 3.1290002
-0.01192 0 3.1290002
-0.0059600002 0 3.1290002
0.0029800001 0 3.1290002
0.01192 0 3.1290002
0.075493336 0.0039733336 3.1290004
0.08642 0.0029800001 3.1290002
0.095360003 0.0059600002 3.1290002
0.10430001 0.0029800001 3.1290002
0.11622001 0.0029800001 3.1290002
0.19072001 0 3.1290002
0.20562002 0 3.1290002
0.21456 0.0029800001 3.1290002
0.22350001 0.0059600002 3.1290002
0.23244001 0.0059600002 3.1290002
0.071520001 0.01788 3.1290002
0.08642 0.014900001 3.1290002
0.095360003 0.014900001 3.1290002
0.10430001 0.014900001 3.1290002
0.11522668 0.013906668 3.1290004
0.12516001 0.01788 3.1290002
0.20860001 0.01788 3.1290002
0.21456 0.014900001 3.1290002
0.22250669 0.013906668 3.1290004
0.23244001 0.01192 3.1290002
0.10430001 0.023840001 3.1290002
0.11324 0.023840001 3.1290002
0.20562001 0.02682 3.1290002
0.21456 0.02682 3.1290002
0.22350001 0.023840001 3.1290002
0.23244001 0.023840001 3.1290002
0.20562002 0.03576 3.1290002
0.21456 0.03576 3.1290002
0.20562001 0.044700004 3.1290002
0.21456 0.047680002 3.1290002
0.20562001 0.056620002 3.1290002
0.21456 0.059600003 3.1290002
0.22052 0.059600003 3.1290002
0.20562002 0.065560006 3.1290002
0.21456 0.065560006 3.1290002
0.22052 0.065560006 3.1290002
0.20562002 0.071520001 3.1290002
0.21456 0.071520001 3.1290002
0.01788 0.08642 3.1290002
-0.23840001 0.095360003 3.1290002
-0.21456 0.095360003 3.1290002
-0.20860001 0.095360003 3.1290002
-0.05412 -0.12628001 3.1570001
-0.048106667 -0.12628001 3.1570001
0.075166672 -0.12026667 3.1570001
-0.033073336 -0.11425333 3.1570001
0.018040001 -0.11425333 3.1570001
0.024053333 -0.11425333 3.1570001
0.033073336 -0.11425333 3.1570001
0.096213333 -0.11425333 3.1570001
0.10523333 -0.11425333 3.1570001
0.11425333 -0.11425333 3.1570001
0.15033334 -0.11425333 3.1570001
0.20445333 -0.11425333 3.1570001
0.21347333 -0.11425333 3.1570001
0.2255 -0.11425333 3.1570001
0.23452 -0.11425333 3.1570001
0.24354 -0.11425333 3.1570001
-0.19543333 -0.10222667 3.1570001
-0.15033334 -0.10222667 3.1570001
-0.14432001 -0.10222667 3.1570001
-0.13830668 -0.10824 3.1570001
-0.10222667 -0.10824 3.1570001
-0.093206674 -0.10523333 3.1570001
-0.034075558 -0.10423111 3.1570003
-0.024053333 -0.10222667 3.1570001
-0.015033334 -0.10222667 3.1570001
-0.0060133333 -0.10222667 3.1570001
0 -0.10222667 3.1570001
0.015033334 -0.10523333 3.1570001
0.024053333 -0.10523333 3.1570001
0.033073336 -0.10523333 3.1570001
0.046102226 -0.10423111 3.1570003
0.078173339 -0.10222667 3.1570001
0.12628001 -0.10523333 3.1570001
0.13530001 -0.10824 3.1570001
0.15033334 -0.10523333 3.1570001
0.16837335 -0.10222667 3.1570001
0.17438668 -0.10222667 3.1570001
0.18240446 -0.10623556 3.1570003
0.19844 -0.10824 3.1570001
0.20445333 -0.10824 3.1570001
0.21347333 -0.10824 3.1570001
0.2255 -0.10523333 3.1570001
0.23452 -0.10523333 3.1570001
0.24253778 -0.10423111 3.1570003
0.25656891 -0.10423111 3.1570003
0.26458669 -0.10523333 3.1570001
-0.19543333 -0.096213333 3.1570001
-0.18240446 -0.094208896 3.1570003
-0.17438668 -0.093206674 3.1570001
-0.1663689 -0.094208896 3.1570003
-0.15334001 -0.093206674 3.1570001
-0.14432001 -0.093206674 3.1570001
-0.094208896 -0.094208896 3.1570003
-0.033073336 -0.093206674 3.1570001
-0.024053333 -0.093206674 3.1570001
-0.015033334 -0.093206674 3.1570001
-0.0060133333 -0.093206674 3.1570001
0.0030066667 -0.093206674 3.1570001
0.015033334 -0.093206674 3.1570001
0.024053333 -0.093206674 3.1570001
0.033073336 -0.093206674 3.1570001
0.045100003 -0.093206674 3.1570001
0.05412 -0.093206674 3.1570001
0.063140005 -0.093206674 3.1570001
0.075166672 -0.093206674 3.1570001
0.084186673 -0.093206674 3.1570001
0.093206674 -0.093206674 3.1570001
0.10423111 -0.092204452 3.1570003
0.12327334 -0.093206674 3.1570001
0.13630223 -0.094208896 3.1570003
0.14432001 -0.093206674 3.1570001
0.15334001 -0.093206674 3.1570001
0.16536668 -0.093206674 3.1570001
0.17438668 -0.096213333 3.1570001
0.23452 -0.096213333 3.1570001
0.24354 -0.096213333 3.1570001
0.25556669 -0.093206674 3.1570001
0.26458669 -0.093206674 3.1570001
-0.033073336 -0.084186673 3.1570001
-0.024053333 -0.084186673 3.1570001
-0.015033334 -0.084186673 3.1570001
-0.0060133333 -0.084186673 3.1570001
0.0030066667 -0.084186673 3.1570001
0.015033334 -0.084186673 3.1570001
0.024053333 -0.084186673 3.1570001
0.033073336 -0.084186673 3.1570001
0.045100003 -0.084186673 3.1570001
0.05412 -0.084186673 3.1570001
0.063140005 -0.084186673 3.1570001
0.075166672 -0.084186673 3.1570001
0.084186673 -0.084186673 3.1570001
0.093206674 -0.084186673 3.1570001
0.10523333 -0.084186673 3.1570001
0.12628001 -0.084186673 3.1570001
0.13830668 -0.084186673 3.1570001
0.14432001 -0.084186673 3.1570001
0.15334001 -0.084186673 3.1570001
0.16536668 -0.084186673 3.1570001
0.17438668 -0.084186673 3.1570001
-0.046102226 -0.07416445 3.1570003
-0.032071114 -0.076168895 3.1570003
-0.024053333 -0.075166672 3.1570001
-0.015033334 -0.075166672 3.1570001
-0.0060133333 -0.075166672 3.1570001
0.0030066667 -0.075166672 3.1570001
0.015033334 -0.075166672 3.1570001
0.024053333 -0.075166672 3.1570001
0.033073336 -0.075166672 3.1570001
0.045100003 -0.075166672 3.1570001
0.05412 -0.075166672 3.1570001
0.063140005 -0.078173339 3.1570001
0.075166672 -0.078173339 3.1570001
0.084186673 -0.078173339 3.1570001
0.11425333 -0.078173339 3.1570001
0.12327334 -0.075166672 3.1570001
0.13830668 -0.072160006 3.1570001
0.14432001 -0.075166672 3.1570001
0.15334001 -0.075166672 3.1570001
0.16236001 -0.075166672 3.1570001
-0.12026667 -0.060133334 3.1570001
-0.11425333 -0.060133334 3.1570001
-0.063140005 -0.066146672 3.1570001
-0.045100003 -0.066146672 3.1570001
-0.033073336 -0.063140005 3.1570001
-0.024053333 -0.063140005 3.1570001
-0.015033334 -0.063140005 3.1570001
-0.0060133333 -0.063140005 3.1570001
0.0030066667 -0.063140005 3.1570001
0.015033334 -0.063140005 3.1570001
0.024053333 -0.063140005 3.1570001
0.033073336 -0.063140005 3.1570001
0.042093337 -0.063140005 3.1570001
0.12026667 -0.066146672 3.1570001
0.15334001 -0.063140005 3.1570001
0.16236001 -0.066146672 3.1570001
0.18040001 -0.060133334 3.1570001
-0.18641333 -0.05412 3.1570001
-0.12026667 -0.05412 3.1570001
-0.033073336 -0.05412 3.1570001
-0.024053333 -0.05412 3.1570001
-0.015033334 -0.05412 3.1570001
-0.0060133333 -0.05412 3.1570001
0.0030066667 -0.05412 3.1570001
0.015033334 -0.05412 3.1570001
0.024053333 -0.05412 3.1570001
0.033073336 -0.05412 3.1570001
0.042093337 -0.05412 3.1570001
0.15334001 -0.05412 3.1570001
0.16536668 -0.05412 3.1570001
0.18340668 -0.05412 3.1570001
0.19543333 -0.05412 3.1570001
0.20445333 -0.05412 3.1570001
0.21648 -0.05412 3.1570001
0.22850667 -0.05412 3.1570001
-0.18641333 -0.048106667 3.1570001
-0.17438668 -0.048106667 3.1570001
-0.1663689 -0.044097781 3.1570003
-0.15334001 -0.042093337 3.1570001
-0.033073336 -0.045100003 3.1570001
-0.024053333 -0.045100003 3.1570001
-0.015033334 -0.045100003 3.1570001
-0.0060133333 -0.045100003 3.1570001
0.0030066667 -0.045100003 3.1570001
0.015033334 -0.045100003 3.1570001
0.024053333 -0.045100003 3.1570001
0.033073336 -0.045100003 3.1570001
0.045100003 -0.045100003 3.1570001
0.05412 -0.045100003 3.1570001
0.066146672 -0.048106667 3.1570001
0.096213333 -0.045100003 3.1570001
0.10523333 -0.042093337 3.1570001
0.14432001 -0.045100003 3.1570001
0.15334001 -0.045100003 3.1570001
0.16536668 -0.045100003 3.1570001
0.17438668 -0.045100003 3.1570001
0.18040001 -0.045100003 3.1570001
0.20445333 -0.048106667 3.1570001
0.21347333 -0.048106667 3.1570001
-0.033073336 -0.033073336 3.1570001
-0.024053333 -0.033073336 3.1570001
-0.015033334 -0.036080003 3.1570001
-0.0060133333 -0.036080003 3.1570001
0.0030066667 -0.036080003 3.1570001
0.015033334 -0.036080003 3.1570001
0.024053333 -0.033073336 3.1570001
0.033073336 -0.033073336 3.1570001
0.044097781 -0.034075558 3.1570003
0.05412 -0.036080003 3.1570001
0.096213333 -0.033073336 3.1570001
0.10523333 -0.036080003 3.1570001
0.14432001 -0.036080003 3.1570001
0.15334001 -0.033073336 3.1570001
0.16536668 -0.033073336 3.1570001
0.17438668 -0.033073336 3.1570001
0.18040001 -0.033073336 3.1570001
-0.033073336 -0.024053333 3.1570001
-0.024053333 -0.024053333 3.1570001
-0.018040001 -0.024053333 3.1570001
0.024053333 -0.024053333 3.1570001
0.033073336 -0.024053333 3.1570001
0.045100003 -0.024053333 3.1570001
0.093206674 -0.024053333 3.1570001
0.10523333 -0.024053333 3.1570001
0.15334001 -0.024053333 3.1570001
0.16536668 -0.024053333 3.1570001
0.17438668 -0.024053333 3.1570001
0.18040001 -0.024053333 3.1570001
0.21046667 -0.024053333 3.1570001
-0.033073336 -0.015033334 3.1570001
-0.024053333 -0.015033334 3.1570001
-0.018040001 -0.015033334 3.1570001
0 -0.012026667 3.1570001
0.018040001 -0.012026667 3.1570001
0.024053333 -0.015033334 3.1570001
0.033073336 -0.015033334 3.1570001
0.045100003 -0.015033334 3.1570001
0.05412 -0.015033334 3.1570001
0.063140005 -0.015033334 3.1570001
0.07416445 -0.014031112 3.1570003
0.096213333 -0.015033334 3.1570001
0.10423111 -0.014031112 3.1570003
0.13830668 -0.012026667 3.1570001
0.15434223 -0.016035557 3.1570003
0.16536668 -0.015033334 3.1570001
0.17438668 -0.015033334 3.1570001
0.18240446 -0.014031112 3.1570003
0.21046667 -0.012026667 3.1570001
-0.033073336 -0.0060133333 3.1570001
-0.024053333 -0.0060133333 3.1570001
-0.015033334 -0.0060133333 3.1570001
0.0060133333 -0.0060133333 3.1570001
0.018040001 -0.0060133333 3.1570001
0.024053333 -0.0060133333 3.1570001
0.033073336 -0.0060133333 3.1570001
0.045100003 -0.0060133333 3.1570001
0.05412 -0.0060133333 3.1570001
0.063140005 -0.0060133333 3.1570001
0.072160006 -0.0060133333 3.1570001
0.10222667 -0.0060133333 3.1570001
0.12628001 -0.0060133333 3.1570001
0.13530001 -0.0060133333 3.1570001
0.14432001 -0.0060133333 3.1570001
0.15334001 -0.0060133333 3.1570001
0.16536668 -0.0060133333 3.1570001
0.17438668 -0.0060133333 3.1570001
0.18340668 -0.0060133333 3.1570001
0.19844 -0.0060133333 3.1570001
0.21046667 -0.0060133333 3.1570001
-0.033073336 0.0030066667 3.1570001
-0.024053333 0.0030066667 3.1570001
-0.016035557 0.0040088887 3.1570003
-0.0060133333 0.0060133333 3.1570001
0.0030066667 0.0060133333 3.1570001
0.016035557 0.0040088887 3.1570003
0.024053333 0.0030066667 3.1570001
0.033073336 0.0030066667 3.1570001
0.045100003 0.0030066667 3.1570001
0.05412 0.0030066667 3.1570001
0.063140005 0.0030066667 3.1570001
0.072160006 0 3.1570001
0.096213333 0 3.1570001
0.12628001 0.0030066667 3.1570001
0.13530001 0.0030066667 3.1570001
0.14432001 0.0030066667 3.1570001
0.15334001 0.0030066667 3.1570001
0.16536668 0.0030066667 3.1570001
0.17438668 0.0030066667 3.1570001
0.18340668 0.0030066667 3.1570001
0.19643556 0.0040088887 3.1570003
0.20445333 0.0060133333 3.1570001
0.21046667 0.0060133333 3.1570001
-0.033073336 0.015033334 3.1570001
-0.024053333 0.015033334 3.1570001
-0.015033334 0.015033334 3.1570001
-0.0060133333 0.015033334 3.1570001
0.0030066667 0.015033334 3.1570001
0.015033334 0.015033334 3.1570001
0.024053333 0.015033334 3.1570001
0.033073336 0.015033334 3.1570001
0.045100003 0.015033334 3.1570001
0.05412 0.015033334 3.1570001
0.063140005 0.015033334 3.1570001
0.076168895 0.014031112 3.1570003
0.084186673 0.018040001 3.1570001
0.090200007 0.012026667 3.1570001
0.12327334 0.015033334 3.1570001
0.13530001 0.015033334 3.1570001
0.14432001 0.015033334 3.1570001
0.15334001 0.015033334 3.1570001
0.16536668 0.015033334 3.1570001
0.17438668 0.015033334 3.1570001
0.18340668 0.015033334 3.1570001
0.19543333 0.015033334 3.1570001
0.20445333 0.015033334 3.1570001
0.21046667 0.012026667 3.1570001
-0.033073336 0.024053333 3.1570001
-0.024053333 0.024053333 3.1570001
-0.015033334 0.024053333 3.1570001
-0.0060133333 0.024053333 3.1570001
0.0030066667 0.024053333 3.1570001
0.015033334 0.024053333 3.1570001
0.024053333 0.024053333 3.1570001
0.033073336 0.024053333 3.1570001
0.045100003 0.024053333 3.1570001
0.05412 0.024053333 3.1570001
0.063140005 0.024053333 3.1570001
0.075166672 0.024053333 3.1570001
0.084186673 0.024053333 3.1570001
0.093206674 0.024053333 3.1570001
0.12327334 0.024053333 3.1570001
0.13530001 0.024053333 3.1570001
0.14432001 0.024053333 3.1570001
0.15334001 0.024053333 3.1570001
0.16536668 0.024053333 3.1570001
0.17438668 0.024053333 3.1570001
0.18340668 0.024053333 3.1570001
0.19543333 0.024053333 3.1570001
-0.033073336 0.033073336 3.1570001
-0.024053333 0.033073336 3.1570001
-0.015033334 0.033073336 3.1570001
-0.0060133333 0.033073336 3.1570001
0.0030066667 0.033073336 3.1570001
0.015033334 0.033073336 3.1570001
0.024053333 0.033073336 3.1570001
0.033073336 0.033073336 3.1570001
0.045100003 0.033073336 3.1570001
0.05412 0.033073336 3.1570001
0.063140005 0.033073336 3.1570001
0.075166672 0.033073336 3.1570001
0.084186673 0.033073336 3.1570001
0.093206674 0.033073336 3.1570001
0.10523333 0.033073336 3.1570001
0.11425333 0.033073336 3.1570001
0.12327334 0.033073336 3.1570001
0.13530001 0.033073336 3.1570001
0.14432001 0.033073336 3.1570001
0.15334001 0.033073336 3.1570001
0.16536668 0.033073336 3.1570001
0.17438668 0.033073336 3.1570001
0.18340668 0.033073336 3.1570001
0.19543333 0.033073336 3.1570001
-0.033073336 0.045100003 3.1570001
-0.024053333 0.045100003 3.1570001
-0.015033334 0.045100003 3.1570001
-0.0060133333 0.045100003 3.1570001
0.0030066667 0.045100003 3.1570001
0.015033334 0.045100003 3.1570001
0.024053333 0.045100003 3.1570001
0.033073336 0.045100003 3.1570001
0.045100003 0.045100003 3.1570001
0.05412 0.045100003 3.1570001
0.063140005 0.045100003 3.1570001
0.075166672 0.045100003 3.1570001
0.084186673 0.045100003 3.1570001
0.093206674 0.045100003 3.1570001
0.10523333 0.045100003 3.1570001
0.11425333 0.045100003 3.1570001
0.12327334 0.045100003 3.1570001
0.13530001 0.045100003 3.1570001
0.14432001 0.045100003 3.1570001
0.15334001 0.045100003 3.1570001
0.16536668 0.045100003 3.1570001
0.17438668 0.045100003 3.1570001
0.18340668 0.045100003 3.1570001
0.19543333 0.045100003 3.1570001
-0.024053333 0.05412 3.1570001
-0.012026667 0.05412 3.1570001
-0.0060133333 0.05412 3.1570001
0.0030066667 0.05412 3.1570001
0.015033334 0.05412 3.1570001
0.024053333 0.05412 3.1570001
0.033073336 0.05412 3.1570001
0.045100003 0.05412 3.1570001
0.05412 0.05412 3.1570001
0.063140005 0.05412 3.1570001
0.075166672 0.05412 3.1570001
0.084186673 0.05412 3.1570001
0.093206674 0.05412 3.1570001
0.10523333 0.05412 3.1570001
0.11425333 0.05412 3.1570001
0.12327334 0.05412 3.1570001
0.13530001 0.05412 3.1570001
0.14432001 0.05412 3.1570001
0.15334001 0.05412 3.1570001
0.16536668 0.05412 3.1570001
0.17438668 0.05412 3.1570001
0.18340668 0.05412 3.1570001
0.19543333 0.05412 3.1570001
-0.0060133333 0.063140005 3.1570001
0.0030066667 0.063140005 3.1570001
0.015033334 0.063140005 3.1570001
0.024053333 0.063140005 3.1570001
0.033073336 0.063140005 3.1570001
0.045100003 0.063140005 3.1570001
0.05412 0.063140005 3.1570001
0.063140005 0.063140005 3.1570001
0.07416445 0.062137783 3.1570003
0.084186673 0.063140005 3.1570001
0.093206674 0.063140005 3.1570001
0.10523333 0.063140005 3.1570001
0.11425333 0.063140005 3.1570001
0.12327334 0.063140005 3.1570001
0.13530001 0.063140005 3.1570001
0.14432001 0.063140005 3.1570001
0.15334001 0.063140005 3.1570001
0.16536668 0.063140005 3.1570001
0.17438668 0.063140005 3.1570001
0.18340668 0.063140005 3.1570001
0.19543333 0.063140005 3.1570001
-0.0060133333 0.075166672 3.1570001
0.0030066667 0.075166672 3.1570001
0.015033334 0.075166672 3.1570001
0.024053333 0.075166672 3.1570001
0.033073336 0.075166672 3.1570001
0.045100003 0.075166672 3.1570001
0.05412 0.075166672 3.1570001
0.063140005 0.075166672 3.1570001
0.072160006 0.072160006 3.1570001
0.084186673 0.072160006 3.1570001
0.094208896 0.07416445 3.1570003
0.10523333 0.075166672 3.1570001
0.11425333 0.075166672 3.1570001
0.12327334 0.075166672 3.1570001
0.13530001 0.075166672 3.1570001
0.14432001 0.072160006 3.1570001
0.15334001 0.072160006 3.1570001
0.1663689 0.07416445 3.1570003
0.17438668 0.075166672 3.1570001
0.18340668 0.075166672 3.1570001
0.19543333 0.072160006 3.1570001
0.20445333 0.078173339 3.1570001
0.21347333 0.078173339 3.1570001
-0.0060133333 0.084186673 3.1570001
0.0030066667 0.084186673 3.1570001
0.012026667 0.084186673 3.1570001
0.024053333 0.084186673 3.1570001
0.033073336 0.084186673 3.1570001
0.045100003 0.084186673 3.1570001
0.096213333 0.084186673 3.1570001
0.10523333 0.084186673 3.1570001
0.11425333 0.084186673 3.1570001
0.12327334 0.084186673 3.1570001
0.13229334 0.084186673 3.1570001
0.21347333 0.084186673 3.1570001
-0.25256002 0.096213333 3.1570001
-0.24654667 0.096213333 3.1570001
-0.20445333 0.090200007 3.1570001
0.0060133333 0.090200007 3.1570001
0.012026667 0.090200007 3.1570001
0.024053333 0.090200007 3.1570001
0.033073336 0.090200007 3.1570001
0.045100003 0.093206674 3.1570001
0.096213333 0.090200007 3.1570001
0.10523333 0.093206674 3.1570001
0.11425333 0.093206674 3.1570001
0.12427557 0.092204452 3.1570003
0.13229334 0.093206674 3.1570001
0.21046667 0.090200007 3.1570001
-0.062708579 -0.12339429 3.1860001
-0.054617144 -0.12137143 3.1860001
-0.045514286 -0.12137143 3.1860001
-0.036411431 -0.12137143 3.1860001
0.094062857 -0.12137143 3.1860001
-0.072822861 -0.11530286 3.1860001
-0.063720003 -0.11530286 3.1860001
-0.054617144 -0.11530286 3.1860001
-0.045514286 -0.11530286 3.1860001
0.048548572 -0.11530286 3.1860001
0.054617144 -0.11530286 3.1860001
0.063720003 -0.11530286 3.1860001
0.075857148 -0.11530286 3.1860001
0.084960006 -0.11530286 3.1860001
0.091028571 -0.11530286 3.1860001
0.14564572 -0.11530286 3.1860001
0.15778287 -0.11530286 3.1860001
0.18509144 -0.11530286 3.1860001
0.20026286 -0.11530286 3.1860001
-0.27308571 -0.10316572 3.1860001
-0.26701716 -0.10316572 3.1860001
-0.2124 -0.10316572 3.1860001
-0.20633143 -0.10316572 3.1860001
-0.13553144 -0.10518858 3.1860001
-0.12440572 -0.1062 3.1860001
-0.11530286 -0.10620001 3.1860001
-0.10721143 -0.10518858 3.1860001
-0.084960006 -0.10620001 3.1860001
-0.075857148 -0.1062 3.1860001
-0.063720003 -0.10620001 3.1860001
-0.054617144 -0.10620001 3.1860001
-0.045514286 -0.1062 3.1860001
0.042480003 -0.10923429 3.1860001
0.054617144 -0.10620001 3.1860001
0.063720003 -0.10620001 3.1860001
0.074845724 -0.10721143 3.1860001
0.084960006 -0.10620001 3.1860001
0.094062857 -0.10620001 3.1860001
0.12137143 -0.10620001 3.1860001
0.13654286 -0.10316572 3.1860001
0.14564572 -0.10620001 3.1860001
0.15778287 -0.10620001 3.1860001
0.1658743 -0.10721143 3.1860001
0.17598858 -0.10923429 3.1860001
0.19419429 -0.10923429 3.1860001
-0.28522286 -0.091028571 3.1860001
-0.27510858 -0.095074289 3.1860001
-0.26094857 -0.091028571 3.1860001
-0.25488001 -0.094062857 3.1860001
-0.24678858 -0.093051434 3.1860001
-0.23364002 -0.094062857 3.1860001
-0.22453715 -0.094062857 3.1860001
-0.2154343 -0.094062857 3.1860001
-0.20430857 -0.093051434 3.1860001
-0.19419429 -0.091028571 3.1860001
-0.18812571 -0.091028571 3.1860001
-0.16385144 -0.091028571 3.1860001
-0.13654286 -0.094062865 3.1860001
-0.12440573 -0.094062857 3.1860001
-0.11530286 -0.094062857 3.1860001
-0.1062 -0.094062857 3.1860001
-0.091028571 -0.091028571 3.1860001
-0.084960006 -0.094062857 3.1860001
-0.075857148 -0.094062857 3.1860001
-0.063720003 -0.094062865 3.1860001
-0.054617144 -0.094062857 3.1860001
-0.045514286 -0.094062865 3.1860001
-0.29129145 -0.084960006 3.1860001
-0.28522286 -0.084960006 3.1860001
-0.27612001 -0.084960006 3.1860001
-0.26094857 -0.084960006 3.1860001
-0.25488001 -0.084960006 3.1860001
-0.24881144 -0.084960006 3.1860001
-0.23060572 -0.084960006 3.1860001
-0.22453715 -0.084960006 3.1860001
-0.21543428 -0.084960006 3.1860001
-0.20329714 -0.084960006 3.1860001
-0.19419429 -0.084960006 3.1860001
-0.18509144 -0.084960006 3.1860001
-0.17598858 -0.084960006 3.1860001
-0.16688573 -0.084960006 3.1860001
-0.15474859 -0.084960006 3.1860001
-0.14564572 -0.084960006 3.1860001
-0.13654286 -0.084960006 3.1860001
-0.12440572 -0.084960006 3.1860001
-0.11530286 -0.084960006 3.1860001
-0.10620001 -0.084960006 3.1860001
-0.094062857 -0.084960006 3.1860001
-0.084960006 -0.084960006 3.1860001
-0.075857148 -0.084960006 3.1860001
-0.063720003 -0.084960006 3.1860001
-0.054617144 -0.084960006 3.1860001
-0.045514286 -0.084960006 3.1860001
-0.29432571 -0.075857148 3.1860001
-0.28522286 -0.075857148 3.1860001
-0.27612001 -0.075857148 3.1860001
-0.26297143 -0.074845724 3.1860001
-0.25488001 -0.075857148 3.1860001
-0.24577716 -0.075857148 3.1860001
-0.23364002 -0.075857148 3.1860001
-0.22453715 -0.075857148 3.1860001
-0.2154343 -0.075857148 3.1860001
-0.20329714 -0.075857148 3.1860001
-0.19419429 -0.075857148 3.1860001
-0.18509144 -0.075857148 3.1860001
-0.17598858 -0.075857148 3.1860001
-0.16688573 -0.075857148 3.1860001
-0.15474859 -0.075857148 3.1860001
-0.14564572 -0.075857148 3.1860001
-0.13654286 -0.075857148 3.1860001
-0.12440573 -0.075857148 3.1860001
-0.11530286 -0.075857148 3.1860001
-0.10620001 -0.075857148 3.1860001
-0.094062865 -0.075857148 3.1860001
-0.084960006 -0.075857148 3.1860001
-0.075857148 -0.075857148 3.1860001
-0.063720003 -0.075857148 3.1860001
-0.054617144 -0.075857148 3.1860001
-0.042480003 -0.078891434 3.1860001
-0.29129145 -0.063720003 3.1860001
-0.28522286 -0.066754289 3.1860001
-0.27308571 -0.063720003 3.1860001
-0.26398286 -0.063720003 3.1860001
-0.25488001 -0.063720003 3.1860001
-0.24577716 -0.063720003 3.1860001
-0.23262858 -0.062708579 3.1860001
-0.22453715 -0.060685717 3.1860001
-0.2154343 -0.063720003 3.1860001
-0.20329714 -0.063720003 3.1860001
-0.19419429 -0.063720003 3.1860001
-0.18509144 -0.063720003 3.1860001
-0.17598858 -0.063720003 3.1860001
-0.16688573 -0.063720003 3.1860001
-0.15474859 -0.063720003 3.1860001
-0.14564572 -0.063720003 3.1860001
-0.13654286 -0.063720003 3.1860001
-0.12541716 -0.064731427 3.1860001
-0.11530286 -0.066754289 3.1860001
-0.1062 -0.063720003 3.1860001
-0.094062865 -0.063720003 3.1860001
-0.084960006 -0.063720003 3.1860001
-0.075857148 -0.063720003 3.1860001
-0.063720003 -0.060685717 3.1860001
-0.054617144 -0.063720003 3.1860001
-0.045514286 -0.060685717 3.1860001
-0.29129145 -0.054617144 3.1860001
-0.27308571 -0.054617144 3.1860001
-0.26094857 -0.054617144 3.1860001
-0.25488001 -0.054617144 3.1860001
-0.24577716 -0.054617144 3.1860001
-0.23364002 -0.054617144 3.1860001
-0.22453715 -0.054617144 3.1860001
-0.21543428 -0.054617144 3.1860001
-0.20329714 -0.054617144 3.1860001
-0.19419429 -0.054617144 3.1860001
-0.18205714 -0.054617144 3.1860001
-0.17598858 -0.054617144 3.1860001
-0.16688573 -0.054617144 3.1860001
-0.15474859 -0.054617144 3.1860001
-0.14564572 -0.054617144 3.1860001
-0.13654286 -0.054617144 3.1860001
-0.12744001 -0.054617144 3.1860001
-0.11530286 -0.054617144 3.1860001
-0.10620001 -0.054617144 3.1860001
-0.094062857 -0.054617144 3.1860001
-0.084960006 -0.054617144 3.1860001
-0.075857148 -0.054617144 3.1860001
-0.063720003 -0.054617144 3.1860001
-0.054617144 -0.054617144 3.1860001
-0.045514286 -0.054617144 3.1860001
-0.27308571 -0.048548572 3.1860001
-0.26297143 -0.044502858 3.1860001
-0.25488001 -0.045514286 3.1860001
-0.24577716 -0.045514289 3.1860001
-0.23262858 -0.044502858 3.1860001
-0.22453715 -0.045514286 3.1860001
-0.2154343 -0.045514289 3.1860001
-0.20329714 -0.045514289 3.1860001
-0.19419429 -0.045514286 3.1860001
-0.18408 -0.044502858 3.1860001
-0.17598858 -0.042480003 3.1860001
-0.16385144 -0.048548572 3.1860001
-0.15474859 -0.048548572 3.1860001
-0.14564572 -0.045514286 3.1860001
-0.13654286 -0.045514289 3.1860001
-0.12440573 -0.045514289 3.1860001
-0.11530286 -0.045514286 3.1860001
-0.1062 -0.045514286 3.1860001
-0.094062865 -0.045514286 3.1860001
-0.084960006 -0.045514286 3.1860001
-0.075857148 -0.045514286 3.1860001
-0.063720003 -0.045514286 3.1860001
-0.054617144 -0.045514286 3.1860001
-0.045514289 -0.045514286 3.1860001
-0.27308571 -0.036411431 3.1860001
-0.26398286 -0.033377144 3.1860001
-0.25488001 -0.033377144 3.1860001
-0.24577716 -0.033377144 3.1860001
-0.23364002 -0.033377144 3.1860001
-0.22453715 -0.033377144 3.1860001
-0.2154343 -0.033377144 3.1860001
-0.20329714 -0.033377144 3.1860001
-0.19419429 -0.033377144 3.1860001
-0.18509144 -0.033377144 3.1860001
-0.17598858 -0.033377144 3.1860001
-0.16688572 -0.033377144 3.1860001
-0.15474859 -0.033377144 3.1860001
-0.14564572 -0.033377144 3.1860001
-0.13654286 -0.033377144 3.1860001
-0.12440573 -0.033377144 3.1860001
-0.11530286 -0.033377144 3.1860001
-0.1062 -0.033377144 3.1860001
-0.094062857 -0.033377144 3.1860001
-0.084960006 -0.033377144 3.1860001
-0.075857148 -0.033377144 3.1860001
-0.063720003 -0.033377144 3.1860001
-0.054617144 -0.033377144 3.1860001
-0.045514286 -0.033377144 3.1860001
-0.26094857 -0.024274286 3.1860001
-0.25488001 -0.024274286 3.1860001
-0.24577716 -0.024274286 3.1860001
-0.23364002 -0.024274286 3.1860001
-0.22453715 -0.024274286 3.1860001
-0.21846858 -0.024274286 3.1860001
-0.20329714 -0.024274286 3.1860001
-0.19419429 -0.024274286 3.1860001
-0.18509144 -0.024274286 3.1860001
-0.17598858 -0.024274286 3.1860001
-0.16688573 -0.024274286 3.1860001
-0.15474859 -0.024274286 3.1860001
-0.14564572 -0.024274286 3.1860001
-0.13654286 -0.024274286 3.1860001
-0.12440572 -0.024274286 3.1860001
-0.11530286 -0.024274286 3.1860001
-0.10620001 -0.024274286 3.1860001
-0.094062857 -0.024274286 3.1860001
-0.084960006 -0.024274286 3.1860001
-0.075857148 -0.024274286 3.1860001
-0.063720003 -0.024274286 3.1860001
-0.054617144 -0.024274286 3.1860001
-0.045514286 -0.024274286 3.1860001
-0.29736 -0.012137143 3.1860001
-0.27308571 -0.012137143 3.1860001
-0.26297143 -0.01416 3.1860001
-0.25488001 -0.015171429 3.1860001
-0.24577715 -0.015171429 3.1860001
-0.23060572 -0.018205715 3.1860001
-0.22453715 -0.018205715 3.1860001
-0.21846858 -0.018205715 3.1860001
-0.19419429 -0.015171429 3.1860001
-0.18509144 -0.015171429 3.1860001
-0.17598858 -0.015171429 3.1860001
-0.16688573 -0.015171429 3.1860001
-0.15474857 -0.015171429 3.1860001
-0.14564572 -0.015171429 3.1860001
-0.13654286 -0.015171429 3.1860001
-0.12440573 -0.015171429 3.1860001
-0.11530286 -0.015171429 3.1860001
-0.10620001 -0.015171429 3.1860001
-0.094062857 -0.015171429 3.1860001
-0.084960006 -0.018205715 3.1860001
-0.075857148 -0.015171429 3.1860001
-0.063720003 -0.015171429 3.1860001
-0.054617144 -0.015171429 3.1860001
-0.045514289 -0.015171429 3.1860001
-0.30342859 -0.0060685715 3.1860001
-0.29736 -0.0060685715 3.1860001
-0.27308571 -0.0060685715 3.1860001
-0.26398286 -0.0060685715 3.1860001
-0.25488001 -0.0060685715 3.1860001
-0.24577716 -0.0060685715 3.1860001
-0.19419429 -0.0060685715 3.1860001
-0.18509144 -0.0060685715 3.1860001
-0.17598858 -0.0060685715 3.1860001
-0.16688573 -0.0060685715 3.1860001
-0.15474859 -0.0060685715 3.1860001
-0.14564572 -0.0060685715 3.1860001
-0.13654286 -0.0060685715 3.1860001
-0.12440572 -0.0060685715 3.1860001
-0.11530286 -0.0060685715 3.1860001
-0.10620001 -0.0060685715 3.1860001
-0.094062857 -0.0060685715 3.1860001
-0.084960006 -0.0060685715 3.1860001
-0.075857148 -0.0060685715 3.1860001
-0.063720003 -0.0060685715 3.1860001
-0.054617144 -0.0060685715 3.1860001
-0.045514286 -0.0060685715 3.1860001
-0.27308571 0 3.1860001
-0.26701716 0 3.1860001
-0.25488001 0 3.1860001
-0.24274287 0.0060685715 3.1860001
-0.20026286 0.0060685715 3.1860001
-0.19419429 0 3.1860001
-0.17598858 0.0030342857 3.1860001
-0.16688573 0.0030342857 3.1860001
-0.15474859 0.0030342857 3.1860001
-0.14564572 0.0030342857 3.1860001
-0.13654286 0.0030342857 3.1860001
-0.12440572 0.0030342857 3.1860001
-0.11530286 0.0030342857 3.1860001
-0.1062 0.0030342857 3.1860001
-0.094062865 0.0030342857 3.1860001
-0.072822861 0.0030342857 3.1860001
-0.063720003 0.0030342857 3.1860001
-0.054617144 0.0030342857 3.1860001
-0.045514289 0.0030342857 3.1860001
-0.24274287 0.012137143 3.1860001
-0.1658743 0.01416 3.1860001
-0.15474859 0.015171429 3.1860001
-0.14564572 0.015171429 3.1860001
-0.13654286 0.015171429 3.1860001
-0.12440573 0.015171429 3.1860001
-0.11530286 0.015171429 3.1860001
-0.10721143 0.01416 3.1860001
-0.066754289 0.012137143 3.1860001
-0.054617144 0.012137143 3.1860001
-0.045514289 0.015171429 3.1860001
-0.16385144 0.024274286 3.1860001
-0.15474859 0.024274286 3.1860001
-0.14564572 0.024274286 3.1860001
-0.13654286 0.024274286 3.1860001
-0.12440572 0.024274286 3.1860001
-0.11530286 0.024274286 3.1860001
-0.045514286 0.024274286 3.1860001
-0.16385144 0.033377144 3.1860001
-0.15474859 0.033377144 3.1860001
-0.14564572 0.033377144 3.1860001
-0.13755429 0.032365713 3.1860001
-0.12744001 0.030342858 3.1860001
-0.045514286 0.033377144 3.1860001
-0.26094857 0.048548572 3.1860001
-0.17598858 0.042480003 3.1860001
-0.16385144 0.045514286 3.1860001
-0.15474859 0.045514286 3.1860001
-0.14564572 0.045514286 3.1860001
-0.12744001 0.042480003 3.1860001
-0.072822861 0.042480003 3.1860001
-0.063720003 0.045514286 3.1860001
-0.054617144 0.045514286 3.1860001
-0.045514286 0.045514289 3.1860001
-0.1517143 0.054617144 3.1860001
-0.033377144 0.054617144 3.1860001
-0.018205715 0.054617144 3.1860001
-0.15474859 0.063720003 3.1860001
-0.14564572 0.060685717 3.1860001
-0.033377144 0.063720003 3.1860001
-0.024274286 0.063720003 3.1860001
-0.015171429 0.063720003 3.1860001
0.078891434 0.066754289 3.1860001
-0.18509144 0.078891434 3.1860001
-0.17598858 0.078891434 3.1860001
-0.16688573 0.078891434 3.1860001
-0.15474859 0.078891434 3.1860001
-0.14564572 0.075857148 3.1860001
-0.13755429 0.074845724 3.1860001
-0.12440572 0.072822861 3.1860001
-0.063720003 0.078891434 3.1860001
-0.033377144 0.075857148 3.1860001
-0.024274286 0.075857148 3.1860001
-0.015171429 0.075857148 3.1860001
0.076868571 0.076868571 3.1860001
0.084960006 0.078891434 3.1860001
0.091028571 0.078891434 3.1860001
0.14564572 0.078891434 3.1860001
0.15474859 0.078891434 3.1860001
0.16385144 0.078891434 3.1860001
-0.28522286 0.084960006 3.1860001
-0.27612001 0.084960006 3.1860001
