# .PCD v0.7 - Point Cloud Data file format
VERSION 0.7
FIELDS x y z
SIZE 4 4 4
TYPE F F F
COUNT 1 1 1
WIDTH 1510
HEIGHT 1
VIEWPOINT 0 0 0 1 0 0 0
POINTS 1510
DATA ascii
-0.50483435 0.34533146 1.626
-0.49377307 0.34599513 1.6260002
-0.48810974 0.34749943 1.626
-0.50793147 0.35462287 1.626
-0.49244574 0.35307431 1.626
-0.50586671 0.36649528 1.626
-0.49554288 0.36546287 1.626
-0.4878 0.36546287 1.626
-0.50793147 0.37165716 1.626
-0.50638288 0.42740574 1.626
-0.55400383 0.2272038 1.6340002
-0.4793067 0.22720382 1.6340001
0.15717524 0.22720382 1.6340001
0.1649562 0.22720382 1.6340001
0.24899049 0.22720382 1.6340001
-0.56396347 0.23467353 1.6340001
-0.55400383 0.23156114 1.6340001
-0.54388863 0.23265049 1.6340001
-0.53595197 0.23218362 1.6340001
-0.52599239 0.23654096 1.6340002
-0.51976764 0.23654096 1.6340001
-0.49486861 0.23342858 1.6340002
-0.48553145 0.23239112 1.6340002
-0.47619429 0.23187239 1.6339999
-0.46498975 0.23156114 1.6340001
-0.45648256 0.23342858 1.6340002
-0.4419581 0.23031619 1.6340001
-0.43573335 0.23031621 1.6340002
-0.42484 0.23187238 1.6340001
-0.39216003 0.23342858 1.6340001
-0.38593522 0.23342858 1.6340002
-0.37348571 0.23654096 1.6340001
-0.36414859 0.23342858 1.6340001
-0.33458096 0.23342858 1.6340001
-0.32431012 0.23405106 1.6340001
-0.31435049 0.23446603 1.6340002
-0.30501333 0.23342858 1.6340002
-0.29723239 0.23342858 1.6340001
-0.28478286 0.23576286 1.6340001
-0.27388954 0.23654096 1.6340002
-0.26766476 0.23654096 1.6340001
-0.2458781 0.23809716 1.6340001
-0.23498477 0.23498477 1.6340001
-0.22720382 0.23342858 1.6340001
-0.2131981 0.23342858 1.6340001
-0.20697334 0.23342858 1.6340001
-0.19296762 0.23342858 1.6340001
-0.18207429 0.23809716 1.6340001
-0.17740571 0.23965335 1.6340001
-0.1649562 0.23965335 1.6340002
-0.15561906 0.23965335 1.6340002
-0.14472571 0.23965335 1.6340001
-0.13320991 0.2384084 1.6340001
-0.12449525 0.23965335 1.6340002
-0.1151581 0.23757844 1.6340002
-0.10582095 0.23654096 1.6340002
-0.093371429 0.23654096 1.6340001
-0.071584761 0.23654096 1.6340001
-0.062247623 0.23654096 1.6340001
-0.054466669 0.23654096 1.6340001
-0.04409207 0.23550349 1.6339999
-0.035014287 0.23576286 1.6340001
-0.024899049 0.23498477 1.6340001
-0.015561906 0.23654096 1.6340002
-0.0062247622 0.23446603 1.6340002
0.0046685715 0.23031619 1.6340001
0.014005715 0.23031619 1.6340001
0.024899049 0.23342858 1.6340002
0.052910477 0.23342858 1.6340001
0.065360002 0.23031619 1.6340001
0.07625334 0.23031619 1.6340001
0.093371429 0.23031619 1.6340001
0.12760763 0.23031619 1.6340001
0.14628191 0.23031621 1.6340002
0.18518667 0.23031619 1.6340001
0.19452381 0.23031619 1.6340001
0.20230477 0.23031619 1.6340001
0.21786667 0.23031619 1.6340001
0.22097905 0.23031619 1.6340001
0.23498477 0.23031619 1.6340001
0.24743429 0.23031619 1.6340001
0.25417781 0.23550349 1.6340002
-0.57579052 0.24899049 1.6340001
0.25288096 0.24510001 1.6340001
-0.57475305 0.25314033 1.6340002
-0.56956571 0.25210285 1.6340001
0.25210285 0.25210285 1.6340001
-0.51509905 0.27700192 1.6340001
-0.46996954 0.27700192 1.6340001
-0.52495497 0.28495577 1.6339999
-0.51406163 0.2832267 1.6339999
-0.5042057 0.2844716 1.6340001
-0.49798098 0.28789526 1.6340001
-0.48345652 0.288414 1.6340002
-0.47308192 0.28322667 1.6340001
-0.46530098 0.28322667 1.6340001
-0.53221714 0.2956762 1.6340001
-0.52536994 0.2956762 1.6340001
-0.51524061 0.29595914 1.6340001
-0.50368696 0.29671368 1.6339999
-0.49611354 0.29567617 1.6340001
-0.48708764 0.29256383 1.6340001
-0.51250547 0.30397591 1.6340002
-0.50628066 0.30397588 1.6340002
-0.52832669 0.31357241 1.6340001
-0.51471001 0.31396142 1.6339999
-0.50498384 0.31668478 1.6340001
-0.49331239 0.31746286 1.6340001
-0.48864383 0.31746286 1.6340001
-0.52288002 0.32524383 1.6340001
-0.51426119 0.32560298 1.6340002
-0.5042057 0.3252438 1.6340002
-0.49486858 0.32524386 1.6340001
-0.48760638 0.32161272 1.6340002
-0.52443624 0.33769333 1.6340001
-0.51976764 0.33613715 1.6340002
-0.5029608 0.33489218 1.6340001
-0.49486858 0.33613712 1.6339999
-0.48553145 0.33613715 1.6340002
-0.5236581 0.34625238 1.6340001
-0.51898956 0.34469622 1.6340001
-0.50109333 0.34547433 1.6340002
-0.49486858 0.34236193 1.6340001
-0.48656893 0.34651175 1.6340002
-0.52599239 0.35584891 1.6340002
-0.51576602 0.35525608 1.6339999
-0.5042057 0.3553302 1.6339999
-0.49798098 0.35481143 1.6340001
-0.52536994 0.36477107 1.6340001
-0.51532137 0.36459324 1.6339999
-0.50482816 0.36414859 1.6340001
-0.52288002 0.37037334 1.6340001
-0.51432097 0.37387478 1.6339999
-0.50389445 0.37597561 1.6340001
-0.4973585 0.37597564 1.6340001
-0.51043051 0.38593522 1.6340002
-0.5029608 0.3853128 1.6340001
-0.49531323 0.38593525 1.6339999
-0.48708764 0.38904762 1.6340001
-0.4942461 0.39402747 1.6340001
-0.48760638 0.39319751 1.6340002
-0.49486858 0.40149716 1.6340001
-0.51665527 0.4295086 1.6340002
-0.50213081 0.42847112 1.6340002
-0.49798098 0.42795241 1.6340001
-0.51665527 0.43780828 1.6340002
-0.50342762 0.43573335 1.6340001
-0.50109333 0.4419581 1.6340001
-0.5514667 0.22716287 1.645
-0.54449946 0.22692685 1.641
-0.47411716 0.22845525 1.6430001
-0.46410415 0.22891873 1.6463333
-0.45386761 0.22928953 1.649
-0.44915619 0.22928953 1.649
-0.43589142 0.22891873 1.6463333
-0.38633716 0.22928953 1.649
-0.37403888 0.22718248 1.6474001
-0.36793908 0.22787176 1.6463333
0.0047114287 0.22928953 1.649
0.12720858 0.22928953 1.649
0.13506095 0.22928953 1.649
0.14401144 0.22854793 1.6436666
0.15159714 0.22817715 1.641
0.17504001 0.22817715 1.6410002
0.18531619 0.22928953 1.649
0.19473906 0.22928953 1.649
0.20544609 0.22799392 1.6442
0.2153777 0.22701797 1.6455715
0.2256 0.22716288 1.645
0.23500001 0.22716288 1.645
0.24440001 0.22716288 1.645
0.2512762 0.22614858 1.649
-0.55012572 0.23130287 1.641
-0.54699999 0.23130287 1.641
-0.53109622 0.23342954 1.645
-0.52546573 0.23528573 1.6470001
-0.51668668 0.23557144 1.649
-0.50636572 0.23442858 1.6410002
-0.49784097 0.23243049 1.649
-0.4884181 0.23243049 1.649
-0.46260574 0.23130287 1.641
-0.45427048 0.23130287 1.6410002
-0.44697717 0.23130287 1.641
-0.41460574 0.23871239 1.649
-0.40518287 0.23557144 1.649
-0.39511493 0.23309653 1.6463333
-0.38405082 0.23272066 1.6436666
-0.37398002 0.23314762 1.6430001
-0.36525333 0.23324414 1.6436667
-0.3552084 0.23408648 1.6474001
-0.34550476 0.23557144 1.649
-0.31882286 0.23442858 1.641
-0.30163145 0.23130287 1.641
-0.29417145 0.2323662 1.6430001
-0.28513333 0.23342955 1.645
-0.27531266 0.23361333 1.6478573
-0.26418233 0.23642342 1.6455715
-0.25329828 0.23699279 1.6458
-0.24440001 0.23447399 1.645
-0.23606715 0.23293 1.6470001
-0.22348857 0.23442858 1.641
-0.21880001 0.23442858 1.641
-0.19066858 0.23442858 1.641
-0.18408144 0.23656286 1.6450001
-0.17546667 0.23656286 1.645
-0.16577825 0.23548272 1.6421429
-0.15471345 0.23572278 1.6427778
-0.14390223 0.23618191 1.6423334
-0.13516191 0.2346541 1.6426001
-0.12537688 0.23597254 1.6455715
-0.11593334 0.23447399 1.645
-0.10397182 0.23551087 1.6442
-0.093923807 0.23585145 1.6436666
-0.08480572 0.23557144 1.649
-0.07381238 0.23557144 1.649
-0.066457137 0.23636457 1.6458
-0.054629121 0.23463075 1.6455715
-0.044648096 0.2326481 1.645
-0.034470476 0.23342952 1.6450001
-0.025097143 0.23371524 1.6470001
-0.015666667 0.23342955 1.645
-0.0062704762 0.2326481 1.645
0.018754287 0.23130287 1.641
0.02512762 0.2324305 1.649
0.034466665 0.23342954 1.645
0.043760002 0.23442858 1.6410002
0.053218413 0.23272066 1.6436666
0.06251429 0.23130287 1.641
0.07224191 0.23243049 1.649
0.084394298 0.23130287 1.6410002
0.090645716 0.23130287 1.641
0.13440572 0.23130287 1.6410002
0.14065714 0.23130287 1.641
0.2561481 0.23421097 1.645
0.26226956 0.23714191 1.649
-0.2553705 0.24126667 1.645
0.25735047 0.24328476 1.6409999
0.26458442 0.24514401 1.6458
0.25787145 0.25161999 1.641
0.26523921 0.2522898 1.6409999
-0.52355719 0.27818859 1.641
-0.52199429 0.28444001 1.6410002
-0.51652431 0.28600287 1.641
-0.50792861 0.28756574 1.641
-0.48096287 0.28826669 1.645
-0.4737086 0.28783572 1.6470001
-0.46364763 0.28652382 1.6410002
-0.45822972 0.28381485 1.641
-0.5157429 0.29147285 1.641
-0.50761604 0.293192 1.641
-0.46586767 0.29332477 1.6470001
-0.45948002 0.2922543 1.641
-0.49073717 0.32820001 1.641
-0.53137147 0.33757716 1.641
-0.49177909 0.33236766 1.6410002
-0.48736191 0.33394793 1.6436666
-0.46329051 0.33922288 1.649
-0.45857906 0.33922288 1.649
-0.53137147 0.34382856 1.6410002
-0.52824575 0.34539145 1.641
-0.49073717 0.34226573 1.641
-0.48573598 0.34320343 1.641
-0.46381399 0.34655175 1.649
-0.45590129 0.34466413 1.645
-0.53137147 0.35320571 1.6410002
-0.52512002 0.35581049 1.6409999
-0.50167716 0.35945717 1.641
-0.52512002 0.36258283 1.6410002
-0.51886857 0.36414573 1.641
-0.50245857 0.36336428 1.641
-0.48580065 0.36539748 1.649
-0.52355719 0.37664858 1.641
-0.51886857 0.37821144 1.641
-0.49485168 0.37515026 1.643
-0.52493167 0.38633716 1.649
-0.51652431 0.38446286 1.641
-0.50949144 0.38602573 1.641
-0.49446478 0.38493526 1.6429999
-0.53082097 0.39261907 1.649
-0.52451146 0.39495644 1.6440001
-0.51558614 0.39471456 1.6429999
-0.50550216 0.39447266 1.642
-0.49698859 0.39696574 1.641
-0.5234921 0.4030889 1.649
-0.51483852 0.40496615 1.6481111
-0.50447178 0.40263462 1.645
-0.49282098 0.40113333 1.6410002
-0.53186792 0.41355875 1.649
-0.52558607 0.41460574 1.649
-0.51511621 0.41303524 1.649
-0.53082097 0.42088765 1.649
-0.5241462 0.42413887 1.6458
-0.51621097 0.42573693 1.645
-0.52283746 0.43518543 1.6436667
-0.51461637 0.43490934 1.6474001
-0.50537878 0.43566561 1.6421427
-0.49386287 0.43603715 1.6409999
-0.4899886 0.43816286 1.649
-0.52139813 0.44601524 1.649
-0.51549828 0.44534516 1.6442
-0.50490016 0.44478813 1.6418889
-0.49439621 0.44433573 1.6427778
-0.4899886 0.44444478 1.649
-0.5226438 0.45521748 1.6463333
-0.51565224 0.45422289 1.6478573
-0.50674033 0.45334411 1.649
-0.49941143 0.45229715 1.649
-0.53082097 0.4899886 1.649
-0.49537307 0.48505282 1.649
-0.53082097 0.49470001 1.649
-0.52453905 0.50412285 1.649
-0.49627051 0.52689481 1.649
-0.4899886 0.52768004 1.649
-0.49627048 0.53306454 1.649
-0.4884181 0.53239143 1.649
-0.47185048 0.22724572 1.6570001
-0.45606953 0.22724572 1.6570001
-0.39294574 0.22724572 1.6570001
-0.38189906 0.22408953 1.6570001
-0.37495548 0.22282705 1.6569999
-0.36690715 0.22487858 1.6570001
0.12782572 0.22724572 1.6570001
0.1357162 0.22724572 1.6570001
0.14676286 0.22724572 1.6570001
0.1657 0.22724572 1.6570001
0.17990287 0.22724572 1.6570001
0.18621524 0.22724573 1.6570001
0.19568382 0.22724573 1.6570001
0.2035743 0.22724572 1.6570001
0.22408955 0.22408955 1.6570001
0.2351362 0.22408953 1.6570001
0.24302667 0.22408953 1.6570001
0.25565144 0.22724572 1.6570001
-0.53528994 0.23229563 1.6569999
-0.52392763 0.2335581 1.6570001
-0.51445907 0.2335581 1.6570001
-0.50656861 0.2335581 1.6570001
-0.48920953 0.23040192 1.6570001
-0.46080384 0.23040192 1.6570001
-0.44660097 0.23040192 1.6570001
-0.43239811 0.23040192 1.6570001
-0.42529666 0.23434715 1.6570001
-0.4155651 0.23881842 1.6570001
-0.40188825 0.2335581 1.6570001
-0.39610192 0.23040192 1.6570001
-0.38347715 0.2335581 1.6570001
-0.364014 0.23145397 1.6570001
-0.35454538 0.23250604 1.6570001
-0.34402478 0.2335581 1.6570001
-0.33613431 0.2335581 1.6570001
-0.32350954 0.2335581 1.6570001
-0.31561905 0.2335581 1.6570001
-0.30930668 0.2335581 1.6570001
-0.27458858 0.23040192 1.6570001
-0.26590908 0.23276906 1.6570001
-0.25565144 0.23303206 1.6569999
-0.24697192 0.23119096 1.6570001
-0.23566224 0.23145397 1.6570001
-0.22408955 0.2335581 1.6570001
-0.21619906 0.2335581 1.6570001
-0.20673048 0.2335581 1.6570001
-0.18937144 0.23671429 1.6570001
-0.17359048 0.2335581 1.6570001
-0.16254382 0.2335581 1.6570001
-0.15465334 0.2335581 1.6570001
-0.14518477 0.2335581 1.6570001
-0.1357162 0.2335581 1.6570001
-0.12624761 0.2335581 1.6570001
-0.11204477 0.2335581 1.6570001
-0.097841911 0.23671429 1.6570001
-0.085217148 0.23671429 1.6570001
-0.07574857 0.23461016 1.6570001
-0.06628 0.2335581 1.6570001
-0.058389526 0.2335581 1.6570001
-0.031561907 0.2335581 1.6570001
-0.022093333 0.2335581 1.6570001
-0.012624762 0.23040192 1.6570001
-0.0063123815 0.23040192 1.6570001
0.015780954 0.23040192 1.6570001
0.025249526 0.23040192 1.6570001
0.034718096 0.23040192 1.6570001
0.044186667 0.2335581 1.6570001
0.056811433 0.23250604 1.6570001
0.086795241 0.23040192 1.6570001
0.094685711 0.23040192 1.6570001
0.1009981 0.23040192 1.6570001
0.11520095 0.23040192 1.6570001
0.12309143 0.23040192 1.6570001
0.1357162 0.23040192 1.6570001
0.25722954 0.23040192 1.6570001
0.26301587 0.2335581 1.6570001
0.26827621 0.24302667 1.6570001
0.27458858 0.24460478 1.6569999
-0.48605335 0.29510382 1.6570001
-0.47448066 0.29615587 1.6569999
-0.46553811 0.2998381 1.6570001
-0.47027239 0.3061505 1.6570001
-0.46501207 0.30509844 1.6570001
-0.49236572 0.33140001 1.6570001
-0.48815748 0.33245206 1.6570001
-0.46238193 0.33771241 1.6570001
-0.53970861 0.34718096 1.6570001
-0.48447528 0.34402478 1.6569999
-0.4750067 0.34560287 1.6569998
-0.46711621 0.34402478 1.6570001
-0.53970861 0.35033715 1.6570001
-0.48352844 0.35412458 1.6569999
-0.47523218 0.3550714 1.6569997
-0.46395999 0.35625505 1.6569998
-0.45764762 0.35980573 1.6570001
-0.48447526 0.36296192 1.6570001
-0.45764762 0.36296192 1.6570001
-0.49236572 0.37558666 1.6570001
-0.49394384 0.38584429 1.6570001
-0.49552193 0.39136764 1.6570001
-0.53287017 0.40504447 1.6569999
-0.52392763 0.4071486 1.6570001
-0.49341777 0.40609655 1.6570001
-0.48920953 0.40557051 1.6570001
-0.53384715 0.41436273 1.6569998
-0.5251112 0.41543359 1.6569998
-0.51319659 0.41598591 1.6569999
-0.50538504 0.41306645 1.6569998
-0.49552193 0.41156727 1.6569999
-0.48684239 0.41109383 1.6570001
-0.47658479 0.41977334 1.6570001
-0.53528994 0.42671698 1.6569999
-0.52077144 0.42292953 1.6570001
-0.51445907 0.42608571 1.6570001
-0.50656861 0.42924193 1.6570001
-0.48565888 0.42569122 1.6569998
-0.4750067 0.42450762 1.6569998
-0.52234954 0.43871048 1.6570001
-0.49394381 0.4339762 1.6570001
-0.48920953 0.43713239 1.6570001
-0.48710546 0.44554889 1.6569999
-0.46238193 0.44817907 1.6570001
-0.51130289 0.45764762 1.6570001
-0.50499052 0.45606953 1.6570001
-0.49473286 0.45370239 1.6570001
-0.48842049 0.45370239 1.6570001
-0.46238193 0.45133525 1.6570001
-0.53024 0.46711621 1.6570001
-0.52077144 0.46080384 1.6570001
-0.51603717 0.46080384 1.6570001
-0.50183433 0.46711621 1.6570001
-0.53024 0.47185048 1.6570001
-0.52234954 0.47185048 1.6570001
-0.51417214 0.47457635 1.6569997
-0.50499052 0.4751502 1.6569997
-0.49678439 0.47784728 1.6569999
-0.51406455 0.48565888 1.6569998
-0.50538504 0.48605341 1.6569998
-0.49341777 0.48394921 1.6570001
-0.53024 0.4955219 1.6570001
-0.52708381 0.49867812 1.6570001
-0.51130289 0.49236572 1.6570001
-0.50499052 0.49552196 1.6569998
-0.49741563 0.49615318 1.6569999
-0.53024 0.50183433 1.6570001
-0.52340162 0.5039385 1.6569999
-0.51445907 0.50183433 1.6570001
-0.52077144 0.51603717 1.6570001
-0.50183433 0.51761526 1.6570001
-0.49473286 0.51682621 1.6570001
-0.50341243 0.52392763 1.6569999
-0.49512744 0.52353311 1.6569998
-0.51130289 0.53655243 1.6570001
-0.50577956 0.53615791 1.6569998
-0.49394381 0.53970861 1.6570001
-0.48920953 0.53970861 1.6570001
-0.50341243 0.5428648 1.6570001
-0.4955219 0.5428648 1.6570001
-0.48920953 0.54602098 1.6570001
-0.49236572 0.55233335 1.6570001
-0.48815748 0.55338544 1.6570001
-0.5081467 0.5649581 1.6570001
-0.5081467 0.58073908 1.6570001
-0.48763144 0.61703527 1.6570001
-0.53755718 0.22834286 1.6650001
-0.4852286 0.22834286 1.6650001
-0.47888574 0.22834286 1.6650001
-0.46619999 0.22834285 1.6650001
-0.45351431 0.22834286 1.6650001
-0.44717145 0.22834286 1.6650001
-0.40277144 0.22834286 1.6650001
-0.39960003 0.22834286 1.6650001
-0.38532859 0.22834286 1.6650001
-0.36471429 0.22622858 1.6650001
-0.35678571 0.22834286 1.6650001
-0.30445716 0.22834286 1.6650001
-0.28542858 0.22834286 1.6650001
-0.27274287 0.22834286 1.6650001
-0.26481429 0.22834286 1.6650001
-0.24420001 0.22834285 1.6650001
-0.0031714286 0.22834286 1.6650001
0.0047571431 0.22834286 1.6650001
0.012685714 0.22834286 1.6650001
0.034885716 0.22834286 1.6650001
0.088800006 0.22834286 1.6650001
0.12051429 0.22834286 1.6650001
0.13637143 0.22834286 1.6650001
0.14271429 0.22834286 1.6650001
0.15857144 0.22834286 1.6650001
0.16174287 0.22834286 1.6650001
0.17442858 0.22834285 1.6650001
0.20931429 0.22517143 1.6650001
0.21565716 0.22517143 1.6650001
0.24737144 0.22517143 1.6650001
0.25054288 0.22517143 1.6650001
0.26005715 0.22834286 1.6650001
-0.54231429 0.23151429 1.6650001
-0.53280002 0.23151429 1.6650001
-0.52434283 0.23151429 1.6650001
-0.51694286 0.23151429 1.6650001
-0.5042572 0.23151429 1.6650001
-0.49632859 0.23151429 1.6650001
-0.43131429 0.23151429 1.6650001
-0.4241786 0.23230714 1.6650001
-0.41545716 0.23627143 1.6650001
-0.40752858 0.23468572 1.6650001
-0.35520002 0.23151429 1.6650001
-0.34727144 0.23151429 1.6650001
-0.33405718 0.23257142 1.6650001
-0.32982859 0.23468572 1.6650001
-0.31397143 0.23151429 1.6650001
-0.30445716 0.23151429 1.6650001
-0.29494286 0.23151429 1.6650001
-0.28542858 0.23151429 1.6650001
-0.2632286 0.23151429 1.6650001
-0.23468572 0.23151429 1.6650001
-0.21248572 0.23468572 1.6650001
-0.20614286 0.23151429 1.6650001
-0.18077144 0.23468572 1.6650001
-0.15540001 0.23151429 1.6650001
-0.14271429 0.23151429 1.6650001
-0.13478571 0.23151429 1.6650001
-0.12368572 0.23151429 1.6650001
-0.11734286 0.23151429 1.6650001
-0.10624286 0.23468572 1.6650001
-0.091971435 0.23468572 1.6650001
-0.084042862 0.23468572 1.6650001
-0.079285719 0.23468572 1.6650001
-0.064485721 0.23151429 1.6650001
-0.05391429 0.23151429 1.6650001
-0.044400003 0.23151429 1.6650001
-0.034885716 0.23151429 1.6650001
-0.025371427 0.23151429 1.6650001
-0.017442858 0.23151429 1.6650001
0.044400003 0.23151429 1.6650001
0.05391429 0.23151429 1.6650001
0.065014288 0.23151429 1.6650001
0.077700004 0.23151429 1.6650001
0.082457148 0.23151429 1.6650001
0.10465714 0.23151429 1.6650001
0.11575714 0.23151429 1.6650001
0.26745716 0.23468572 1.6650001
0.26957145 0.24102858 1.6650001
0.27591431 0.24102859 1.6650001
0.28225714 0.2426143 1.6650001
0.27485716 0.25160003 1.6650001
-0.48364288 0.2981143 1.6650001
-0.47888574 0.2981143 1.6650001
-0.49157146 0.30604285 1.6650001
-0.48586288 0.30255431 1.6650002
-0.47634858 0.30445716 1.6650002
-0.46937144 0.30445716 1.6650001
-0.4741286 0.31080002 1.6650001
-0.46725714 0.31185713 1.6650001
-0.49315715 0.32982859 1.6650001
-0.48205715 0.32982859 1.6650001
-0.48522857 0.33707756 1.6650001
-0.47571433 0.33775717 1.6650001
-0.46937144 0.33934286 1.6650001
-0.48205715 0.34251431 1.6650001
-0.47571433 0.34251431 1.6650001
-0.49157146 0.36788574 1.6650001
-0.48443574 0.36709288 1.6650001
-0.4757143 0.36524287 1.6650001
-0.46620005 0.36562043 1.6650001
-0.49157146 0.37581432 1.6650001
-0.48459429 0.37359431 1.6650002
-0.47480816 0.37468165 1.6650001
-0.46710613 0.37377554 1.6650001
-0.49236429 0.3837429 1.6650001
-0.4852286 0.38374287 1.6650001
-0.47465715 0.3837429 1.6650001
-0.46683431 0.38247427 1.6650002
-0.49220577 0.39452571 1.6650002
-0.48522857 0.39114287 1.6650001
-0.47650719 0.39246431 1.6650001
-0.49157146 0.40277144 1.6650001
-0.48734286 0.40805712 1.6650001
-0.50267148 0.41862857 1.6650001
-0.49553573 0.41783571 1.6650001
-0.48477551 0.4163633 1.6650001
-0.47662041 0.41591024 1.6650001
-0.46937144 0.41862857 1.6650001
-0.51218575 0.42497143 1.6650001
-0.5042572 0.42497143 1.6650001
-0.49564901 0.42451835 1.6650001
-0.48681432 0.42180002 1.6650001
-0.47254288 0.42180002 1.6650001
-0.46659648 0.42536783 1.6650001
-0.45827144 0.42655715 1.6650001
-0.50214291 0.43237147 1.6650001
-0.49395001 0.43210715 1.6650001
-0.48477551 0.43539184 1.6650001
-0.47730002 0.4344857 1.6650001
-0.46619999 0.43131432 1.6650001
-0.48477551 0.44309387 1.6650001
-0.47662041 0.44445306 1.6650001
-0.46937144 0.44717145 1.6650001
-0.50267148 0.45985717 1.6650001
-0.49632859 0.45985717 1.6650001
-0.48459429 0.45573431 1.6650002
-0.47571424 0.45509997 1.6650003
-0.46699291 0.45668575 1.6650001
-0.52419192 0.46801227 1.6650001
-0.51337504 0.46659648 1.6650001
-0.50531435 0.46620002 1.6650001
-0.49474287 0.46620002 1.6650001
-0.48568162 0.46529391 1.6650001
-0.47650719 0.46382144 1.6650001
-0.46937144 0.46302858 1.6650001
-0.53280002 0.47888574 1.6650001
-0.52691025 0.47616735 1.6650001
-0.5042572 0.4741286 1.6650001
-0.49474287 0.47571427 1.6650001
-0.48840001 0.4757143 1.6650001
-0.53280002 0.48522863 1.6650001
-0.52381438 0.48469999 1.6650001
-0.49157146 0.48205715 1.6650001
-0.48840001 0.48205715 1.6650001
-0.53280002 0.49157146 1.6650001
-0.52487153 0.49474287 1.6650003
-0.51588571 0.49685717 1.6650001
-0.52249289 0.50267148 1.6650001
-0.51377147 0.50478578 1.6650001
-0.5042572 0.50584286 1.6650001
-0.49791431 0.50425714 1.6650001
-0.52138293 0.51313722 1.6650002
-0.51456434 0.51535714 1.6650001
-0.50478572 0.51430005 1.6650001
-0.49474287 0.51694286 1.6650001
-0.5201143 0.52487147 1.6650001
-0.51377147 0.52487153 1.6650003
-0.50742859 0.5201143 1.6650001
-0.49157146 0.52487147 1.6650001
-0.48840001 0.52487147 1.6650001
-0.52288938 0.53636789 1.6650001
-0.51504004 0.5347029 1.6650002
-0.49157146 0.53280002 1.6650001
-0.48840001 0.53597146 1.6650001
-0.5201143 0.54231429 1.6650001
-0.51377147 0.54442859 1.6650001
-0.5042572 0.54865718 1.6650001
-0.49632859 0.54865718 1.6650001
-0.51060003 0.55658573 1.6650001
-0.50362289 0.55309713 1.6650002
-0.49632859 0.55420715 1.6650001
-0.48575714 0.55552858 1.6650001
-0.47730002 0.55817145 1.6650001
-0.52962857 0.56451428 1.6650001
-0.51377147 0.56451428 1.6650001
-0.50742859 0.5661 1.6650001
-0.49157146 0.5661 1.6650001
-0.48396 0.56514853 1.6650002
-0.47761717 0.56388003 1.6650002
-0.53280002 0.5772 1.6650001
-0.52487153 0.57402855 1.6650003
-0.51377147 0.57402855 1.6650001
-0.50742859 0.57402861 1.6650001
-0.49157146 0.57244289 1.6650001
-0.48443574 0.57165003 1.6650001
-0.47730002 0.57085717 1.6650001
-0.53438574 0.58195716 1.6650001
-0.52509803 0.58263677 1.6650001
-0.51241231 0.5853551 1.6650001
-0.50584286 0.58512861 1.6650001
-0.5223797 0.5962286 1.6650001
-0.51456428 0.5962286 1.6650001
-0.50584286 0.59305716 1.6650001
-0.45827144 0.59940004 1.6650001
-0.49157146 0.60891432 1.6650001
-0.48840001 0.60891432 1.6650001
-0.50425714 0.61842859 1.6650001
-0.49474287 0.61842859 1.6650001
-0.48734286 0.61420006 1.6650001
-0.50425714 0.62477142 1.6650001
-0.49474287 0.62424296 1.6650001
-0.48734286 0.62582862 1.6650001
-0.50425714 0.6311143 1.6650001
-0.49157146 0.6311143 1.6650001
-0.47730002 0.6311143 1.6650001
-0.52420664 0.21988001 1.6730001
-0.53429782 0.22625333 1.6730002
-0.52579999 0.22625335 1.6730002
-0.51624 0.22864334 1.6730001
-0.50668001 0.22837777 1.673
-0.49393335 0.22837777 1.673
-0.48756 0.22944 1.6730001
-0.47481337 0.22466002 1.6730002
-0.46525335 0.22625335 1.673
-0.45569336 0.22731556 1.673
-0.44454002 0.22944 1.6730001
-0.39196002 0.22944 1.6730001
-0.36328003 0.22625335 1.6730001
-0.35372004 0.22837777 1.673
-0.34734669 0.22944 1.6730001
-0.31468332 0.22864333 1.6730001
-0.30804446 0.22731556 1.673
-0.29636002 0.22944002 1.673
-0.28202003 0.22944 1.6730001
-0.27724001 0.22944 1.6730001
-0.25413668 0.22864333 1.6730001
-0.24856001 0.22625335 1.6730001
-0.23740667 0.22944 1.6730001
-0.057360001 0.22944 1.6730001
-0.015933333 0.22944002 1.673
-0.0079666674 0.22944 1.6730001
0.015933335 0.22944 1.6730001
0.038240001 0.22944 1.6730001
0.044613335 0.22944002 1.673
0.05098667 0.22944 1.6730001
0.063733339 0.22944 1.6730001
0.079666667 0.22944 1.6730001
0.084446669 0.22944 1.6730001
0.095600009 0.22944002 1.673
0.10197334 0.22944 1.6730001
0.11472 0.22944 1.6730001
0.12428001 0.22944 1.6730001
0.13543335 0.22625335 1.6730001
0.1434 0.22625335 1.673
0.15455334 0.22944 1.6730001
0.17686 0.22625335 1.6730001
0.18482667 0.22625335 1.673
0.20713334 0.22625335 1.6730001
0.22944 0.22306667 1.6730001
0.25652668 0.22625335 1.6730001
0.2634311 0.22731556 1.673
-0.52898669 0.23262668 1.6730001
-0.51464665 0.23262668 1.6730001
-0.50668001 0.23262668 1.6730001
-0.42064002 0.23262668 1.6730001
-0.41426668 0.23262668 1.673
-0.40789336 0.23262668 1.6730001
-0.34256667 0.23262668 1.6730001
-0.33141336 0.23262668 1.6730001
-0.32504001 0.23262668 1.673
-0.23262668 0.23262668 1.6730001
-0.22625335 0.23262668 1.673
-0.21510001 0.23262668 1.6730001
-0.20394668 0.23581333 1.6730001
-0.19279334 0.23581333 1.6730001
-0.18642001 0.23581333 1.6730001
-0.17526667 0.23262668 1.673
-0.16570668 0.23262668 1.673
-0.15614668 0.23262668 1.6730001
-0.14818001 0.23262668 1.6730001
-0.11472 0.23262668 1.6730001
-0.10197334 0.23581333 1.6730001
-0.097193331 0.23581333 1.6730001
-0.089226671 0.23581333 1.6730001
-0.074886665 0.23262668 1.6730001
-0.066920005 0.23262668 1.6730001
0.071700007 0.23262668 1.6730001
0.10834667 0.23262668 1.6730001
0.27245998 0.23740667 1.6730001
0.28202003 0.23900001 1.6730001
-0.48437336 0.30831003 1.6730001
-0.48331109 0.31441781 1.6730002
-0.47481334 0.31707335 1.6730002
-0.49393335 0.32822669 1.6730001
-0.49074668 0.33141336 1.6730001
-0.48357671 0.33300668 1.6730001
-0.47481334 0.33778667 1.673
-0.46844003 0.33778667 1.6730001
-0.48118669 0.34097335 1.6730001
-0.47800002 0.34097335 1.6730001
-0.48118669 0.36965334 1.6730001
-0.49074668 0.37921333 1.6730001
-0.48596668 0.37762001 1.6730001
-0.48118669 0.38399333 1.6730001
-0.47800002 0.38877335 1.6730001
-0.49074668 0.39674002 1.6730001
-0.48501071 0.39642137 1.6730001
-0.47640669 0.39514667 1.6730001
-0.49074668 0.40311337 1.6730001
-0.48628536 0.40534407 1.6730001
-0.48278004 0.41108 1.6730001
-0.47640669 0.41267335 1.6730001
-0.464616 0.42191467 1.6730001
-0.46206668 0.43657336 1.673
-0.45888004 0.43657336 1.673
-0.50349337 0.4668467 1.6730001
-0.47640669 0.46844003 1.6730001
-0.48437336 0.47481334 1.6730002
-0.4757238 0.47526863 1.6730002
-0.53217334 0.48596668 1.6730001
-0.52898669 0.48756 1.6730001
-0.48437333 0.48118672 1.673
-0.47481334 0.48118672 1.673
-0.53217334 0.49074668 1.6730001
-0.50030667 0.50986671 1.6730001
-0.49712002 0.50986671 1.6730001
-0.51560271 0.51496536 1.6730001
-0.50349337 0.51496536 1.6730001
-0.49473003 0.51624 1.6730001
-0.48564801 0.52707469 1.6730001
-0.47800002 0.52898669 1.6730001
-0.48564801 0.53408539 1.6730001
-0.47481334 0.53217334 1.673
-0.46525335 0.53536004 1.6730002
-0.52420664 0.54651332 1.6730001
-0.5194267 0.54810667 1.6730001
-0.49074668 0.54492003 1.6730001
-0.48649779 0.54385781 1.673
-0.47720334 0.54412329 1.6730001
-0.46525335 0.54491997 1.6730002
-0.51570892 0.5534178 1.6730002
-0.50986671 0.55766666 1.6730001
-0.4822489 0.55660444 1.673
-0.47800002 0.55607331 1.6730001
-0.52579999 0.56563336 1.6730002
-0.51836449 0.56191558 1.673
-0.50795472 0.56340265 1.6730001
-0.47481334 0.56085336 1.6730001
-0.46589071 0.565952 1.6730001
-0.53217334 0.57041335 1.6730001
-0.52579999 0.57041335 1.673
-0.50668001 0.57519335 1.6730001
-0.49393335 0.57997334 1.6730001
-0.4822489 0.57891113 1.673
-0.47720337 0.57519341 1.6730001
-0.5236755 0.58740884 1.673
-0.5194267 0.58316004 1.6730001
-0.50190002 0.58793998 1.6730001
-0.49393338 0.58725709 1.6730002
-0.52659667 0.59351671 1.6730001
-0.51464665 0.59750003 1.6730001
-0.50394857 0.59636194 1.6730002
-0.49393335 0.59590673 1.6730002
-0.52579999 0.60706002 1.6730002
-0.51517779 0.60440445 1.673
-0.50476801 0.60482937 1.6730001
-0.49393335 0.60546666 1.6730002
-0.50428998 0.61343336 1.6730001
-0.49712002 0.61184001 1.6730001
-0.48649779 0.61502671 1.673
-0.51385003 0.62379003 1.6730001
-0.50827336 0.6245867 1.6730001
-0.48756 0.62299335 1.6730001
-0.51305336 0.63096005 1.6730001
-0.50485903 0.63323623 1.6730002
-0.49446449 0.6352089 1.6730002
-0.48543558 0.6352089 1.6730002
-0.47800002 0.63733333 1.6730001
-0.50668001 0.64052004 1.6730001
-0.49353504 0.64410508 1.6730002
-0.48756 0.64211333 1.6730001
-0.53792 0.22733524 1.6810001
-0.52191049 0.22573429 1.6810001
-0.51550668 0.2249338 1.6810001
-0.50590098 0.22733524 1.6810001
-0.49789619 0.22733524 1.6810001
-0.48455492 0.22626793 1.6810001
-0.45306954 0.22733524 1.6810001
-0.42905524 0.22733524 1.6810001
-0.41304573 0.22733524 1.6810001
-0.37142098 0.22253239 1.6810001
-0.36608446 0.22413333 1.6810001
-0.32339239 0.22733524 1.6810001
-0.29777715 0.22733524 1.6810001
-0.28496954 0.22733526 1.6810001
-0.25615239 0.22733524 1.6810001
-0.24494572 0.22733524 1.6810001
-0.060836192 0.22733524 1.6810001
-0.056033336 0.22733524 1.6810001
-0.01280762 0.22733524 1.6810001
-0.0064038099 0.22733526 1.6810001
0.0048028575 0.22733524 1.6810001
0.016009524 0.22733526 1.6810001
0.027216192 0.22733524 1.6810001
0.035220955 0.22733526 1.6810001
0.044826668 0.22733526 1.6810001
0.07684572 0.22733524 1.6810001
0.084850475 0.22733524 1.6810001
0.096057147 0.22733526 1.6810001
0.10566286 0.22733526 1.6810001
0.11206667 0.22733524 1.6810001
0.12647524 0.22733524 1.6810001
0.1312781 0.22733524 1.6810001
0.15048952 0.22733524 1.6810001
0.16649905 0.22733526 1.6810001
0.17610477 0.22573429 1.6810001
0.1953162 0.22733526 1.6810001
0.20332097 0.22733524 1.6810001
0.22733524 0.22413334 1.6810001
-0.50750196 0.23053715 1.6810001
-0.44186288 0.23053715 1.6810001
-0.42585334 0.23053715 1.6810001
-0.41624764 0.23053713 1.6810001
-0.40984383 0.23053715 1.6810001
-0.33780098 0.23053715 1.6810001
-0.32499334 0.23053715 1.6810001
-0.29137334 0.23053715 1.6810001
-0.2321381 0.23053715 1.6810001
-0.22573429 0.23053715 1.6810001
-0.20278732 0.23480636 1.6810001
-0.19611667 0.23453954 1.6810001
-0.18571049 0.23373906 1.6810001
-0.17450382 0.23053715 1.6810001
-0.1648981 0.23053715 1.6810001
-0.15529239 0.23053715 1.6810001
-0.14408572 0.23053713 1.6810001
-0.13448 0.23053713 1.6810001
-0.12487429 0.23053713 1.6810001
-0.11526857 0.23160446 1.6810001
-0.10646334 0.23293859 1.6810001
-0.099259049 0.23373906 1.6810001
-0.08538413 0.23373906 1.6810001
-0.07204286 0.23053715 1.6810001
-0.046427622 0.23053715 1.6810001
-0.02561524 0.23053713 1.6810001
0.027216192 0.23053715 1.6810001
0.032019049 0.23053715 1.6810001
0.056033336 0.23053715 1.6810001
0.064038098 0.23053715 1.6810001
0.073643811 0.23053713 1.6810001
0.10726382 0.23053715 1.6810001
0.11526857 0.23053715 1.6810001
0.26896 0.23053715 1.6810001
0.27376288 0.23534001 1.6810001
0.27856573 0.24014287 1.6810001
-0.49309334 0.31058478 1.6810001
-0.49446556 0.32430723 1.681
-0.48610738 0.32484782 1.6809999
-0.47708383 0.32499334 1.6810001
-0.48028573 0.33459905 1.6810001
-0.47388193 0.33459902 1.6810001
-0.46747813 0.33780098 1.6810001
-0.48348764 0.37622383 1.6810001
-0.48428813 0.40584144 1.6810001
-0.47708383 0.41624764 1.6810001
-0.49469429 0.51550668 1.6810001
-0.48989144 0.51710761 1.6810001
-0.47068003 0.51550668 1.6810001
-0.46587718 0.51390576 1.6810001
-0.48440248 0.5260272 1.681
-0.48348764 0.53792 1.6810001
-0.47494924 0.53365082 1.6810001
-0.46587718 0.53151619 1.6810001
-0.48402128 0.54325652 1.6810001
-0.47516268 0.5443238 1.6810001
-0.52575278 0.55456996 1.6810001
-0.49309334 0.55232859 1.6810001
-0.48577473 0.5530147 1.681
-0.47388193 0.55438697 1.681
-0.46747813 0.55392957 1.6810001
-0.52575278 0.56161416 1.6810001
-0.50349957 0.56753767 1.6810001
-0.49842986 0.56780452 1.6810001
-0.48668954 0.56673717 1.6810001
-0.47441557 0.56673717 1.6810001
-0.46747813 0.56353527 1.6810001
-0.50429994 0.57634288 1.6810001
-0.49949718 0.57634288 1.6810001
-0.48989144 0.57954478 1.6810001
-0.47281465 0.57741016 1.6810001
-0.46587718 0.57634288 1.6810001
-0.52191049 0.58915049 1.6810001
-0.5048337 0.58381397 1.6810001
-0.49736258 0.58488125 1.6810001
-0.48508859 0.58594859 1.6810001
-0.47228098 0.58434761 1.6810001
-0.52191049 0.59555429 1.6810001
-0.48909095 0.59555429 1.6810001
-0.46267524 0.59875619 1.6810001
-0.52191049 0.6083619 1.6810001
-0.51337212 0.60622734 1.6810001
-0.50269908 0.60516 1.6810001
-0.48989144 0.60516 1.6810001
-0.53151619 0.61476576 1.6810001
-0.52511239 0.61476576 1.6810001
-0.51550674 0.61476576 1.681
-0.50590098 0.61540616 1.6810001
-0.49789619 0.61796767 1.6810001
-0.48829049 0.61476576 1.6810001
-0.52471215 0.62397128 1.681
-0.51630718 0.62277055 1.6810001
-0.5043 0.62277055 1.6810001
-0.49789619 0.62116957 1.6810001
-0.48348764 0.62528628 1.681
-0.47388193 0.62597245 1.6810001
-0.52404505 0.63504452 1.6810001
-0.5179081 0.63477767 1.6810001
-0.50590098 0.63077527 1.6810001
-0.48508859 0.63237619 1.6810001
-0.53151619 0.64038098 1.6810001
-0.52831429 0.64571744 1.6810001
-0.51310527 0.64438337 1.6810001
-0.50483364 0.64571744 1.681
-0.49949718 0.64358288 1.6810001
-0.48540878 0.64678478 1.6810001
-0.52309525 0.22211429 1.6900001
-0.51370412 0.22461589 1.6926666
-0.50556386 0.2269381 1.6960001
-0.49251431 0.22855239 1.6900001
-0.46193337 0.22533335 1.6900001
-0.45415145 0.22667144 1.6940001
-0.44562793 0.22765653 1.6953335
-0.4357492 0.22783937 1.6966667
-0.42396763 0.22676192 1.6926666
-0.41514286 0.22661409 1.6948
-0.40522233 0.22701767 1.6922858
-0.39594284 0.22855239 1.6900001
-0.36432636 0.22568889 1.6926666
-0.35736382 0.22819556 1.6953335
-0.34606859 0.2296343 1.6980001
-0.33516479 0.22855525 1.6960001
-0.32398859 0.22819556 1.6953335
-0.31496572 0.2269381 1.6960001
-0.30492383 0.22909334 1.694
-0.29454285 0.22855239 1.6900001
-0.28479621 0.22676192 1.6926666
-0.27361906 0.22855239 1.6900001
-0.26396191 0.22855239 1.6900001
-0.25550857 0.2264 1.6980001
-0.24542476 0.22711746 1.6953334
-0.23610286 0.2296343 1.6980001
-0.22640002 0.2296343 1.6980001
-0.21454096 0.2296343 1.6980001
-0.18112001 0.2296343 1.6980001
-0.17351086 0.22769144 1.6931999
-0.16443302 0.22729842 1.6926666
-0.15475556 0.22729842 1.6926666
-0.14604953 0.22812419 1.6964
-0.13584 0.2296343 1.6980001
-0.12642744 0.22769144 1.6931999
-0.11616001 0.22747618 1.6940002
-0.10658558 0.227477 1.6957144
-0.093794286 0.2296343 1.6980001
-0.084091425 0.2296343 1.6980001
-0.074038096 0.22855239 1.6900001
-0.065207623 0.22726095 1.6948
-0.054860957 0.22747619 1.694
-0.04506667 0.22855239 1.6900001
-0.035516191 0.22927366 1.6953334
-0.025154287 0.22769144 1.6932001
-0.016772572 0.22704764 1.6931999
-0.0064380956 0.22533335 1.6900001
0.0038720001 0.22511315 1.6932001
0.016171429 0.2264 1.6980001
0.025838733 0.22711746 1.6953334
0.035577144 0.2264 1.6980001
0.045798857 0.22446629 1.6932001
0.054896515 0.22765653 1.6953334
0.064005986 0.22655563 1.6922858
0.074140415 0.22563376 1.6922858
0.083893329 0.22424954 1.6940001
0.09511175 0.22461081 1.6926666
0.10559184 0.2240947 1.6945716
0.11704491 0.22578613 1.6934286
0.12518382 0.2269381 1.696
0.1349341 0.22467963 1.6948
0.14531936 0.22604446 1.6953335
0.1548762 0.22747619 1.694
0.16095239 0.22855239 1.6900001
0.17465144 0.2264 1.6980001
0.18552953 0.22424954 1.6940001
0.19520952 0.22424954 1.6940001
0.20488952 0.22424954 1.6940001
0.21669714 0.2264 1.6980001
0.22425714 0.22586668 1.694
0.23660001 0.22533335 1.6900001
0.24464762 0.22533335 1.6900001
0.25511238 0.22604446 1.6953334
0.2635943 0.2264 1.6980001
0.27233145 0.22819556 1.6953334
-0.44100955 0.23177144 1.6900001
-0.43618095 0.23177144 1.6900001
-0.42813334 0.23177144 1.6900001
-0.34604764 0.23177144 1.6900001
-0.33317143 0.23177144 1.6900001
-0.30725715 0.23286858 1.6980001
-0.22211429 0.23177144 1.6900001
-0.2156762 0.23177142 1.6900001
-0.20488572 0.23232001 1.694
-0.19375239 0.23250286 1.6953334
-0.18406986 0.23250286 1.6953335
-0.15129524 0.23177144 1.6900001
-0.11266667 0.23177144 1.6900001
-0.10461906 0.23177144 1.6900001
-0.094961904 0.23284447 1.6900002
-0.08369524 0.23257619 1.6900001
-0.077257149 0.23177144 1.6900001
-0.064380951 0.23177142 1.6900001
-0.053114288 0.23177144 1.6900001
-0.04184762 0.23177144 1.6900001
-0.035409525 0.23177142 1.6900001
0.019314287 0.23177144 1.6900001
0.022533335 0.23177144 1.6900001
0.2762019 0.23321016 1.6926666
0.28157207 0.2375073 1.6926666
-0.50217146 0.30741906 1.6900001
-0.49895239 0.30580953 1.6900001
-0.49466035 0.31761274 1.6900001
-0.48929524 0.32834285 1.6900001
-0.48446667 0.33156192 1.6900001
-0.4780286 0.33156192 1.6900001
-0.47480953 0.39594284 1.6900002
-0.46869335 0.39529905 1.6900002
-0.48285717 0.40720952 1.6900001
-0.47617239 0.40608001 1.6920002
-0.48285717 0.41203812 1.6900001
-0.47518477 0.41417256 1.6948
-0.4689714 0.41398859 1.6980001
-0.47434211 0.4219985 1.6964
-0.46897143 0.42369145 1.6980001
-0.47320002 0.46998096 1.6900001
-0.46998096 0.46998096 1.6900001
-0.47536954 0.47537336 1.692
-0.46837145 0.47320002 1.6900001
-0.48446667 0.50860953 1.6900001
-0.49412382 0.51343811 1.6900001
-0.48615238 0.51578665 1.6943637
-0.47608715 0.51404238 1.6960001
-0.48607621 0.52309519 1.6900002
-0.47645038 0.52517503 1.6926668
-0.46699888 0.52376688 1.6932001
-0.47585964 0.5321154 1.6945714
-0.46703085 0.5330103 1.6980002
-0.47480953 0.54080003 1.6900001
-0.46595716 0.54160482 1.6900001
-0.5343619 0.55689526 1.6900001
-0.48929524 0.55689526 1.6900001
-0.4796381 0.55689526 1.6900001
-0.53418952 0.56319141 1.692
-0.50860953 0.56816196 1.6900001
-0.49573335 0.56977147 1.6900001
-0.47641906 0.56333333 1.6900001
-0.46998096 0.56333333 1.6900001
-0.49573335 0.57459998 1.6900001
-0.4780286 0.57620955 1.6900001
-0.50539047 0.58908576 1.6900001
-0.49466035 0.58479363 1.6900001
-0.4796381 0.58747625 1.6900001
-0.46676192 0.58747625 1.6900002
-0.49251431 0.59230477 1.6900001
-0.48567382 0.59512144 1.6900003
-0.47666794 0.59583706 1.6908891
-0.46611804 0.59520191 1.6900003
-0.48607621 0.60518104 1.6900003
-0.47691685 0.60581589 1.6917779
-0.46804953 0.60518098 1.6900002
-0.53758097 0.61805719 1.6900001
-0.48565945 0.61512917 1.6908003
-0.47645929 0.61516577 1.6934286
-0.46699888 0.61407089 1.6932001
-0.5359714 0.62449527 1.6900002
-0.52631426 0.6212762 1.6900001
-0.4839302 0.6223492 1.6900001
-0.47692135 0.6229921 1.6934289
-0.46681523 0.62206095 1.6980001
-0.54012573 0.63715428 1.6980001
-0.53380358 0.63412142 1.691143
-0.52685076 0.63629848 1.6900001
-0.54012573 0.64362288 1.6980001
-0.53275239 0.64380956 1.6900001
-0.52516466 0.64472932 1.6900003
-0.51665711 0.64702863 1.6900001
-0.48285717 0.64702863 1.6900001
-0.47705716 0.64685714 1.6980001
-0.51342475 0.22421713 1.706
-0.50692576 0.22421715 1.7060001
-0.47443047 0.22746666 1.706
-0.45493335 0.22421715 1.7060001
-0.44843429 0.22421715 1.7060001
-0.41268954 0.22421715 1.7060001
-0.40781525 0.22421715 1.7060001
-0.39969143 0.22746667 1.7060001
-0.34336638 0.22638349 1.706
-0.33470097 0.22638349 1.706
-0.32560229 0.22551696 1.7060001
-0.31682858 0.22421715 1.7060001
-0.28595811 0.22746667 1.7060001
-0.26483619 0.22746667 1.7060001
-0.24208954 0.22746667 1.7060001
-0.23234096 0.22746667 1.7060001
-0.22421713 0.22746666 1.706
-0.21609335 0.22746667 1.7060001
-0.14297906 0.22746667 1.7060001
-0.13648 0.22746666 1.706
-0.12348191 0.22746667 1.7060001
-0.11373334 0.22421715 1.7060001
-0.10236001 0.22746667 1.7060001
-0.094236195 0.22746666 1.706
-0.082862861 0.22746667 1.7060001
-0.074739046 0.22746666 1.706
-0.053617142 0.22746667 1.7060001
-0.045493335 0.22746666 1.706
-0.012998096 0.22421715 1.7060001
-0.0064990479 0.22421713 1.706
0.0064990479 0.22421713 1.706
0.016247619 0.22421713 1.706
0.022746667 0.22746667 1.7060001
0.035744764 0.22421715 1.7060001
0.043326985 0.22205079 1.706
0.055241909 0.22421713 1.706
0.066615239 0.22421715 1.7060001
0.074739054 0.22259238 1.7060001
0.081238098 0.22096762 1.7060001
0.090986669 0.22421715 1.7060001
0.11373334 0.22421715 1.7060001
0.12673144 0.22421713 1.706
0.13810477 0.22259238 1.7060001
0.14297906 0.22421715 1.7060001
0.15760191 0.22584191 1.7060001
0.16572572 0.22746666 1.706
0.19497144 0.22096761 1.706
0.20147048 0.22096762 1.7060001
0.21121906 0.22421715 1.7060001
0.23396572 0.22421715 1.7060001
0.24371429 0.22421713 1.706
0.25454605 0.22421713 1.706
0.26727334 0.22502953 1.7060001
0.27620953 0.22638349 1.706
-0.3541981 0.2307162 1.7060001
-0.23721525 0.2307162 1.7060001
-0.21771811 0.2307162 1.7060001
-0.20472001 0.23071618 1.706
-0.19497144 0.23071618 1.706
-0.18684763 0.2307162 1.7060001
0.27945906 0.2307162 1.7060001
0.28433335 0.23559049 1.7060001
-0.48255432 0.51829904 1.7060001
-0.47768003 0.51992381 1.7060001
-0.47524285 0.62634569 1.7060001
-0.47280574 0.63040763 1.7060001
-0.33320001 0.21886668 1.715
-0.50470001 0.2254 1.715
-0.49816668 0.22866668 1.715
-0.46386668 0.22540002 1.715
-0.45243335 0.22376668 1.715
-0.44508335 0.22376668 1.715
-0.43610001 0.22213334 1.715
-0.42466667 0.22540002 1.715
-0.40343332 0.22540002 1.715
-0.39853334 0.22866668 1.715
-0.38383335 0.22540002 1.715
-0.35606667 0.22866668 1.715
-0.34708336 0.22540002 1.715
-0.33537778 0.22431113 1.715
-0.30380002 0.22866668 1.715
-0.29726669 0.22866668 1.715
-0.28093335 0.22866668 1.715
-0.2744 0.22866668 1.715
-0.26296669 0.22540002 1.715
-0.25806668 0.22540002 1.715
-0.23846668 0.22866668 1.715
-0.22540002 0.22540002 1.715
-0.21560001 0.2264889 1.715
-0.20906667 0.22866668 1.715
-0.14046668 0.22540002 1.715
-0.1372 0.22540002 1.715
-0.10453334 0.22540002 1.715
-0.098000005 0.22540002 1.715
-0.084933341 0.22703335 1.715
-0.065333337 0.22540002 1.715
-0.035933334 0.22866668 1.715
-0.026133334 0.2264889 1.715
-0.016333334 0.22431113 1.715
-0.0065333336 0.22213334 1.715
0.0049000001 0.22213334 1.715
0.016333334 0.22213334 1.715
0.026133334 0.22540002 1.715
0.035933334 0.22540002 1.715
0.049000002 0.22213334 1.715
0.055533335 0.22213334 1.715
0.065333337 0.22213334 1.715
0.073500007 0.22213334 1.715
0.086566672 0.22213334 1.715
0.096366674 0.22213334 1.715
0.10453334 0.22213334 1.715
0.11433333 0.22213334 1.715
0.1225 0.22213334 1.715
0.13393334 0.22213334 1.715
0.147 0.22540002 1.715
0.15353334 0.22431111 1.715
0.16496667 0.22540002 1.715
0.17640001 0.22540002 1.715
0.18783334 0.22213334 1.715
0.20743334 0.22213334 1.715
0.21560001 0.22540002 1.715
0.23520002 0.22540002 1.715
0.245 0.22213334 1.715
0.25480002 0.22376668 1.715
0.26460001 0.22213334 1.715
0.2744 0.22322224 1.715
0.28420004 0.22757779 1.715
0.28583336 0.23356667 1.715
0.29073334 0.24173334 1.715
-0.47148892 0.48455557 1.715
-0.45618477 0.21988763 1.723
-0.44633904 0.21988763 1.723
-0.33475432 0.21879368 1.723
-0.32819048 0.21988763 1.723
-0.009845715 0.21988763 1.723
0 0.21988763 1.723
0.068920001 0.21988763 1.723
0.075483814 0.21988763 1.723
0.085329525 0.21988763 1.723
0.09845715 0.21988763 1.723
0.11814857 0.21988763 1.723
0.12143048 0.21988763 1.723
0.13784 0.21988763 1.723
0.19527334 0.21988763 1.723
0.20183715 0.21988763 1.723
0.25270668 0.21988763 1.723
0.26747525 0.21988763 1.723
0.27568001 0.21988763 1.723
0.28224382 0.21988763 1.723
-0.50377238 0.22481048 1.723
-0.4972086 0.22645144 1.723
-0.47259429 0.22645144 1.723
-0.45782572 0.22316954 1.723
-0.4446981 0.22481048 1.723
-0.43649337 0.22645144 1.723
-0.41023812 0.22316954 1.723
-0.40039238 0.22645144 1.723
-0.39448497 0.2277642 1.7229999
-0.3839829 0.22316952 1.723
-0.37413716 0.22645144 1.723
-0.3659324 0.22645144 1.723
-0.35444573 0.2248105 1.723
-0.34295905 0.22316954 1.723
-0.33475429 0.22316954 1.723
-0.32490858 0.22316952 1.723
-0.31178096 0.22973335 1.723
-0.26911619 0.22645144 1.723
-0.25434762 0.22645144 1.723
-0.23301524 0.22645144 1.723
-0.22645144 0.22645144 1.723
-0.21441777 0.22535747 1.723
-0.20413449 0.22842059 1.7229999
-0.19363239 0.22891288 1.723
-0.18378668 0.22973335 1.723
-0.13291714 0.22645144 1.723
-0.12143048 0.22645144 1.723
-0.11814857 0.22645144 1.723
-0.10502096 0.22645144 1.723
-0.093534291 0.22645144 1.723
-0.086970478 0.22645144 1.723
-0.075483814 0.22645144 1.723
-0.05579238 0.22645144 1.723
-0.045946669 0.22645144 1.723
-0.03938286 0.22645144 1.723
-0.026255241 0.2242635 1.723
-0.018050477 0.22316954 1.723
0.026255237 0.22316952 1.723
0.036100954 0.22316952 1.723
0.065638095 0.22316954 1.723
0.091893338 0.22316954 1.723
0.11486667 0.22316954 1.723
0.12799428 0.22316954 1.723
0.13127619 0.22316954 1.723
0.14276287 0.22316954 1.723
0.15424953 0.22316954 1.723
0.16409524 0.22316952 1.723
0.17394096 0.22316952 1.723
0.18214571 0.22316954 1.723
0.21660572 0.2242635 1.723
0.22645144 0.22645144 1.723
0.23301524 0.22316954 1.723
0.25762951 0.22316954 1.723
0.27896193 0.22316954 1.723
0.28443179 0.2242635 1.723
0.29208952 0.22973335 1.723
0.28880763 0.23301524 1.723
0.29208952 0.23629715 1.723
0.29701239 0.24778381 1.723
-0.48408097 0.48900384 1.723
-0.47806415 0.48790988 1.723
-0.48244002 0.49228573 1.723
-0.44537145 0.21773715 1.7320001
-0.33980191 0.21773715 1.7320001
0.25402668 0.21773715 1.7320001
0.26722288 0.21773715 1.7320001
0.27052191 0.21773715 1.7320001
0.28041905 0.21773715 1.7320001
-0.50310481 0.22433525 1.7320001
-0.49815622 0.22433525 1.7320001
-0.47396317 0.22433525 1.732
-0.46681526 0.22268572 1.7320001
-0.41568002 0.22433525 1.7320001
-0.40578285 0.22433525 1.732
-0.39588571 0.22433525 1.732
-0.37279239 0.2276343 1.7320001
-0.36289525 0.22598478 1.7320001
-0.35959619 0.22433525 1.7320001
-0.34640002 0.2210362 1.7320001
-0.2754705 0.2276343 1.7320001
-0.26392382 0.22433525 1.732
-0.24083048 0.2276343 1.7320001
-0.22433525 0.22433525 1.7320001
-0.2144381 0.22433525 1.732
-0.2037162 0.22516002 1.7320001
-0.1957435 0.22653461 1.732
-0.18804573 0.2276343 1.7320001
-0.15505524 0.2276343 1.732
-0.14845715 0.2276343 1.7320001
-0.12701333 0.2276343 1.7320001
-0.098971434 0.22433525 1.7320001
-0.064331427 0.22433525 1.7320001
-0.056083813 0.22433525 1.732
-0.047836192 0.22433525 1.7320001
-0.034639999 0.2276343 1.7320001
-0.026392382 0.22268572 1.7320001
-0.016495239 0.2210362 1.732
-0.0049485713 0.2210362 1.7320001
0.0065980949 0.2210362 1.732
0.016495239 0.2210362 1.732
0.026392382 0.2210362 1.7320001
0.036289524 0.2210362 1.732
0.042887621 0.2210362 1.7320001
0.057733335 0.2210362 1.7320001
0.085775241 0.2210362 1.7320001
0.094022855 0.2210362 1.7320001
0.10556952 0.2210362 1.732
0.11216763 0.2210362 1.7320001
0.12701333 0.2210362 1.7320001
0.14845715 0.22433525 1.7320001
0.15505525 0.22268572 1.7320001
0.16330287 0.2210362 1.7320001
0.17484953 0.2210362 1.732
0.19134477 0.2210362 1.7320001
0.20784001 0.2210362 1.7320001
0.21278858 0.2210362 1.7320001
0.2210362 0.22433525 1.7320001
0.23588192 0.22268572 1.7320001
0.24412954 0.22213589 1.732
0.25402665 0.2210362 1.7320001
0.2622743 0.2210362 1.7320001
0.27712002 0.2210362 1.7320001
0.28701717 0.2210362 1.7320001
0.2914159 0.22653461 1.732
0.29581463 0.23423238 1.732
0.29526478 0.24248001 1.7320001
0.30021334 0.24412954 1.7320001
-0.019897144 0.21886858 1.7410001
0.096169531 0.21886858 1.7410001
0.15917715 0.21886858 1.7410001
0.16249333 0.21886858 1.7410001
0.17575811 0.21886857 1.7410001
0.19565524 0.21886857 1.7410001
0.20560382 0.21886857 1.7410001
0.21555239 0.21886857 1.7410001
0.23544954 0.21886858 1.7410001
0.2453981 0.21886857 1.7410001
0.25203049 0.21886858 1.7410001
0.26363713 0.21886858 1.7410001
0.2769019 0.21886858 1.7410001
0.28685051 0.21886858 1.7410001
-0.4974286 0.22550096 1.7410001
-0.48333478 0.22633001 1.7410001
-0.47753143 0.22384286 1.7410001
-0.43442097 0.22550096 1.7410001
-0.42778859 0.22550096 1.7410001
-0.41120765 0.22218478 1.7410001
-0.40457526 0.22218478 1.7410001
-0.39628476 0.22218478 1.7410001
-0.38136193 0.22550096 1.7410001
-0.37472954 0.22550096 1.7410001
-0.36809716 0.22550096 1.7410001
-0.35814857 0.22218478 1.7410001
-0.31338 0.22881715 1.7410001
-0.29845715 0.22881715 1.7410001
-0.28187621 0.22881715 1.7410001
-0.27358574 0.22550096 1.7410001
-0.25203049 0.22881715 1.7410001
-0.2453981 0.22881715 1.7410001
-0.23876572 0.22881715 1.7410001
-0.22550097 0.22384286 1.7410001
-0.21555239 0.22218478 1.7410001
-0.20560382 0.22218478 1.7410001
-0.19565524 0.22550096 1.7410001
-0.18570668 0.22881715 1.7410001
-0.14591238 0.22881715 1.7410001
-0.10446 0.22550096 1.7410001
-0.094511434 0.22550096 1.7410001
-0.086220957 0.22550096 1.7410001
-0.076272383 0.22550096 1.7410001
-0.066323817 0.22329016 1.7410001
-0.056375235 0.22218478 1.7410001
-0.043110479 0.22550096 1.7410001
-0.036478095 0.22550096 1.7410001
-0.026529524 0.22218478 1.7410001
0.026529524 0.22218478 1.7410001
0.049742859 0.22218478 1.7410001
0.06466572 0.22218478 1.7410001
0.11606667 0.22218478 1.7410001
0.13430572 0.22218478 1.7410001
0.15586096 0.22218478 1.7410001
0.16912572 0.22218478 1.7410001
0.18570668 0.22218478 1.7410001
0.21886858 0.22218478 1.7410001
0.22550096 0.22384286 1.7410001
0.23434412 0.22329016 1.7410001
0.24208191 0.22218478 1.7410001
