# .PCD v0.7 - Point Cloud Data file format
VERSION 0.7
FIELDS x y z
SIZE 4 4 4
TYPE F F F
COUNT 1 1 1
WIDTH 1513
HEIGHT 1
VIEWPOINT 0 0 0 1 0 0 0
POINTS 1513
DATA ascii
0.18396764 0.22075431 1.7560002
0.19000001 0.22000001 1.7500001
0.25333333 0.22000001 1.7500001
0.26000002 0.22000001 1.7500001
0.32333335 0.22000001 1.7500001
0.33333334 0.22000001 1.7500001
0.34166667 0.22000001 1.7500001
0.35666668 0.22000001 1.7500001
0.36333334 0.22000001 1.7500001
-0.35166669 0.23 1.7500001
-0.34166667 0.23 1.7500001
-0.25565144 0.23059143 1.7545002
-0.25 0.23 1.7500001
0.50177526 0.20879239 1.7680001
0.51524574 0.20879239 1.7680001
0.5253486 0.20879239 1.7680001
0.57417905 0.20879239 1.7680001
-0.41421717 0.21889524 1.7680001
-0.40748191 0.21889524 1.7680001
-0.39064384 0.21552762 1.7680001
-0.35360003 0.21889524 1.7680001
-0.29971811 0.21889524 1.7680001
0.023573333 0.21889524 1.7680001
0.030308573 0.21889524 1.7680001
0.087558098 0.21889524 1.7680001
0.10439619 0.21889524 1.7680001
0.11618286 0.21889524 1.7680001
0.1229181 0.21889524 1.7680001
0.14480762 0.21889524 1.7680001
0.15322667 0.21552762 1.7680001
0.16838096 0.21889524 1.7680001
0.17511618 0.21889524 1.7680001
0.18521905 0.21889524 1.7680001
0.19532192 0.21889524 1.7680001
0.20374095 0.21889524 1.7680001
0.21552764 0.21552761 1.7680001
0.22394666 0.21552762 1.7680001
0.23404953 0.21552762 1.7680001
0.2458362 0.21721143 1.7680001
0.25593904 0.21552761 1.7680001
0.2660419 0.21552761 1.7680001
0.27614477 0.21440507 1.7680001
0.28624764 0.21552761 1.7680001
0.30308571 0.21889524 1.7680001
0.34349716 0.21552762 1.7680001
0.35360003 0.21552761 1.7680001
0.36201906 0.21552762 1.7680001
0.37548953 0.21552762 1.7680001
0.3822248 0.21384382 1.7680001
0.40579811 0.21552762 1.7680001
0.41590095 0.21552762 1.7680001
0.43442285 0.21216001 1.7680001
0.45126095 0.21216001 1.7680001
0.46136382 0.21216001 1.7680001
0.49840763 0.21216001 1.7680001
0.51524574 0.21216001 1.7680001
0.54555434 0.21216001 1.7680001
-0.45462859 0.22338539 1.7680001
-0.44115812 0.22563048 1.7680001
-0.43442285 0.22563048 1.7680001
-0.39232764 0.22226286 1.7680001
-0.3839086 0.22226286 1.7680001
-0.37380573 0.22226286 1.7680001
-0.36370286 0.22226286 1.7680001
-0.35360003 0.22226286 1.7680001
-0.34349716 0.22226286 1.7680001
-0.33339429 0.22226286 1.7680001
-0.31655622 0.22226286 1.7680001
-0.30645335 0.22226286 1.7680001
-0.29466668 0.22226286 1.7680001
-0.28708953 0.22394666 1.7680001
-0.27446097 0.22563048 1.7680001
-0.26940954 0.22563048 1.7680001
-0.25593904 0.22899811 1.7680001
-0.24246858 0.22563048 1.7680001
-0.23573335 0.22563048 1.7680001
-0.22394666 0.22226286 1.7680001
-0.20205715 0.22563048 1.7680001
-0.19532192 0.22563048 1.7680001
-0.18521905 0.22563048 1.7680001
-0.1751162 0.22563048 1.7680001
-0.16585526 0.22310476 1.7680001
-0.15491049 0.22563048 1.7680001
-0.13470477 0.22899811 1.7680001
-0.1229181 0.22899811 1.7680001
-0.11449905 0.22899811 1.7680001
-0.092609525 0.22563048 1.7680001
-0.08419048 0.22563048 1.7680001
-0.07408762 0.22394666 1.7680001
-0.026940953 0.22226286 1.7680001
0.010102858 0.22226286 1.7680001
0.043779049 0.22226286 1.7680001
0.052198097 0.22226286 1.7680001
0.063984767 0.22226286 1.7680001
0.43494192 0.20985524 1.7770001
0.44509619 0.20985524 1.7770001
0.4738667 0.20985524 1.7770001
0.5043295 0.20759875 1.7770001
0.51617622 0.20647049 1.7770001
0.52125335 0.20647049 1.7770001
0.53648484 0.20985524 1.7770001
0.54494667 0.20985524 1.7770001
0.55171621 0.20985524 1.7770001
0.56694764 0.20985524 1.7770001
-0.40617144 0.21662477 1.7770001
-0.35878477 0.21662477 1.7770001
-0.30124381 0.21662477 1.7770001
-0.29616669 0.21662477 1.7770001
-0.074464768 0.21662477 1.7770001
0.10154286 0.21662477 1.7770001
0.14723715 0.21662477 1.7770001
0.15569906 0.21436827 1.7770001
0.16585334 0.21662478 1.7770001
0.17600763 0.21662478 1.7770001
0.18616192 0.21662478 1.7770001
0.1963162 0.21662478 1.7770001
0.20647049 0.21662478 1.7770001
0.21662477 0.21324001 1.7770001
0.22000954 0.21324001 1.7770001
0.23016381 0.21662477 1.7770001
0.24370284 0.21662478 1.7770001
0.25554955 0.21324001 1.7770001
0.26401144 0.21324001 1.7770001
0.27247334 0.21324001 1.7770001
0.28432 0.21324001 1.7770001
0.29616669 0.21662477 1.7770001
0.30632097 0.21662477 1.7770001
0.31478289 0.21662478 1.7770001
0.32493713 0.21662478 1.7770001
0.33509144 0.21662478 1.7770001
0.34524572 0.21662477 1.7770001
0.35540003 0.21324001 1.7770001
0.36640048 0.2140862 1.7770001
0.37486237 0.2140862 1.7770001
0.38586289 0.21324001 1.7770001
0.39601716 0.21324001 1.7770001
0.40278667 0.21324001 1.7770001
0.41294098 0.21662477 1.7770001
0.42648003 0.21324001 1.7770001
0.46371239 0.21324001 1.7770001
0.4738667 0.21324001 1.7770001
0.48402095 0.21324001 1.7770001
0.49417529 0.21324001 1.7770001
0.55679333 0.21324001 1.7770001
0.56356287 0.21324001 1.7770001
-0.45017335 0.22677906 1.7770001
-0.44678858 0.22677906 1.7770001
-0.43494192 0.22339429 1.7770001
-0.42986476 0.22339429 1.7770001
-0.38247812 0.22000954 1.7770001
-0.37570858 0.22000952 1.7770001
-0.3655543 0.22000952 1.7770001
-0.35540003 0.22000954 1.7770001
-0.34524572 0.22000952 1.7770001
-0.33509144 0.22339429 1.7770001
-0.32662952 0.22339429 1.7770001
-0.31478289 0.22113778 1.7770001
-0.30632097 0.22000954 1.7770001
-0.2944743 0.22000952 1.7770001
-0.28262764 0.22339429 1.7770001
-0.27755049 0.22339429 1.7770001
-0.26401144 0.22677906 1.7770001
-0.25385717 0.22677906 1.7770001
-0.24370286 0.22508667 1.7770001
-0.23354858 0.22339429 1.7770001
-0.22000954 0.22339429 1.7770001
-0.21493238 0.22339429 1.7770001
-0.20816287 0.22339429 1.7770001
-0.18277715 0.22339429 1.7770001
-0.17600763 0.22339429 1.7770001
-0.15908381 0.22339429 1.7770001
-0.14723715 0.22677906 1.7770001
-0.13539049 0.22677906 1.7770001
-0.12354381 0.22677906 1.7770001
-0.11508191 0.22677906 1.7770001
-0.10492762 0.22677906 1.7770001
-0.096465722 0.22508667 1.7770001
-0.08377286 0.2225481 1.7770001
-0.07531096 0.22085574 1.7770001
-0.064310476 0.22339429 1.7770001
-0.055848572 0.22339429 1.7770001
-0.032155238 0.22339429 1.7770001
-0.020308573 0.22000954 1.7770001
-0.016923809 0.22000954 1.7770001
0.016923809 0.22000954 1.7770001
0.03554 0.22000954 1.7770001
0.044001907 0.22170192 1.7770001
0.057540953 0.22000954 1.7770001
0.064310476 0.22000954 1.7770001
0.074464768 0.22000954 1.7770001
0.082926676 0.22000954 1.7770001
0.12862095 0.22000954 1.7770001
0.13539048 0.22000952 1.7770001
0.30124381 0.22000954 1.7770001
-0.12862095 0.23016381 1.7770001
0.47966859 0.20751619 1.7860001
0.50348192 0.20751619 1.7860001
0.51198667 0.20411429 1.7860001
0.52729523 0.20751619 1.7860001
0.53069717 0.20751619 1.7860001
0.54260385 0.20751619 1.7860001
0.55621147 0.20751619 1.7860001
0.56641716 0.20751619 1.7860001
0.57492191 0.20751619 1.7860001
0.58342671 0.20751619 1.7860001
-0.41333145 0.21772191 1.7860001
-0.38101333 0.21772191 1.7860001
-0.37761143 0.21772191 1.7860001
-0.36400384 0.21772191 1.7860001
-0.35379815 0.21772189 1.7860001
-0.34529334 0.21772191 1.7860001
-0.30617145 0.21658795 1.7860001
-0.29596573 0.21432002 1.786
-0.071440004 0.21772191 1.7860001
-0.013607619 0.21772191 1.7860001
0.062935241 0.21772191 1.7860001
0.08844953 0.21772191 1.7860001
0.095253341 0.21772189 1.7860001
0.10716 0.21772191 1.7860001
0.11906667 0.21772191 1.7860001
0.12246858 0.21772191 1.7860001
0.1394781 0.21772191 1.7860001
0.14628191 0.21602096 1.7860001
0.15988953 0.21432 1.7860001
0.16499239 0.21432 1.7860001
0.1717962 0.21432 1.7860001
0.18540382 0.21432 1.7860001
0.19390857 0.21432 1.7860001
0.20411427 0.21432 1.7860001
0.21261905 0.21432 1.7860001
0.22452573 0.21318603 1.7860001
0.24833906 0.21432 1.7860001
0.25174096 0.21432 1.7860001
0.2959657 0.21432 1.7860001
0.30617145 0.21545398 1.7860001
0.31637716 0.21432 1.7860001
0.32743335 0.21346954 1.7860001
0.33508766 0.21432 1.7860001
0.34359241 0.21432 1.7860001
0.35209715 0.21432 1.7860001
0.36315337 0.21176857 1.7860001
0.37420952 0.21091811 1.7860001
0.38441524 0.21091811 1.7860001
0.39632189 0.2109181 1.7860001
0.40482667 0.21261905 1.7860001
0.41588286 0.21346952 1.7860001
0.42438763 0.21176857 1.7860001
0.43204191 0.2109181 1.7860001
0.44224763 0.2109181 1.7860001
0.45585525 0.21091811 1.7860001
0.46606097 0.21091811 1.7860001
0.47626668 0.2109181 1.7860001
0.4864724 0.21091811 1.7860001
0.49497718 0.2109181 1.7860001
0.50007999 0.2109181 1.7860001
0.54770666 0.2109181 1.7860001
0.55791241 0.2109181 1.7860001
0.56301522 0.2109181 1.7860001
-0.45415431 0.22452572 1.7860001
-0.44479907 0.22367525 1.7860001
-0.43544379 0.22112381 1.7860001
-0.42693907 0.22112381 1.7860001
-0.3401905 0.22112381 1.7860001
-0.33508766 0.22112381 1.7860001
-0.32488191 0.22112381 1.7860001
-0.31977907 0.22112381 1.7860001
-0.28576002 0.22112381 1.7860001
-0.27385336 0.22452572 1.7860001
-0.26534858 0.22452573 1.7860001
-0.25514284 0.22452573 1.7860001
-0.24607112 0.22339176 1.7860001
-0.20241334 0.22452572 1.7860001
-0.19390857 0.22452573 1.7860001
-0.18710476 0.22452572 1.7860001
-0.15478668 0.22452572 1.7860001
-0.14288001 0.22792763 1.7860001
-0.1360762 0.22792763 1.7860001
-0.12927239 0.22792763 1.7860001
-0.11906667 0.22452572 1.7860001
-0.091851436 0.22452572 1.7860001
-0.086748578 0.22112381 1.7860001
-0.068038099 0.22112381 1.7860001
-0.051028572 0.22452572 1.7860001
-0.044224765 0.22452573 1.7860001
-0.037420955 0.22452572 1.7860001
-0.023813333 0.22112381 1.7860001
-0.011906667 0.22112381 1.7860001
-0.005102857 0.22112381 1.7860001
0.0017009524 0.22112381 1.7860001
0.013607619 0.22112381 1.7860001
0.045925714 0.22112381 1.7860001
0.052729525 0.22112381 1.7860001
0.064636193 0.22112381 1.7860001
0.074841909 0.22112381 1.7860001
0.33164763 0.20856191 1.7950001
0.36583814 0.20856191 1.7950001
0.37609527 0.20856191 1.7950001
0.38464287 0.20856191 1.7950001
0.40515715 0.20856191 1.7950001
0.4154143 0.20856191 1.7950001
0.42396191 0.20685239 1.7950001
0.43421906 0.20770715 1.7950001
0.44447622 0.20856191 1.7950001
0.45302382 0.20856191 1.7950001
0.46670002 0.20856191 1.7950001
0.47524762 0.20856191 1.7950001
0.4872143 0.20856191 1.7950001
0.49576196 0.20856191 1.7950001
0.50601906 0.20628256 1.7950001
0.51741582 0.20514286 1.7950001
0.52482384 0.20514287 1.7950001
0.53679049 0.20856191 1.7950001
0.54020953 0.20856191 1.7950001
0.55217624 0.20856191 1.7950001
0.56414288 0.20599763 1.7950001
0.57440001 0.20514287 1.7950001
0.58123809 0.20514287 1.7950001
-0.42225239 0.21881905 1.7950001
-0.3931905 0.21881905 1.7950001
-0.38635239 0.21881905 1.7950001
-0.37438571 0.21881905 1.7950001
-0.36925715 0.21881905 1.7950001
-0.34190479 0.21881905 1.7950001
-0.33506668 0.21881905 1.7950001
-0.3145524 0.21710953 1.7950001
-0.30771428 0.21540001 1.7950001
-0.29403812 0.21426032 1.7950001
-0.28549048 0.21881905 1.7950001
-0.26326668 0.21881905 1.7950001
-0.2564286 0.21881907 1.7950001
-0.24617144 0.21881905 1.7950001
-0.083766669 0.21881905 1.7950001
-0.078638099 0.21881905 1.7950001
-0.013676191 0.21881905 1.7950001
-0.0045587304 0.21767938 1.7950001
0.0017095238 0.21881905 1.7950001
0.025642857 0.21881905 1.7950001
0.030771431 0.21881905 1.7950001
0.068380952 0.21881905 1.7950001
0.075219043 0.21881907 1.7950001
0.083766669 0.21881905 1.7950001
0.10257144 0.21540001 1.7950001
0.1145381 0.21881905 1.7950001
0.1282143 0.21881905 1.7950001
0.13505238 0.21881905 1.7950001
0.14530954 0.21540001 1.7950001
0.15385716 0.21198095 1.7950001
0.16069524 0.21198095 1.7950001
0.17779048 0.21540001 1.7950001
0.18462856 0.21312064 1.7950001
0.19488573 0.21198095 1.7950001
0.20514286 0.21198095 1.7950001
0.21540003 0.21198095 1.7950001
0.22565715 0.21198095 1.7950001
0.23420477 0.21540001 1.7950001
0.24446192 0.21540001 1.7950001
0.25813812 0.21198095 1.7950001
0.2649762 0.21198095 1.7950001
0.27352381 0.21198095 1.7950001
0.28036192 0.21198095 1.7950001
0.30543491 0.21312064 1.7950001
0.3145524 0.21198095 1.7950001
0.32480952 0.21198095 1.7950001
0.3367762 0.21198095 1.7950001
0.34532383 0.21198095 1.7950001
0.35558096 0.21198095 1.7950001
0.3931905 0.21198095 1.7950001
0.40686667 0.21198095 1.7950001
0.41370478 0.21198095 1.7950001
-0.45473334 0.22223811 1.7950001
-0.44789526 0.22223811 1.7950001
-0.33164763 0.22223811 1.7950001
-0.28036192 0.22223811 1.7950001
-0.27352381 0.22223811 1.7950001
-0.2649762 0.22223811 1.7950001
-0.2564286 0.22223811 1.7950001
-0.24617144 0.22223811 1.7950001
-0.23591429 0.22223811 1.7950001
-0.22565715 0.22223811 1.7950001
-0.21540001 0.22223811 1.7950001
-0.20514286 0.22223811 1.7950001
-0.1931762 0.22223811 1.7950001
-0.18120953 0.22223811 1.7950001
-0.17437144 0.22223811 1.7950001
-0.1641143 0.22223811 1.7950001
-0.1504381 0.22565715 1.7950001
-0.14360002 0.22565715 1.7950001
-0.13505238 0.22565715 1.7950001
-0.12650478 0.22565715 1.7950001
-0.1145381 0.22565715 1.7950001
-0.10599049 0.22565715 1.7950001
-0.095733337 0.22337778 1.7950001
-0.06496191 0.22223811 1.7950001
-0.058123812 0.22223811 1.7950001
-0.041028574 0.22223811 1.7950001
-0.0359 0.22223811 1.7950001
-0.027352381 0.22223811 1.7950001
0.0068380954 0.22223811 1.7950001
0.010257144 0.22223811 1.7950001
0.42837843 0.19815366 1.8040003
0.18899049 0.20960763 1.8040001
0.19586284 0.20960765 1.8040003
0.20617144 0.20960765 1.8040003
0.21476191 0.20960763 1.8040001
0.22335239 0.20960763 1.8040001
0.26458669 0.20960765 1.8040003
0.30925715 0.20960763 1.8040001
0.31612954 0.20960765 1.8040003
0.3264381 0.20960765 1.8040003
0.33674669 0.20960763 1.8040001
0.34361908 0.20960765 1.8040003
0.35392761 0.20960765 1.8040003
0.36080003 0.20960763 1.8040001
0.37110859 0.20617144 1.8040001
0.39516193 0.20960763 1.8040001
0.40203431 0.20960763 1.8040001
0.41577902 0.20731683 1.8040003
0.42780572 0.20273525 1.8040001
0.43639621 0.20502603 1.8040003
0.4432686 0.20617144 1.8040001
0.46216762 0.20960763 1.8040001
0.47591239 0.20617144 1.8040001
0.48450288 0.20617144 1.8040003
0.5154286 0.20273525 1.8040001
0.52401906 0.20273525 1.8040001
0.53432763 0.20617144 1.8040001
0.5480724 0.20617144 1.8040001
0.55494475 0.20617144 1.8040001
0.56353527 0.20388065 1.8040003
0.57556194 0.20273525 1.8040001
0.58071619 0.20273525 1.8040001
-0.46388569 0.21991618 1.8040003
-0.45014098 0.21991619 1.8040001
-0.4449867 0.21991619 1.8040001
-0.43639618 0.21991619 1.8040001
-0.42952383 0.21991619 1.8040001
-0.40375239 0.21991619 1.8040001
-0.35220954 0.21648 1.8040001
-0.34705526 0.21648 1.8040001
-0.3356013 0.21762539 1.8040003
-0.32557905 0.21905714 1.8040001
-0.31612954 0.21476191 1.8040001
-0.30753905 0.21304382 1.8040001
-0.2920762 0.21648 1.8040001
-0.28291303 0.21762539 1.8040003
-0.27489522 0.21819811 1.804
-0.26458669 0.21590732 1.804
-0.25513715 0.21648002 1.8040001
-0.24396954 0.21877079 1.8040003
-0.23709716 0.21991619 1.8040001
-0.17180952 0.21991619 1.8040001
-0.13744763 0.21991619 1.8040001
-0.08590477 0.21762539 1.8040003
-0.079032384 0.21648 1.8040001
-0.068723813 0.21991619 1.8040001
-0.020617144 0.21991619 1.8040001
-0.012026668 0.21648 1.8040001
-0.0051542856 0.21476191 1.8040001
0.0041234288 0.21648002 1.8040001
0.013744762 0.21905714 1.8040001
0.020617144 0.21991619 1.8040001
0.036080003 0.21991619 1.8040001
0.044670478 0.21991619 1.8040001
0.053260952 0.21991619 1.8040001
0.06528762 0.21648 1.8040001
0.10652191 0.21648 1.8040001
0.13744763 0.21648 1.8040001
0.14088382 0.21648 1.8040001
0.16665524 0.21304382 1.8040001
0.17524572 0.21304382 1.8040003
0.1821181 0.21304382 1.8040001
0.23022477 0.21304382 1.8040001
0.25256002 0.21304382 1.8040001
0.28692192 0.21304382 1.8040001
0.29551241 0.21304382 1.8040003
0.30238476 0.21304382 1.8040001
-0.21648002 0.22335239 1.8040001
-0.20617144 0.22335239 1.8040001
-0.19929905 0.22335239 1.8040001
-0.1872724 0.22335239 1.8040001
-0.15462857 0.22335239 1.8040003
-0.14432001 0.22421144 1.8040001
-0.13401143 0.22335239 1.8040003
-0.12370286 0.22335239 1.8040003
-0.11511239 0.22335239 1.8040001
-0.1065219 0.22335239 1.8040003
-0.099649526 0.22335239 1.8040001
-0.061851431 0.22335239 1.8040001
-0.053260952 0.22335239 1.8040001
-0.046388574 0.22335239 1.8040001
-0.030925715 0.22335239 1.8040001
0.52174097 0.19694857 1.8140001
0.31442669 0.2073143 1.8140001
0.36798286 0.2073143 1.8140001
0.37662098 0.2073143 1.8140001
0.3800762 0.2073143 1.8140001
0.39044192 0.2073143 1.8140001
0.40771812 0.2073143 1.8140001
0.41290098 0.2073143 1.8140001
0.42326668 0.20385906 1.8140001
0.43536001 0.20385906 1.8140001
0.44572574 0.20558667 1.8140001
0.45609143 0.2073143 1.8140001
0.46645719 0.2073143 1.8140001
0.47336763 0.2073143 1.8140001
0.49409908 0.2073143 1.8140001
0.50446481 0.2073143 1.8140001
0.51310289 0.20385906 1.8140001
0.52346861 0.20040381 1.8140001
0.5321067 0.20385906 1.8140001
0.54420006 0.2073143 1.8140001
0.56320381 0.20385906 1.8140001
-0.46300194 0.21768001 1.8140001
-0.45263621 0.21768001 1.8140001
-0.42844954 0.21768001 1.8140001
-0.40080762 0.21768001 1.8140001
-0.38353145 0.21768002 1.8140001
-0.37662098 0.21768001 1.8140001
-0.36971048 0.21768001 1.8140001
-0.34379619 0.21768001 1.8140001
-0.33170286 0.21768001 1.8140001
-0.32824764 0.21768001 1.8140001
-0.31788191 0.21422477 1.8140001
-0.29024002 0.21768001 1.8140001
-0.28332955 0.21422477 1.8140001
-0.27469143 0.21422477 1.8140001
-0.26950857 0.21422477 1.8140001
-0.25396001 0.2159524 1.8140001
-0.24532191 0.21652825 1.8140001
-0.22804572 0.21768001 1.8140001
-0.17276192 0.21768001 1.8140001
-0.13475429 0.21768002 1.8140001
-0.12438858 0.21768002 1.8140001
-0.1174781 0.21768001 1.8140001
-0.1002019 0.21768001 1.8140001
-0.089836195 0.21768001 1.8140001
-0.020731429 0.21768001 1.8140001
-0.013820952 0.2159524 1.8140001
-0.0069104764 0.21422477 1.8140001
0.0034552382 0.21422477 1.8140001
0.013820952 0.21768001 1.8140001
0.024186665 0.21768002 1.8140001
0.031097144 0.21768001 1.8140001
0.044918098 0.21768001 1.8140001
0.065649524 0.21768001 1.8140001
0.076015241 0.21768002 1.8140001
0.086380959 0.21768002 1.8140001
0.096746668 0.21768001 1.8140001
0.1002019 0.21768001 1.8140001
0.11402286 0.21768002 1.8140001
0.12438858 0.21768002 1.8140001
0.13302666 0.21768001 1.8140001
0.22459048 0.21076953 1.8140001
0.23668382 0.21422477 1.8140001
0.24532191 0.21537651 1.8140001
0.25741524 0.21076953 1.8140001
0.27641904 0.21076953 1.8140001
0.30751619 0.21076953 1.8140001
0.3973524 0.21076953 1.8140001
-0.45781904 0.22113524 1.8140001
-0.43881527 0.22113524 1.8140001
-0.41117334 0.22113524 1.8140001
-0.23322859 0.22113524 1.8140001
-0.22631809 0.22113524 1.8140001
-0.21422477 0.22113524 1.8140001
-0.20558667 0.22113524 1.8140001
-0.17794478 0.22113524 1.8140001
-0.16585143 0.22113524 1.8140001
-0.15203048 0.22113524 1.8140001
-0.14339238 0.22113524 1.8140001
-0.13302666 0.22113524 1.8140001
-0.12438858 0.22113524 1.8140001
-0.11402286 0.22113524 1.8140001
-0.10365714 0.22113524 1.8140001
-0.09501905 0.22113524 1.8140001
-0.055283815 0.22113524 1.8140001
-0.044918094 0.22113524 1.8140001
-0.036279999 0.22113524 1.8140001
-0.025914285 0.22113524 1.8140001
0.044918098 0.22113524 1.8140001
0.058739051 0.22113524 1.8140001
0.43776003 0.19803429 1.8240001
0.5211429 0.19803429 1.8240001
0.26752001 0.20845716 1.8240001
0.27273142 0.20845716 1.8240001
0.32484573 0.20845716 1.8240001
0.33353147 0.20845716 1.824
0.38738286 0.20845716 1.8240001
0.40475431 0.20845716 1.8240001
0.42038858 0.20498286 1.8240001
0.43776003 0.20150858 1.8240001
0.44470859 0.20324573 1.8240001
0.46902859 0.20845716 1.8240001
0.47945145 0.20498286 1.8240001
0.48466289 0.20498286 1.8240001
0.4933486 0.20498286 1.8240001
0.50377142 0.20672001 1.8240001
0.51419431 0.20324573 1.8240001
0.5211429 0.20150858 1.8240001
0.53504002 0.20324573 1.8240001
0.54720002 0.20498286 1.8240001
0.55588573 0.20498286 1.8240001
0.56978285 0.20150858 1.8240001
0.57673144 0.20498286 1.8240001
-0.46323812 0.21656382 1.824
-0.456 0.21714287 1.8240001
-0.44644573 0.21888001 1.8240001
-0.43602288 0.21714287 1.8240001
-0.40822858 0.21888001 1.8240001
-0.39606857 0.21888001 1.824
-0.38564572 0.21540572 1.824
-0.37522286 0.21888001 1.8240001
-0.36480001 0.21888001 1.8240001
-0.34048 0.21540572 1.8240001
-0.28489143 0.21540572 1.8240001
-0.26752001 0.21193144 1.8240001
-0.25362286 0.21540572 1.8240001
-0.24493715 0.21540572 1.8240001
-0.23625143 0.21714287 1.8240002
-0.22582856 0.21540573 1.8240002
-0.21610057 0.21749029 1.8240001
-0.20498288 0.21888001 1.824
-0.18066287 0.21888001 1.8240001
-0.17371428 0.21888001 1.8240001
-0.16502857 0.21888001 1.8240001
-0.14244571 0.21888001 1.8240001
-0.11291429 0.21888001 1.8240001
-0.10596572 0.21888001 1.8240001
-0.095542863 0.21888001 1.8240001
-0.076434292 0.21888001 1.8240001
-0.043428574 0.21888001 1.8240001
-0.038217146 0.21888001 1.8240001
-0.024320001 0.21772192 1.824
-0.015634287 0.21540572 1.8240001
0.0034742858 0.21193144 1.8240001
0.013897143 0.21540572 1.824
0.022582859 0.21540572 1.8240001
0.036480002 0.21888001 1.8240001
0.045165718 0.21888001 1.8240001
0.055588573 0.21888001 1.824
0.066011436 0.21540572 1.824
0.077302858 0.21453714 1.8240001
0.085120007 0.21540572 1.8240001
0.093805715 0.21888001 1.8240001
0.11465143 0.21540572 1.8240001
0.12507428 0.21540572 1.824
0.14418286 0.21540572 1.8240001
0.1737143 0.21193144 1.8240001
0.2345143 0.21193144 1.8240001
0.2432 0.21540572 1.8240001
0.25362286 0.21193144 1.8240001
0.28662857 0.21193144 1.8240001
0.29531428 0.21193142 1.824
0.30400002 0.21193144 1.8240001
-0.22235429 0.22235429 1.8240001
-0.20150858 0.22235429 1.8240001
-0.19456001 0.22235429 1.824
-0.18587428 0.22235429 1.8240001
-0.16676572 0.22235429 1.8240001
-0.15808001 0.22235429 1.8240001
-0.14939429 0.22235429 1.8240001
-0.10422858 0.22235429 1.8240001
-0.066011429 0.22235429 1.8240001
-0.055588573 0.22235429 1.8240001
-0.031268574 0.22235429 1.8240001
0.42770004 0.19726571 1.8330001
0.43293715 0.19901143 1.8330001
0.57608575 0.19901143 1.8330001
0.58306861 0.19901143 1.8330001
-0.2304343 0.20948572 1.8330001
-0.22694287 0.20948572 1.8330001
-0.017457144 0.20948572 1.8330001
0.075065717 0.20948572 1.8330001
0.080302857 0.20948572 1.8330001
0.25836572 0.20948572 1.8330001
0.26360285 0.20948572 1.8330001
0.27931431 0.20948572 1.8330001
0.28280571 0.20948572 1.8330001
0.31073716 0.20948572 1.8330001
0.33168572 0.20599429 1.8330001
0.34216002 0.20948572 1.8330001
0.35438001 0.20948572 1.8330001
0.36660001 0.20948572 1.8330001
0.3753286 0.20599429 1.8330001
0.38405716 0.20599429 1.8330001
0.39453143 0.20774001 1.8330001
0.40151429 0.20948572 1.8330001
0.41897145 0.20599429 1.8330001
0.42770004 0.20250286 1.8330001
0.44690287 0.20250286 1.8330001
0.45563143 0.20599429 1.8330001
0.4626143 0.20599429 1.8330001
0.47658002 0.20599429 1.8330001
0.49578288 0.20599429 1.8330001
0.50625718 0.20483048 1.8330001
0.51498574 0.20250286 1.8330001
0.54466289 0.20599429 1.8330001
0.55688286 0.20424858 1.8330001
0.56386572 0.20599429 1.8330001
-0.46436003 0.21297716 1.8330001
-0.45214003 0.21646857 1.8330001
-0.44457522 0.21763237 1.8330001
-0.43817431 0.21821429 1.8330001
-0.42420858 0.21996 1.8330001
-0.41722572 0.21996 1.8330001
-0.40675145 0.21646857 1.8330001
-0.39627713 0.21646857 1.8330001
-0.38056573 0.21646857 1.8330001
-0.37358287 0.21763237 1.8330001
-0.36310858 0.21996 1.8330001
-0.34565145 0.21646857 1.8330001
-0.33517718 0.21646857 1.8330001
-0.29502571 0.21646857 1.8330001
-0.27582288 0.21297716 1.8330001
-0.26360285 0.21297716 1.8330001
-0.24090858 0.21297716 1.8330001
-0.23567143 0.21297716 1.8330001
-0.22345144 0.21297716 1.8330001
-0.21559572 0.21385001 1.8330001
-0.20686714 0.21559572 1.8330001
-0.19552 0.21996002 1.8330001
-0.18504572 0.21879619 1.8330001
-0.17282572 0.21646857 1.8330001
-0.16409715 0.21763237 1.8330001
-0.15362287 0.21996002 1.8330001
-0.14664 0.21996 1.8330001
-0.13616572 0.21646857 1.8330001
-0.12569143 0.21646857 1.8330001
-0.10125143 0.21646857 1.8330001
-0.090777144 0.21646857 1.8330001
-0.08728572 0.21646857 1.8330001
-0.073320001 0.21996 1.8330001
-0.069828577 0.21996 1.8330001
-0.055862859 0.21996002 1.8330001
-0.048880003 0.21996 1.8330001
-0.034914285 0.21879619 1.8330001
-0.025138289 0.21437374 1.8329999
-0.013965716 0.21297716 1.8330001
-0.005237143 0.21297716 1.8330001
0.0034914287 0.21297716 1.8330001
0.013965715 0.21297716 1.8330001
0.025312858 0.21385001 1.8330001
0.034914285 0.21646857 1.8330001
0.045388568 0.21646857 1.8330001
0.056735717 0.21559572 1.8330001
0.066337146 0.21297716 1.8330001
0.075065717 0.21297716 1.8330001
0.085540004 0.21297716 1.8330001
0.094268583 0.21646857 1.8330001
0.10474286 0.21646857 1.8330001
0.11521715 0.21646857 1.8330001
0.12569143 0.21297716 1.8330001
0.13529286 0.21559572 1.8330001
0.15013143 0.21646857 1.8330001
0.16758858 0.21297716 1.8330001
0.17457144 0.21297716 1.8330001
0.18504572 0.21297716 1.8330001
0.24440001 0.21297716 1.8330001
0.25138286 0.21297716 1.8330001
-0.062845714 0.22345144 1.8330001
-0.22467048 0.20711811 1.8430001
0.073720001 0.20711811 1.8430001
0.31769812 0.20711811 1.8430001
0.32647431 0.20711811 1.8430001
0.33700573 0.20711811 1.8430001
0.37211049 0.20711811 1.8430001
0.39668381 0.20711811 1.8430001
0.40194952 0.20711811 1.8430001
0.41599146 0.20711811 1.8430001
0.42476764 0.20185238 1.8430001
0.45636192 0.20360763 1.8430001
0.46338287 0.20360763 1.8430001
0.47215906 0.20711811 1.8430001
0.48269048 0.20360763 1.8430001
0.49497715 0.20360763 1.8430001
0.5055086 0.20360763 1.8430001
0.51604003 0.20009714 1.8430001
0.52306098 0.20009714 1.8430001
0.54412383 0.20360763 1.8430001
0.55290002 0.20360763 1.8430001
0.56518668 0.20243746 1.8430001
0.57454795 0.20243748 1.8430001
0.58624953 0.20360763 1.8430001
-0.46338287 0.21413906 1.8430001
-0.45636192 0.21413906 1.8430001
-0.44583049 0.21413906 1.8430001
-0.43880954 0.21413906 1.8430001
-0.41599146 0.21764953 1.8430001
-0.40546 0.2158943 1.8430001
-0.37211049 0.21764953 1.8430001
-0.36860001 0.21764953 1.8430001
-0.35280287 0.21764953 1.8430001
-0.34578192 0.21413906 1.8430001
-0.33349526 0.21413906 1.8430001
-0.32822955 0.21764953 1.8430001
-0.28434858 0.21413906 1.8430001
-0.27732763 0.21413906 1.8430001
-0.25977525 0.21413906 1.8430001
-0.24573334 0.2129689 1.8430001
-0.23695715 0.21062858 1.8430001
-0.22291525 0.21062858 1.8430001
-0.21764953 0.21062858 1.8430001
-0.20360762 0.21530922 1.8430001
-0.19483143 0.21764953 1.8430001
-0.18781048 0.21764953 1.8430001
-0.17727906 0.2158943 1.8430001
-0.16148192 0.21764953 1.8430001
-0.1562162 0.21764953 1.8430001
-0.14568476 0.21764953 1.8430001
-0.11584572 0.21764953 1.8430001
-0.10706953 0.21764953 1.8430001
-0.096538097 0.21764953 1.8430001
-0.084251434 0.21764953 1.8430001
-0.045636192 0.21764953 1.8430001
-0.033349525 0.21764953 1.8430001
-0.024573334 0.21062858 1.8430001
-0.012286667 0.21062858 1.8430001
-0.0035104763 0.21062858 1.8430001
0.0017552382 0.21062858 1.8430001
0.014041905 0.21062858 1.8430001
0.024573334 0.21062858 1.8430001
0.035104763 0.21413906 1.8430001
0.045636192 0.21326144 1.8430001
0.056167621 0.2129689 1.8430001
0.064943813 0.21062858 1.8430001
0.070209526 0.21062858 1.8430001
0.086006671 0.21062858 1.8430001
0.094782859 0.21413906 1.8430001
0.10882477 0.21413906 1.8430001
0.11584572 0.21413906 1.8430001
0.12813239 0.21062858 1.8430001
0.13573842 0.21179874 1.8430001
0.14158921 0.2129689 1.8430001
0.15446095 0.21413906 1.8430001
0.16323715 0.21413906 1.8430001
0.17727906 0.21062858 1.8430001
0.18605524 0.21062858 1.8430001
0.24573335 0.21062858 1.8430001
0.25450954 0.21062858 1.8430001
0.28785905 0.21062858 1.8430001
0.29488 0.21062858 1.8430001
0.30541143 0.21062858 1.8430001
0.34753716 0.21062858 1.8430001
0.35104764 0.21062858 1.8430001
0.36157906 0.21062858 1.8430001
-0.43178859 0.22116001 1.8430001
-0.064943813 0.22116001 1.8430001
-0.45648512 0.20588891 1.853
-0.024706667 0.20824189 1.853
-0.01764762 0.20824191 1.853
0.063531429 0.20824189 1.853
0.07412 0.20824191 1.853
0.081179053 0.20824191 1.853
0.29471523 0.20824191 1.853
0.30177432 0.20824191 1.853
0.31412762 0.20824191 1.853
0.34236383 0.20824191 1.853
0.36001143 0.20824191 1.853
0.37412953 0.20647715 1.853
0.38471809 0.20471239 1.853
0.39354193 0.20471239 1.853
0.40942478 0.20824191 1.853
0.4129543 0.20824191 1.853
0.42354289 0.20471239 1.853
0.46589714 0.20294762 1.853
0.47472095 0.20471239 1.853
0.48001525 0.20471239 1.853
0.49060383 0.20471239 1.853
0.50648665 0.20118286 1.853
0.51178098 0.20118286 1.853
0.55590004 0.20118286 1.853
0.56354731 0.20235936 1.853
0.57178289 0.20118286 1.853
-0.4641324 0.21177144 1.853
-0.45530859 0.21177144 1.853
-0.44824955 0.21177144 1.853
-0.43766096 0.21883048 1.853
-0.41471905 0.21530096 1.853
-0.40413049 0.21530096 1.853
-0.39177716 0.21530096 1.853
-0.38471809 0.21530096 1.853
-0.37412953 0.21530096 1.853
-0.36354098 0.21883048 1.853
-0.35471714 0.21530096 1.853
-0.34236383 0.21530096 1.853
-0.33883429 0.21530096 1.853
-0.25589049 0.21530096 1.853
-0.24706668 0.21177144 1.853
-0.2135362 0.21177144 1.853
-0.20471239 0.2135362 1.853
-0.19412382 0.21530096 1.853
-0.18353523 0.21530096 1.853
-0.17294668 0.21530096 1.853
-0.16765238 0.21530096 1.853
-0.15176953 0.21883048 1.853
-0.14294572 0.21530096 1.853
-0.13412191 0.21530096 1.853
-0.1252981 0.21530096 1.853
-0.11470953 0.21530096 1.853
-0.10588572 0.21530096 1.853
-0.095297135 0.21530096 1.853
-0.081179053 0.21883048 1.853
-0.060001906 0.21883048 1.853
-0.054707624 0.21883048 1.853
-0.042354286 0.21530096 1.853
-0.035295241 0.21530096 1.853
-0.0070590479 0.21177144 1.853
0.0070590479 0.21177144 1.853
0.024706667 0.21177144 1.853
0.035295237 0.21177144 1.853
0.045883812 0.21177144 1.853
0.054707624 0.21177144 1.853
0.09529715 0.21177144 1.853
0.10412096 0.21530096 1.853
0.12176858 0.21177144 1.853
0.14647524 0.2135362 1.853
0.15529905 0.21530096 1.853
0.17294668 0.21177144 1.853
0.18353525 0.21177144 1.853
0.19235906 0.21177144 1.853
0.20824191 0.21177144 1.853
0.21530096 0.21177144 1.853
0.22588952 0.21177144 1.853
0.24706668 0.21177144 1.853
0.3670705 0.21177144 1.853
0.51809144 0.19872001 1.863
0.52589828 0.19730058 1.8630002
0.53228575 0.19872001 1.863
0.55712575 0.19872001 1.863
0.56511003 0.19783287 1.863
0.57250285 0.19753714 1.863
-0.46486288 0.20759144 1.863
-0.45320329 0.20581715 1.863
-0.24485144 0.20936573 1.863
-0.23243144 0.20936573 1.863
-0.012420001 0.20936573 1.863
-0.0035485716 0.20936573 1.863
0.0035485716 0.20936573 1.863
0.014194286 0.20936573 1.863
0.056777146 0.20936573 1.863
0.086940005 0.20936573 1.863
0.095811434 0.20936573 1.863
0.12774858 0.20936573 1.863
0.13484572 0.20936573 1.863
0.14194286 0.20936573 1.863
0.17565429 0.20936573 1.863
0.18452573 0.20936573 1.863
0.22533429 0.20936573 1.863
0.2484 0.20936573 1.863
0.25727144 0.20936573 1.863
0.26614287 0.20936573 1.863
0.27324 0.20936573 1.863
0.28566003 0.20936573 1.863
0.29098287 0.20936573 1.863
0.30872571 0.20936573 1.863
0.31227431 0.20936573 1.863
0.3371143 0.20581715 1.863
0.34776002 0.20936573 1.863
0.35485712 0.20936573 1.863
0.36727715 0.20936573 1.863
0.3743743 0.20581715 1.863
0.38502002 0.20226859 1.863
0.39211714 0.20226859 1.863
0.40453714 0.20581715 1.863
0.41518289 0.20581715 1.863
0.42228001 0.20581715 1.863
0.45776573 0.20226859 1.863
0.46486288 0.20226859 1.863
0.4755086 0.20226859 1.863
0.48615432 0.20226859 1.863
0.50212288 0.20226859 1.863
0.53938287 0.20226859 1.863
0.54470575 0.20226859 1.863
0.55180287 0.20226859 1.863
-0.42228001 0.21646287 1.863
-0.41518289 0.21291429 1.863
-0.40453717 0.21409714 1.863
-0.39389145 0.21468857 1.863
-0.37614858 0.21291429 1.863
-0.36550286 0.21646287 1.863
-0.35130858 0.21291429 1.863
-0.34776002 0.21291429 1.863
-0.33356571 0.21528 1.863
-0.20581715 0.21291429 1.863
-0.18452573 0.21291429 1.863
-0.16323429 0.21646287 1.863
-0.15613715 0.21646287 1.863
-0.14904 0.21646287 1.863
-0.13484572 0.21291429 1.863
-0.12242572 0.21468857 1.863
-0.085165717 0.21646287 1.863
-0.053228572 0.21646287 1.863
-0.047905717 0.21646287 1.863
-0.03371143 0.21291429 1.863
0.10468285 0.21291429 1.863
0.11355429 0.21291429 1.863
0.14904 0.21291429 1.863
0.17033143 0.21291429 1.863
0.19872001 0.21291429 1.863
0.20404287 0.21291429 1.863
0.21291429 0.21291429 1.863
0.22001144 0.21291429 1.863
0.24130286 0.21291429 1.863
-0.43470001 0.22001144 1.863
-0.42760289 0.22001144 1.863
-0.074519999 0.22001143 1.863
-0.065648571 0.22001144 1.863
0.43168193 0.19978668 1.8730001
0.46735811 0.19978668 1.8730001
0.47449335 0.19978668 1.8730001
0.4816286 0.19978668 1.8730001
0.50660193 0.19978668 1.8730001
0.51373714 0.19978668 1.8730001
0.54941338 0.19978668 1.8730001
0.55476475 0.19978668 1.8730001
0.56368381 0.19621904 1.8730001
0.57260287 0.19265144 1.8730001
0.58508956 0.19978668 1.8730001
-0.44952002 0.20692191 1.8730001
-0.028540954 0.20692191 1.8730001
-0.017838096 0.20692191 1.8730001
0.012486667 0.20692191 1.8730001
0.064217143 0.20692189 1.8730001
0.074920006 0.20692189 1.8730001
0.085622862 0.20692191 1.8730001
0.094541907 0.20692191 1.8730001
0.13200191 0.20692191 1.8730001
0.26043621 0.20692191 1.8730001
0.28897715 0.20692191 1.8730001
0.29611239 0.20692189 1.8730001
0.30503142 0.20692191 1.8730001
0.32108572 0.20692191 1.8730001
0.34249145 0.20692191 1.8730001
0.36568096 0.20692191 1.8730001
0.37103239 0.20692191 1.8730001
0.39957336 0.2033543 1.8730001
0.4055194 0.20454352 1.8730001
0.41473573 0.20424621 1.8730001
0.42454669 0.2033543 1.8730001
0.49768287 0.2033543 1.8730001
-0.44595242 0.21405716 1.8730001
-0.43524957 0.21762477 1.8730001
-0.4281143 0.21762477 1.8730001
-0.41384381 0.21227333 1.8730001
-0.40492478 0.21227333 1.8730001
-0.39600572 0.21286793 1.8730001
-0.3860164 0.21191657 1.8730001
-0.37281621 0.21227333 1.8730001
-0.36389717 0.21405715 1.8730001
-0.35676193 0.21405715 1.8730001
-0.34427524 0.21405715 1.8730001
-0.32465336 0.21762477 1.8730001
-0.29254478 0.21762477 1.8730001
-0.2425981 0.21048953 1.8730001
-0.23903048 0.21048953 1.8730001
-0.2033543 0.21227333 1.8730001
-0.19621904 0.21405715 1.8730001
-0.18551619 0.21405715 1.8730001
-0.17659715 0.21405715 1.8730001
-0.14627241 0.21405715 1.8730001
-0.12486666 0.21405715 1.8730001
-0.11416382 0.21405715 1.8730001
-0.10346095 0.21405715 1.8730001
-0.098109528 0.21405715 1.8730001
-0.082055241 0.21405715 1.8730001
-0.074206479 0.21619773 1.8730001
-0.064217143 0.21584095 1.8730001
-0.055892702 0.21524636 1.8730001
-0.046379048 0.21405715 1.8730001
-0.035676192 0.21167873 1.8730001
-0.0071352385 0.21048953 1.8730001
0.0035676192 0.21048953 1.8730001
0.024973335 0.21048953 1.8730001
0.035676192 0.21048953 1.8730001
0.046379048 0.21048953 1.8730001
0.053514287 0.21048953 1.8730001
0.10524476 0.21048953 1.8730001
0.11238001 0.21048953 1.8730001
0.12486667 0.21048953 1.8730001
0.14627239 0.21048953 1.8730001
0.15519142 0.21405715 1.8730001
0.16232666 0.21405715 1.8730001
0.17124572 0.21048953 1.8730001
0.18551619 0.21048953 1.8730001
0.19443524 0.21048953 1.8730001
0.20692191 0.21048953 1.8730001
0.21405715 0.21048953 1.8730001
0.22119239 0.21048953 1.8730001
0.23546286 0.21286793 1.8730001
0.2443819 0.21048953 1.8730001
0.25330096 0.21048953 1.8730001
0.2782743 0.21048953 1.8730001
0.2818419 0.21048953 1.8730001
-0.39632666 0.19726667 1.8830001
0.48240668 0.19726667 1.8830001
0.51648003 0.19726667 1.8830001
0.52006668 0.19726667 1.8830001
0.55832446 0.1960711 1.883
0.56490004 0.19368 1.8830001
0.57028002 0.19368 1.8830001
0.58462667 0.19726665 1.883
-0.45192 0.20444001 1.8830001
-0.44564337 0.20713001 1.8830001
-0.41246668 0.20802668 1.8830001
-0.40529335 0.20802669 1.883
-0.39555809 0.20444001 1.8830003
-0.3748067 0.20802668 1.8830001
-0.36584005 0.20802669 1.883
-0.35866669 0.20802668 1.8830001
-0.032280002 0.20802668 1.8830001
-0.0053800005 0.20802668 1.8830001
0.0017933334 0.20802668 1.8830001
0.017933333 0.20802668 1.8830001
0.02152 0.20802668 1.8830001
0.034073334 0.20802668 1.8830001
0.053800002 0.20802669 1.883
0.08787334 0.20623335 1.8830001
0.096840002 0.20444001 1.8830001
0.10222 0.20802668 1.8830001
0.12732667 0.20802668 1.8830001
0.13808668 0.20802668 1.8830001
0.14346667 0.20802668 1.8830001
0.17574668 0.20802669 1.883
0.18471333 0.20802668 1.8830001
0.19368 0.20802669 1.883
0.21520001 0.20802669 1.883
0.22775334 0.20802668 1.8830001
0.24748001 0.20802668 1.8830001
0.25465333 0.20802669 1.883
0.26720667 0.20802668 1.8830001
0.27438003 0.20802668 1.8830001
0.28693333 0.20802668 1.8830001
0.30486667 0.20444001 1.883
0.31562668 0.20802669 1.883
0.32818002 0.20802668 1.8830001
0.33535334 0.20802668 1.8830001
0.34790668 0.20802668 1.8830001
0.35508001 0.20802669 1.883
0.36225334 0.20802668 1.8830001
0.37660003 0.20444001 1.8830001
0.38198 0.20444001 1.8830001
0.46447337 0.20085335 1.8830001
0.48778668 0.20085335 1.8830001
0.49495998 0.20085335 1.883
0.50213337 0.20085335 1.8830001
-0.44385001 0.21251002 1.8830001
-0.43398666 0.21520002 1.8830001
-0.42561778 0.21280891 1.883
-0.41784668 0.21161334 1.8830001
-0.40350002 0.21161334 1.8830001
-0.39812002 0.21161334 1.8830001
-0.38018668 0.21161334 1.8830001
-0.37301335 0.21161334 1.8830001
-0.36584005 0.21161334 1.883
-0.35508001 0.21161334 1.883
-0.34252667 0.21161334 1.8830001
-0.33535334 0.21520001 1.8830001
-0.31204 0.21878667 1.8830001
-0.30845335 0.21878667 1.8830001
-0.29769334 0.21878667 1.8830001
-0.20085335 0.21161334 1.8830001
-0.19368 0.21161334 1.883
-0.18650667 0.21161334 1.8830001
-0.17216 0.21520001 1.8830001
-0.16498667 0.21520001 1.883
-0.15602002 0.21520001 1.8830001
-0.14526001 0.21161334 1.8830001
-0.13629334 0.21161334 1.883
-0.12553334 0.21161334 1.8830001
-0.11836001 0.21161334 1.8830001
-0.1076 0.21520001 1.8830001
-0.093253337 0.21520001 1.8830001
-0.08787334 0.21520001 1.8830001
-0.075320005 0.21280891 1.883
-0.064560004 0.21161334 1.883
-0.053800002 0.21161334 1.883
-0.044833332 0.21161334 1.8830001
-0.039453335 0.21161334 1.8830001
0.11836001 0.21161334 1.8830001
0.12194667 0.21161334 1.8830001
0.15422668 0.21161334 1.883
0.16857333 0.21520001 1.8830001
0.20264667 0.21161334 1.8830001
0.23672001 0.21161334 1.8830001
0.24030668 0.21161334 1.8830001
0.4906362 0.19841905 1.8940001
0.51588953 0.19841905 1.8940001
0.52671242 0.19841905 1.8940001
0.53032005 0.19841905 1.8940001
0.55557334 0.19661523 1.8940001
0.57541525 0.19120382 1.8940001
-0.44373715 0.20683683 1.8940001
-0.42209145 0.20924191 1.8940001
-0.41487622 0.20683683 1.8940001
-0.40585715 0.2056343 1.8940001
-0.37699622 0.2056343 1.8940001
-0.35715431 0.20924191 1.8940001
-0.14069715 0.20924191 1.8940001
-0.073956192 0.20924191 1.8940001
-0.064937152 0.20924191 1.8940001
-0.052310478 0.20924191 1.8940001
-0.045095243 0.20924191 1.8940001
-0.037880003 0.20924191 1.8940001
-0.010822858 0.20924191 1.8940001
0.0072152382 0.20924191 1.8940001
0.010822858 0.2056343 1.8940001
0.027057145 0.20924191 1.8940001
0.039683811 0.20924191 1.8940001
0.045095243 0.20924191 1.8940001
0.093798101 0.2056343 1.8940001
0.10822857 0.20924191 1.8940001
0.11364 0.20924191 1.8940001
0.12807047 0.2056343 1.8940001
0.13528572 0.2056343 1.8940001
0.14430477 0.20683683 1.8940001
0.15332381 0.20924191 1.8940001
0.16234286 0.20924191 1.8940001
0.17496952 0.2056343 1.8940001
0.2056343 0.20924191 1.8940001
0.21465334 0.2056343 1.8940001
0.22186857 0.20743811 1.8940001
0.23629907 0.20924191 1.8940001
0.2435143 0.20924191 1.8940001
0.25614095 0.2056343 1.8940001
0.26335621 0.2056343 1.8940001
0.27237526 0.2056343 1.8940001
0.28319812 0.20924191 1.8940001
0.29582477 0.2056343 1.8940001
0.31566668 0.2056343 1.8940001
0.32107812 0.2056343 1.8940001
0.34993905 0.2056343 1.8940001
0.35354668 0.2056343 1.8940001
0.36436954 0.2056343 1.8940001
0.37278733 0.20443176 1.8940001
0.38601527 0.20202668 1.8940001
0.3932305 0.20202668 1.8940001
0.41487622 0.20202668 1.8940001
0.42569908 0.20202668 1.8940001
0.45816764 0.2056343 1.8940001
0.46177524 0.2056343 1.8940001
0.50867432 0.20202668 1.8940001
0.54655433 0.20202668 1.8940001
0.55196571 0.20202668 1.8940001
-0.44012955 0.21284953 1.8940001
-0.43652192 0.21284953 1.8940001
-0.34993905 0.21284953 1.8940001
-0.33550858 0.21405207 1.8940001
-0.32829335 0.21645714 1.8940001
-0.29402095 0.21645714 1.8940001
-0.28500193 0.21645714 1.8940001
-0.20924191 0.21284953 1.8940001
-0.18398857 0.21284953 1.8940001
-0.15512763 0.21284954 1.8940001
-0.12626667 0.21284953 1.8940001
-0.11364 0.21284953 1.8940001
-0.10281715 0.21284953 1.8940001
-0.082975239 0.21284953 1.8940001
-0.079367623 0.21284953 1.8940001
0.16595048 0.21284954 1.8940001
-0.32107812 0.22006477 1.8940001
-0.31747049 0.22006477 1.8940001
-0.30484381 0.22006477 1.8940001
0.37354669 0.19946668 1.904
0.41344002 0.19946668 1.904
0.42431998 0.19946666 1.9039999
0.47328001 0.19946668 1.904
0.48234668 0.19946668 1.904
0.49685335 0.19946668 1.904
0.5041067 0.19946666 1.9039999
0.51317334 0.19946668 1.904
0.53493333 0.19584 1.904
0.54472536 0.19729067 1.904
0.55246228 0.1970489 1.9039999
0.56576002 0.19221334 1.9039999
0.57301337 0.19221334 1.904
-0.44970667 0.20309334 1.904
-0.42250669 0.20672001 1.904
-0.39168 0.20672001 1.904
-0.38442668 0.20490667 1.904
-0.37354669 0.20672001 1.904
-0.052586667 0.20672001 1.904
0.0036266667 0.20672001 1.9039999
0.014506667 0.20672001 1.904
0.034453336 0.20672001 1.904
0.052586667 0.20672001 1.904
0.10517333 0.20672001 1.9039999
0.11605334 0.20672001 1.9039999
0.14869334 0.20672001 1.904
0.15594669 0.20672001 1.9039999
0.16440891 0.20551111 1.9039999
0.17408 0.20430224 1.9039999
0.18314667 0.20672001 1.904
0.19946668 0.20672001 1.904
0.20672001 0.20672001 1.904
0.21034667 0.20672001 1.904
0.22666667 0.20672001 1.904
0.23573333 0.20672001 1.9039999
0.2448 0.20672001 1.904
0.25024 0.20672001 1.904
0.26837334 0.20672001 1.904
0.27562666 0.20430224 1.9039999
0.28469336 0.20672001 1.904
0.29376 0.20490667 1.904
0.30645335 0.20309334 1.904
0.31189334 0.20309334 1.904
0.32640001 0.20672001 1.904
0.33002669 0.20672001 1.904
0.34544003 0.20581335 1.904
0.35632002 0.204 1.904
0.36629334 0.20309334 1.9039999
0.37717333 0.20309334 1.904
0.38080001 0.20309334 1.904
0.39893335 0.20309334 1.904
0.4061867 0.20309334 1.9039999
0.41706669 0.20309334 1.904
0.43520001 0.20309334 1.904
0.46240002 0.20309334 1.904
-0.43520001 0.21034665 1.9039999
-0.42794669 0.21034667 1.904
-0.39349335 0.21034667 1.904
-0.38624001 0.21034667 1.904
-0.35360003 0.21034667 1.904
-0.34634668 0.21034667 1.904
-0.33365336 0.21216001 1.904
-0.32458669 0.2176 1.904
-0.31552002 0.2176 1.9039999
-0.30464002 0.2176 1.9039999
-0.29557335 0.21397334 1.904
-0.28650668 0.2176 1.904
-0.27925333 0.2176 1.904
-0.26112002 0.2176 1.904
-0.25386667 0.21397334 1.9039999
-0.2448 0.21034667 1.904
-0.23936 0.21034667 1.904
-0.22485335 0.21397334 1.9039999
-0.21578667 0.21397334 1.904
-0.18133333 0.21397334 1.904
-0.17589334 0.21397334 1.904
-0.16320001 0.21397334 1.904
-0.15232001 0.21034667 1.904
-0.14688 0.21034667 1.904
-0.13600001 0.21034667 1.904
-0.10698666 0.21216001 1.904
-0.094293334 0.21397334 1.9039999
-0.08704 0.21397334 1.904
-0.058026668 0.21034667 1.904
-0.023573333 0.21034667 1.904
0.11968 0.21034667 1.904
0.12330667 0.21034667 1.904
0.15957335 0.21034667 1.904
0.16682667 0.21034667 1.904
0.17045334 0.21034667 1.904
0.56902862 0.1896762 1.9150001
0.57449996 0.1896762 1.9150001
-0.39759049 0.19697143 1.9150001
0.36476192 0.19697143 1.9150001
0.4176524 0.19697143 1.9150001
0.42494762 0.19697143 1.9150001
0.43041906 0.19697143 1.9150001
0.4778381 0.19697143 1.9150001
0.5562619 0.19332382 1.9150001
0.56173337 0.19332382 1.9150001
-0.44500956 0.20669842 1.9150001
-0.4358905 0.20791429 1.9150001
-0.41947621 0.20426667 1.9150001
-0.39394286 0.20244287 1.9150001
-0.38664764 0.20609048 1.9150001
-0.37205717 0.20791429 1.9150001
-0.35381907 0.20791429 1.9150001
-0.34652382 0.20791429 1.9150001
-0.3364929 0.20700239 1.9150001
-0.25168571 0.20791429 1.9150001
-0.24439049 0.20791429 1.9150001
-0.072952382 0.20791429 1.9150001
-0.067480952 0.20791429 1.9150001
-0.043771431 0.20791429 1.9150001
-0.0036476192 0.20791429 1.9150001
0.014590477 0.20609048 1.9150001
0.025533333 0.20791429 1.9150001
0.036476191 0.20426667 1.9150001
0.043771431 0.20791429 1.9150001
0.051066667 0.20426667 1.9150001
0.069304764 0.20791429 1.9150001
0.087542862 0.20791429 1.9150001
0.10942858 0.20244285 1.9150001
0.11490001 0.20426667 1.9150001
0.12401905 0.20548254 1.9150001
0.1349619 0.20426667 1.9150001
0.14590478 0.20426667 1.9150001
0.15502381 0.20426667 1.9150001
0.16414288 0.20426667 1.9150001
0.1714381 0.20426667 1.9150001
0.18602857 0.20609048 1.9150001
0.19514763 0.20791429 1.9150001
0.20426667 0.20791429 1.9150001
0.21520953 0.20426667 1.9150001
0.2279762 0.20426667 1.9150001
0.2462143 0.20426667 1.9150001
0.25533333 0.20426667 1.9150001
0.26627621 0.20426667 1.9150001
0.28451431 0.20426667 1.9150001
0.29363334 0.20426667 1.9150001
0.30275241 0.20426667 1.9150001
0.31734288 0.20426667 1.9150001
0.3209905 0.20426667 1.9150001
0.33740479 0.20791429 1.9150001
0.34470001 0.20426667 1.9150001
0.35381904 0.20061906 1.9150001
0.36476192 0.20061906 1.9150001
0.37570477 0.20061906 1.9150001
0.38482383 0.20061906 1.9150001
0.40488574 0.20061906 1.9150001
0.41582859 0.20061906 1.9150001
0.4358905 0.20061906 1.9150001
0.44500956 0.20061906 1.9150001
0.45595241 0.20244287 1.9150001
0.46507144 0.20061906 1.9150001
0.47054288 0.20061906 1.9150001
0.48148572 0.20061906 1.9150001
-0.3428762 0.21156192 1.9150001
-0.33193335 0.21156192 1.9150001
-0.32463813 0.21520953 1.9150001
-0.31369525 0.21520953 1.9150001
-0.30457622 0.21520953 1.9150001
-0.29545715 0.21338573 1.9150001
-0.28633809 0.21520953 1.9150001
-0.27539524 0.21885715 1.9150001
-0.26627621 0.21764128 1.9150001
-0.25715715 0.21338573 1.9150001
-0.23527144 0.21156192 1.9150001
-0.20244285 0.21156192 1.9150001
-0.1714381 0.21520953 1.9150001
-0.16414286 0.21277779 1.9150001
-0.15684763 0.21156192 1.9150001
-0.12037143 0.21156192 1.9150001
-0.11490001 0.21156192 1.9150001
-0.10578096 0.21156192 1.9150001
-0.098485716 0.21156192 1.9150001
-0.082071438 0.21156192 1.9150001
0.57749999 0.18516669 1.9250001
-0.34100002 0.19800001 1.9250001
-0.33733335 0.19800001 1.9250001
-0.24383335 0.19800001 1.9250001
0.37400001 0.19800001 1.9250001
0.38133335 0.19800001 1.9250001
0.41433334 0.19677778 1.9250001
0.42533335 0.19433334 1.9250001
0.43633336 0.19800001 1.9250001
0.4436667 0.19800001 1.9250001
0.4546667 0.19800001 1.9250001
0.46566668 0.19800001 1.9250001
0.47483337 0.19800001 1.9250001
0.49683332 0.19800001 1.9250001
0.53350002 0.19800001 1.9250001
0.55366671 0.19433334 1.9250001
0.56650001 0.19066668 1.9250001
-0.4436667 0.20533334 1.9250001
-0.43266669 0.20900001 1.9250001
-0.4271667 0.20533334 1.9250001
-0.41188893 0.20411111 1.9250001
-0.36666667 0.20900001 1.9250001
-0.352 0.20900001 1.9250001
-0.34100002 0.20166667 1.9250001
-0.3361111 0.20411111 1.9250001
-0.32266667 0.20533334 1.9250001
-0.31753334 0.20606668 1.925
-0.30066669 0.20716667 1.9250001
-0.25544444 0.20655556 1.9250001
-0.24383335 0.2035 1.9250001
-0.23650001 0.20900001 1.9250001
-0.20166667 0.20900001 1.9250001
-0.077 0.20900001 1.9250001
-0.062333334 0.20900001 1.9250001
-0.058666669 0.20900001 1.9250001
-0.044 0.20900001 1.9250001
-0.034833334 0.20900001 1.9250001
-0.0073333336 0.20900001 1.9250001
0.0036666666 0.20533334 1.9250001
0.014666667 0.20533334 1.9250001
0.025666667 0.20900001 1.9250001
0.033 0.20533334 1.9250001
0.044 0.20533334 1.9250001
0.056833334 0.20716667 1.9250001
0.093500003 0.20533334 1.9250001
0.1045 0.20533334 1.9250001
0.11733334 0.20166667 1.9250001
0.12466667 0.20288889 1.9250001
0.13566667 0.20166667 1.9250001
0.15766667 0.20166667 1.9250001
0.16500001 0.20166667 1.9250001
0.176 0.20166667 1.9250001
0.18700001 0.20533334 1.9250001
0.19800001 0.20533334 1.9250001
0.20533334 0.20533334 1.9250001
0.21633334 0.20166667 1.9250001
0.22366667 0.20533334 1.9250001
0.23650001 0.20533334 1.9250001
0.24200001 0.20533334 1.9250001
0.25483334 0.20166667 1.9250001
0.264 0.20166667 1.9250001
0.27500001 0.20166667 1.9250001
0.28233334 0.20166667 1.9250001
0.32633334 0.20533334 1.9250001
0.33366668 0.20533334 1.9250001
0.39600003 0.20166667 1.9250001
-0.33000001 0.21266668 1.9250001
-0.32450002 0.21266668 1.9250001
-0.31533334 0.21266668 1.9250001
-0.30616668 0.21266668 1.9250001
-0.29516667 0.21266668 1.9250001
-0.28600001 0.21450001 1.9250001
-0.27500001 0.21633334 1.9250001
-0.26400003 0.2138889 1.9250001
