# .PCD v0.7 - Point Cloud Data file format
VERSION 0.7
FIELDS x y z
SIZE 4 4 4
TYPE F F F
COUNT 1 1 1
WIDTH 1516
HEIGHT 1
VIEWPOINT 0 0 0 1 0 0 0
POINTS 1516
DATA ascii
-0.11464477 0.23871239 1.649
-0.10522191 0.23871239 1.649
-0.094228573 0.23871239 1.649
-0.08480572 0.23871239 1.649
-0.074418575 0.23734811 1.645
-0.066505238 0.23705858 1.6430001
-0.054833338 0.23656285 1.645
-0.044701427 0.23606716 1.6470001
-0.034433652 0.23376255 1.6436666
-0.025092065 0.23309653 1.6463333
-0.015666666 0.23342954 1.645
-0.006268844 0.23418204 1.6455715
0.0047000004 0.23214859 1.6470001
0.015628571 0.23130287 1.6410002
0.02512762 0.2324305 1.649
0.035108574 0.23322973 1.6458
0.043870479 0.23342954 1.645
0.053309843 0.23205464 1.6463333
0.075144134 0.23167874 1.6436667
0.08480572 0.2324305 1.649
0.092208579 0.23130287 1.641
0.13440572 0.23130287 1.6410002
0.14065714 0.23130287 1.641
0.18441714 0.23130287 1.6410002
0.1937943 0.23130287 1.6410002
0.20629716 0.23130287 1.6410002
0.21723714 0.23130287 1.641
0.22505142 0.23130287 1.6410002
0.23442858 0.23130287 1.6410002
0.26568571 0.23130287 1.6410002
0.27193716 0.23130287 1.641
0.30475715 0.23130287 1.641
0.31726003 0.23130287 1.641
0.32194859 0.23130287 1.641
0.47823429 0.23130287 1.641
0.48331857 0.23578145 1.645
-0.12354413 0.24708827 1.649
-0.11634395 0.24341771 1.6444285
-0.10471143 0.24068001 1.641
-0.093771435 0.24068002 1.6410002
-0.084394284 0.24068002 1.6410002
-0.078142859 0.24068001 1.641
0.48645192 0.2420481 1.645
0.49073717 0.24536857 1.641
-0.12375353 0.25504535 1.6489999
-0.11619174 0.25498351 1.6436666
-0.10225552 0.25675511 1.6409999
-0.0933249 0.25720161 1.6409999
-0.12406762 0.26226956 1.649
-0.11634613 0.26400167 1.6444285
-0.10477115 0.26463541 1.6455715
-0.093926348 0.26455462 1.6436667
-0.085019432 0.2650606 1.641
-0.078142859 0.26881143 1.641
0.22724572 0.22724572 1.6570001
0.23513621 0.22724572 1.6570001
0.24460477 0.22724572 1.6570001
0.25880763 0.22724572 1.6570001
0.26196381 0.22724572 1.6570001
0.27458858 0.22724572 1.6570001
0.29510382 0.22724572 1.6570001
0.30678171 0.22598323 1.6569999
0.31561905 0.22408955 1.6570001
0.32508764 0.22408955 1.6570001
0.33455622 0.22408955 1.6570001
0.34244668 0.22408953 1.6570001
0.35980573 0.22724572 1.6570001
0.36927429 0.22724572 1.6570001
0.37558666 0.22724573 1.6570001
0.38505521 0.22724573 1.6570001
0.39610192 0.22724572 1.6570001
0.40399241 0.22724573 1.6570001
0.41451302 0.22619367 1.6570001
0.42766383 0.22408953 1.6570001
0.4355543 0.22303748 1.6570001
0.44502288 0.22408953 1.6570001
0.45512265 0.22219582 1.6569999
0.46396002 0.22198541 1.6570001
0.47500667 0.22251144 1.6570001
0.48605335 0.22619367 1.6570001
-0.13256 0.23987049 1.6570001
-0.12624763 0.23987049 1.6570001
-0.11520094 0.23592523 1.6569998
-0.10494334 0.23592524 1.6570001
-0.094685726 0.23671429 1.6570001
-0.085217148 0.23671429 1.6570001
-0.075748578 0.2351362 1.6570001
-0.065648772 0.23482057 1.6569999
-0.055233333 0.2335581 1.6570001
-0.041030478 0.2335581 1.6570001
-0.036296193 0.2335581 1.6570001
-0.022093333 0.2335581 1.6570001
-0.018937144 0.23040192 1.6570001
-0.0047342856 0.23040192 1.6570001
0.0047342861 0.23040192 1.6570001
0.015780954 0.23040192 1.6570001
0.02367143 0.23040192 1.6570001
0.034718096 0.23040192 1.6570001
0.044186667 0.23198001 1.6570001
0.055759367 0.23040192 1.6570001
0.069436193 0.23040192 1.6570001
0.078904763 0.23040192 1.6570001
0.085217148 0.23040192 1.6570001
0.094685718 0.23040192 1.6570001
0.10415429 0.23040192 1.6570001
0.11677905 0.23040192 1.6570001
0.12624763 0.23040192 1.6570001
0.13413811 0.23040192 1.6570001
0.18937144 0.23040192 1.6570001
0.20515239 0.23040192 1.6570001
0.21462095 0.23040192 1.6570001
0.2714324 0.23040192 1.6570001
0.48920953 0.2335581 1.6570001
0.49236572 0.2351362 1.6570001
-0.13413811 0.24618287 1.6569999
-0.12729968 0.24513082 1.6569999
0.49552193 0.24302667 1.6570001
-0.13413811 0.25565144 1.6569999
-0.12861477 0.2548624 1.6570001
-0.14329104 0.26575127 1.6569999
-0.1357162 0.26354191 1.6569999
-0.12940381 0.26354191 1.6570001
0.45034286 0.21882857 1.6650001
0.4741286 0.21882857 1.6650001
-0.0031714286 0.22834286 1.6650001
0.0095142862 0.22834286 1.6650001
0.015857143 0.22834285 1.6650001
0.031714287 0.22834286 1.6650001
0.047571432 0.22834286 1.6650001
0.050742857 0.22834286 1.6650001
0.085628577 0.22834285 1.6650001
0.093557149 0.22834286 1.6650001
0.10148571 0.22834286 1.6650001
0.12368572 0.22834285 1.6650001
0.1332 0.22834285 1.6650001
0.18394287 0.22834285 1.6650001
0.19504288 0.22834286 1.6650001
0.20614286 0.22834285 1.6650001
0.21565713 0.22834285 1.6650001
0.22517143 0.22675714 1.6650001
0.23468572 0.22517143 1.6650001
0.24102858 0.22517143 1.6650001
0.26798573 0.22834286 1.6650001
0.27591431 0.22834286 1.6650001
0.2886 0.22834286 1.6650001
0.29652858 0.22834286 1.6650001
0.30445716 0.2241143 1.6650001
0.31397143 0.222 1.6650001
0.32560003 0.222 1.6650001
0.33617142 0.222 1.6650001
0.34568572 0.22358572 1.6650001
0.35202858 0.22517143 1.6650001
0.3742286 0.22517143 1.6650001
0.41704285 0.22517143 1.6650001
0.42497143 0.22517143 1.6650001
0.44558573 0.222 1.6650001
0.45034286 0.222 1.6650001
0.46302858 0.222 1.6650001
0.47888574 0.222 1.6650001
0.48522863 0.22305715 1.6650001
-0.15381429 0.23785715 1.6650001
-0.14588572 0.23785715 1.6650001
-0.13425715 0.2368 1.6650001
-0.12305143 0.23532 1.6650002
-0.11417142 0.23151429 1.6650001
-0.10307142 0.23468572 1.6650001
-0.095142864 0.23468572 1.6650001
-0.085628577 0.23468572 1.6650001
-0.079285719 0.23468572 1.6650001
-0.061842859 0.23151429 1.6650001
-0.057085715 0.23151429 1.6650001
-0.045985717 0.23468572 1.6650001
-0.023785714 0.23151429 1.6650001
-0.014271429 0.23151429 1.6650001
-0.0095142862 0.23151429 1.6650001
0.028542858 0.23151429 1.6650001
0.034885716 0.23151429 1.6650001
0.042814288 0.23151429 1.6650001
0.053914286 0.23151429 1.6650001
0.076114289 0.23151429 1.6650001
0.49791431 0.23785715 1.6650001
-0.16174287 0.24102858 1.6650001
-0.1544939 0.24374695 1.6650001
-0.14588571 0.24419999 1.6650001
-0.13875 0.24340715 1.6650001
0.49791431 0.24102858 1.6650001
0.50214291 0.24525714 1.6650001
-0.15302144 0.25450715 1.6650001
-0.14588572 0.25371432 1.6650001
-0.13954286 0.25371432 1.6650001
-0.15494694 0.26232249 1.6650001
-0.1472449 0.2632286 1.6650001
-0.13954286 0.26005715 1.6650001
0.34097335 0.21988001 1.6730001
0.44772667 0.21988001 1.6730001
0.45728669 0.21988001 1.6730001
0.46206668 0.21988001 1.6730001
0.47162667 0.21988001 1.6730001
0.48278004 0.21988001 1.6730001
-0.12109334 0.22944 1.6730001
-0.11631334 0.22944 1.6730001
-0.01912 0.22944 1.6730001
-0.0079666674 0.22944 1.6730001
0.0031866666 0.22944002 1.673
0.036646668 0.22944 1.6730001
0.043020003 0.22944 1.6730001
0.055766668 0.22944 1.6730001
0.063733339 0.22944002 1.673
0.075417779 0.22944002 1.673
0.084446669 0.22625335 1.6730001
0.095600002 0.22784668 1.6730001
0.10675334 0.22944 1.6730001
0.11472001 0.22944002 1.673
0.13224667 0.22625335 1.6730001
0.14818001 0.22944 1.6730001
0.16730002 0.22944 1.6730001
0.17526667 0.22944002 1.673
0.21988001 0.22625335 1.6730001
0.22306667 0.22625335 1.6730001
0.24696667 0.22625335 1.6730001
0.25493336 0.22625335 1.673
0.26449335 0.22625335 1.673
0.27405334 0.22625335 1.673
0.28520668 0.22944 1.6730001
0.30592 0.22306667 1.6730001
0.32504001 0.22306667 1.6730001
0.34734669 0.22306667 1.6730001
0.35372004 0.2241289 1.673
0.36540446 0.22625335 1.673
0.37602669 0.22625335 1.6730001
0.38399333 0.22625335 1.6730001
0.39196002 0.22625335 1.6730001
0.41267335 0.22625335 1.6730001
0.42064002 0.22306667 1.6730001
0.43444893 0.22306667 1.673
0.49393335 0.22625333 1.673
-0.16358222 0.23793779 1.673
-0.15694334 0.23661 1.6730001
-0.14393112 0.23475111 1.6730002
-0.13384001 0.23342334 1.6730001
-0.12640445 0.23368889 1.673
-0.10516001 0.23262668 1.673
-0.092413336 0.23262668 1.6730001
-0.073293336 0.23262668 1.673
-0.066920005 0.23262668 1.6730001
-0.052580003 0.23262668 1.6730001
-0.035053335 0.23262668 1.673
-0.02868 0.23262668 1.6730001
0.073293336 0.23262668 1.6730001
0.50136894 0.23581333 1.673
-0.17208 0.24537332 1.673
-0.16570668 0.24537335 1.6730002
-0.15933333 0.24696667 1.6730001
0.50747669 0.24298334 1.6730001
0.51305336 0.24378002 1.6730001
-0.16252001 0.25493336 1.673
-0.15805867 0.254296 1.6730001
-0.16252001 0.26289999 1.6730001
0.46107429 0.21772954 1.6810001
0.47548288 0.21772954 1.6810001
0.48348764 0.21772952 1.6810001
-0.11847048 0.22733524 1.6810001
0.0096057151 0.22733524 1.6810001
0.016009524 0.22733526 1.6810001
0.02561524 0.22733526 1.6810001
0.035220955 0.22733526 1.6810001
0.044826668 0.22733526 1.6810001
0.064038098 0.22733524 1.6810001
0.073643811 0.22733526 1.6810001
0.084850475 0.22733524 1.6810001
0.097658098 0.22733524 1.6810001
0.10566286 0.22733526 1.6810001
0.11526858 0.22733526 1.6810001
0.12567477 0.22653475 1.6810001
0.13448 0.22520065 1.6810001
0.14408572 0.22733526 1.6810001
0.16970097 0.22733524 1.6810001
0.17610477 0.22733526 1.6810001
0.18571049 0.22733526 1.6810001
0.1985181 0.22733524 1.6810001
0.20492192 0.22733526 1.6810001
0.21452762 0.22733526 1.6810001
0.22733524 0.22413334 1.6810001
0.23373906 0.22413333 1.6810001
0.27536383 0.22413333 1.6810001
0.28496954 0.22733526 1.6810001
0.29457524 0.22733526 1.6810001
0.30258 0.22573429 1.6810001
0.31218573 0.22093144 1.6810001
0.33940193 0.22093144 1.6810001
0.34740669 0.22093144 1.6810001
0.35861334 0.22413334 1.6810001
0.36501715 0.2249338 1.6810001
0.37462291 0.22413333 1.6810001
0.38102669 0.22413334 1.6810001
0.39383429 0.22733524 1.6810001
0.40504098 0.22733524 1.6810001
0.41784859 0.22413334 1.6810001
0.42585334 0.22306605 1.6810001
0.43866098 0.22413334 1.6810001
0.44506478 0.22093144 1.6810001
0.46747813 0.22093144 1.6810001
0.47068003 0.22093144 1.6810001
0.48989144 0.22093144 1.6810001
0.49693561 0.22349295 1.6810001
0.50269908 0.22733524 1.6810001
-0.17290287 0.23694097 1.6810001
-0.16436446 0.23427272 1.6810001
-0.15449192 0.23293859 1.6810001
-0.14728762 0.23373906 1.6810001
-0.12487429 0.23053715 1.6810001
-0.11206667 0.23053715 1.6810001
-0.10726382 0.23053715 1.6810001
-0.097658098 0.23373906 1.6810001
-0.084850475 0.23373906 1.6810001
-0.073643811 0.23053713 1.6810001
-0.065639049 0.23053715 1.6810001
-0.057634287 0.23053715 1.6810001
-0.044826668 0.23373906 1.6810001
-0.02561524 0.23053713 1.6810001
-0.014408572 0.23053715 1.6810001
0.027216192 0.23053715 1.6810001
0.073643811 0.23053715 1.6810001
0.14248477 0.23053715 1.6810001
0.15529239 0.23053715 1.6810001
0.1616962 0.23053715 1.6810001
0.50590098 0.23453954 1.6810001
-0.17717206 0.24441205 1.681
-0.16970097 0.24494573 1.6810001
-0.17397016 0.2540178 1.6810001
-0.1681 0.25615239 1.6810001
-0.1681 0.26415715 1.6810001
0.13584 0.21993144 1.6980001
0.36709145 0.21993144 1.6980001
0.37517715 0.21993144 1.6980001
0.38326287 0.21993144 1.6980001
0.41722289 0.21993144 1.6980001
0.42304459 0.21863773 1.6980002
0.43339431 0.21993144 1.6980001
0.45459685 0.21924065 1.6926666
0.46547431 0.21760762 1.6900002
0.47583166 0.21693258 1.6948
0.48676002 0.21669716 1.6980001
0.49473143 0.218016 1.6932001
0.50616574 0.21993144 1.6980001
-0.18112001 0.2296343 1.6980001
-0.17465144 0.2296343 1.6980001
-0.16443557 0.22891302 1.6926666
-0.15524572 0.2296343 1.6980001
-0.13260572 0.2296343 1.6980001
-0.12503524 0.22828478 1.694
-0.11535524 0.22747619 1.694
-0.10741048 0.22855525 1.6960001
-0.092177145 0.2296343 1.6980001
-0.084091425 0.2296343 1.6980001
-0.073317148 0.22801429 1.692
-0.06514971 0.22769144 1.6932001
-0.056462862 0.22909334 1.694
-0.025752382 0.22855239 1.6900001
-0.016095238 0.22855239 1.6900001
-0.0064380956 0.22855239 1.6900001
0.003224127 0.22891302 1.6926666
0.025874287 0.2264 1.6980001
0.035577144 0.2264 1.6980001
0.045884192 0.22489294 1.6964
0.05437497 0.22670804 1.6934286
0.06448254 0.22514731 1.6926666
0.074213333 0.22424954 1.6940001
0.083893336 0.22424954 1.6940001
0.09537524 0.22489981 1.6916001
0.10648 0.22424954 1.6939999
0.11669049 0.22452858 1.6900001
0.12513982 0.2238225 1.6931999
0.13616858 0.2231819 1.692
0.14456667 0.22532476 1.6960001
0.15488 0.22747619 1.6940001
0.16456001 0.22747619 1.6939999
0.17465143 0.2264 1.6980001
0.18531619 0.2256 1.692
0.19608687 0.22704764 1.6931999
0.20626287 0.22479144 1.692
0.21673143 0.22446629 1.6931999
0.2245286 0.22372383 1.6900001
0.23536634 0.22246476 1.6926666
0.2452267 0.22424953 1.6940002
0.25329715 0.22586668 1.694
0.26521143 0.2264 1.6980001
0.27427429 0.22424954 1.694
0.2855562 0.22424954 1.6940001
0.29615238 0.22533335 1.6900001
0.30259049 0.22533335 1.6900001
0.31868574 0.22211429 1.6900001
0.32512382 0.22211428 1.6900001
0.33478096 0.22211428 1.6900001
0.35570478 0.22211429 1.6900001
0.36375237 0.22211428 1.6900001
0.37501907 0.22211429 1.6900001
0.38628572 0.22372383 1.6900001
0.394752 0.22446629 1.6932001
0.40572119 0.22446629 1.6931999
0.41462287 0.22371303 1.6939999
0.4249143 0.22211429 1.6900001
0.43457147 0.22211428 1.6900001
0.44422859 0.22211429 1.6900001
0.50603426 0.22468953 1.6900002
0.51344287 0.22559144 1.6980001
-0.21346286 0.23702694 1.6980001
-0.20376001 0.23664193 1.6980001
-0.19484627 0.23778994 1.6968572
-0.18362811 0.23608617 1.6950002
-0.17428842 0.23407076 1.6900003
-0.16578096 0.23177144 1.6900001
-0.15290478 0.23177144 1.6900001
-0.14554286 0.2328686 1.6980001
-0.13563175 0.23250286 1.6953334
-0.1287619 0.23177144 1.6900001
-0.10163619 0.23232001 1.694
-0.093352377 0.23177142 1.6900001
-0.08369524 0.23177142 1.6900001
-0.061161906 0.23177144 1.6900001
-0.053236194 0.23232001 1.694
-0.045280006 0.2328686 1.6980001
-0.035521273 0.23250286 1.6953334
0.022533335 0.23177144 1.6900001
0.50860953 0.23177144 1.6900001
0.5152629 0.23582476 1.6960001
-0.21305858 0.24621002 1.6980001
-0.20468411 0.24580574 1.6980001
-0.19600339 0.24554838 1.6962222
-0.18641287 0.2447924 1.6910002
0.51504761 0.24142857 1.6900001
0.52148575 0.2430381 1.6900001
-0.21588857 0.25510427 1.6980001
-0.20329797 0.25458449 1.6980001
-0.19446144 0.25591284 1.6980001
-0.18475515 0.25457397 1.6917779
-0.17704763 0.2575238 1.6900001
-0.20052572 0.26197717 1.6980001
-0.19405715 0.26197717 1.6980001
-0.18421207 0.2633886 1.6966667
-0.17564763 0.26266479 1.692
0.40781525 0.21771811 1.7060001
0.41593906 0.21771811 1.706
0.42893717 0.21771811 1.7060001
0.43218669 0.21771811 1.7060001
0.45818287 0.21771811 1.7060001
0.4744305 0.21446858 1.7060001
0.49392763 0.21446858 1.7060001
0.50367624 0.21771811 1.706
-0.17547429 0.22746666 1.706
-0.16410096 0.22746667 1.7060001
-0.12673144 0.22746667 1.7060001
-0.11698286 0.22746667 1.7060001
-0.10560954 0.22746667 1.7060001
-0.082862861 0.22746667 1.7060001
-0.074739054 0.22638349 1.706
-0.061740953 0.22746667 1.7060001
-0.025996193 0.22746666 1.706
-0.016247621 0.22746666 1.706
-0.0064990479 0.22746666 1.706
0.0048742858 0.22746667 1.7060001
0.016247621 0.22746666 1.706
0.025996191 0.22421713 1.706
0.034120001 0.22421715 1.7060001
0.042243812 0.22421715 1.7060001
0.056866668 0.22421715 1.7060001
0.063365713 0.22259238 1.7060001
0.074739046 0.22096761 1.706
0.081238098 0.22096762 1.7060001
0.092611432 0.22421715 1.7060001
0.10073524 0.22421715 1.7060001
0.13323048 0.22096762 1.7060001
0.14947811 0.22421715 1.7060001
0.15597714 0.22421713 1.706
0.16897525 0.22421715 1.7060001
0.17384952 0.22421715 1.7060001
0.18522286 0.22421713 1.706
0.19497144 0.22421713 1.706
0.20309524 0.22421715 1.7060001
0.21284382 0.22421715 1.7060001
0.22746667 0.22421715 1.7060001
0.23721525 0.22096762 1.7060001
0.24046478 0.22096762 1.7060001
0.25671238 0.22530031 1.706
0.26646096 0.22746667 1.7060001
0.27458477 0.22421715 1.7060001
0.28595811 0.22096761 1.706
0.29570669 0.22421713 1.706
0.31195429 0.22421715 1.7060001
0.36232191 0.22096762 1.7060001
0.38994288 0.22096762 1.7060001
0.39725429 0.22178 1.7060001
0.4053781 0.22178 1.7060001
0.4143143 0.22096762 1.7060001
0.43543622 0.22096762 1.7060001
0.4451848 0.22205079 1.706
0.45168382 0.22096762 1.7060001
0.51342475 0.22096762 1.7060001
-0.22421716 0.2355905 1.7060002
-0.21528096 0.23234096 1.7060001
-0.20634477 0.23396572 1.7060001
-0.19415906 0.23315334 1.7060001
-0.18738921 0.23179936 1.706
-0.10073524 0.2307162 1.7060001
-0.097485721 0.2307162 1.7060001
-0.051992383 0.2307162 1.7060001
-0.045493335 0.23071618 1.706
-0.034120001 0.2307162 1.7060001
-0.22367556 0.24263114 1.7060002
-0.21771811 0.24371429 1.7060001
-0.23504891 0.25617078 1.7060002
-0.22486706 0.25443774 1.7060001
-0.21230222 0.25887874 1.706
-0.20634477 0.2599619 1.7060001
-0.20472001 0.26321143 1.7060001
-0.19497144 0.26321143 1.7060001
0.29073334 0.21886668 1.715
0.37893334 0.21886668 1.715
0.38873336 0.21886668 1.715
0.43773335 0.21886668 1.715
0.44426668 0.21886666 1.715
0.45406669 0.21886668 1.715
0.4655 0.21886668 1.715
0.48346671 0.21560001 1.715
0.49435556 0.21560001 1.715
0.50633335 0.21560001 1.715
0.51395559 0.21777779 1.715
-0.22213334 0.22866668 1.715
-0.21723334 0.22866668 1.715
-0.16496667 0.22866668 1.715
-0.15516667 0.22866668 1.715
-0.1323 0.22866668 1.715
-0.11433334 0.22540002 1.715
-0.10126667 0.22866668 1.715
-0.094733335 0.22866668 1.715
-0.088200003 0.22866668 1.715
-0.07676667 0.22540002 1.715
-0.065333337 0.22540002 1.715
-0.057166666 0.22866668 1.715
-0.034299999 0.22866668 1.715
-0.022866668 0.22540002 1.715
-0.017966667 0.22540002 1.715
-0.0065333336 0.22540002 1.715
0.0049000001 0.22540002 1.715
0.016333334 0.22540002 1.715
0.0392 0.22540002 1.715
0.045733336 0.22213334 1.715
0.055533335 0.22213334 1.715
0.066966668 0.22213334 1.715
0.086566672 0.22213334 1.715
0.098000005 0.22213334 1.715
0.10616668 0.22213334 1.715
0.11433333 0.22431111 1.715
0.13066667 0.22213334 1.715
0.14373334 0.22376668 1.715
0.1568 0.22213334 1.715
0.1666 0.22431111 1.715
0.17966667 0.22540002 1.715
0.19600001 0.22213334 1.715
0.2058 0.22213334 1.715
0.24663335 0.22213334 1.715
0.25316668 0.22213334 1.715
0.26460001 0.22540002 1.715
0.27113333 0.22540002 1.715
0.28093335 0.22213334 1.715
0.294 0.22213334 1.715
0.30380002 0.22431113 1.715
0.31033334 0.22540002 1.715
0.32013336 0.22213334 1.715
0.44753334 0.22213334 1.715
0.5194 0.22213334 1.715
0.52375555 0.2264889 1.715
-0.24173334 0.23846668 1.715
-0.2352 0.23683333 1.715
-0.22540002 0.23193334 1.715
-0.21233334 0.23193334 1.715
-0.20580001 0.23193334 1.715
-0.19763334 0.23193334 1.715
-0.15026668 0.23193334 1.715
-0.14373334 0.23193334 1.715
-0.1372 0.23193334 1.715
-0.0392 0.23193334 1.715
0.52266669 0.23193334 1.715
-0.2352 0.24499999 1.715
-0.2264889 0.24717779 1.715
-0.24336667 0.25479999 1.715
-0.23411112 0.25534448 1.715
-0.24173334 0.26133335 1.715
-0.19436668 0.26786667 1.715
0.062356193 0.21988763 1.723
0.075483814 0.21988763 1.723
0.085329525 0.21988763 1.723
0.13784 0.21988763 1.723
0.24450192 0.21988763 1.723
0.28716668 0.21988763 1.723
0.2937305 0.21824667 1.723
0.30193526 0.21988763 1.723
0.37741905 0.21988763 1.723
0.38562381 0.21988763 1.723
0.39601651 0.21879365 1.723
0.40367427 0.21988763 1.723
0.45618477 0.21988763 1.723
0.50869524 0.21332382 1.723
0.51525903 0.21496478 1.723
0.52182287 0.21988763 1.723
-0.22645144 0.22863938 1.723
-0.21660572 0.2280924 1.723
-0.19035049 0.22973335 1.723
-0.18706858 0.22973335 1.723
-0.15096763 0.22973335 1.723
-0.14440382 0.22973335 1.723
-0.13784 0.22973335 1.723
-0.11486667 0.22645144 1.723
-0.10666192 0.22645144 1.723
-0.096816197 0.22645144 1.723
-0.085329525 0.22645144 1.723
-0.052510478 0.22973335 1.723
-0.045946669 0.22973335 1.723
-0.037741907 0.2280924 1.723
-0.026255241 0.22535747 1.723
-0.016409524 0.22481048 1.723
-0.0065638097 0.22316954 1.723
0.0049228575 0.22316954 1.723
0.016409524 0.22316952 1.723
0.026255241 0.22316952 1.723
0.036100954 0.22316952 1.723
0.093534291 0.22316954 1.723
0.10173905 0.22316954 1.723
0.11650762 0.22316954 1.723
0.12471239 0.22316952 1.723
0.14440382 0.22316954 1.723
0.15260857 0.22316954 1.723
0.16409524 0.22316952 1.723
0.1755819 0.22316954 1.723
0.18378668 0.22316952 1.723
0.19363239 0.22316954 1.723
0.20676 0.22316954 1.723
0.21332382 0.22316954 1.723
0.23301524 0.22316954 1.723
0.25927049 0.22316954 1.723
0.26419336 0.22316954 1.723
0.27896193 0.22316954 1.723
0.29865333 0.22316954 1.723
0.30685812 0.22316954 1.723
0.31506288 0.22316952 1.723
0.32490858 0.22316954 1.723
0.34459999 0.22316952 1.723
0.35280478 0.22316954 1.723
0.36100954 0.22316954 1.723
0.52510476 0.22316954 1.723
-0.26255238 0.23957905 1.723
-0.2559886 0.236766 1.7229998
-0.24655312 0.2358869 1.7229998
-0.23629713 0.23301524 1.723
0.52510476 0.23629715 1.723
-0.25467581 0.24483009 1.7229999
-0.24614283 0.24614286 1.7229998
-0.25270668 0.25598857 1.723
-0.24942477 0.25598857 1.723
-0.21004191 0.2658343 1.723
0.38598859 0.21773715 1.732
0.39588571 0.21663748 1.732
0.40578285 0.21773715 1.732
0.41568002 0.21773715 1.732
0.44537148 0.21773715 1.732
0.45526859 0.21773715 1.732
0.46351621 0.21773715 1.7320001
0.47671241 0.21773715 1.7320001
0.5064038 0.2144381 1.7320001
0.51795048 0.2144381 1.7320001
0.5256483 0.21663748 1.732
-0.26392382 0.2276343 1.7320001
-0.25732571 0.2276343 1.7320001
-0.23258287 0.2276343 1.7320001
-0.2276343 0.2276343 1.7320001
-0.2144381 0.2276343 1.732
-0.20784001 0.2276343 1.7320001
-0.19464381 0.2276343 1.732
-0.18804573 0.2276343 1.7320001
-0.1583543 0.2276343 1.7320001
-0.14185905 0.2276343 1.7320001
-0.13691048 0.2276343 1.7320001
-0.12536381 0.2276343 1.732
-0.10227048 0.2276343 1.7320001
-0.095672384 0.22598478 1.7320001
-0.075878099 0.22433525 1.7320001
-0.065980956 0.22433525 1.7320001
-0.05608381 0.2276343 1.732
-0.046186667 0.2276343 1.732
-0.036289524 0.22653462 1.732
-0.027217142 0.22268572 1.7320001
-0.016495239 0.22323556 1.732
-0.0065980954 0.22433525 1.7320001
0.069280006 0.2210362 1.7320001
0.095672376 0.2210362 1.732
0.10227048 0.2210362 1.7320001
0.11876572 0.2210362 1.7320001
0.13526095 0.2210362 1.7320001
0.14515811 0.22268572 1.7320001
0.1583543 0.2210362 1.7320001
0.16165334 0.2210362 1.7320001
0.17484954 0.2210362 1.7320001
0.19464381 0.2210362 1.732
0.20289144 0.2210362 1.7320001
0.2144381 0.22213589 1.732
0.25402665 0.2210362 1.732
0.26392382 0.2210362 1.732
0.27382097 0.22433525 1.732
0.28041905 0.2210362 1.7320001
0.30351239 0.2210362 1.7320001
0.31176001 0.2210362 1.7320001
0.32660574 0.22268572 1.7320001
0.33650288 0.22433525 1.732
0.35959619 0.22433525 1.7320001
0.37609145 0.2210362 1.7320001
0.52784765 0.2210362 1.7320001
0.53114671 0.22268572 1.7320001
-0.28041905 0.2342324 1.7320001
-0.273821 0.2342324 1.7320002
-0.26486641 0.23376109 1.7320002
-0.2553463 0.23291275 1.7320001
-0.24412954 0.23093335 1.732
-0.23588192 0.23093334 1.7320001
-0.21113905 0.23093334 1.7320001
-0.20454097 0.23093335 1.732
-0.19629334 0.23093334 1.7320001
-0.18474667 0.23093334 1.7320001
0.53114671 0.23423238 1.732
-0.27162158 0.24193017 1.732
-0.2650235 0.24522923 1.7320002
-0.25732571 0.24742858 1.7320001
0.53114671 0.24248001 1.7320001
-0.2622743 0.25237715 1.7320001
-0.25732571 0.25402668 1.732
0.092853338 0.21886858 1.7410001
0.16912572 0.21886858 1.7410001
0.17244191 0.21886858 1.7410001
0.19897144 0.21886858 1.7410001
0.20228763 0.21886858 1.7410001
0.2122362 0.21886858 1.7410001
0.25534669 0.21886858 1.7410001
0.26363713 0.21886858 1.7410001
0.29514095 0.21886858 1.7410001
0.30177334 0.21886858 1.7410001
0.31172192 0.21886858 1.7410001
0.34654194 0.21886858 1.7410001
0.38136193 0.21886858 1.7410001
0.39628476 0.21555239 1.7410001
0.40457526 0.21555239 1.7410001
0.41452384 0.21555239 1.7410001
0.42613047 0.21886858 1.7410001
0.43442097 0.21886857 1.7410001
0.44436955 0.21721049 1.7410001
0.45431811 0.21555239 1.7410001
0.47255719 0.21886858 1.7410001
0.52395809 0.21555239 1.7410001
0.53224862 0.21721049 1.7410001
-0.28353429 0.22881715 1.7410001
-0.27607286 0.22798811 1.7410001
-0.26695335 0.22715905 1.7410001
-0.25203049 0.22881715 1.7410001
-0.2453981 0.22881715 1.7410001
-0.21886858 0.22550096 1.7410001
-0.20394573 0.22881715 1.7410001
-0.18570668 0.22881715 1.7410001
-0.17741621 0.22881715 1.7410001
-0.16249333 0.22881715 1.7410001
-0.15420286 0.22881715 1.7410001
-0.14757048 0.22881715 1.7410001
-0.13264762 0.22881715 1.7410001
-0.10446 0.22550096 1.7410001
-0.096169524 0.22550096 1.7410001
-0.08622095 0.22550096 1.7410001
-0.076272383 0.22550096 1.7410001
-0.066323817 0.22550096 1.7410001
-0.056375239 0.22550096 1.7410001
-0.046426669 0.22550096 1.7410001
-0.036478095 0.22439556 1.7410001
-0.026529524 0.22218478 1.7410001
-0.014922857 0.22218478 1.7410001
-0.0066323816 0.22218478 1.7410001
0.0049742861 0.22218478 1.7410001
0.016580952 0.22218478 1.7410001
0.038136192 0.22218478 1.7410001
0.043110479 0.22218478 1.7410001
0.058033332 0.22218478 1.7410001
0.066323809 0.22218478 1.7410001
0.10777619 0.22218478 1.7410001
0.11275048 0.22218478 1.7410001
0.12601525 0.22218478 1.7410001
0.13264762 0.22218478 1.7410001
0.15420286 0.22218478 1.7410001
0.16746762 0.22218478 1.7410001
0.17575811 0.22218478 1.7410001
0.18570668 0.22218478 1.7410001
0.20892 0.22218478 1.7410001
0.21886858 0.22218478 1.7410001
0.22550096 0.22384286 1.7410001
0.23462048 0.22384286 1.7410001
0.24208191 0.22218478 1.7410001
0.27524379 0.22218478 1.7410001
0.2851924 0.22218478 1.7410001
0.31835431 0.22218478 1.7410001
0.32830286 0.22218478 1.7410001
0.33825144 0.22218478 1.7410001
0.34488383 0.22218478 1.7410001
0.35483241 0.22218478 1.7410001
0.36312288 0.22218478 1.7410001
0.37141335 0.22218478 1.7410001
0.53722286 0.22550096 1.7410001
-0.29348284 0.23544954 1.7410001
-0.2851924 0.23497579 1.7410001
0.53722286 0.23544954 1.7410001
-0.28353429 0.24208191 1.7410001
-0.27607286 0.2453981 1.7410001
0.53722286 0.24374001 1.7410001
-0.26861143 0.25368857 1.7410001
0.50424671 0.20772953 1.7590001
-0.32611302 0.21666414 1.7590002
-0.29149145 0.21778096 1.7590001
0.10051429 0.21778096 1.7590001
0.15412192 0.21778096 1.7590002
0.16417335 0.21778096 1.7590002
0.17422478 0.21778096 1.7590002
0.18427621 0.21778096 1.7590002
0.19265239 0.21778096 1.7590001
0.20437905 0.21778096 1.7590001
0.2144305 0.21778096 1.7590002
0.22113144 0.21778096 1.7590001
0.23453335 0.21778096 1.7590002
0.2546362 0.21778096 1.7590001
0.26636285 0.21778096 1.7590001
0.27473906 0.21778096 1.7590002
0.28479049 0.21778096 1.7590002
0.30154288 0.21778096 1.7590001
0.31326956 0.21778096 1.7590001
0.33588526 0.21694335 1.7590001
0.34541261 0.21621791 1.7572
0.3548505 0.21591999 1.7575001
0.36390144 0.21666476 1.7567501
0.37525335 0.21778096 1.7590001
0.3851524 0.2163862 1.7545002
0.39388037 0.21532495 1.7554001
0.40540764 0.2144305 1.7590002
0.41409433 0.21498954 1.7567501
0.42530632 0.21532497 1.7554001
0.43444765 0.21554857 1.7545
0.44447336 0.21554856 1.7545
0.45450336 0.21471524 1.7545002
0.46404096 0.21778096 1.7590001
0.47576761 0.21778096 1.7590001
0.48721847 0.21629269 1.7560002
0.49526182 0.21491019 1.7551429
0.505059 0.21405905 1.756
0.51597333 0.2144305 1.7590002
0.52379113 0.21331365 1.7590002
0.53666669 0.21666667 1.7500001
0.54277718 0.21778096 1.7590001
-0.33281401 0.22559874 1.7590002
-0.32555461 0.22559875 1.7589999
-0.31467617 0.22596288 1.7575001
-0.30573097 0.22699477 1.7590001
-0.29378352 0.22521017 1.756
-0.28512079 0.22398476 1.7551429
-0.27484342 0.22535582 1.7554001
-0.26500002 0.22666667 1.7500001
-0.25128573 0.22783239 1.7590001
-0.24290952 0.22783239 1.7590001
-0.23333335 0.22666667 1.7500001
-0.22371049 0.22593842 1.7530001
-0.2131021 0.22579277 1.7536001
-0.20333333 0.22666667 1.7500001
-0.19399619 0.22744381 1.7560002
-0.18427621 0.22783239 1.7590002
-0.17422478 0.22783239 1.7590002
-0.16207811 0.22724953 1.7545002
-0.15077144 0.22783239 1.7590001
-0.14239524 0.22783239 1.7590001
-0.12061714 0.22783239 1.7590001
-0.1139162 0.22783239 1.7590001
-0.093333334 0.22666667 1.7500001
-0.083539054 0.22557428 1.7545002
-0.073710479 0.2244819 1.7590002
-0.063333333 0.22333334 1.7500001
-0.053430479 0.2237162 1.7530001
-0.043407619 0.2237162 1.7530001
-0.033333335 0.22333334 1.7500001
-0.021666668 0.22000001 1.7500001
-0.013373334 0.22075431 1.7560002
-0.0050257146 0.22113144 1.7590001
0.0016752381 0.22113144 1.7590001
0.013333334 0.22333334 1.7500001
0.023333335 0.22333334 1.7500001
0.033396188 0.22259939 1.7530001
0.043556195 0.22224827 1.7590002
0.053430479 0.22259939 1.7530001
0.073459052 0.22037716 1.7530001
0.083333336 0.22000001 1.7500001
0.093333334 0.22000001 1.7500001
0.10351048 0.22037716 1.7530001
0.11460382 0.22168192 1.7567501
0.12666667 0.22333334 1.7500001
0.14666668 0.22333334 1.7500001
0.15289 0.22139907 1.7545002
0.16333334 0.22000001 1.7500001
0.17666668 0.22000001 1.7500001
0.18365334 0.22037716 1.7530001
0.19333334 0.22000001 1.7500001
0.20666668 0.22000001 1.7500001
0.21333334 0.22000001 1.7500001
0.22333334 0.22000001 1.7500001
0.23333335 0.22000001 1.7500001
0.24281287 0.22111621 1.7522501
0.25166667 0.22000001 1.7500001
0.26000002 0.22000001 1.7500001
0.27333334 0.22000001 1.7500001
0.28333333 0.22000001 1.7500001
0.29000002 0.22000001 1.7500001
0.30666667 0.22000001 1.7500001
0.31333333 0.22000001 1.7500001
0.32458049 0.22168192 1.7567501
0.33400002 0.22133334 1.7500002
0.34166667 0.22000001 1.7500001
0.35500002 0.22000001 1.7500001
0.36333334 0.22000001 1.7500001
0.37448534 0.22201221 1.7554001
0.38000003 0.22000001 1.7500001
0.54588979 0.22351103 1.7551429
0.55282861 0.22615716 1.7590001
-0.33169717 0.23285809 1.7590001
-0.32387939 0.2334165 1.7589999
-0.31369525 0.23360191 1.7520001
-0.30350667 0.23346478 1.751
-0.294 0.23133335 1.7500002
-0.25666669 0.23 1.7500001
-0.24333334 0.23 1.7500001
-0.18333334 0.23 1.7500001
-0.17166668 0.23 1.7500001
-0.16666667 0.23 1.7500001
0.54546857 0.23353048 1.7515001
0.5548898 0.23514286 1.7564286
-0.31329367 0.24305652 1.756
-0.30402663 0.24389523 1.7540001
-0.29383621 0.24375622 1.753
-0.28573716 0.24730095 1.7545002
0.54500002 0.24333334 1.7500001
0.55111116 0.24111111 1.7500001
-0.30321813 0.25128573 1.7590001
-0.29484192 0.25128573 1.7590002
-0.28412041 0.25262594 1.7590001
-0.27500001 0.25333333 1.7500001
0.44115812 0.20879239 1.7680001
0.49840763 0.20710859 1.7680001
0.50177526 0.20879239 1.7680001
0.51524574 0.20879239 1.7680001
0.5253486 0.20879239 1.7680001
-0.33204725 0.21485409 1.768
-0.32441399 0.21552764 1.7680001
-0.31655619 0.21889524 1.7680001
-0.29298288 0.21552762 1.7680001
-0.28961524 0.21552762 1.7680001
0.095977142 0.21889524 1.7680001
0.10608 0.21889524 1.7680001
0.11449905 0.21889524 1.7680001
0.14817524 0.21889524 1.7680001
0.15491048 0.21552762 1.7680001
0.16669714 0.21552762 1.7680001
0.17343238 0.21552762 1.7680001
0.19868954 0.21889524 1.7680001
0.20542477 0.21889524 1.7680001
0.21552762 0.21552762 1.7680001
0.22563048 0.21777271 1.7680001
0.23236573 0.21552762 1.7680001
0.2458362 0.21889524 1.7680001
0.25593907 0.21636954 1.7680001
0.2660419 0.21665017 1.7680001
0.27614477 0.21552761 1.7680001
0.28288001 0.21552762 1.7680001
0.29466668 0.21889524 1.7680001
0.30813715 0.21889524 1.7680001
0.31992382 0.21889524 1.7680001
0.32553652 0.21777271 1.7680001
0.33339429 0.21665017 1.7680001
0.34349716 0.21552762 1.7680001
0.3670705 0.21552762 1.7680001
0.37380573 0.21665017 1.7680001
0.3839086 0.21552761 1.7680001
0.39569527 0.21216001 1.7680001
0.40243047 0.21216001 1.7680001
0.43442285 0.21216001 1.7680001
0.44452572 0.21216001 1.7680001
0.45294476 0.21216001 1.7680001
0.47483432 0.21889524 1.7680001
0.48662096 0.21721143 1.7680001
0.49504 0.21216001 1.7680001
0.51692951 0.21216001 1.7680001
0.5253486 0.21216001 1.7680001
0.53545141 0.21552761 1.7680001
0.54555428 0.21721143 1.7680001
0.55565715 0.21889524 1.7680001
-0.34397826 0.22563048 1.7679999
-0.3342362 0.22394668 1.7680001
-0.32329145 0.22394666 1.7680001
-0.31655622 0.22226286 1.7680001
-0.30645335 0.22394666 1.7680001
-0.29747304 0.22338539 1.7680001
-0.28288001 0.22226286 1.7680001
-0.27951241 0.22226286 1.7680001
-0.26604193 0.22731429 1.7680001
-0.25762287 0.22899811 1.7680001
-0.2458362 0.22675301 1.7680001
-0.23573335 0.22563048 1.7680001
-0.22563048 0.22450793 1.7680001
-0.21889524 0.22563048 1.7680001
-0.20710859 0.22563048 1.7680001
-0.1751162 0.22563048 1.7680001
-0.16838096 0.22899811 1.7680001
-0.15659429 0.22899811 1.7680001
-0.14817524 0.22899811 1.7680001
-0.13470477 0.22899811 1.7680001
-0.12347937 0.22675301 1.7680001
-0.11618286 0.22731429 1.7680001
-0.10439619 0.22563048 1.7680001
-0.092609525 0.22563048 1.7680001
-0.085874289 0.22563048 1.7680001
-0.075771429 0.22226286 1.7680001
-0.030308573 0.22226286 1.7680001
-0.026940953 0.22226286 1.7680001
0.0067352382 0.22226286 1.7680001
0.013470476 0.22226286 1.7680001
0.023573333 0.22226286 1.7680001
0.031992383 0.22226286 1.7680001
0.053881906 0.22226286 1.7680001
0.063984767 0.22226286 1.7680001
0.12123429 0.22226286 1.7680001
0.13133715 0.22226286 1.7680001
0.14817524 0.22226286 1.7680001
0.5581829 0.22478858 1.7680001
0.56239241 0.22563048 1.7680001
-0.34012952 0.23573335 1.7680001
-0.33395556 0.23685588 1.768
-0.32665905 0.23910096 1.7680001
0.55902481 0.23236573 1.7680001
0.56463748 0.23348826 1.7680001
-0.34181333 0.24920382 1.7680001
-0.33339429 0.2458362 1.7679999
-0.32497525 0.2458362 1.768
-0.31880128 0.24808128 1.7680001
-0.31992382 0.25257143 1.7680001
-0.30645332 0.25481653 1.7680001
-0.29635048 0.25593907 1.7680001
-0.28708953 0.25846475 1.7680001
-0.27951241 0.25930667 1.7680001
0.43494192 0.20985524 1.7770001
0.52463812 0.20647049 1.7770001
-0.3215524 0.21662477 1.7770001
0.098158099 0.21662477 1.7770001
0.10154286 0.21662477 1.7770001
0.14892954 0.21662477 1.7770001
0.15569906 0.21662477 1.7770001
0.16246858 0.21662477 1.7770001
0.17939238 0.21662477 1.7770001
0.18616192 0.21662478 1.7770001
0.1963162 0.21662478 1.7770001
0.20647049 0.21662478 1.7770001
0.21324001 0.21662477 1.7770001
0.2233943 0.21662477 1.7770001
0.23354858 0.21662477 1.7770001
0.24370284 0.21662478 1.7770001
0.2504724 0.21662477 1.7770001
0.26231906 0.21493238 1.7770001
0.28770477 0.21662477 1.7770001
0.29108953 0.21662477 1.7770001
0.30632097 0.21662477 1.7770001
0.31478286 0.21662478 1.7770001
0.32324478 0.21662477 1.7770001
0.33509144 0.21436827 1.7770001
0.34524572 0.21324001 1.7770001
0.3554 0.21324001 1.7770001
0.3655543 0.21324001 1.7770001
0.37570858 0.21493238 1.7770001
0.3926324 0.21324001 1.7770001
0.40955621 0.21324001 1.7770001
0.41632572 0.21324001 1.7770001
0.42986476 0.21324001 1.7770001
0.4738667 0.21662478 1.7770001
0.48402098 0.21662478 1.7770001
0.49417526 0.21324001 1.7770001
0.53648484 0.21324001 1.7770001
0.54579288 0.2140862 1.7770001
0.55171621 0.21662477 1.7770001
-0.33847621 0.22000954 1.7770001
-0.31139812 0.22000954 1.7770001
-0.3029362 0.22170192 1.7770001
-0.2944743 0.22000954 1.7770001
-0.28432003 0.22000952 1.7770001
-0.2758581 0.22339429 1.7770001
-0.26401144 0.22677906 1.7770001
-0.25385717 0.22677906 1.7770001
-0.24285668 0.2225481 1.7770001
-0.23354858 0.22339429 1.7770001
-0.2233943 0.22339429 1.7770001
-0.21493238 0.22339429 1.7770001
-0.20647049 0.22508667 1.7770001
-0.18616192 0.22677906 1.7770001
-0.17600763 0.22677906 1.7770001
-0.16923811 0.22677906 1.7770001
-0.13369811 0.22677906 1.7770001
-0.12862095 0.22677906 1.7770001
-0.11338952 0.22677906 1.7770001
-0.098158099 0.22677906 1.7770001
-0.084619045 0.22339429 1.7770001
-0.071079999 0.22339429 1.7770001
-0.064310469 0.22339429 1.7770001
-0.055848572 0.22339429 1.7770001
-0.040617146 0.22339429 1.7770001
-0.03554 0.22339429 1.7770001
-0.020308573 0.22000954 1.7770001
-0.016923809 0.22000954 1.7770001
-0.003384762 0.22000954 1.7770001
0.016923809 0.22000954 1.7770001
0.023693332 0.22000952 1.7770001
0.033847619 0.22000952 1.7770001
0.044001907 0.22113781 1.7770001
0.054156192 0.22170192 1.7770001
0.062618092 0.22170192 1.7770001
0.088003814 0.22000954 1.7770001
0.091388576 0.22000954 1.7770001
0.11508191 0.22000954 1.7770001
0.1252362 0.22339429 1.7770001
0.13708286 0.22339429 1.7770001
0.14385238 0.22170192 1.7770001
0.30124381 0.22000954 1.7770001
0.56525528 0.22339429 1.7770001
-0.34592268 0.23422554 1.7770001
-0.12862095 0.23016381 1.7770001
0.56694764 0.23016381 1.7770001
-0.34566879 0.24412598 1.7770002
-0.34863049 0.2504724 1.7770001
-0.31478286 0.25385717 1.7770001
0.52389336 0.20751619 1.7860001
0.53069717 0.20751619 1.7860001
-0.3401905 0.21772191 1.7860001
-0.3180781 0.21772191 1.7860001
-0.30276954 0.21772191 1.7860001
-0.24493715 0.21772191 1.7860001
-0.013607619 0.21772191 1.7860001
0.061234288 0.21772191 1.7860001
0.08844953 0.21772191 1.7860001
0.093552381 0.21772191 1.7860001
0.10545904 0.21658795 1.7860001
0.11226286 0.21772191 1.7860001
0.14628191 0.21658795 1.7860001
0.15648763 0.21432 1.7860001
0.16499239 0.21432 1.7860001
0.1717962 0.21432 1.7860001
0.19050667 0.21432 1.7860001
0.21602096 0.21432 1.7860001
0.22282477 0.21432 1.7860001
0.23473144 0.21432 1.7860001
0.24833906 0.21432 1.7860001
0.25514284 0.21432 1.7860001
0.26704955 0.21432 1.7860001
0.2755543 0.21432 1.7860001
0.29766667 0.21772191 1.7860001
0.30617145 0.21602096 1.7860001
0.31297526 0.21432 1.7860001
0.32998478 0.21432 1.7860001
0.33338669 0.21432 1.7860001
0.34359241 0.21091811 1.7860001
0.35379815 0.21091811 1.7860001
0.36400384 0.2109181 1.7860001
0.37591046 0.21261905 1.7860001
0.38441524 0.21432 1.7860001
0.39121905 0.21432 1.7860001
0.41673332 0.21261905 1.7860001
0.42608857 0.21346952 1.7860001
0.43204191 0.2109181 1.7860001
0.44564953 0.2109181 1.7860001
0.45245335 0.2109181 1.7860001
0.46946287 0.21772191 1.7860001
0.47626671 0.21432 1.7860001
0.48647237 0.21432 1.7860001
0.49497718 0.2109181 1.7860001
0.50007999 0.2109181 1.7860001
0.53750098 0.2109181 1.7860001
0.54430479 0.21091811 1.7860001
0.55519092 0.21363962 1.786
0.56471616 0.21772189 1.7860001
-0.3623029 0.22622667 1.7860001
-0.35515887 0.22520609 1.786
-0.34586033 0.22225778 1.7860001
-0.30787241 0.22112381 1.7860001
-0.27215239 0.22452572 1.7860001
-0.26364762 0.22622667 1.7860001
-0.2542924 0.22367525 1.7860001
-0.2466381 0.22112381 1.7860001
-0.23473144 0.22112381 1.7860001
-0.22792763 0.22112381 1.7860001
-0.20411429 0.22622667 1.7860001
-0.19390857 0.22679365 1.7860001
-0.18370287 0.22452573 1.7860001
-0.17519811 0.22452572 1.7860001
-0.16499239 0.22792763 1.7860001
-0.15988953 0.22792763 1.7860001
-0.14628191 0.22792763 1.7860001
-0.1394781 0.22792763 1.7860001
-0.12587048 0.22452573 1.7860001
-0.11566476 0.22452573 1.7860001
-0.10716 0.22452572 1.7860001
-0.091851436 0.22452572 1.7860001
-0.08164572 0.22112381 1.7860001
-0.076542862 0.22112381 1.7860001
-0.051028572 0.22452572 1.7860001
-0.045925714 0.22452572 1.7860001
-0.030617144 0.22112381 1.7860001
-0.023813333 0.22112381 1.7860001
-0.011906667 0.22112381 1.7860001
-0.0068038097 0.22112381 1.7860001
0.0017009524 0.22112381 1.7860001
0.013607619 0.22112381 1.7860001
0.047626667 0.22112381 1.7860001
0.052729525 0.22112381 1.7860001
0.066337146 0.22112381 1.7860001
0.074841909 0.22112381 1.7860001
0.083346672 0.22112381 1.7860001
0.12587048 0.22225778 1.7860001
0.1360762 0.22112381 1.7860001
0.5681181 0.22112381 1.7860001
0.57152003 0.22792763 1.7860001
-0.36060193 0.23643239 1.7860001
-0.35549906 0.23473144 1.7860001
-0.3551589 0.24425678 1.786
-0.36060193 0.25684381 1.7860001
-0.35606608 0.25514287 1.7860001
-0.31977907 0.25514287 1.7860001
0.34532383 0.20856191 1.7950001
0.35216191 0.20856191 1.7950001
0.36583811 0.20856191 1.7950001
0.40686667 0.20856191 1.7950001
0.41712382 0.20856191 1.7950001
0.42396191 0.20856191 1.7950001
0.43421903 0.20856191 1.7950001
0.4513143 0.20856191 1.7950001
0.49576193 0.20856191 1.7950001
0.5094381 0.20856191 1.7950001
0.51456666 0.20856191 1.7950001
0.52311432 0.20856191 1.7950001
0.53679049 0.20856191 1.7950001
0.54362857 0.20856191 1.7950001
0.55388576 0.20856191 1.7950001
0.56072384 0.20856191 1.7950001
-0.37609527 0.21767938 1.7950001
-0.36583814 0.21881907 1.7950001
-0.35558096 0.21881905 1.7950001
-0.34532383 0.21881905 1.7950001
-0.3145524 0.21881905 1.7950001
-0.30344048 0.21710953 1.7950001
-0.29403812 0.21540001 1.7950001
-0.26326668 0.21881905 1.7950001
-0.2564286 0.21881907 1.7950001
-0.24617144 0.21881905 1.7950001
-0.23762381 0.21881905 1.7950001
-0.076928571 0.21881905 1.7950001
-0.013676191 0.21881905 1.7950001
-0.0051285718 0.21881905 1.7950001
0.0017095238 0.21881905 1.7950001
0.027352381 0.21881905 1.7950001
0.030771431 0.21881905 1.7950001
0.066671431 0.21881905 1.7950001
0.075219043 0.21881907 1.7950001
0.083766669 0.21881905 1.7950001
0.10599048 0.21540001 1.7950001
0.11795714 0.21881905 1.7950001
0.12992382 0.21881905 1.7950001
0.13505238 0.21881905 1.7950001
0.1436 0.2165397 1.7950001
0.15385714 0.21198095 1.7950001
0.16069524 0.21198095 1.7950001
0.17779048 0.21540001 1.7950001
0.18462856 0.21540003 1.7950001
0.19488573 0.21426034 1.7950001
0.20514286 0.21540003 1.7950001
0.21198095 0.21540001 1.7950001
0.22736667 0.21369049 1.7950001
0.23591429 0.21540001 1.7950001
0.24617143 0.21426032 1.7950001
0.25813812 0.21198095 1.7950001
0.2649762 0.21198095 1.7950001
0.27181429 0.21198095 1.7950001
0.28549048 0.21540001 1.7950001
0.29403812 0.21540003 1.7950001
0.30429524 0.21540003 1.7950001
0.3145524 0.21369049 1.7950001
0.32480955 0.21540003 1.7950001
0.33506668 0.21198095 1.7950001
0.36583811 0.21198095 1.7950001
0.37609524 0.21198095 1.7950001
0.38635239 0.21198095 1.7950001
0.39660954 0.21198095 1.7950001
0.40344763 0.21198095 1.7950001
0.41370478 0.21198095 1.7950001
0.42567146 0.21198095 1.7950001
0.46670002 0.21540001 1.7950001
0.47524762 0.21312064 1.7950001
0.48550478 0.21198095 1.7950001
0.49234289 0.21198095 1.7950001
0.56482667 0.21334858 1.7950001
0.57269049 0.21540001 1.7950001
-0.3931905 0.22907619 1.7950001
-0.38521269 0.22679682 1.7950001
-0.37609524 0.22565715 1.7950001
-0.36720571 0.22428954 1.7950001
-0.35558099 0.22223811 1.7950001
-0.28036192 0.22223811 1.7950001
-0.27352381 0.22337778 1.7950001
-0.26554605 0.22337778 1.7950001
-0.25813812 0.22223811 1.7950001
-0.22394763 0.22223811 1.7950001
-0.21540001 0.22223811 1.7950001
-0.20343333 0.22565715 1.7950001
-0.19488573 0.22451746 1.7950001
-0.18804763 0.22223811 1.7950001
-0.17437144 0.22394763 1.7950001
-0.1641143 0.22565715 1.7950001
-0.15385714 0.22793651 1.7950001
-0.1436 0.22565715 1.7950001
-0.13505238 0.22565715 1.7950001
-0.12650478 0.22223811 1.7950001
-0.10257144 0.22565715 1.7950001
-0.097442865 0.22565715 1.7950001
-0.087185718 0.22223811 1.7950001
-0.071800001 0.22223811 1.7950001
-0.06496191 0.22223811 1.7950001
-0.056414288 0.22223811 1.7950001
-0.042738095 0.22223811 1.7950001
-0.0359 0.22223811 1.7950001
-0.027352381 0.22223811 1.7950001
0.0068380954 0.22223811 1.7950001
0.010257144 0.22223811 1.7950001
0.12992382 0.22223811 1.7950001
0.57440001 0.22394763 1.7950001
-0.38549763 0.23335001 1.7950001
-0.37552544 0.23477463 1.7950001
-0.366815 0.23542584 1.7950001
0.57781905 0.23420477 1.7950001
0.58123809 0.23420477 1.7950001
-0.3931905 0.24959049 1.7950001
-0.38566858 0.24822287 1.7950001
-0.37438571 0.24702619 1.7950001
-0.36583814 0.24617144 1.7950001
-0.35900003 0.24959049 1.7950001
-0.42225239 0.25300953 1.7950001
-0.41712382 0.25300953 1.7950001
-0.37267619 0.25471905 1.7950001
-0.366815 0.25594017 1.7950001
-0.35900003 0.25300953 1.7950001
-0.3145524 0.25984764 1.7950001
0.26630479 0.20960763 1.8040001
0.31269336 0.20960763 1.8040001
0.34361905 0.20960763 1.8040001
0.35392761 0.20960763 1.8040001
0.36423621 0.20960763 1.8040001
0.37626287 0.20960763 1.8040001
0.40375239 0.20960763 1.8040001
0.41406095 0.20960763 1.8040001
0.42608762 0.20617144 1.8040003
0.43639621 0.20531239 1.8040001
0.4449867 0.20960763 1.8040001
0.45357716 0.20960763 1.8040001
0.48622096 0.20960763 1.8040001
0.49481145 0.20960763 1.8040001
0.50340194 0.20960763 1.8040001
0.52573717 0.20788953 1.8040001
0.53432763 0.20617144 1.8040001
0.5480724 0.20617144 1.8040001
0.55494475 0.20617144 1.8040001
0.56353527 0.20731683 1.8040003
0.57212573 0.20960763 1.8040001
-0.38313526 0.21991619 1.8040001
-0.37626287 0.21648 1.8040001
-0.36080003 0.21991619 1.8040001
-0.35220954 0.21991619 1.8040001
-0.34361905 0.21648 1.8040001
-0.3264381 0.21648 1.8040003
-0.31498414 0.21762539 1.8040003
-0.30582094 0.21476191 1.8040001
-0.29551238 0.21476191 1.8040001
-0.28606287 0.21905714 1.8040001
-0.27489525 0.21991618 1.8040003
-0.26544574 0.21733904 1.8040001
-0.25427809 0.21510553 1.8040001
-0.24482858 0.21562096 1.8040001
-0.23194286 0.21991619 1.8040001
-0.13057524 0.21991619 1.8040001
-0.082468577 0.21991619 1.8040001
-0.072160006 0.21991619 1.8040001
-0.034361906 0.21991619 1.8040001
-0.024053333 0.21991619 1.8040001
-0.0051542856 0.21648 1.8040001
0.0068723811 0.21991619 1.8040001
0.013744761 0.21991618 1.8040003
0.022335239 0.21991619 1.8040001
0.036080003 0.21991619 1.8040001
0.044670478 0.21991618 1.8040003
0.054979052 0.21991618 1.8040003
0.087622859 0.21648 1.8040001
0.099649526 0.21648 1.8040001
0.1099581 0.21648 1.8040001
0.12542096 0.21991619 1.8040001
0.14432001 0.21476191 1.8040001
0.16665524 0.21304382 1.8040001
0.17180952 0.21304382 1.8040001
0.18899049 0.21304382 1.8040001
0.19586286 0.21304382 1.8040001
0.20617144 0.21304382 1.8040003
0.21648 0.21304382 1.8040001
0.22335239 0.21304382 1.8040001
0.23366095 0.21304382 1.8040003
0.24568763 0.21304382 1.8040001
0.25427809 0.21304382 1.8040001
0.27833143 0.21304382 1.8040001
0.30582094 0.21304382 1.8040003
0.31784761 0.21304382 1.8040001
0.32987431 0.21304382 1.8040001
0.39516193 0.21304382 1.8040001
0.46388572 0.21304382 1.8040001
0.47247621 0.21304382 1.8040001
0.57384384 0.21648 1.8040001
-0.41577905 0.22335239 1.8040001
-0.3951619 0.22507049 1.804
-0.38828954 0.22335239 1.8040001
-0.27145904 0.22335239 1.8040001
-0.21648002 0.22335239 1.8040001
-0.20617144 0.22335239 1.8040003
-0.19758096 0.22335239 1.8040001
-0.18383619 0.22335239 1.8040001
-0.17352763 0.22335239 1.8040001
-0.16321906 0.22507048 1.8040001
-0.15462857 0.22564317 1.8040003
-0.14432 0.22335239 1.8040003
-0.13572952 0.22335239 1.8040001
-0.12370285 0.22335239 1.8040001
-0.11511239 0.22335239 1.8040001
-0.10824001 0.22335239 1.8040001
-0.096213333 0.22335239 1.8040003
-0.05154286 0.22335239 1.8040001
-0.048106667 0.22335239 1.8040001
0.58071619 0.22678858 1.8040001
-0.40203431 0.23194286 1.8040001
-0.39630735 0.23480636 1.804
-0.38828954 0.23709716 1.8040001
-0.37798098 0.23709716 1.8040001
0.58071619 0.23022477 1.8040001
-0.39344382 0.24396954 1.804
-0.38436249 0.24298777 1.804
-0.37798098 0.24396954 1.8040003
-0.42265144 0.25084192 1.8040001
-0.41577902 0.25084192 1.8040003
-0.38313526 0.25427809 1.8040001
-0.37798098 0.25427809 1.8040003
0.41808382 0.2073143 1.8140001
0.42153907 0.2073143 1.8140001
0.43536001 0.20385906 1.8140001
0.44572571 0.20616256 1.8140001
0.45609146 0.2073143 1.8140001
0.52519625 0.2073143 1.8140001
0.53383434 0.20385906 1.8140001
0.54592764 0.20616256 1.8140001
0.56320381 0.20385906 1.8140001
0.57356954 0.2073143 1.8140001
-0.38180381 0.21422477 1.8140001
-0.36798286 0.21768001 1.8140001
-0.35416192 0.21768001 1.8140001
-0.34897906 0.21768001 1.8140001
-0.32479239 0.21422477 1.8140001
-0.31529048 0.21508858 1.8140001
-0.30751619 0.21249714 1.8140001
-0.27469143 0.21768001 1.8140001
-0.26605335 0.21422477 1.8140001
-0.25741524 0.21249714 1.8140001
-0.24532191 0.21422477 1.8140001
-0.23668382 0.21768001 1.8140001
-0.13475429 0.21768001 1.8140001
-0.12438858 0.21768002 1.8140001
-0.013820953 0.21768002 1.8140001
0.0034552382 0.21768002 1.8140001
0.015548572 0.21768001 1.8140001
0.024186669 0.21768002 1.8140001
0.032824762 0.21768001 1.8140001
0.044918101 0.21768002 1.8140001
0.055283815 0.21768002 1.8140001
0.065649524 0.21768002 1.8140001
0.076015241 0.21768002 1.8140001
0.082925715 0.21768001 1.8140001
0.09501905 0.21768001 1.8140001
0.10192952 0.21422477 1.8140001
0.11575048 0.21768001 1.8140001
0.12438858 0.21768002 1.8140001
0.13475429 0.21768002 1.8140001
0.14512001 0.21422477 1.8140001
0.17794478 0.21422477 1.8140001
0.18485525 0.21422477 1.8140001
0.19349334 0.21076953 1.8140001
0.20040381 0.21422477 1.8140001
0.21422477 0.21422477 1.8140001
0.22113524 0.21422477 1.8140001
0.24186668 0.21422477 1.8140001
0.27296382 0.21076953 1.8140001
0.28505716 0.21422477 1.8140001
0.29542285 0.21422477 1.8140001
0.30060571 0.21422477 1.8140001
0.31442666 0.21076953 1.8140001
0.32479239 0.21249714 1.8140001
0.33515811 0.21076953 1.8140001
0.38525906 0.21076953 1.8140001
