# .PCD v0.7 - Point Cloud Data file format
VERSION 0.7
FIELDS x y z
SIZE 4 4 4
TYPE F F F
COUNT 1 1 1
WIDTH 1534
HEIGHT 1
VIEWPOINT 0 0 0 1 0 0 0
POINTS 1534
DATA ascii
0.019314287 0.086914286 1.6900001
0.048285715 0.086914286 1.6900001
0.05472381 0.086914279 1.6900001
0.062771425 0.086914286 1.6900001
0.072428569 0.086914286 1.6900001
0.12768888 0.081549205 1.6900001
0.13713714 0.087119997 1.694
0.14230858 0.087325715 1.6980001
-0.024632858 0.096101902 1.696
-0.016423898 0.095598966 1.6936364
-0.0064482545 0.095105402 1.6926669
0.0048285723 0.09498857 1.6905004
0.016417144 0.095927618 1.6900003
0.022533335 0.091742858 1.6900001
0.035409525 0.090938099 1.6900001
0.13841905 0.090133339 1.6900001
-0.026152 0.10588648 1.6948001
-0.01609524 0.10622857 1.6900003
-0.0064380961 0.10622857 1.6900003
0.0048285718 0.10622858 1.6900004
0.012876191 0.10300953 1.6900001
-0.025874287 0.11643428 1.6980001
-0.016146032 0.11625651 1.6953335
-0.006455027 0.11613291 1.6935556
0.0048285718 0.11588571 1.6900004
0.14392573 0.11966857 1.6980001
-0.025874287 0.12613714 1.6980001
-0.016164657 0.12606943 1.6971111
-0.006455027 0.1258036 1.6935556
0.0048285718 0.12554286 1.6900004
0.13841905 0.12715238 1.6900001
0.14333105 0.12590553 1.6948001
-0.025874287 0.13584001 1.6980001
-0.016171429 0.13584001 1.6980001
-0.0064634923 0.13562667 1.6953335
0.0048285723 0.13520001 1.6900004
0.013949207 0.13734603 1.6900001
0.024142858 0.13680953 1.6900001
0.13541843 0.13541335 1.6926668
-0.025874287 0.14554286 1.6980001
-0.015767142 0.14513858 1.6980001
-0.0064617991 0.14531599 1.6953335
0.0048285718 0.14485714 1.6900004
0.015692858 0.14525953 1.6900003
0.024464764 0.14614476 1.6900002
0.032190476 0.14807619 1.6900001
0.04506667 0.14807619 1.6900001
0.13541842 0.14508572 1.6926668
0.14338668 0.14446478 1.6980001
-0.025874287 0.15524571 1.6980001
-0.016171429 0.15524572 1.6980001
-0.006460106 0.15507978 1.6962223
0.0048285718 0.15457524 1.690667
0.01609524 0.15451428 1.6900003
0.025349999 0.15491667 1.6900003
0.033478092 0.1551581 1.6900002
0.042920638 0.1534413 1.6900001
0.13841905 0.15129524 1.6900001
0.1416381 0.15129524 1.6900001
-0.025874287 0.16440952 1.6980001
-0.016171429 0.16494858 1.6980001
-0.0064617996 0.1647725 1.6962223
0.0048285718 0.16423492 1.690667
0.01609524 0.16417143 1.6900003
0.025752384 0.16417143 1.6900003
0.033478092 0.16417143 1.6900002
0.064380951 0.16578096 1.6900001
-0.02749143 0.17465143 1.6980001
-0.016171429 0.17465144 1.6980001
-0.0064685717 0.17465144 1.6980001
0.0048298417 0.17410414 1.692667
0.016102012 0.17392169 1.6908891
0.025764234 0.17392169 1.6908891
0.034489796 0.17428844 1.6900003
0.045066666 0.17704763 1.6900001
0.055528574 0.17624286 1.6900001
0.063093327 0.17447238 1.6900002
0.13841905 0.17543811 1.6900001
0.14230858 0.17465143 1.6980001
-0.022640001 0.18435429 1.6980001
-0.016171427 0.18273716 1.6980001
-0.006064286 0.18395001 1.6980001
0.0048514288 0.18435429 1.6980001
0.016411429 0.18497211 1.6929094
0.025761271 0.18516636 1.690667
0.035409525 0.18509525 1.6900004
0.04506667 0.18509525 1.6900004
0.054723814 0.18509525 1.6900004
0.063737139 0.18573904 1.6900003
0.07564763 0.18509525 1.6900001
0.083402604 0.18553419 1.6900004
0.095421769 0.18578503 1.6900004
0.10408255 0.18563175 1.6900001
0.13688079 0.18658212 1.6948
-0.012937143 0.19729143 1.6980001
-0.0048514288 0.19405715 1.6980001
0.0044782418 0.19434023 1.6961539
0.016125714 0.19569522 1.6935556
0.02618143 0.19619 1.6920002
0.035409525 0.19636191 1.6900003
0.044664286 0.19595954 1.6900003
0.054723814 0.19636191 1.6900003
0.064380951 0.1963619 1.6900003
0.077257149 0.1963619 1.6900001
0.083292849 0.19595952 1.6900003
0.095400862 0.19606926 1.6900004
0.10300953 0.19636191 1.6900001
0.1287619 0.19958095 1.6900001
0.13544571 0.19509524 1.6930001
-0.022640001 0.20052572 1.6980001
-0.015767144 0.20335573 1.6980001
-0.0064685717 0.20376003 1.6980001
0.0048514288 0.20432478 1.6960001
0.015685443 0.20440982 1.6957144
0.025338233 0.20413116 1.6934286
0.035409525 0.20509933 1.6900003
0.045190264 0.20548108 1.6944444
0.055156667 0.20573857 1.6910002
0.064380951 0.20601904 1.6900003
0.074038096 0.2092381 1.6900001
0.083695233 0.2092381 1.6900001
0.095927618 0.20634094 1.6900003
0.10300953 0.20601904 1.6900001
0.1287619 0.20762858 1.6900001
0.13391048 0.20488952 1.6939999
-0.014015239 0.21400194 1.6980001
-0.006006531 0.2130008 1.6980001
0.005173842 0.21526936 1.6969334
0.016530793 0.21454096 1.6980001
0.026168311 0.21463899 1.6980001
0.0355439 0.2153368 1.6965455
0.045480002 0.21543773 1.6932001
0.054499429 0.21543773 1.6932001
0.064380951 0.21567619 1.6900003
0.074038096 0.21245714 1.6900001
0.08369524 0.2156762 1.6900003
0.094961904 0.2156762 1.6900004
0.10300953 0.21567619 1.6900001
0.1287619 0.21567619 1.6900001
0.13341428 0.21750572 1.6980001
-0.0032342859 0.2264 1.6980001
0.0048412704 0.22604065 1.6953335
0.014554287 0.22640002 1.6980001
0.027168 0.22510631 1.6980002
0.035577144 0.22640003 1.6980001
0.045257989 0.22628318 1.6971111
0.054806776 0.22569227 1.6926668
0.063978575 0.22573572 1.6900003
0.073233336 0.22774762 1.6900001
0.08369524 0.22533335 1.6900003
0.094961904 0.22533335 1.6900004
0.10300953 0.22211429 1.6900001
0.1287619 0.22211429 1.6900001
0.13391048 0.22586668 1.6939999
-0.0032342859 0.23610286 1.6980001
0.004836191 0.23564191 1.6946667
0.015247347 0.2365649 1.6980001
0.027168 0.23739657 1.6980002
0.035577141 0.23610288 1.6980001
0.045279998 0.23610285 1.6980001
0.054952383 0.23598096 1.6971111
0.064413123 0.23511577 1.6908891
0.074038096 0.23499049 1.6900003
0.08461497 0.23453061 1.6900003
0.094318084 0.23434667 1.6900003
0.1287619 0.23499048 1.6900001
0.13364953 0.23501411 1.6948
0.0058171432 0.245368 1.6972001
0.016171429 0.24580574 1.6980001
0.025874287 0.24580574 1.6980001
0.035577141 0.24580574 1.6980001
0.045279998 0.24580571 1.6980001
0.053904761 0.24472763 1.6980001
0.065050006 0.2452586 1.697
0.07407704 0.24477799 1.6908891
0.08369524 0.24464764 1.6900003
0.095069848 0.24493842 1.6920003
0.10569207 0.24572064 1.6900002
0.11508096 0.24706192 1.6900001
0.12896508 0.24503367 1.6926666
0.13454629 0.24709944 1.6980002
0.14324763 0.24786668 1.6900001
0.017249525 0.25496954 1.6980001
0.025412247 0.25458449 1.6980001
0.035577144 0.25458449 1.6980001
0.043123811 0.2533524 1.6980001
0.067111433 0.25470001 1.6980001
0.074038103 0.25430477 1.6900003
0.083781593 0.25457564 1.6917779
0.094722435 0.25485194 1.6936364
0.10563201 0.25442514 1.6908003
0.11588572 0.25430477 1.6900003
0.12747428 0.25366098 1.6900002
0.13543573 0.25550857 1.6980001
0.14315809 0.25403431 1.6953335
0.067111433 0.26602003 1.6980001
0.074231118 0.26465443 1.6944444
0.08395429 0.26479495 1.6953332
0.09503556 0.26417014 1.6913337
0.10622858 0.26396191 1.6900003
0.11588572 0.26396191 1.6900003
0.12561058 0.26410243 1.6908891
0.13584 0.2635943 1.6980001
0.14358667 0.26297715 1.694
0.035577144 0.27653146 1.6980001
0.064685717 0.27491429 1.6980001
0.074227728 0.2743403 1.6944444
0.083739266 0.27376297 1.6908891
0.094961904 0.27361906 1.6900004
0.10622858 0.27361906 1.6900003
0.11548334 0.27402142 1.6900003
0.12561059 0.27376127 1.6908891
0.13486762 0.27701241 1.696
0.1416381 0.27683809 1.6900001
0.037194289 0.28138286 1.6980001
0.058217146 0.28785145 1.6980001
0.064685717 0.28461716 1.6980001
0.074124448 0.2852197 1.6920003
0.08380191 0.28481108 1.6921821
0.093620636 0.28408095 1.6900004
0.10558636 0.28453174 1.6926669
0.11588571 0.28488573 1.6900004
0.12554286 0.28488573 1.6900004
0.13508052 0.28480968 1.6921821
0.14228192 0.28585145 1.6900002
0.058217146 0.29270285 1.6980001
0.064685717 0.29431999 1.6980001
0.074327625 0.29570603 1.6966667
0.084032655 0.295046 1.6968572
0.094256327 0.29524407 1.6980001
0.10490096 0.29454571 1.6946667
0.11588572 0.29615241 1.6900003
0.12554286 0.29454285 1.6900002
0.13479763 0.29655477 1.6900003
0.14324763 0.29776192 1.6900001
0.058217146 0.30564001 1.6980001
0.064882673 0.30409068 1.6948
0.074388571 0.30402288 1.6980001
0.084495708 0.30442718 1.6980001
0.093794286 0.30402288 1.6980001
0.10482585 0.30481172 1.6934288
0.11588572 0.30580956 1.6900003
0.12715238 0.30259049 1.6900001
0.13519999 0.30580956 1.6900003
0.14292572 0.30516571 1.6900002
0.056600004 0.31049144 1.6980001
0.064281434 0.31413001 1.6980001
0.071962863 0.31453431 1.6980001
0.084091425 0.31264761 1.6980001
0.097028576 0.31049144 1.6980001
0.10647238 0.31405714 1.6939999
0.11588573 0.3154667 1.6900003
0.12554285 0.3154667 1.6900003
0.13527112 0.31563264 1.6908891
0.14324763 0.31546667 1.6900002
0.067111433 0.32262 1.6980001
0.074682601 0.32460466 1.6980001
0.082474291 0.32504573 1.6980001
0.10996572 0.32666287 1.6980001
0.11600763 0.3254692 1.6917779
0.12554285 0.32512382 1.6900003
0.13528435 0.32552108 1.6968572
0.14392573 0.32342857 1.6980001
0.076005712 0.33636573 1.6980001
0.083687142 0.33677 1.6980001
0.094872385 0.33852193 1.6980001
0.10834857 0.33717433 1.6980001
0.11643428 0.3363657 1.6980001
0.12586963 0.33566311 1.6944444
0.13503143 0.33394 1.6980001
0.14230858 0.33313143 1.6980001
0.076005712 0.34606859 1.6980001
0.085385144 0.34477484 1.6980002
0.093794286 0.34606859 1.6980001
0.10555532 0.34577453 1.6980001
0.11589523 0.34499049 1.6980001
0.12580359 0.34515941 1.6935556
0.1334143 0.34687716 1.6980001
0.077622861 0.35253716 1.6980001
0.087325715 0.35253716 1.6980001
0.093794286 0.35253716 1.6980001
0.10026286 0.35253716 1.6980001
0.12783696 0.35510704 1.6948
0.13260572 0.35577142 1.6980001
0.095411435 0.36870858 1.6980001
0.12937143 0.36547431 1.6980001
0.097028576 0.37194288 1.6980001
0.10673143 0.37841144 1.6980001
0.11724286 0.37598571 1.6980001
0.12654144 0.37558144 1.6980001
0.13422287 0.37679428 1.6980001
0.10673143 0.38326287 1.6980001
0.12613715 0.38487995 1.6980001
0.13389944 0.38552687 1.6980002
0.11966857 0.39781716 1.6980001
0.12613715 0.39620003 1.6980001
0.13584001 0.39550692 1.6980001
0.11966857 0.4042857 1.6980001
0.12613714 0.40428573 1.6980001
0.13543572 0.40469003 1.6980001
0.14230858 0.40590286 1.6980001
0.11966857 0.41560572 1.6980001
0.12621829 0.41384917 1.6948001
0.13552254 0.41462031 1.6940002
0.14214097 0.4151105 1.696
0.12613715 0.42415351 1.6980001
0.13563174 0.42464066 1.6953334
0.14230858 0.42530859 1.6980001
0.12937143 0.43016002 1.6980001
0.13584 0.43177715 1.6980001
0.14311714 0.43420288 1.6980001
0.11805143 0.46897143 1.6980001
0.12452 0.46897143 1.6980001
0.10834858 0.47220573 1.6980001
0.11643428 0.47544003 1.6980001
0.12452 0.47220573 1.6980001
0.13260572 0.47867429 1.6980001
0.11805143 0.48514286 1.6980001
0.13389944 0.48578972 1.6980002
0.11805143 0.49161145 1.6980001
0.12290286 0.49161145 1.6980001
0.13260572 0.49161145 1.6980001
0.14877714 0.5983429 1.6980001
0.15201144 0.5983429 1.6980001
0.14877714 0.60157716 1.6980001
0.15201144 0.60157716 1.6980001
-0.21121906 0.045493335 1.7060001
-0.20796953 0.045493335 1.7060001
-0.19822095 0.048742861 1.7060001
-0.32495239 0.055241905 1.7060001
-0.31520382 0.058491431 1.7060001
-0.25021335 0.055241901 1.706
-0.24588065 0.055241901 1.706
0.1371299 0.07343924 1.7060001
-0.022746667 0.087737143 1.7060001
-0.019497143 0.087737143 1.7060001
-0.0048742858 0.087737143 1.7060001
0.13583009 0.083187811 1.7060001
0.14297906 0.084487624 1.7060001
-0.055241905 0.097485721 1.7060001
-0.038994286 0.097485721 1.7060001
-0.028162539 0.092069842 1.706
-0.012998096 0.090986669 1.7060001
-0.042243812 0.10560954 1.7060001
-0.035338569 0.10439096 1.7060002
-0.053075556 0.11481651 1.706
-0.045087144 0.11413953 1.7060002
-0.03574476 0.11373334 1.7060002
-0.051992383 0.12023239 1.7060001
-0.047118098 0.12185714 1.7060001
-0.035094853 0.12445676 1.7060001
-0.034119997 0.13647999 1.7060002
0.14427885 0.1371299 1.7060001
-0.042243812 0.14460382 1.7060001
-0.035280544 0.14530014 1.7060002
-0.019497143 0.14947811 1.7060001
0.1451454 0.14731176 1.706
-0.032495238 0.15272762 1.7060001
-0.025996191 0.1668089 1.706
-0.025531974 0.17547429 1.7060002
0.14297906 0.17872381 1.7060001
-0.026402382 0.18522286 1.7060002
-0.016247619 0.18847239 1.706
-0.0097485716 0.18847239 1.7060001
0.14297906 0.18522286 1.7060001
-0.025996191 0.19497144 1.7060002
-0.01665381 0.19456525 1.7060002
-0.0097485716 0.19497144 1.706
0.14297906 0.19172192 1.7060001
-0.026402382 0.2051262 1.7060002
-0.019497143 0.20796953 1.7060001
0.13972953 0.20309524 1.7060001
-0.025531976 0.21446858 1.7060002
-0.018684762 0.21528096 1.7060001
-0.0064990479 0.21771811 1.706
0.012998096 0.21609335 1.7060001
0.13648 0.21446858 1.706
-0.022746667 0.22096762 1.7060001
-0.016247621 0.22367556 1.7060002
-0.0081238095 0.22421716 1.7060002
0.019497143 0.22421713 1.706
0.023829842 0.22530031 1.706
-0.012998096 0.23396571 1.706
-0.0081238095 0.23396574 1.7060002
0.019497143 0.23396571 1.706
0.02437143 0.23396574 1.7060002
-0.012998096 0.24046478 1.7060001
-0.0069052381 0.24412049 1.7060002
0 0.24696381 1.7060001
0.058491431 0.24696381 1.7060001
0.13729239 0.24452668 1.7060001
-0.0060928571 0.2530567 1.7060002
0.0044993404 0.25621244 1.706
0.01408127 0.25779554 1.706
0.027620953 0.2599619 1.7060001
0.035744764 0.2599619 1.7060001
0.046576511 0.25779554 1.7060002
0.055537317 0.25553074 1.7060001
0.062824123 0.25617078 1.7060002
0.13972953 0.25671238 1.7060001
0.14297906 0.25671238 1.7060001
-0.0064990479 0.26321143 1.7060001
0.0097485716 0.26483619 1.7060001
0.01706 0.26402381 1.7060001
0.025996191 0.26646098 1.7060002
0.03574476 0.26646096 1.7060002
0.045087144 0.26605478 1.7060002
0.054158732 0.26537779 1.7060002
0.063040763 0.26581106 1.7060001
0.13648 0.26971048 1.706
0.14460382 0.26971048 1.7060001
0.026646096 0.27425981 1.7060001
0.03628635 0.27512634 1.7060002
0.045493335 0.27620953 1.7060002
0.054777689 0.27713796 1.7060002
0.1371299 0.27425981 1.7060001
0.029245714 0.28595811 1.706
0.035280544 0.28688651 1.7060002
0.045493335 0.28270859 1.706
0.054835718 0.28555194 1.7060002
0.034120001 0.29245716 1.7060001
0.055241905 0.29570669 1.7060001
0.025996191 0.30708 1.7060002
0.035744764 0.30870476 1.7060001
0.045493335 0.30545524 1.7060001
0.054313473 0.30499101 1.7060002
0.081238098 0.30220571 1.7060001
0.028433334 0.31439143 1.7060001
0.035744764 0.31357905 1.7060001
0.046576511 0.31628698 1.7060002
0.054777689 0.31613225 1.7060002
0.076688766 0.31455392 1.7060001
0.084487617 0.31737018 1.706
0.093830004 0.31561002 1.7060002
0.10317239 0.31764096 1.7060001
0.048742861 0.32332763 1.7060001
0.0556481 0.32454619 1.7060002
0.063040763 0.32560229 1.7060001
0.087737143 0.32495239 1.706
0.094236195 0.32495242 1.7060002
0.10398477 0.32495239 1.7060002
0.14460382 0.32820192 1.7060001
0.047118098 0.33307621 1.7060001
0.05767905 0.33388859 1.7060001
0.064990476 0.33470094 1.7060002
0.071489528 0.33470097 1.706
0.087737143 0.33307621 1.7060001
0.094236195 0.33429477 1.7060002
0.10398477 0.33470097 1.7060002
0.13810477 0.33145145 1.7060001
0.058491431 0.34282479 1.7060001
0.065396659 0.34404334 1.7060002
0.071489528 0.34444952 1.706
0.082862861 0.34769905 1.7060001
0.090986669 0.34120002 1.7060001
0.10398477 0.34120002 1.7060001
0.11698286 0.34769905 1.7060001
0.1371299 0.34509942 1.7060001
0.14297906 0.34607428 1.7060001
0.074739054 0.35501048 1.7060001
0.083559178 0.35466227 1.7060002
0.094236195 0.35744762 1.706
0.10398477 0.35528126 1.7060002
0.11419756 0.35512653 1.7060002
0.12239874 0.35528126 1.7060002
0.13972953 0.35094857 1.7060001
0.076363809 0.36394668 1.7060002
0.084893808 0.36354053 1.7060002
0.094236195 0.36394665 1.7060002
0.10398477 0.36394665 1.7060002
0.11373334 0.36435282 1.7060002
0.12307573 0.36435288 1.7060002
0.13485524 0.36557144 1.7060001
0.076363817 0.37044573 1.7060001
0.08578743 0.37239546 1.7060001
0.093153022 0.37477842 1.7060002
0.10352056 0.37369522 1.7060002
0.11292095 0.37207049 1.7060001
0.12348191 0.37125811 1.7060001
0.13485524 0.37207049 1.7060001
0.087737143 0.3850686 1.7060001
0.094236195 0.38506863 1.706
0.1029016 0.38561016 1.7060002
0.11373333 0.38506857 1.706
0.12023238 0.38669336 1.706
0.13891715 0.3850686 1.7060001
0.14297906 0.38669336 1.7060001
0.086924762 0.39644191 1.7060001
0.093307756 0.39690611 1.7060002
0.10506794 0.39752507 1.706
0.11535811 0.39644191 1.7060002
0.12413182 0.39384228 1.7060001
0.13648 0.39319238 1.7060001
0.14622858 0.39319238 1.7060001
0.077988572 0.40944001 1.7060001
0.087737143 0.40456572 1.7060001
0.093830004 0.40578425 1.7060002
0.1029016 0.40510729 1.7060002
0.11535811 0.40619048 1.7060002
0.13972953 0.40294096 1.7060001
0.1451454 0.40402412 1.706
0.11413953 0.41634521 1.7060002
0.12023239 0.41268954 1.7060001
0.11373334 0.42568761 1.7060002
0.12104477 0.42568764 1.7060001
0.10506795 0.43435302 1.706
0.11326913 0.43450779 1.7060002
0.12528722 0.43507516 1.7060002
0.13648 0.43868575 1.706
0.10479715 0.44437236 1.7060001
0.11048381 0.44193524 1.7060001
0.13518019 0.44388494 1.7060001
0.14460382 0.44193524 1.7060001
0.10398477 0.45493338 1.7060002
0.1153581 0.45818287 1.7060001
0.12618984 0.45709968 1.7060002
0.13453028 0.45558327 1.7060001
0.097485721 0.4614324 1.7060001
0.10398477 0.46468195 1.7060002
0.11373334 0.46468195 1.7060002
0.12510668 0.46468198 1.706
0.13555156 0.46514615 1.7060002
0.10357857 0.4744305 1.7060002
0.11210857 0.4744305 1.7060001
0.12673144 0.47605526 1.7060002
0.13555156 0.4748947 1.7060002
0.147157 0.47489473 1.7060002
0.10439096 0.48417911 1.7060002
0.11178362 0.48482895 1.7060001
0.12673144 0.48417908 1.7060002
0.13842972 0.48352918 1.7060001
0.14530014 0.48371488 1.7060002
0.10723429 0.4906781 1.7060001
0.11156698 0.4917613 1.706
0.12637037 0.49428871 1.7060002
0.13756317 0.49501082 1.7060002
0.14460382 0.4906781 1.7060001
0.11698286 0.50205147 1.7060001
0.12564826 0.50259304 1.7060002
0.13431366 0.5015099 1.706
0.12889779 0.55350226 1.706
0.13518019 0.55501866 1.7060001
0.12998095 0.56216764 1.7060001
0.13648 0.56379241 1.7060001
0.14622858 0.56216764 1.7060001
0.15435238 0.56216764 1.7060001
0.13648 0.57191622 1.7060001
0.14947811 0.59791243 1.7060001
0.15272762 0.59791243 1.7060001
0.14947811 0.60766095 1.7060001
0.15272762 0.60766095 1.7060001
-0.19600001 0.049000002 1.715
-0.32340002 0.058800001 1.715
-0.25643337 0.052266669 1.715
-0.24826668 0.058800001 1.715
-0.23846668 0.058800001 1.715
-0.32176667 0.062066671 1.715
-0.24826668 0.062066671 1.715
0.13556667 0.078400001 1.715
-0.073500007 0.088200003 1.715
-0.068599999 0.088200003 1.715
-0.035933334 0.088200003 1.715
-0.027766667 0.088200003 1.715
-0.016333334 0.088200003 1.715
-0.0098000001 0.088200003 1.715
0.14210001 0.081666671 1.715
-0.094733335 0.094733335 1.715
-0.083844446 0.095822223 1.715
-0.075133346 0.094733335 1.715
-0.065333337 0.094733343 1.715
-0.055533338 0.096039996 1.7149999
-0.045733336 0.096366674 1.715
-0.035388887 0.095277779 1.715
-0.084933341 0.10126667 1.715
-0.074316666 0.10208334 1.715
-0.065333337 0.10453334 1.715
-0.055533335 0.10453334 1.715
-0.046666663 0.10406667 1.715
-0.0392 0.10126667 1.715
-0.081666671 0.1127 1.715
-0.075133339 0.11433333 1.715
-0.065333337 0.11433334 1.715
-0.056622222 0.1137889 1.715
-0.049000002 0.11106667 1.715
-0.071866669 0.1225 1.715
-0.065333337 0.12413333 1.715
-0.055941671 0.12454167 1.715
-0.044426668 0.12544002 1.7149999
-0.0392 0.12740001 1.715
-0.064244449 0.13284445 1.715
-0.055125006 0.133525 1.715
-0.045733336 0.13393334 1.715
-0.0392 0.13393334 1.715
0.15026668 0.13066667 1.715
-0.052266669 0.14210001 1.715
-0.046666663 0.14326668 1.715
-0.0392 0.14046668 1.715
-0.075133339 0.1568 1.715
-0.044100001 0.15353334 1.715
-0.036866665 0.15400001 1.715
-0.075133339 0.16496667 1.715
-0.066966668 0.16741668 1.715
-0.043555558 0.16224445 1.715
-0.035636365 0.1645212 1.715
-0.065333337 0.17313334 1.715
-0.043555558 0.17748888 1.715
-0.036400001 0.17546667 1.715
-0.044100001 0.18620001 1.715
-0.035933334 0.18620001 1.715
0.14373334 0.18620001 1.715
-0.042466667 0.19436668 1.715
-0.035933334 0.19600001 1.715
0.14373334 0.19763334 1.715
-0.035 0.20533335 1.715
0.14264445 0.2068889 1.715
-0.032666668 0.21233334 1.715
-0.026133334 0.21560001 1.715
-0.024826668 0.22605333 1.7149999
-0.017966667 0.22866668 1.715
-0.024500003 0.2352 1.715
-0.017966667 0.2352 1.715
-0.024499999 0.245 1.715
-0.016741667 0.24540834 1.715
0.14046668 0.24336667 1.715
-0.024500001 0.25316668 1.715
-0.016333334 0.25480002 1.715
-0.0098000001 0.25806668 1.715
-0.025316669 0.26378334 1.715
-0.016333334 0.26460001 1.715
-0.0065333331 0.26460004 1.715
0.0032666668 0.26623335 1.715
0.014700001 0.26786667 1.715
0.035933334 0.26786667 1.715
0.058800001 0.26786667 1.715
-0.024499999 0.2744 1.715
-0.016333334 0.2744 1.715
-0.0065333331 0.27440003 1.715
0.0048999996 0.27440003 1.715
0.016333334 0.27440003 1.715
0.022866668 0.27766669 1.715
0.049000002 0.27113333 1.715
0.05716667 0.27276665 1.715
0.14536667 0.27766669 1.715
-0.024173336 0.28485337 1.7149999
-0.016333334 0.28420001 1.715
-0.0065333336 0.28420001 1.715
0.0049000001 0.28420004 1.715
0.016333334 0.28420001 1.715
0.0252 0.28373337 1.715
0.032666668 0.28093335 1.715
0.045733333 0.28746668 1.715
0.147 0.28093335 1.715
-0.024500003 0.29400003 1.715
-0.016333334 0.29400003 1.715
-0.0065333331 0.294 1.715
0.0049000001 0.29400003 1.715
0.016333334 0.294 1.715
0.025725 0.29440835 1.715
0.036750004 0.29645002 1.715
0.045733333 0.29400003 1.715
0.052266669 0.29726669 1.715
-0.024499999 0.30380002 1.715
-0.016333334 0.30380002 1.715
-0.0065333331 0.30380002 1.715
0.0048999996 0.30380002 1.715
0.016333334 0.30379999 1.715
0.026133336 0.30216667 1.715
0.035933334 0.30380002 1.715
0.045733333 0.3033917 1.715
0.052266669 0.30053335 1.715
-0.024173334 0.31294671 1.7149999
-0.016333334 0.3136 1.715
-0.0078400001 0.31229335 1.7149999
0.0058800001 0.3109867 1.7149999
0.016741667 0.31319168 1.715
0.023955556 0.31577778 1.715
0.035933334 0.31360003 1.715
0.044644445 0.31251112 1.715
-0.024500003 0.32557783 1.715
-0.016333334 0.32503337 1.715
-0.0073500006 0.32544169 1.715
0.0087111117 0.32884446 1.715
0.016630305 0.32547879 1.715
0.025836362 0.32547876 1.715
0.035933338 0.3250334 1.715
0.044800006 0.32713336 1.715
0.052266669 0.32993335 1.715
-0.023955556 0.33428887 1.715
-0.016986666 0.33450666 1.7149999
-0.0098000001 0.33646667 1.715
0.0073500001 0.33891666 1.715
0.016333334 0.33646667 1.715
0.026133334 0.33646667 1.715
0.035933334 0.33646667 1.715
0.045266666 0.33693334 1.715
0.053573333 0.33712 1.7149999
0.1372 0.33973333 1.715
0.14210001 0.33973333 1.715
-0.0098000001 0.34953335 1.715
0.0048999996 0.34626672 1.715
0.016333334 0.34626666 1.715
0.025725 0.34626666 1.715
0.035933338 0.34626669 1.715
0.045733333 0.34626669 1.715
0.0546 0.34673336 1.715
0.062066671 0.34953335 1.715
0.1372 0.34300002 1.715
0.14210001 0.34300002 1.715
0.0050814813 0.35715553 1.715
0.016333332 0.35606664 1.715
0.023683336 0.35525 1.715
0.035933334 0.35606667 1.715
0.045733333 0.35606664 1.715
0.055533335 0.35606664 1.715
0.065333337 0.35606667 1.715
0.071866669 0.35769999 1.715
0.1372 0.35769999 1.715
0.14373334 0.3560667 1.715
-0.013066667 0.36750001 1.715
-0.0065333336 0.3626 1.715
0.005226667 0.36325333 1.7149999
0.016333332 0.36456001 1.7149999
0.046141665 0.36586666 1.715
0.055533335 0.36586669 1.715
0.065333337 0.36586666 1.715
0.071866669 0.36586666 1.715
0.081666671 0.36913335 1.715
0.11433334 0.3626 1.715
0.1372 0.3626 1.715
0.14373334 0.36423334 1.715
0.016333334 0.37403333 1.715
0.0392 0.37893334 1.715
0.045733333 0.37566674 1.715
0.055533335 0.37566665 1.715
0.065333337 0.37566668 1.715
0.074666671 0.37660003 1.715
0.083300002 0.37730002 1.715
0.10616668 0.37566668 1.715
0.11433333 0.37566671 1.715
0.12086667 0.37566668 1.715
0.14308001 0.37697333 1.7149999
0.0098000001 0.38710004 1.715
0.016333334 0.38601112 1.715
0.027222222 0.38601112 1.715
0.035933334 0.38587499 1.715
0.045733333 0.38546669 1.715
0.056077778 0.38655558 1.715
0.065333337 0.38546669 1.715
0.075133339 0.38546669 1.715
0.083300002 0.38546669 1.715
0.14373334 0.38328889 1.715
0.0196 0.39853334 1.715
0.0294 0.39526668 1.715
0.035933338 0.39526665 1.715
0.045733336 0.39526665 1.715
0.055533335 0.39526668 1.715
0.065333337 0.39567503 1.715
0.075133346 0.39526668 1.715
0.082973339 0.39461333 1.7149999
0.098000005 0.3969 1.715
0.10388 0.39722666 1.7149999
0.11106667 0.3969 1.715
0.14536667 0.39608335 1.715
0.0294 0.40180001 1.715
0.035933334 0.40506664 1.715
0.045733333 0.40506667 1.715
0.055533335 0.40506667 1.715
0.065333337 0.40547499 1.715
0.075133339 0.40506664 1.715
0.083300002 0.40506664 1.715
0.10616668 0.40506667 1.715
0.11106667 0.40506664 1.715
0.14536667 0.40180001 1.715
0.034844443 0.41541111 1.715
0.045080002 0.41356 1.7149999
0.065333337 0.41486669 1.715
0.07472501 0.41527501 1.715
0.084933348 0.41486666 1.715
0.09520001 0.41580003 1.715
0.10494167 0.41527504 1.715
0.11106667 0.41323334 1.715
0.035116669 0.42221671 1.715
0.066266671 0.4242 1.715
0.075133346 0.42466667 1.715
0.084933333 0.42466664 1.715
0.094733335 0.42466667 1.715
0.10453334 0.42466667 1.715
0.11433334 0.42793334 1.715
0.037566666 0.43446669 1.715
0.042466667 0.43773335 1.715
0.068599999 0.43283337 1.715
0.075133331 0.43446672 1.715
0.084933333 0.43446672 1.715
0.094733335 0.43446672 1.715
0.10406667 0.43446666 1.715
0.068599999 0.44263333 1.715
0.075541675 0.44385839 1.715
0.084933341 0.44426668 1.715
0.094733335 0.44426668 1.715
0.10388 0.44426671 1.7149999
0.11526667 0.44473335 1.715
0.12372501 0.44467503 1.715
0.13284445 0.44644448 1.715
0.14046668 0.44753334 1.715
0.067783333 0.45488334 1.715
0.075133339 0.45406669 1.715
0.086566672 0.45488337 1.715
0.094733335 0.45406669 1.715
0.10453334 0.45325005 1.715
0.11433334 0.45406669 1.715
0.12372501 0.45365834 1.715
0.13393334 0.45243338 1.715
0.14318891 0.45515561 1.715
0.15026668 0.45570004 1.715
0.066640005 0.46321335 1.7149999
0.075133339 0.46386665 1.715
0.084933333 0.46386665 1.715
0.094324999 0.46386668 1.715
0.10453334 0.46060002 1.715
0.11106667 0.46060002 1.715
0.14242667 0.46452004 1.7149999
0.15190001 0.46713334 1.715
0.058800001 0.4736667 1.715
0.065333337 0.47460005 1.715
0.075133346 0.47366667 1.715
0.084933333 0.47366673 1.715
0.094733335 0.47366673 1.715
0.14318889 0.4736667 1.715
0.15244445 0.47148892 1.715
0.057493336 0.48411998 1.7149999
0.065333337 0.48346668 1.715
0.075133339 0.48346668 1.715
0.084933333 0.48346674 1.715
0.094733335 0.48346674 1.715
0.10126667 0.48673335 1.715
0.057166666 0.49489999 1.715
0.065333329 0.49489999 1.715
0.075133339 0.49490002 1.715
0.084933333 0.49490002 1.715
0.094733335 0.49489999 1.715
0.104125 0.49694169 1.715
0.11433334 0.49898332 1.715
0.14536667 0.49816668 1.715
0.05771111 0.50415558 1.715
0.065333337 0.50470001 1.715
0.075133339 0.50633335 1.715
0.084933333 0.50633335 1.715
0.094733335 0.50633335 1.715
0.10453334 0.50633335 1.715
0.1134 0.5068 1.715
0.12413334 0.50960004 1.715
0.13611111 0.50851113 1.715
0.14177334 0.50633335 1.7149999
0.075133331 0.51449996 1.715
0.086022228 0.51504445 1.715
0.093426667 0.51482666 1.7149999
0.10453334 0.51613337 1.715
0.11564 0.51482666 1.7149999
0.12413335 0.51613337 1.715
0.13393334 0.51613337 1.715
0.143325 0.51572502 1.715
0.088200003 0.52593333 1.715
0.094733335 0.52593333 1.715
0.12506667 0.52546668 1.715
0.13393334 0.52593338 1.715
0.14210001 0.52593333 1.715
0.15446667 0.52640003 1.715
0.16006668 0.52756667 1.715
0.087383337 0.5349167 1.715
0.091466673 0.5357334 1.715
0.1176 0.53900003 1.715
0.12413333 0.53573334 1.715
0.13393334 0.5357334 1.715
0.14210001 0.5357334 1.715
0.15516667 0.53246671 1.715
0.16006668 0.53246671 1.715
0.078400001 0.54553336 1.715
0.0854 0.54646671 1.715
0.094080009 0.54618669 1.7149999
0.10780001 0.54879999 1.715
0.1176 0.54879999 1.715
0.12413335 0.54553342 1.715
0.13393334 0.54553342 1.715
0.14210001 0.54553336 1.715
0.084525004 0.55533332 1.715
0.094188891 0.55642223 1.715
0.105 0.55626667 1.715
0.11386667 0.55626667 1.715
0.12372501 0.55533338 1.715
0.13393334 0.55206668 1.715
0.14210001 0.55533338 1.715
0.15516667 0.55860001 1.715
0.16006668 0.55860001 1.715
0.084933333 0.56513333 1.715
0.094733335 0.56513333 1.715
0.10453334 0.56513333 1.715
0.11433334 0.56513339 1.715
0.12413333 0.56513333 1.715
0.13328001 0.56578666 1.7149999
0.14308001 0.56513339 1.7149999
0.15353334 0.5618667 1.715
0.16006668 0.5618667 1.715
0.088200003 0.5765667 1.715
0.094266668 0.574 1.715
0.105 0.574 1.715
0.11433334 0.57493335 1.715
0.12413333 0.57493335 1.715
0.133 0.57539999 1.715
0.14177334 0.57428002 1.7149999
0.10780001 0.58146667 1.715
0.11433334 0.58310002 1.715
0.12454167 0.58432502 1.715
0.13393334 0.58473331 1.715
0.14046668 0.58310002 1.715
0.1176 0.59616673 1.715
0.12454168 0.59494168 1.715
0.13393334 0.59453338 1.715
0.14291668 0.59698337 1.715
0.15190001 0.59780002 1.715
0.12740001 0.60106671 1.715
0.13393334 0.6043334 1.715
0.14373334 0.60433334 1.715
0.13393334 0.61372501 1.715
0.14264445 0.6130445 1.715
0.15190001 0.61413336 1.715
0.13284445 0.62502223 1.715
-0.015516668 0.63291669 1.715
-0.0098000001 0.63373333 1.715
0.1176 0.63373333 1.715
0.13284445 0.63482231 1.715
0.12576668 0.64026672 1.715
0.13393334 0.64260006 1.715
-0.32272065 0.056886356 1.723
-0.31571928 0.054479621 1.7229999
-0.23465618 0.059074286 1.723
0.14440382 0.074389845 1.723
-0.21004191 0.088611431 1.723
-0.20511904 0.088611431 1.723
-0.15424953 0.088611431 1.723
-0.14358334 0.087790951 1.723
-0.13674603 0.086423494 1.723
-0.10502096 0.088611431 1.723
-0.095175244 0.088611431 1.723
-0.085329525 0.088611431 1.723
-0.075483814 0.086970478 1.723
-0.063997142 0.088611431 1.723
-0.05579238 0.088611431 1.723
-0.049228575 0.088611431 1.723
-0.03938286 0.088611431 1.723
-0.013127619 0.088611431 1.723
-0.20511904 0.093534291 1.723
-0.1537807 0.094237551 1.7229998
-0.14399357 0.094765007 1.7229998
-0.13784 0.093534291 1.723
-0.11240524 0.095175244 1.723
-0.10502096 0.095175244 1.7229998
-0.095175244 0.095175244 1.7229998
-0.085876502 0.094628267 1.7229999
-0.05579238 0.091893338 1.723
-0.045946669 0.091893338 1.723
-0.036100954 0.091893338 1.723
-0.10502096 0.10502096 1.7229998
-0.095175244 0.10502096 1.7229998
-0.085329525 0.10595863 1.7229998
-0.076140195 0.1069901 1.7229999
-0.11158477 0.11814857 1.723
-0.10502096 0.11486667 1.7229998
-0.095175244 0.11486667 1.7229998
-0.086267211 0.11533551 1.7229998
-0.075483814 0.11486667 1.723
-0.11289753 0.12536876 1.7229999
-0.10502096 0.12471239 1.7229998
-0.095175244 0.12471239 1.7229998
-0.085329525 0.12471239 1.7229998
-0.076421499 0.12518123 1.7229998
0.14768572 0.12799428 1.723
0.15096763 0.12799428 1.723
-0.11267874 0.13237016 1.723
-0.10502096 0.1345581 1.7229998
-0.095175244 0.1345581 1.7229998
-0.085329525 0.1345581 1.7229998
-0.075483814 0.1345581 1.7229998
-0.067826033 0.13674603 1.723
-0.059074286 0.13784 1.723
0.14768572 0.1345581 1.723
0.15096763 0.13619906 1.723
-0.10461072 0.14399359 1.7229998
-0.095175244 0.1444038 1.7229998
-0.085329525 0.14440382 1.7229998
-0.075483814 0.14440383 1.7229998
-0.065638095 0.1444038 1.7229998
-0.056730069 0.14487267 1.7229998
-0.11158477 0.15096763 1.723
-0.10461071 0.15383929 1.7229998
-0.095175236 0.15424953 1.7229998
-0.085329525 0.15424953 1.7229998
-0.075483814 0.15383929 1.7229998
-0.065638103 0.15424953 1.7229998
-0.055792384 0.15424953 1.7229998
-0.049228575 0.15424953 1.723
-0.094081275 0.16354825 1.7229999
-0.085329525 0.16409525 1.7229998
-0.075483814 0.1636264 1.7229998
-0.065169252 0.1636264 1.7229998
-0.055792376 0.16409522 1.7229998
-0.047040638 0.16464223 1.7229999
-0.094354771 0.17147954 1.723
-0.085329525 0.17394096 1.7229998
-0.075483814 0.17394096 1.7229998
-0.065091111 0.17503493 1.7229999
-0.055792384 0.17394096 1.7229998
-0.046415512 0.17300329 1.7229998
-0.03938286 0.17065905 1.723
0.14768572 0.17722286 1.723
-0.085329525 0.18214573 1.7229999
-0.075073577 0.18337643 1.7229998
-0.065638095 0.18378668 1.7229998
-0.055792384 0.18378668 1.7229998
-0.048408099 0.1829662 1.723
-0.034460001 0.18050477 1.723
0.14768572 0.18378668 1.723
-0.07302238 0.19281191 1.723
-0.065638095 0.19363241 1.7229998
-0.055792384 0.19363239 1.7229998
-0.047915813 0.19428878 1.7229999
0.14768572 0.19363238 1.723
0.15096763 0.19527334 1.723
-0.091893338 0.20019619 1.723
-0.082047619 0.20019619 1.723
-0.063450158 0.20238413 1.723
-0.05538214 0.20306785 1.7229998
-0.045946669 0.2034781 1.7229998
-0.03938286 0.20676 1.723
0.14604476 0.2034781 1.723
-0.054151431 0.21496478 1.7229998
-0.045946669 0.21496476 1.7229997
-0.036830265 0.21624106 1.7229998
-0.029537143 0.21660572 1.723
0.14112191 0.21332382 1.723
-0.073842861 0.22973335 1.723
-0.064544134 0.2275454 1.7229999
-0.05825381 0.22563097 1.723
-0.044633906 0.22513869 1.7229999
-0.036100958 0.22645146 1.7229998
-0.029537143 0.22645144 1.723
-0.075073577 0.23670739 1.7229998
-0.065638095 0.23629716 1.7229998
-0.057433337 0.23629715 1.7229999
-0.045008983 0.23629716 1.7229998
-0.036100958 0.23629716 1.7229998
-0.029537143 0.23629715 1.723
0.14309105 0.23629716 1.7229999
-0.073842861 0.24614285 1.7229999
-0.066048339 0.24614285 1.7229998
-0.057980318 0.2450489 1.723
-0.045536432 0.24614285 1.7229998
-0.036100958 0.24614286 1.7229998
-0.029537143 0.24614286 1.723
-0.073842861 0.25270668 1.723
-0.059074286 0.25270668 1.723
-0.045946669 0.25434762 1.7229999
-0.036100954 0.2550509 1.7229998
-0.027075715 0.25680906 1.723
-0.063176669 0.26665476 1.723
-0.05620262 0.26624453 1.7229998
-0.045946669 0.2658343 1.7229998
-0.036100954 0.2658343 1.7229998
-0.02691162 0.26649067 1.7229999
-0.062356193 0.27568001 1.723
-0.055792384 0.27568001 1.7229998
-0.045946669 0.27568001 1.7229998
-0.036100954 0.27568001 1.7229998
-0.029537143 0.27568001 1.723
0.14604476 0.27568001 1.723
-0.05579238 0.28224382 1.723
-0.045946669 0.285936 1.7229998
-0.036100954 0.28798717 1.723
-0.026255239 0.28224382 1.723
-0.054479621 0.29471508 1.7229999
-0.045126192 0.29291001 1.723
-0.036100954 0.29405865 1.7229999
-0.054698419 0.30412319 1.723
-0.045946669 0.30521715 1.723
-0.036100954 0.30685812 1.723
-0.029537143 0.30685812 1.723
-0.028443174 0.31506288 1.723
-0.004922857 0.31670383 1.723
0.0042195921 0.31693825 1.7229998
0.013127619 0.31834477 1.723
-0.026255237 0.32600257 1.723
-0.0054698414 0.32381463 1.723
0.0044753249 0.3246102 1.7229997
0.013127619 0.32162669 1.723
-0.027896192 0.33639526 1.723
-0.013127619 0.33803621 1.723
-0.0045946664 0.33541065 1.7229999
0.0036465612 0.33511895 1.7229998
0.14659174 0.33584824 1.723
-0.024614284 0.34459999 1.7229999
-0.016409524 0.34460002 1.7229998
-0.0061535719 0.34501025 1.7229998
0 0.3413181 1.723
0.029537143 0.34788191 1.723
0.036100954 0.34460002 1.723
-0.024614288 0.35444573 1.7229999
-0.016409524 0.35444576 1.7229998
-0.0061535719 0.35485595 1.7229998
0.0043758731 0.35444573 1.723
0.028443174 0.35663366 1.723
0.03692143 0.35444573 1.723
-0.024614288 0.36429143 1.7229999
-0.016819762 0.36388123 1.7229998
-0.0065638097 0.36429146 1.7229998
0.0043758731 0.36757335 1.723
0.016409524 0.36757335 1.723
0.026665475 0.36470169 1.7229998
0.035690717 0.36470169 1.7229998
0.042664763 0.36757335 1.723
-0.03938286 0.37413716 1.723
-0.024614288 0.37413716 1.7229999
-0.016819762 0.37454736 1.7229998
-0.0065638097 0.37413716 1.7229998
0.0049228575 0.37413716 1.7229997
0.016409524 0.37413713 1.7229999
0.026255239 0.37413713 1.7229998
0.036100954 0.37413716 1.7229998
0.055792384 0.37577811 1.723
0.14440382 0.37249622 1.7229999
-0.024614288 0.38398287 1.7229999
-0.016409526 0.38398287 1.7229998
-0.0065638102 0.3839829 1.7229998
0.0044753249 0.38368455 1.7229997
0.016409524 0.38201374 1.7229999
0.025598858 0.38201374 1.7229999
0.035006985 0.38179493 1.723
0.054971911 0.3839829 1.723
0.14659174 0.38507685 1.723
0.15096763 0.38070098 1.723
-0.024614288 0.3938286 1.7229999
-0.017347211 0.39335972 1.7229998
-0.0065638102 0.3938286 1.7229998
0.0044753249 0.39412692 1.7229997
0.016409524 0.3947663 1.7229998
0.024286097 0.39448497 1.7229999
0.065638095 0.3938286 1.723
0.14604476 0.39218765 1.723
0.15260857 0.39711049 1.723
-0.024614288 0.40367433 1.7229999
-0.016409524 0.4036743 1.7229998
-0.0065638102 0.4036743 1.7229998
0.004922857 0.40367427 1.7229997
0.015999286 0.40408453 1.7229998
0.02531755 0.40414315 1.7229998
0.065638095 0.4036743 1.723
0.15260857 0.40039238 1.723
-0.024614286 0.41680193 1.723
-0.016409524 0.41352004 1.7229998
-0.0065638097 0.41352004 1.7229998
0.0049228575 0.41351998 1.7229997
0.016409524 0.41351998 1.7229998
0.026255237 0.41351998 1.7229998
0.037741907 0.41352001 1.723
0.049228575 0.41352001 1.723
0.05579238 0.41516098 1.7229999
-0.024848709 0.42430347 1.7229998
-0.016409526 0.42500672 1.7229997
-0.0065638102 0.42500672 1.7229997
0.0049228575 0.42500678 1.7229997
0.016409524 0.42500675 1.7229997
0.026255241 0.42500675 1.7229997
0.037194923 0.4271946 1.7229999
0.045946669 0.42500672 1.7229997
0.055792388 0.42500666 1.7229997
0.062356193 0.42828858 1.723
-0.026255239 0.43321145 1.723
-0.014221587 0.43539938 1.723
-0.0065638102 0.43649331 1.7229999
0.0058344975 0.43612868 1.7229998
0.017347211 0.43602452 1.7229998
0.026255239 0.43649334 1.7229998
0.032819048 0.43649337 1.723
0.046356905 0.43608314 1.7229998
0.055792376 0.43649337 1.7229998
0.06470041 0.43696216 1.7229998
-0.013127619 0.44305715 1.723
-0.0065638102 0.44305715 1.723
0.0065638097 0.44551855 1.7229998
0.016409524 0.44633907 1.7229998
0.026255237 0.44633907 1.7229998
0.036100954 0.44633901 1.7229998
0.045946669 0.44633907 1.7229998
0.055792376 0.44633907 1.7229998
0.06470041 0.44680789 1.7229998
0.072201908 0.44962096 1.723
0.085329525 0.44633904 1.723
0.14604476 0.44962096 1.723
-0.0032819049 0.45782572 1.723
0.006974048 0.45659503 1.7229998
0.016409524 0.45618474 1.7229998
0.026255237 0.4561848 1.7229998
0.035163265 0.45571592 1.7229998
0.047587622 0.45618477 1.7229999
0.055792384 0.4561848 1.7229998
0.063668951 0.45552841 1.7229999
0.084016763 0.45552841 1.7229999
0.14549778 0.45399687 1.723
-0.0065638097 0.46849191 1.723
0.0059074289 0.46635866 1.7229998
0.016409524 0.46603048 1.7229998
0.026255237 0.46603048 1.7229998
0.033639524 0.46521002 1.723
0.047040638 0.4665775 1.7229999
0.055792384 0.46603048 1.7229998
0.063997142 0.46685097 1.723
0.14604476 0.46521002 1.723
0.15096763 0.46438953 1.723
-0.0072201909 0.47390705 1.7229999
0.0082047619 0.47259429 1.723
0.018050477 0.47259429 1.723
0.022973334 0.47259429 1.723
0.03938286 0.47751716 1.723
0.045946669 0.47587621 1.7229998
0.055382144 0.47587621 1.7229998
0.065638095 0.47259429 1.723
0.025161272 0.4868159 1.723
0.037741907 0.48572195 1.7229999
0.045946669 0.48572192 1.7229998
0.05333095 0.48490146 1.723
0.01969143 0.49884954 1.723
0.025434762 0.49638811 1.723
0.037741907 0.49556765 1.7229999
0.045946673 0.49556765 1.7229998
0.052510481 0.49556765 1.723
0.0065638097 0.50541335 1.723
0.018050477 0.50541329 1.7229999
0.026255239 0.50447565 1.7229998
0.037741907 0.50213146 1.723
0.047040638 0.50431937 1.7229999
0.053330958 0.50623381 1.723
0.14659175 0.50760132 1.723
0.15096763 0.50705433 1.723
0.004922857 0.5169 1.7229998
0.016819762 0.51566929 1.7229998
0.026255237 0.51525903 1.7229998
0.055792384 0.51525903 1.7229998
0.065638095 0.51525903 1.7229998
0.082047619 0.51854098 1.723
0.096816197 0.51854098 1.723
0.11322571 0.51854098 1.723
0.14768572 0.51197714 1.723
0.15331183 0.51572794 1.7229998
0.0073842863 0.52264333 1.723
0.016819762 0.52469456 1.7229998
0.026255237 0.52510476 1.7229998
0.03610095 0.52510476 1.7229998
0.045399684 0.52619874 1.7229999
0.05620262 0.52510476 1.7229998
0.065638095 0.52510476 1.7229998
0.075483806 0.52510476 1.7229998
0.083688579 0.52510482 1.7229999
0.095995717 0.5242843 1.723
0.10502096 0.52674574 1.7229999
0.11445644 0.52551502 1.7229998
0.12143048 0.52838671 1.723
0.14768572 0.52510476 1.723
0.15293677 0.52379209 1.7229999
0.0049228575 0.53330958 1.723
0.018597461 0.53276259 1.723
0.026724081 0.53401285 1.7229998
0.03610095 0.53495049 1.7229998
0.045946669 0.53495049 1.7229998
0.059074286 0.53330958 1.723
0.066106938 0.53401285 1.7229998
0.075483814 0.53495049 1.7229998
0.083360381 0.53495049 1.7229999
0.096488006 0.53560686 1.7229999
0.10502096 0.53495049 1.7229998
0.11486667 0.53495049 1.7229998
0.12143048 0.5316686 1.723
0.14768572 0.53495049 1.723
0.15342906 0.53741187 1.723
0.16081335 0.53823239 1.723
0.037038643 0.54432732 1.7229998
0.045946669 0.54479623 1.7229998
0.053604443 0.54589015 1.723
0.066575781 0.54526502 1.7229998
0.07507357 0.54438597 1.7229998
0.083688572 0.54315525 1.723
0.096488006 0.5441398 1.7229999
0.10502096 0.54479623 1.7229998
0.11445644 0.54520643 1.7229998
0.14768572 0.54479617 1.723
0.15359315 0.54413986 1.7229999
0.03938286 0.55136001 1.723
0.059074286 0.55792385 1.723
0.065638095 0.5546419 1.7229998
0.075483814 0.55464196 1.7229998
0.088611431 0.55792385 1.723
0.095995717 0.5546419 1.723
0.10338001 0.55300093 1.723
0.11486667 0.55300099 1.723
0.14768572 0.5546419 1.723
0.15260857 0.55136001 1.723
0.057980318 0.56229967 1.723
0.065638103 0.56448764 1.7229998
0.075483814 0.5644877 1.7229998
0.14768572 0.56284666 1.723
0.15096763 0.56120574 1.723
0.065638095 0.57433337 1.7229998
0.075483814 0.57433343 1.7229998
0.084673144 0.57564616 1.7229999
0.14768572 0.57433337 1.723
0.15331185 0.57386452 1.7229998
0.065638103 0.58371019 1.7229998
0.075483814 0.58417904 1.7229998
0.084919289 0.5845893 1.7229998
0.09558548 0.5845893 1.7229998
0.10408328 0.58464795 1.7229998
0.14604478 0.58417904 1.7229999
0.15228038 0.58417904 1.7229999
0.085739762 0.59361452 1.7229998
0.095175236 0.59402484 1.7229998
0.10502096 0.59402484 1.7229998
0.11445643 0.59361452 1.7229998
0.12143048 0.59238386 1.723
0.14440382 0.59355593 1.7229998
0.15359315 0.59468114 1.7229999
0.085329525 0.60140908 1.723
0.095585488 0.60346031 1.7229998
0.10502095 0.60387051 1.7229998
0.11445643 0.60428071 1.7229998
0.124056 0.60583961 1.7229999
0.097636677 0.61289573 1.723
0.10502096 0.61371624 1.7229998
0.11486668 0.61371624 1.7229998
0.12471239 0.61371619 1.7229998
0.14768572 0.61699814 1.723
0.068920001 0.62356192 1.723
0.076796576 0.62421834 1.7229999
0.086423494 0.62574989 1.723
0.09845715 0.62028003 1.723
0.10502096 0.62028003 1.723
0.11486667 0.62356192 1.7229998
0.12471239 0.62356198 1.7229998
0.1345581 0.62356192 1.7229999
0.14481406 0.62397218 1.7229998
0.15260857 0.62356192 1.7229999
-0.0065638092 0.63340765 1.723
0.0021879366 0.63668948 1.723
0.077124767 0.63012576 1.723
0.085627884 0.63489938 1.7229997
0.097144388 0.63603318 1.7229999
0.10633372 0.63209486 1.7229999
0.11456831 0.6348995 1.7229997
0.12471238 0.63504857 1.7229997
0.13537857 0.63463837 1.7229998
0.14407562 0.63472044 1.7229998
0.15260857 0.63176668 1.723
0.086970478 0.64325339 1.723
0.095175244 0.64325339 1.723
0.10830286 0.64981717 1.723
0.11486667 0.64522254 1.7229999
0.12389191 0.64571482 1.723
0.14440382 0.6448943 1.7229999
0.15096763 0.64489436 1.723
-0.32165715 0.049485717 1.7320001
-0.32495621 0.052784763 1.7320001
0.14680763 0.075878099 1.7320001
-0.27052191 0.089074291 1.7320001
-0.2622743 0.089074291 1.7320001
-0.22433525 0.089074291 1.732
-0.21608762 0.089074291 1.7320001
-0.20124191 0.089074291 1.7320001
-0.19794287 0.089074291 1.7320001
-0.16330287 0.089074291 1.7320001
-0.13361144 0.089074291 1.7320001
-0.12536381 0.089074291 1.732
-0.11546668 0.089074291 1.732
-0.10556953 0.089074291 1.7320001
-0.095672384 0.089074291 1.7320001
-0.067630485 0.085775241 1.7320001
-0.032990478 0.089074291 1.7320001
-0.28041905 0.092373334 1.7320001
-0.27382097 0.092373334 1.732
-0.2622743 0.092373334 1.7320001
-0.22268574 0.095672376 1.7320002
-0.21443811 0.095672376 1.7320002
-0.20322135 0.096992008 1.7320001
-0.19662324 0.096332192 1.7320001
-0.16297296 0.095012575 1.7320001
-0.15670477 0.098971434 1.7320001
-0.14845715 0.098971434 1.7320001
-0.13431837 0.09614367 1.7320002
-0.12536381 0.095672384 1.7320002
-0.1174461 0.095672384 1.7320001
-0.22433525 0.10227048 1.7320001
-0.2144381 0.10392001 1.7320002
-0.20548354 0.10509824 1.7320002
-0.19629334 0.10227048 1.7320001
-0.18474667 0.10227048 1.7320001
-0.17155048 0.10721906 1.7320001
-0.16165334 0.10556953 1.7320001
-0.15505524 0.10556953 1.7320002
-0.1451581 0.10556953 1.7320002
-0.13526097 0.10556953 1.7320002
-0.12536381 0.10556953 1.7320002
-0.11546666 0.10556953 1.7320002
-0.20406966 0.11452407 1.7320002
-0.19464381 0.11876572 1.7320001
-0.18474667 0.11876572 1.732
-0.17320001 0.11629143 1.7320001
-0.16495238 0.11587904 1.7320002
-0.15505524 0.11546666 1.7320002
-0.14515811 0.11546668 1.7320002
-0.13526095 0.11546668 1.7320002
-0.1253638 0.11546666 1.7320002
-0.11587904 0.11505429 1.7320002
-0.20124191 0.12536381 1.732
-0.19546857 0.12701333 1.7320001
-0.18427537 0.12536381 1.7320002
-0.17484953 0.12338438 1.7320001
-0.16495238 0.1253638 1.7320002
-0.15505524 0.12536383 1.7320002
-0.14515811 0.1253638 1.7320002
-0.13526095 0.1253638 1.7320002
-0.12536383 0.12536381 1.7320002
-0.11794095 0.12453905 1.7320001
-0.20124191 0.13196191 1.7320001
-0.19464381 0.13196191 1.732
-0.18392192 0.13278668 1.7320001
-0.17814858 0.13196191 1.7320001
-0.16495238 0.13196191 1.732
-0.15464285 0.13526095 1.7320002
-0.14515811 0.13526097 1.7320002
-0.13526095 0.13526097 1.7320002
-0.1253638 0.13526095 1.7320002
-0.11656635 0.13636063 1.7320002
-0.21113905 0.1451581 1.7320001
-0.20784001 0.1451581 1.7320001
-0.15340573 0.14515811 1.7320002
-0.14515811 0.14515811 1.7320002
-0.13526097 0.14515811 1.7320002
-0.12536381 0.14515811 1.7320002
-0.11546668 0.14515811 1.7320002
-0.10886858 0.14845715 1.7320001
-0.16165334 0.1517562 1.7320001
-0.15505524 0.15505522 1.7320002
-0.14515811 0.15505522 1.7320002
-0.13526097 0.15505522 1.7320002
-0.12536381 0.15505524 1.7320002
-0.11587904 0.15546761 1.7320002
-0.10886858 0.1583543 1.7320001
-0.16165334 0.16495238 1.7320001
-0.15464287 0.16454001 1.7320002
-0.1451581 0.16495238 1.7320002
-0.13573225 0.16400981 1.7320002
-0.12536381 0.16400981 1.7320002
-0.11499538 0.16400981 1.7320002
-0.10556953 0.16495238 1.7320002
-0.097871751 0.16605206 1.732
-0.1517562 0.17320001 1.7320001
-0.14515811 0.17484954 1.7320002
-0.13567333 0.17484954 1.7320002
-0.12536381 0.17352992 1.7320001
-0.11464191 0.17237526 1.7320001
-0.10556953 0.17484954 1.7320002
-0.096332192 0.17682895 1.7320001
0.1517562 0.17814858 1.7320001
-0.2144381 0.18804573 1.7320001
-0.20399112 0.18529652 1.7320002
-0.14350858 0.18474667 1.7320002
-0.13526097 0.18474667 1.7320002
-0.12495143 0.18515906 1.7320002
-0.11546668 0.18474668 1.7320002
-0.10556953 0.18474668 1.7320002
-0.095672384 0.18474668 1.7320002
-0.085775249 0.18804573 1.732
-0.079177149 0.18804573 1.7320001
0.15258095 0.18474668 1.7320001
-0.2144381 0.19546857 1.7320001
-0.2037162 0.19629334 1.7320001
-0.19794287 0.19794287 1.7320001
-0.14268382 0.19381905 1.7320001
-0.13526097 0.1946438 1.7320002
-0.12536381 0.1946438 1.7320002
-0.11546668 0.19464383 1.7320002
-0.10556953 0.19464381 1.7320002
-0.095672376 0.19464383 1.7320002
-0.085775249 0.19464383 1.7320002
-0.077857532 0.19530363 1.7320001
0.1517562 0.19134477 1.7320001
-0.14185905 0.20124191 1.7320001
-0.13608572 0.20206667 1.7320001
-0.1253638 0.20454097 1.7320002
-0.11546668 0.20454097 1.7320002
-0.10556953 0.20454097 1.7320002
-0.096084759 0.20495331 1.7320002
-0.086187623 0.20495333 1.7320002
-0.075878099 0.20454097 1.7320002
-0.067080639 0.20509081 1.7320002
-0.05938286 0.20784001 1.7320001
0.14845715 0.20454095 1.7320001
0.1517562 0.20124191 1.7320001
-0.12206477 0.2144381 1.732
-0.11546668 0.21443811 1.7320002
-0.10556953 0.21443813 1.7320002
-0.095672376 0.21443813 1.7320002
-0.085775241 0.21443813 1.7320002
-0.075878091 0.21443813 1.7320002
-0.065980956 0.21443813 1.7320002
-0.05938286 0.2144381 1.732
0.14185905 0.21773715 1.7320001
-0.16165334 0.22598478 1.7320001
-0.1583543 0.22598478 1.7320001
-0.1240442 0.22565489 1.7320001
-0.11546668 0.22433525 1.7320002
-0.10556953 0.22433525 1.7320002
-0.095672376 0.22433525 1.7320002
-0.085775249 0.22433525 1.7320002
-0.075878099 0.22433525 1.7320002
-0.067080639 0.22323556 1.7320002
-0.055259049 0.22516002 1.7320001
-0.047836192 0.2276343 1.7320001
0.14185905 0.22433525 1.732
-0.16165334 0.23093334 1.7320001
-0.15546763 0.23382002 1.7320002
-0.14557049 0.23464476 1.7320002
-0.13526095 0.23588192 1.7320002
-0.1253638 0.2342324 1.7320002
-0.11546668 0.2342324 1.7320002
-0.10556953 0.2342324 1.7320002
-0.095672384 0.2342324 1.7320002
-0.085775249 0.2342324 1.7320002
-0.079177149 0.23258287 1.7320001
