# .PCD v0.7 - Point Cloud Data file format
VERSION 0.7
FIELDS x y z
SIZE 4 4 4
TYPE F F F
COUNT 1 1 1
WIDTH 1464
HEIGHT 1
VIEWPOINT 0 0 0 1 0 0 0
POINTS 1464
DATA ascii
0.017255511 0.085835107 1.6260002
-0.012388572 0.092914291 1.626
-0.006194286 0.09601143 1.6260002
0.001032381 0.098076195 1.626
0.017808571 0.095237143 1.626
0.021680003 0.09601143 1.626
-0.0049554287 0.10406401 1.626
0.0045049354 0.10558443 1.6260002
0.015485715 0.10530286 1.6260002
-0.0043360004 0.11521371 1.626
0.004223377 0.1145943 1.6260002
0.015485715 0.11459429 1.6260002
-0.0043360004 0.12326629 1.626
0.0046457145 0.12388573 1.626
0.015485715 0.12388571 1.6260002
-0.003097143 0.13008 1.626
0.0046457145 0.13472572 1.6259999
0.014866287 0.13131885 1.626
0.0055748574 0.14525601 1.6260002
0.012388572 0.14556572 1.626
0.006194286 0.15485713 1.6260002
0.012388572 0.15485714 1.626
0.0055748574 0.16383888 1.6260002
0.015098573 0.16453573 1.6260002
0.021680001 0.16724572 1.626
0.0059361905 0.17473048 1.626
0.015485715 0.17034286 1.626
0.0052651432 0.18644801 1.6260002
-0.003097143 0.19666858 1.626
0.0046457145 0.19511999 1.626
0.012388572 0.19666858 1.626
-0.003097143 0.20286286 1.626
0.0036133335 0.20234667 1.626
0.012388572 0.2013143 1.626
-0.17429334 0.05913524 1.6340001
0.018674286 0.052910477 1.6340001
0.021786667 0.056022856 1.6340002
-0.20230477 0.068472385 1.6340001
-0.19608 0.066916198 1.6340001
-0.18778032 0.064322539 1.6340002
-0.17584953 0.063803814 1.6340001
0.024899049 0.066916198 1.6340001
-0.20630638 0.074252509 1.6339999
0.022564763 0.073919043 1.6340001
-0.20852953 0.080921911 1.6340001
-0.018674286 0.08714667 1.6340001
0.02303162 0.08341182 1.6340001
-0.014005715 0.096483812 1.6340001
0.024276573 0.09399391 1.6340001
-0.013486985 0.10374603 1.6340002
-0.0077809524 0.10737714 1.6340001
0.02303162 0.10519848 1.6340001
-0.0085590472 0.11438 1.6340001
0.021786667 0.1151581 1.6340002
-0.0077809524 0.12449525 1.6340001
0.02303162 0.12511773 1.6340001
-0.0049798097 0.13445486 1.6340001
0.016340001 0.13616668 1.6340001
0.02303162 0.13320991 1.6340001
-0.0046685715 0.14472571 1.6339999
0 0.1478381 1.6340001
0.016599365 0.14420697 1.6339999
0.022409145 0.14565942 1.6340001
-0.0053355102 0.15606368 1.6339999
0 0.15561906 1.6340002
0.017118096 0.15561907 1.6339999
0.022564763 0.15561906 1.6340001
-0.0058357143 0.16456714 1.6339999
0 0.16651239 1.6340001
0.018674286 0.16184382 1.6340001
0.023342859 0.1649562 1.6340001
-0.0038904764 0.17351525 1.6340001
0 0.17273715 1.6340001
0.015561907 0.1751826 1.6339999
0.021786667 0.17429334 1.6340002
-0.0041498416 0.18622415 1.6339999
0.0015561905 0.18207429 1.6340001
0.015561905 0.18518667 1.6340002
0.021786667 0.18363048 1.6340002
-0.0054466669 0.19530192 1.6340001
0.016451158 0.19563536 1.6339999
-0.0051873019 0.20541716 1.6340002
0.0057060323 0.20749207 1.6339999
0.014783811 0.20463906 1.6340001
0.021786667 0.20230477 1.6340001
0.0050929869 0.21447136 1.6340001
0.012449524 0.2131981 1.6340001
0.0054466669 0.22175714 1.6340001
0.009337143 0.23342858 1.6340002
0.012449524 0.23342858 1.6340001
0.009337143 0.26455238 1.6340001
-0.18441714 0.059388574 1.6410002
-0.17545906 0.056392383 1.645
-0.1649 0.053396191 1.649
0.026637144 0.057966664 1.645
0.031409524 0.059678096 1.649
-0.22536333 0.068315715 1.649
-0.21544677 0.066234499 1.6472222
-0.20524803 0.066954285 1.6426001
-0.19692001 0.065640002 1.641
-0.18519858 0.063295722 1.641
-0.17816572 0.06251429 1.641
0.027350001 0.064858571 1.641
0.033478096 0.066430159 1.6476668
-0.23400097 0.078523815 1.649
-0.22614858 0.075382859 1.649
-0.21579282 0.075059474 1.6418889
0.026881143 0.075642295 1.641
0.032665901 0.07475467 1.6489999
-0.26568574 0.081268571 1.641
-0.25441715 0.081664763 1.649
-0.24342382 0.081664763 1.649
-0.22505145 0.081268571 1.6410002
-0.2182962 0.081664763 1.649
-0.023530476 0.086273327 1.6470001
0.027350001 0.085175715 1.641
0.031409524 0.08480572 1.649
-0.031409524 0.095799051 1.649
-0.02512762 0.094228573 1.649
-0.018754287 0.093771435 1.6410002
0.028131431 0.093771428 1.6410002
0.031409524 0.094228573 1.649
-0.031409524 0.10522191 1.649
-0.02512762 0.1052219 1.649
-0.016844524 0.10575191 1.6450001
0.027533714 0.10575582 1.6426001
0.032037713 0.10427962 1.6489999
-0.023557143 0.11621525 1.649
-0.015684446 0.1160273 1.6463333
0.026637144 0.11593334 1.645
0.031409524 0.11621524 1.649
-0.021986667 0.1256381 1.649
-0.01570476 0.1256381 1.649
-0.0093771433 0.12659144 1.641
0.027384285 0.12439572 1.6429999
0.031409524 0.1256381 1.649
-0.021986667 0.13506097 1.649
-0.01570476 0.13506097 1.649
-0.0093771433 0.13440572 1.6410002
0.027350001 0.13518715 1.641
0.032194763 0.1358462 1.649
-0.023557143 0.1444838 1.649
-0.015704762 0.14448382 1.649
-0.0093771433 0.14378285 1.6410002
0.026568571 0.14378287 1.6409999
0.032980002 0.1444838 1.649
-0.023557141 0.15390669 1.649
-0.015378475 0.15438095 1.6474001
-0.0093771433 0.15316001 1.6410002
0.027089523 0.15524381 1.6409999
0.031409524 0.15390667 1.649
-0.023557141 0.1649 1.649
-0.015966753 0.16503324 1.646091
-0.0093771433 0.16878858 1.641
0.027350001 0.16488144 1.641
0.032037716 0.16584229 1.6489999
-0.021986667 0.17432286 1.649
-0.015704762 0.17589334 1.649
-0.0081268577 0.17566516 1.641
0.026637144 0.17546667 1.645
0.031409524 0.17589335 1.649
-0.015312143 0.18570881 1.649
-0.0081268577 0.183792 1.641
0.026637144 0.18486667 1.645
0.032665905 0.18594439 1.6489999
-0.01569799 0.19463238 1.6481112
-0.0093771433 0.1937943 1.6410002
0.025064975 0.19421589 1.6445556
0.031409524 0.19473906 1.649
-0.015704762 0.20416191 1.649
-0.0086071435 0.20498572 1.6429999
0.017191429 0.20786001 1.641
0.02547643 0.20379429 1.646
0.031409524 0.20259143 1.649
-0.013610794 0.2114908 1.649
-0.0062768254 0.21532826 1.6463333
0 0.21880001 1.641
0.016560817 0.21657145 1.6444285
0.024429629 0.21393377 1.649
-0.0062785186 0.22590648 1.6472223
0.0042978572 0.22622356 1.6409999
0.015667515 0.22553904 1.6445556
0.021986669 0.22614859 1.649
-0.01256381 0.23243049 1.649
-0.0058892858 0.23517881 1.649
0.0031257144 0.23442858 1.6409999
0.016030714 0.23456952 1.642
0.024214966 0.2358547 1.6478573
0.031409524 0.23871239 1.649
-0.0041879364 0.24290033 1.649
0.0046961908 0.24440382 1.6450001
0.015657356 0.24420363 1.6436666
0.02512762 0.2449943 1.649
0.031409524 0.2449943 1.649
0.0062697143 0.25467354 1.6466
0.015704762 0.25441715 1.649
0.022771906 0.25363192 1.649
0.0062761907 0.26446143 1.6480001
0.015384573 0.26433715 1.6482
0.006620741 0.27436253 1.6472222
0.015990304 0.27526161 1.649
0.023243045 0.27703199 1.6489999
0.0071727894 0.28518206 1.6478573
0.015689526 0.28552189 1.6472223
0.024735 0.28543407 1.649
0.0078523811 0.29524949 1.649
0.015704762 0.29524952 1.649
0.023243049 0.29462135 1.6489999
0.0083758729 0.30257842 1.649
0.015704762 0.30310193 1.649
0.021986667 0.3031019 1.649
0.0081664762 0.32665905 1.6489999
0.01256381 0.32980001 1.649
0.0086376192 0.33608192 1.649
0.01256381 0.33451146 1.649
0.0094228573 0.35492763 1.649
0.0094228573 0.36120954 1.649
0.01256381 0.3643505 1.649
0.0094228573 0.37377334 1.649
0.01256381 0.37377334 1.649
0.014134286 0.38162571 1.649
-0.18305905 0.05681143 1.6570001
-0.17516857 0.055233337 1.6570001
0.034718096 0.058389526 1.6570001
-0.23434713 0.066674531 1.6569998
-0.22619367 0.064175874 1.6570001
-0.21619906 0.063123815 1.6570001
-0.20673048 0.063123815 1.6570001
-0.19568382 0.063123815 1.6570001
0.036822226 0.065227948 1.6570001
0.041819528 0.066280007 1.6570001
-0.2714324 0.075748578 1.6570001
-0.26617208 0.076800637 1.6569999
-0.25565144 0.077326663 1.6569999
-0.24618287 0.077326663 1.6569999
-0.23716518 0.074846804 1.6569998
0.037085243 0.076537624 1.6570001
0.041030478 0.074170485 1.6570001
-0.26354191 0.082060955 1.6570001
-0.24933906 0.082060955 1.6570001
-0.031561907 0.088373333 1.6570001
-0.028405715 0.088373333 1.6570001
0.036296193 0.085217141 1.6569999
0.041030478 0.088373333 1.6570001
-0.031561907 0.091529526 1.6570001
0.036296193 0.094685711 1.6569999
0.036611814 0.10478552 1.6569999
0.041030478 0.1009981 1.6570001
-0.031561907 0.11677905 1.6570001
-0.028405717 0.11677905 1.6570001
0.035349332 0.11425409 1.6569999
-0.031561907 0.12624763 1.6570001
-0.026151294 0.12624763 1.6569998
0.034718096 0.12624763 1.6570001
-0.031561907 0.1357162 1.6570001
-0.026151294 0.1357162 1.6569998
0.035770159 0.1357162 1.6570001
-0.031561907 0.14518476 1.6570001
-0.028405717 0.14518476 1.6570001
0.037874289 0.14518476 1.6570001
0.041030478 0.14834096 1.6570001
-0.031561907 0.15465334 1.6570001
-0.028405717 0.15465334 1.6570001
0.036296193 0.15465333 1.6569999
0.041030478 0.15465334 1.6570001
-0.031561907 0.16412191 1.6570001
-0.028405717 0.16412191 1.6570001
0.035980571 0.16349068 1.6569999
0.041030478 0.16254382 1.6570001
-0.031561907 0.17516857 1.6570001
-0.026433093 0.17635216 1.6569998
0.036521636 0.17584491 1.6569998
-0.031561907 0.18621524 1.6570001
-0.025249524 0.18621525 1.6569998
-0.018937144 0.18305905 1.6570001
0.036822226 0.18516319 1.6570001
-0.031561907 0.19568382 1.6570001
-0.025249524 0.19568382 1.6569998
0.034718096 0.19568382 1.6570001
-0.031561907 0.2035743 1.6570001
-0.024347752 0.20470151 1.6569998
0.03392905 0.20594144 1.6570001
-0.023671428 0.21462096 1.6569999
-0.016833017 0.21567303 1.6569999
0.028405715 0.21777715 1.6570001
0.033140004 0.21462096 1.6569999
-0.02335581 0.22472076 1.6569999
-0.015780952 0.22408952 1.6569998
-0.0094685722 0.22093335 1.6570001
0.026827618 0.22408952 1.6569999
0.033140004 0.22408952 1.6569999
-0.023145398 0.23408413 1.6569999
-0.016067879 0.23527966 1.6569997
-0.0094685722 0.23987049 1.6570001
0.027616665 0.23276906 1.6570001
0.03392905 0.23513618 1.6569998
-0.02367143 0.24302667 1.6570001
-0.014879185 0.24573199 1.6569998
-0.0073644444 0.24723494 1.6569999
0.035112619 0.24618289 1.6569998
-0.01533007 0.25655323 1.6569998
-0.006312381 0.25565144 1.6569998
0 0.25565144 1.6570001
0.027143236 0.25628269 1.6569999
0.034267213 0.25474969 1.6569998
-0.02367143 0.26827621 1.6570001
-0.015386431 0.26512 1.6569998
-0.006312381 0.26512003 1.6569998
0 0.26512 1.6570001
0.025249524 0.26512003 1.6569998
-0.013413809 0.27537763 1.6570001
-0.0063123815 0.27458858 1.6569998
0.00078904763 0.27537763 1.6570001
0.026301587 0.27353653 1.6569999
0.032824386 0.27521983 1.6569999
-0.016412193 0.28216344 1.6569999
-0.0054106121 0.28360626 1.6569998
0.0012624762 0.28405714 1.6569999
0.028405715 0.28090096 1.6570001
0.033140004 0.28405714 1.6569999
-0.0037874286 0.29415697 1.6569999
0.0015780953 0.29510382 1.6569998
0.027774477 0.29605067 1.6569999
0.032824382 0.29289448 1.6569999
-0.003945238 0.3061505 1.6570001
0.0035068786 0.30685183 1.6569998
0.015780954 0.30930668 1.6570001
0.025775557 0.30615047 1.6569999
-0.0054106126 0.31561902 1.6569998
0.0047342856 0.31561902 1.6569997
0.015780954 0.31561902 1.6569998
0.023671428 0.31561902 1.6569999
-0.0031561905 0.32824382 1.6570001
0.0035068786 0.32473695 1.6569998
0.015780954 0.32508764 1.6569998
0.023671428 0.32508764 1.6569999
-0.0031561905 0.33455622 1.6570001
0.0022544216 0.33455616 1.6569998
0.017359048 0.33455622 1.6569999
0.023671428 0.33455619 1.6569999
-0.0047342856 0.34402478 1.6569999
0.0043038959 0.34431168 1.6569997
0.015780952 0.34402478 1.6569998
0.023671428 0.34402478 1.6569999
-0.0044186665 0.35349333 1.6569999
0.0044186665 0.35496622 1.6569997
0.014728891 0.35454541 1.6569998
0.022093333 0.35033715 1.6570001
0.0049096295 0.36576745 1.6569998
0.016306987 0.36664414 1.6569999
0.0049096299 0.37628809 1.6569998
0.017359048 0.37558672 1.6569999
0.022093333 0.37716478 1.6570001
0.0047342856 0.38505527 1.6569997
0.016231839 0.38550615 1.6569998
0.02335581 0.38442403 1.6569999
0.0059178574 0.39334026 1.6569998
0.015780954 0.39452383 1.6569998
0.0063123815 0.4008362 1.6570001
0.014202858 0.40399238 1.6569999
0.0086795241 0.4174062 1.6570001
0.014728891 0.4155651 1.6569998
0.0086795241 0.42529666 1.6570001
0.015386431 0.42648023 1.6569998
0.02367143 0.42924193 1.6570001
0.0094685722 0.4339762 1.6570001
0.016306985 0.43450224 1.6569999
0.022882381 0.43476525 1.6570001
0.017359048 0.44581193 1.6570001
0.022093333 0.44502291 1.6570001
0.0094685722 0.45133525 1.6570001
0.012624762 0.45133525 1.6570001
0.018937144 0.5081467 1.6570001
0.023145398 0.50709462 1.6570001
0.018937144 0.51445907 1.6570001
0.023987049 0.51382786 1.6569999
0.027616668 0.52313858 1.6570001
-0.27274287 0.057085715 1.6650001
-0.26640001 0.055500004 1.6650001
-0.22675714 0.057085715 1.6650001
-0.18394287 0.05391429 1.6650001
-0.17654288 0.051800001 1.6650001
0.03647143 0.055500001 1.6650001
0.042814288 0.057085715 1.6650001
-0.27274287 0.065014288 1.6650001
-0.2651315 0.065331437 1.6650004
-0.25416738 0.067506127 1.6650001
-0.24465306 0.066600002 1.6650001
-0.23468572 0.061842859 1.6650001
-0.22517145 0.060257148 1.6650001
-0.21407142 0.060257144 1.6650001
0.045589287 0.064221434 1.6650001
-0.27591431 0.077700004 1.6650001
-0.2632286 0.073735721 1.6650001
-0.25371432 0.07294286 1.6650001
-0.24578571 0.07294286 1.6650001
0.044400003 0.076114289 1.6650002
-0.034885716 0.088800006 1.6650001
0.043871433 0.085628577 1.6650001
-0.043342859 0.097257145 1.6650001
-0.03647143 0.095142864 1.6650001
0.042814288 0.095142864 1.6650001
-0.044003572 0.10465714 1.6650001
-0.03647143 0.10465714 1.6650001
0.043131433 0.10529143 1.6650002
-0.044399999 0.113775 1.6650001
-0.03647143 0.11417144 1.6650001
0.038057145 0.11575714 1.6650001
0.042285714 0.11205715 1.6650001
-0.043342859 0.12315714 1.6650001
-0.03647143 0.12368572 1.6650001
0.038057145 0.12368572 1.6650001
-0.04186286 0.13446859 1.6650002
-0.03647143 0.13478571 1.6650001
0.038057145 0.1332 1.6650001
0.041228574 0.13795716 1.6650001
-0.041228574 0.14588572 1.6650001
-0.03647143 0.14588572 1.6650001
0.042285714 0.14588572 1.6650001
-0.041228574 0.15540002 1.6650001
-0.03647143 0.15540001 1.6650001
0.043131433 0.15540001 1.6650002
-0.03647143 0.1649143 1.6650001
0.038057145 0.16808572 1.6650001
0.042814288 0.1665 1.6650001
-0.03647143 0.17442858 1.6650001
0.042021431 0.17522144 1.6650001
-0.036154289 0.18330859 1.6650002
0.038057145 0.1871143 1.6650001
0.042497147 0.18330859 1.6650002
-0.034885716 0.19504288 1.6650001
0.038057145 0.19662857 1.6650001
0.041228574 0.19187143 1.6650001
-0.033828571 0.20614286 1.6650001
-0.028542858 0.20772856 1.6650001
0.038057145 0.20614286 1.6650001
0.041228574 0.20931429 1.6650001
-0.031714287 0.21565716 1.6650001
-0.028542856 0.21565716 1.6650001
0.038057145 0.21565716 1.6650001
0.041228574 0.21248572 1.6650001
-0.031714287 0.22517145 1.6650001
-0.02775 0.22437859 1.6650001
0.038057145 0.22517143 1.6650001
-0.031714287 0.23468572 1.6650001
-0.02775 0.23547858 1.6650001
0.038057145 0.23785715 1.6650001
-0.031714287 0.24420001 1.6650001
-0.026428573 0.24472857 1.6650001
-0.019028572 0.24737144 1.6650001
0.041228574 0.24420001 1.6650001
-0.031714287 0.25371432 1.6650001
-0.02537143 0.25371432 1.6650001
-0.017971428 0.25265715 1.6650001
0.041228574 0.25371432 1.6650001
-0.031714287 0.26005715 1.6650001
-0.025688574 0.26386291 1.6650002
-0.019028572 0.26640001 1.6650001
0.035174027 0.26524678 1.6650002
0.041228574 0.26005715 1.6650001
-0.023785716 0.27591431 1.6650001
-0.017760001 0.27528003 1.6650002
0.03647143 0.27432859 1.6650001
0.041228574 0.27591428 1.6650001
-0.023785716 0.28542855 1.6650001
-0.015064286 0.28780714 1.6650001
-0.0095142862 0.28701431 1.6650001
0.038057145 0.28542858 1.6650001
-0.024975002 0.29533929 1.6650001
-0.015857143 0.29494286 1.6650001
-0.0082457149 0.29557714 1.6650002
0.037264287 0.29573572 1.6650001
-0.023785714 0.30128571 1.6650001
-0.015857143 0.30355102 1.6650001
-0.0082457149 0.30382288 1.6650002
0.03298286 0.30382288 1.6650002
-0.014800001 0.31502858 1.6650001
-0.0084571429 0.31185716 1.6650001
0.028542856 0.31397143 1.6650001
0.031714287 0.31238574 1.6650001
-0.012685713 0.32454288 1.6650001
-0.0070476192 0.3256 1.6650001
0.028542858 0.32507145 1.6650001
0.031714287 0.32982859 1.6650001
-0.012685714 0.333 1.6650001
-0.0063428571 0.33553714 1.6650002
0.028542856 0.33617148 1.6650001
0.031714287 0.33617148 1.6650001
-0.012685713 0.34568572 1.6650001
-0.0095142862 0.34568572 1.6650001
0.028542856 0.34568572 1.6650001
0.031714287 0.34568572 1.6650001
-0.012685713 0.35520002 1.6650001
-0.0087214289 0.35520002 1.6650001
0.019028572 0.35678571 1.6650001
0.025371429 0.3536143 1.6650001
-0.0050742859 0.3634457 1.6650002
0.019028572 0.3631286 1.6650001
0.022200001 0.36630002 1.6650001
-0.0031714283 0.3742286 1.6650001
0.0015857143 0.37264287 1.6650001
0.023785714 0.3742286 1.6650001
-0.0039642858 0.38453573 1.6650001
0.02775 0.38295001 1.6650001
0.031714287 0.38532859 1.6650001
-0.0039642858 0.39246428 1.6650001
0.0023785713 0.39880717 1.6650001
0.025371429 0.39484286 1.6650002
0.0055500004 0.40633932 1.6650001
0.019028572 0.40594283 1.6650001
0.022200001 0.40277144 1.6650001
0.0047571431 0.41545719 1.6650001
0.019028572 0.41545716 1.6650001
0.02537143 0.41862857 1.6650001
-0.0031714286 0.42338574 1.6650001
0.002265306 0.42542449 1.6650001
0.019028572 0.42497143 1.6650001
0.025900001 0.42602858 1.6650001
0.0031714286 0.4344857 1.6650001
0.015857143 0.43765715 1.6650001
0.02775 0.43527859 1.6650001
0.031714287 0.43131429 1.6650001
0.0067392862 0.44439644 1.6650001
0.01427143 0.44400001 1.6650001
0.026957145 0.44400001 1.6650001
0.0047571431 0.45555303 1.6650003
0.016253572 0.45628932 1.6650001
0.024314286 0.45404288 1.6650001
0.0052857143 0.46408573 1.6650001
0.012685714 0.4646143 1.6650001
0.025371427 0.46937144 1.6650001
0.017971428 0.47782859 1.6650001
0.02537143 0.47571427 1.6650001
0.019028572 0.48364288 1.6650001
0.024737144 0.48332572 1.6650002
0.019028572 0.49791431 1.6650001
0.022200001 0.49791431 1.6650001
0.017971428 0.50531435 1.6650001
0.024737144 0.50489146 1.6650002
0.014951021 0.51377147 1.6650001
0.028542856 0.51377147 1.6650001
0.01797143 0.52381438 1.6650001
0.024012247 0.52509797 1.6650001
0.031714287 0.52487147 1.6650001
0.017760001 0.53533715 1.6650002
0.024918368 0.53597146 1.6650001
0.031714287 0.53280002 1.6650001
0.019028572 0.54865718 1.6650001
-0.23422 0.057360001 1.6730001
-0.22306667 0.057360001 1.6730001
-0.1912 0.054173335 1.6730001
-0.17686 0.057360001 1.6730001
0.038240001 0.054173335 1.6730001
0.044613335 0.055235554 1.673
-0.28042668 0.066920005 1.6730001
-0.27724001 0.065326676 1.6730001
-0.26130667 0.06054667 1.6730001
-0.254296 0.061821334 1.6730001
-0.24537334 0.061343338 1.6730001
-0.23740667 0.06054667 1.6730001
-0.21510002 0.06054667 1.6730001
-0.20713334 0.06054667 1.6730001
-0.19438668 0.06054667 1.6730001
0.051783338 0.063733339 1.6730001
-0.28148893 0.07435555 1.673
-0.27724001 0.074886672 1.6730001
0.047800001 0.078073338 1.6730001
0.05098667 0.07010667 1.6730001
-0.30432665 0.08285334 1.6730001
-0.038240001 0.089226671 1.6730001
0.047800001 0.084446669 1.6730001
0.05098667 0.089226671 1.6730001
-0.06054667 0.097193331 1.6730001
-0.053775005 0.095998332 1.6730002
-0.04514445 0.094537772 1.6730002
0.047800001 0.095600002 1.673
0.05098667 0.095600002 1.6730001
-0.061343335 0.10595667 1.6730001
-0.054173335 0.10516001 1.6730002
-0.047800001 0.10516001 1.6730001
0.047800001 0.10516001 1.673
-0.054173332 0.11426476 1.6730002
-0.044613335 0.11790667 1.6730001
0.044613335 0.11551666 1.6730001
-0.052580006 0.12348334 1.6730001
-0.046737779 0.12534223 1.673
0.042701337 0.12364267 1.6730001
-0.05098667 0.13224667 1.6730001
-0.046525337 0.13383999 1.6730001
0.042488892 0.13384001 1.673
-0.045979049 0.14476572 1.6730002
0.045887999 0.145312 1.6730001
-0.045887999 0.15614668 1.6730001
0.047800001 0.15614666 1.673
-0.043020006 0.16570668 1.6730002
0.046206668 0.16491 1.6730001
-0.043020006 0.17526668 1.6730002
0.046206668 0.17447001 1.6730001
-0.043020006 0.18482669 1.6730002
-0.038240001 0.18801335 1.6730001
0.046737779 0.18482667 1.673
-0.042701337 0.19374934 1.6730001
-0.038240001 0.19438668 1.673
0.043816667 0.19518334 1.6730001
-0.04142667 0.20394666 1.673
-0.038240001 0.20076001 1.6730001
0.043020006 0.20394666 1.6730002
-0.035053335 0.21032001 1.6730001
0.043551113 0.21616222 1.6730002
0.04142667 0.22625333 1.673
0.038240001 0.23422 1.6730001
0.04142667 0.23581333 1.673
0.044613335 0.24218668 1.6730001
-0.035053335 0.25812 1.6730001
-0.034522224 0.26449335 1.6730002
0.042488892 0.2666178 1.673
-0.03186667 0.27086666 1.6730001
-0.02868 0.27564669 1.6730001
0.038240001 0.27405334 1.6730001
0.043020003 0.27086666 1.6730001
-0.02868 0.28520668 1.6730001
0.038240001 0.28361332 1.6730001
-0.02868 0.29317334 1.6730001
0.04142667 0.29636002 1.673
-0.026555555 0.30645111 1.6730002
-0.015933333 0.30910668 1.6730001
0.037443332 0.30671668 1.6730001
-0.025493335 0.31229335 1.6730001
-0.017526668 0.31229335 1.6730001
0.035584446 0.31547999 1.6730002
0.04142667 0.31548002 1.6730001
-0.023368889 0.3239778 1.673
-0.016843809 0.32549524 1.6730002
0.032663338 0.32583669 1.6730001
-0.022306668 0.3346 1.6730001
-0.016843809 0.33505526 1.6730002
-0.0095600002 0.33778667 1.6730001
0.035053335 0.3346 1.673
-0.015933335 0.34416002 1.6730001
-0.0095600002 0.34097335 1.6730001
0.035053335 0.34415999 1.673
-0.025493335 0.35690668 1.6730001
-0.017526668 0.35371998 1.6730002
0.02868 0.35690668 1.6730001
0.034416001 0.35308269 1.6730001
-0.016252 0.36487335 1.6730001
-0.0079666674 0.36805999 1.6730001
0.026130667 0.36423603 1.6730001
0.03186667 0.36009336 1.6730001
-0.015478097 0.37693715 1.6730002
-0.0079666674 0.37602672 1.6730002
0.027883332 0.37523001 1.6730001
0.03186667 0.37921333 1.6730001
-0.014340001 0.38558671 1.6730002
-0.0082853343 0.38494936 1.6730001
0.033460002 0.38558668 1.6730001
-0.01434 0.39355332 1.6730001
-0.0082853343 0.39578399 1.6730001
0.032663338 0.39435002 1.6730001
-0.0059180958 0.40379623 1.6730002
0 0.40789336 1.6730001
0.026555555 0.4057689 1.6730002
0.03186667 0.40311337 1.6730001
-0.0031866666 0.41426668 1.673
0 0.41426668 1.673
0.025493335 0.41426665 1.6730002
0.03186667 0.41586 1.6730001
-0.0055766674 0.42303002 1.6730001
0.024431111 0.42488894 1.673
0.033141337 0.42382669 1.6730001
-0.0047800001 0.43498001 1.6730002
0.034256671 0.43498001 1.6730002
-0.0053111115 0.44825777 1.673
0.00079666672 0.4453367 1.6730001
0.033460002 0.44613335 1.6730002
-0.0059750006 0.4560917 1.6730002
0 0.45250669 1.6730001
0.015933335 0.45888001 1.6730001
0.027617777 0.45781779 1.673
0.032663338 0.45489669 1.6730001
-0.0059750001 0.46485502 1.6730002
0.0031866669 0.46844003 1.6730001
0.017526668 0.4668467 1.6730001
0.025891667 0.46565169 1.6730002
0.033141337 0.46589071 1.6730001
0.0069044442 0.47375116 1.6730002
0.015535001 0.47441506 1.6730002
0.033460002 0.47481334 1.6730002
0.0079666674 0.48118669 1.6730001
0.014021334 0.48501068 1.6730001
0.02868 0.48756 1.6730001
0.032663338 0.48357666 1.6730001
0.0095600002 0.49393335 1.6730001
0.015933335 0.49393335 1.6730002
0.025493333 0.49393335 1.6730002
0.0061077778 0.50455552 1.6730002
0.014738334 0.50468832 1.6730002
0.027405333 0.50285602 1.6730001
0.03186667 0.50827336 1.6730001
0.0079666674 0.51624006 1.6730002
0.03186667 0.51624006 1.673
0.0095600002 0.52261335 1.6730001
0.013543334 0.52659667 1.6730001
0.033460002 0.52420664 1.6730001
0.0095600002 0.53695333 1.6730001
0.013543333 0.5345633 1.6730001
0.027086668 0.53854668 1.6730001
0.03186667 0.53535998 1.6730001
0.0095600002 0.54491997 1.6730001
0.015535001 0.54531831 1.6730002
0.025493333 0.54651332 1.6730002
0.032663338 0.54571664 1.6730001
0.0095600002 0.55129337 1.6730001
0.015933335 0.55448002 1.6730002
0.025493333 0.55448002 1.6730002
0.032928891 0.55341786 1.673
0.017526668 0.56404001 1.6730002
0.025493333 0.56404001 1.6730002
0.0095600002 0.57837999 1.6730001
0.017208001 0.5729627 1.6730001
0.024856001 0.57168806 1.6730001
0.0095600002 0.58316004 1.6730001
0.025891667 0.61542511 1.6730002
0.03186667 0.61502671 1.673
0.027086668 0.6214 1.6730001
0.03186667 0.6214 1.6730001
-0.21132572 0.03842286 1.6810001
-0.20812382 0.03842286 1.6810001
-0.20332097 0.041624762 1.6810001
-0.19691715 0.041624762 1.6810001
-0.28336859 0.057634287 1.6810001
-0.27749845 0.055499684 1.6810001
-0.2625562 0.056033336 1.6810001
-0.25935429 0.057634287 1.6810001
-0.24334478 0.056566983 1.6810001
-0.23694097 0.054432385 1.6810001
-0.22093144 0.057634287 1.6810001
-0.20812382 0.054432385 1.6810001
-0.19371524 0.053631909 1.6810001
-0.18891239 0.057634287 1.6810001
0.032019049 0.054432385 1.6810001
0.046427622 0.052831434 1.6810001
0.052297782 0.056566983 1.6810001
-0.28536975 0.06363786 1.681
-0.27856573 0.060836192 1.6810001
-0.1985181 0.060836192 1.6810001
0.056033336 0.063237622 1.6810001
0.060836192 0.064038098 1.6810001
-0.29137334 0.073643811 1.6810001
-0.28588438 0.074101225 1.681
0.053151619 0.074284196 1.6810001
-0.29297429 0.080047622 1.6810001
-0.28817144 0.080047622 1.6810001
-0.041624762 0.089653336 1.6810001
0.05306014 0.084164359 1.681
-0.062970795 0.096057147 1.6810001
-0.057634287 0.092855245 1.6810001
0.054966036 0.096590795 1.6810001
-0.065105401 0.10566286 1.6810001
0.053517558 0.10612028 1.681
-0.063123271 0.11481117 1.681
-0.054432385 0.11686952 1.6810001
0.048028573 0.11686952 1.6810001
0.053517554 0.11481117 1.681
-0.060836192 0.12487429 1.6810001
-0.055713147 0.12551467 1.6810001
0.047228098 0.12567475 1.6810001
0.053365085 0.12434063 1.6810001
-0.055347215 0.13493742 1.681
0.046747811 0.13383962 1.6810001
0.052030955 0.13448 1.6810001
-0.052030955 0.14328524 1.6810001
-0.048028573 0.14728762 1.6810001
0.048028573 0.14248477 1.6810001
0.052511238 0.1447261 1.6810001
-0.052030955 0.15289095 1.6810001
-0.048028573 0.15689334 1.6810001
0.05283143 0.15369143 1.6810001
-0.052831434 0.1648981 1.681
-0.048028573 0.16649906 1.6810001
0.048028573 0.16970097 1.6810001
0.051230479 0.1648981 1.6810001
-0.05283143 0.17610477 1.6810001
-0.048028573 0.17610477 1.6810001
0.048028573 0.17610477 1.6810001
0.051230479 0.17610477 1.6810001
-0.052030955 0.18571049 1.6810001
-0.048028573 0.18571049 1.6810001
0.048028573 0.18891239 1.6810001
0.051230479 0.18571049 1.6810001
-0.051230479 0.1953162 1.6810001
-0.047228098 0.19611667 1.6810001
0.048028573 0.1953162 1.6810001
0.051230479 0.1953162 1.6810001
-0.051230479 0.20812382 1.6810001
-0.046427622 0.20492192 1.6810001
-0.03842286 0.20652287 1.6810001
0.048028573 0.20492192 1.6810001
0.051230479 0.20492192 1.6810001
-0.043911837 0.21407022 1.681
-0.037142098 0.21516803 1.6810001
0.048028573 0.21452762 1.6810001
0.051230479 0.21292667 1.6810001
-0.043759365 0.22359969 1.6810001
-0.036821906 0.22413333 1.6810001
0.045893971 0.22413333 1.6810001
-0.041624762 0.23373906 1.6810001
-0.036821906 0.23373903 1.6810001
0.044826668 0.23373906 1.6810001
-0.042425238 0.24734716 1.6810001
-0.036821906 0.24494572 1.681
0.044826668 0.24547939 1.6810001
-0.042425238 0.25615239 1.6810001
-0.037142098 0.255512 1.6810001
0.044826668 0.25615239 1.6810001
-0.043225709 0.2657581 1.6810001
-0.03842286 0.26735905 1.6810001
0.044826668 0.26415715 1.6810001
-0.043759365 0.27322921 1.6810001
-0.034420479 0.27456334 1.6810001
0.045467049 0.27600423 1.6810001
-0.032819524 0.28416905 1.6810001
0.044826664 0.28496954 1.681
-0.033299811 0.29521564 1.6810001
0.045741498 0.29411784 1.681
-0.033940189 0.3029002 1.6810001
0.043545906 0.30482134 1.6810001
-0.025081588 0.314854 1.6810001
-0.01921143 0.31698859 1.6810001
0.04429302 0.31325305 1.6810001
-0.026326774 0.32481545 1.681
0.037355557 0.32499334 1.6810001
0.042692062 0.32445967 1.6810001
-0.026015477 0.3362 1.681
0.03842286 0.3362 1.6810001
0.041624762 0.3362 1.6810001
-0.025615238 0.34580576 1.681
-0.01921143 0.34420478 1.6810001
0.03842286 0.34580573 1.6810001
0.042692065 0.34794033 1.6810001
-0.025615241 0.35501122 1.681
0.037355561 0.35754606 1.6810001
0.043759365 0.35434416 1.6810001
-0.025615238 0.36501715 1.681
0.034687299 0.36501715 1.6810001
-0.024700407 0.37416548 1.681
-0.017076826 0.37355557 1.6810001
0.03362 0.37462285 1.6810001
-0.022413334 0.38422859 1.6810001
-0.01921143 0.38582954 1.6810001
0.036501713 0.38486898 1.6810001
0.041624762 0.38582954 1.6810001
-0.024334477 0.39511505 1.6810001
-0.01921143 0.39383426 1.6810001
0.037622385 0.39463478 1.6810001
0.043545906 0.39255351 1.6810001
-0.025615238 0.40557468 1.681
-0.016009524 0.40504098 1.6809999
-0.0080047622 0.40984383 1.6810001
0.03628825 0.40557459 1.681
0.042692065 0.40504098 1.6810001
-0.025157824 0.41533279 1.681
-0.014408573 0.41624761 1.6810001
-0.0080047622 0.41624764 1.6810001
0.036135782 0.41579023 1.681
0.042425238 0.41704813 1.6810001
-0.014088382 0.42521295 1.6810001
-0.0096057151 0.42585334 1.6810001
0.037622385 0.42585334 1.6810001
0.042425238 0.42505285 1.6810001
-0.01280762 0.43545905 1.6810001
-0.0096057151 0.43545905 1.6810001
0.03842286 0.43545908 1.6810001
0.041624762 0.43545905 1.6810001
-0.013608095 0.44586527 1.6810001
-0.006937461 0.44559845 1.6810001
0.03842286 0.44506478 1.6810001
0.041624762 0.44506478 1.6810001
-0.014088382 0.45467049 1.6810001
-0.0096057151 0.45306954 1.6810001
0.037622385 0.45547098 1.6810001
0.041624762 0.45787239 1.6810001
-0.016009524 0.46187478 1.6810001
0.037142098 0.46363583 1.6810001
0.041624762 0.46747813 1.6810001
-0.0068612252 0.47479677 1.681
0.0021346032 0.47601652 1.6810001
0.03842286 0.47388193 1.6810001
-0.0053365082 0.48348764 1.6810001
0.0039408063 0.4857043 1.6809999
0.037355557 0.4861559 1.6810001
-0.0064038103 0.49669546 1.681
0.0043662344 0.49629527 1.6809999
0.03362 0.49629521 1.6810001
-0.0060035717 0.50630122 1.681
0 0.50590098 1.6810001
0.03458057 0.50590098 1.6810001
-0.0048028575 0.51550674 1.6810001
0.0016009525 0.51550668 1.6810001
0.036821906 0.51550668 1.6810001
-0.0048028575 0.52351141 1.6810001
0.0040023811 0.52551264 1.681
0.036288258 0.52511239 1.6810001
-0.0064038099 0.53151619 1.6810001
0.0043662344 0.53442699 1.6809999
0.035220955 0.5347181 1.6810001
0.0054889801 0.54478127 1.681
0.03602143 0.54512429 1.6810001
0.0054889801 0.55438697 1.681
0.037622385 0.55392957 1.6810001
-0.0032019049 0.56833816 1.6810001
0.0052602729 0.5658223 1.6809999
0.01280762 0.56513625 1.6810001
0.034153651 0.56460255 1.681
-0.0032019049 0.57634288 1.6810001
0.0043662344 0.57605183 1.6809999
0.014408573 0.57714337 1.6810001
0.026415713 0.57874429 1.6810001
0.034820713 0.57674313 1.681
-0.0032019049 0.58594853 1.6810001
0.0038422861 0.58626878 1.681
0.016009524 0.58594859 1.681
0.02561524 0.58594859 1.681
0.03362 0.58594853 1.6810001
0.004802858 0.59555435 1.6809999
0.016009524 0.59555429 1.681
0.025615238 0.59555429 1.681
0.033299811 0.59491396 1.6810001
-0.0032019049 0.6019581 1.6810001
0.0052394811 0.60486889 1.6809999
0.016009524 0.60516006 1.681
0.02561524 0.60515994 1.681
0.033299811 0.60580039 1.6810001
0.0069374614 0.61369848 1.6810001
0.016009524 0.61476576 1.681
0.024814762 0.61236435 1.6810001
0.035220951 0.61476576 1.6810001
0.0064038099 0.62116957 1.6810001
0.016009524 0.62437153 1.681
0.024814762 0.62677288 1.6810001
0.034420479 0.62517196 1.6810001
0.01921143 0.63397717 1.6810001
0.025615238 0.63397717 1.681
0.034820717 0.63437742 1.681
0.041624762 0.63557816 1.6810001
0.027216192 0.64038098 1.6810001
0.03458057 0.64166176 1.6810001
0.044826668 0.64038098 1.6810001
-0.21241066 0.026466286 1.6948
-0.20731144 0.026614286 1.694
-0.2156762 0.034489796 1.6900003
-0.20762858 0.033799998 1.6900001
-0.21533987 0.045192927 1.6945714
-0.20647892 0.045986392 1.6900003
-0.19700572 0.046998095 1.6900002
0.03881143 0.048514288 1.6980001
0.043563813 0.0484 1.694
0.05579143 0.047705717 1.6980001
0.063068576 0.048514288 1.6980001
-0.25460571 0.056398101 1.692
-0.24684002 0.056462858 1.694
-0.21346286 0.058217146 1.6980001
-0.20573859 0.054758098 1.6910002
-0.19877619 0.055528574 1.6900001
-0.17060953 0.05794286 1.6900001
-0.16578096 0.05794286 1.6900001
0.037019052 0.051504765 1.6900001
0.04506667 0.051504765 1.6900001
0.055796828 0.053650796 1.6900002
0.063678913 0.05490667 1.6957142
-0.30240571 0.065494284 1.6980001
-0.2947765 0.064429209 1.6913334
-0.20440954 0.062771425 1.6900001
0.05794286 0.067600004 1.6900001
0.064941429 0.064535238 1.694
-0.3201943 0.077622861 1.6980001
-0.3143726 0.075682282 1.6980002
-0.3050966 0.074545853 1.691143
-0.29655477 0.074038103 1.6900003
0.057942856 0.074038096 1.6900001
0.062923811 0.074213333 1.6939999
-0.35505524 0.083919458 1.6945714
-0.3201943 0.080857143 1.6980001
-0.31460381 0.080666669 1.694
-0.30580953 0.080476195 1.6900001
-0.29937145 0.080476195 1.6900001
0.057942856 0.083695233 1.6900001
0.062923811 0.083893336 1.6939999
-0.10188 0.095411435 1.6980001
-0.094441153 0.095734864 1.6980002
-0.083964445 0.096876197 1.6953335
-0.073412381 0.097604766 1.6940001
-0.067600004 0.09818095 1.6900001
0.05794286 0.091742858 1.6900001
0.062885717 0.09512762 1.6930001
-0.10026286 0.10511429 1.6980001
-0.093794286 0.10511428 1.6980001
-0.084091425 0.10511429 1.6980001
-0.074462339 0.10523672 1.6929092
-0.067600004 0.10461906 1.6900001
0.05794286 0.10461906 1.6900001
0.064172857 0.10573429 1.6950002
0.071154289 0.10026286 1.6980001
-0.10026286 0.1132 1.6980001
-0.092500582 0.11514058 1.6980002
-0.084091425 0.1164343 1.6980001
-0.074119367 0.11600932 1.6917779
-0.067600004 0.11749525 1.6900001
0.05794286 0.11749525 1.6900001
0.062923811 0.11616001 1.6939999
-0.091368571 0.12694573 1.6980001
-0.084091432 0.12613715 1.6980001
-0.074159995 0.12574095 1.692667
-0.065990478 0.12554286 1.6900002
0.056869846 0.12661587 1.6900001
0.062923811 0.12583999 1.6939999
-0.091853715 0.13519314 1.6980002
-0.084091425 0.13584 1.6980001
-0.074236192 0.13555557 1.6944444
-0.064380951 0.13520001 1.6900003
0.056655239 0.13519999 1.6900002
0.063594013 0.13547429 1.6934289
-0.090560004 0.14230858 1.6980001
-0.083687142 0.14513858 1.6980001
-0.074312381 0.14539047 1.6962223
-0.064380959 0.14485714 1.6900003
-0.056655239 0.14550096 1.6900002
0.0571381 0.14405239 1.6900001
0.062923811 0.1452 1.6939999
-0.08166571 0.15524572 1.6980001
-0.074198946 0.15483768 1.6935556
-0.064380959 0.15451428 1.6900003
-0.056655239 0.1551581 1.6900002
0.057942856 0.1545143 1.6900001
0.062923811 0.15488 1.6939999
-0.083629385 0.1640245 1.6980001
-0.074237876 0.16460487 1.6944444
-0.064380951 0.16417143 1.6900003
-0.057942856 0.16417143 1.6900001
0.05647048 0.16456001 1.6939999
0.061451431 0.16333143 1.6980001
-0.080857143 0.17141715 1.6980001
-0.074314073 0.17447026 1.6962223
-0.064380951 0.17382859 1.6900003
-0.057942856 0.17382859 1.6900001
0.056470472 0.17423999 1.6939999
-0.080857143 0.18758857 1.6980001
-0.073984288 0.18435431 1.6980001
-0.064406358 0.18516761 1.690667
-0.056869846 0.18563175 1.6900002
0.056367621 0.18520191 1.6910002
0.061451431 0.18597144 1.6980001
-0.080857143 0.19405715 1.6980001
-0.074388571 0.19405712 1.6980001
-0.06401857 0.19607572 1.6910002
-0.056333333 0.19636191 1.6900002
0.056333337 0.19636191 1.6900002
0.062687241 0.1945181 1.6964
-0.080857143 0.20376001 1.6980001
-0.074388586 0.20376 1.6980001
-0.064487614 0.20526604 1.6926668
-0.05512619 0.20561667 1.6900003
0.056333337 0.20601904 1.6900002
0.062115241 0.20408475 1.694
-0.073175721 0.21386714 1.6980001
-0.064922288 0.21574399 1.6956002
-0.05472381 0.2156762 1.6900003
-0.048285715 0.21728572 1.6900001
0.05564354 0.21613607 1.6900003
0.061451431 0.21184573 1.6980001
-0.071154289 0.2264 1.6980001
-0.064521484 0.2258057 1.6935558
-0.05472381 0.22533335 1.6900003
-0.047212701 0.22640635 1.6900001
0.048285715 0.22694287 1.6900001
0.054754287 0.22545356 1.6908891
0.061451431 0.22316572 1.6980001
-0.071962856 0.23610286 1.6980001
-0.064553656 0.23561186 1.6944444
-0.05472381 0.23499049 1.6900003
-0.046676192 0.23499048 1.6900002
0.048285712 0.23499048 1.6900001
0.054872803 0.23561017 1.6944444
0.061451431 0.23610286 1.6980001
-0.07277143 0.24580573 1.6980001
-0.064685717 0.24580571 1.6980001
-0.05472381 0.24464764 1.6900003
-0.045986395 0.24418776 1.6900003
0.048285712 0.24464762 1.6900001
0.053952117 0.24484518 1.6945714
-0.072771437 0.25550857 1.6980001
-0.064685717 0.25550857 1.6980001
-0.05478476 0.25457397 1.6917779
-0.047480956 0.25430477 1.6900001
0.048285712 0.25430477 1.6900001
0.051504765 0.25430477 1.6900001
-0.07277143 0.26521146 1.6980001
-0.06458921 0.26479495 1.6953332
-0.05472381 0.26396191 1.6900003
-0.047480956 0.26315716 1.6900001
0.048285712 0.26396191 1.6900001
0.051748574 0.2635943 1.6980001
-0.071962863 0.27410573 1.6980001
-0.06458921 0.27448255 1.6953332
-0.054723814 0.27361906 1.6900003
-0.046676196 0.27442381 1.6900001
-0.037019052 0.27683809 1.6900001
0.048285715 0.27361906 1.6900001
0.051586032 0.27404571 1.6926666
-0.071154289 0.28138286 1.6980001
-0.064182319 0.28350368 1.6968572
-0.054456763 0.28418976 1.6916002
-0.04506667 0.28488573 1.6900004
-0.03724898 0.28511566 1.6900003
0.053738836 0.28551325 1.6926668
-0.061451431 0.29270285 1.6980001
-0.054901589 0.29493082 1.6953332
-0.04506667 0.29615238 1.6900003
-0.037823815 0.29534763 1.6900001
0.054872803 0.29585144 1.6944444
-0.054932572 0.30534744 1.6964
-0.045066666 0.30580953 1.6900003
-0.037019052 0.30741906 1.6900001
0.048285712 0.30580953 1.6900001
0.053782862 0.3049162 1.6940002
-0.054896515 0.31377205 1.6953334
-0.044664286 0.31506431 1.6900003
-0.035409525 0.3154667 1.6900003
0.048285715 0.3154667 1.6900001
0.054362539 0.31430855 1.6953334
-0.061451431 0.32828003 1.6980001
-0.053904764 0.32522541 1.6980001
-0.045603432 0.32601601 1.6980002
-0.035468783 0.32564023 1.6926668
0.047480956 0.32512382 1.6900001
0.052786037 0.32586479 1.6966667
-0.062260006 0.3363657 1.6980001
-0.053365715 0.3347486 1.6980001
-0.044875715 0.33596146 1.6980001
-0.035543282 0.33601356 1.6962223
0.046676189 0.33478096 1.6900002
0.054422382 0.33577764 1.6930001
-0.044355921 0.34653062 1.6980001
-0.035543282 0.34570625 1.6962222
0.045986395 0.34443811 1.6900003
0.054815236 0.34498161 1.6926668
0.061451431 0.34445143 1.6980001
-0.044875715 0.35536715 1.6980001
-0.035429843 0.35427985 1.6908891
0.048285715 0.35409525 1.6900001
0.054377142 0.35389391 1.6934286
-0.051748574 0.36547431 1.6980001
-0.044875715 0.36507002 1.6980001
-0.035468783 0.36432976 1.6926668
0.038628574 0.36697143 1.6900001
0.045554761 0.36480048 1.6930001
-0.035172861 0.37477285 1.6980001
-0.02897143 0.37823811 1.6900001
0.038628574 0.37501907 1.6900001
0.044836365 0.3750622 1.6921821
0.051748574 0.37679428 1.6980001
-0.033420954 0.38272381 1.6980001
-0.027361907 0.38628569 1.6900002
0.038628574 0.38306668 1.6900001
0.046302382 0.38530332 1.6910002
0.053646192 0.38638949 1.694
-0.034499049 0.39566097 1.6980001
-0.027361907 0.39433336 1.6900001
0.046676192 0.39755237 1.6900001
0.055301227 0.39444026 1.6934286
0.061451431 0.39296573 1.6980001
-0.043339431 0.40428573 1.6980002
-0.035577144 0.4042857 1.6980001
-0.025752382 0.40560004 1.6900001
0.047480956 0.40479526 1.6900001
0.053678572 0.40397 1.6950002
-0.051748574 0.41722289 1.6980001
-0.045280002 0.41398862 1.6980001
-0.035577141 0.41398862 1.6980001
-0.019314287 0.41686666 1.6900001
0.0466762 0.41525713 1.6900002
0.053365715 0.41398859 1.6980001
-0.053042285 0.42304459 1.6980002
-0.045280002 0.42369145 1.6980001
-0.035577148 0.42369139 1.6980001
-0.026154764 0.42531669 1.6900003
-0.019314287 0.42491433 1.6900001
0.047212701 0.42491427 1.6900001
0.051748574 0.42207432 1.6980001
-0.051748574 0.43177718 1.6980001
-0.044956572 0.43404117 1.6980002
-0.035577144 0.43501148 1.6980001
-0.025752382 0.43457142 1.6900003
-0.017704763 0.43457147 1.6900002
0.047036741 0.43482286 1.6945714
0.051748574 0.43339431 1.6980001
-0.042045716 0.44471431 1.6980001
-0.035172861 0.44592717 1.6980001
-0.02575238 0.44422859 1.6900003
-0.017704763 0.44422862 1.6900002
0.046084356 0.44512984 1.6934286
-0.034653064 0.45649633 1.6980001
-0.025752384 0.45388576 1.6900003
-0.018509526 0.45469052 1.6900001
0.04511746 0.45436323 1.6917779
0.051748574 0.45765144 1.6980001
-0.0351151 0.46481305 1.6980001
-0.025752382 0.46515247 1.6900004
-0.016631747 0.46729842 1.6900002
0.04573334 0.46537179 1.6908003
0.053042285 0.46573716 1.6980002
-0.03665524 0.47328386 1.6980001
-0.025818415 0.47593462 1.6939999
-0.01609524 0.47641903 1.6900003
0.044067305 0.47609523 1.6926666
0.053365715 0.47220573 1.6980001
-0.025874287 0.48514286 1.6980001
-0.015704285 0.48596141 1.6910002
-0.0072428575 0.48768574 1.6900001
0.044343807 0.48612857 1.6930001
0.051748574 0.48837715 1.6980001
-0.024257144 0.49484572 1.6980001
-0.016115556 0.49517673 1.6917779
-0.0075111114 0.49358734 1.6900001
0.038628574 0.49734288 1.6900001
0.045179047 0.49529144 1.694
0.051748574 0.49322858 1.6980001
-0.024257146 0.50454855 1.6980001
-0.016115554 0.50484574 1.6917779
-0.0096571436 0.50539047 1.6900001
0.037823811 0.50619525 1.6900001
0.045166563 0.50429928 1.6935556
0.051748574 0.50131428 1.6980001
-0.024257144 0.51425141 1.6980001
-0.016125716 0.51478225 1.6926668
-0.0096571436 0.51665711 1.6900001
0.045177907 0.51464957 1.694
0.051748574 0.51425147 1.6980001
-0.024634764 0.5245443 1.696
-0.016426286 0.5243063 1.6908003
-0.0096571436 0.52470475 1.6900001
0.038628574 0.52631426 1.6900001
0.045142855 0.52445465 1.6926668
-0.025826396 0.53257746 1.6945715
-0.01609524 0.53436196 1.6900003
-0.0064380961 0.53436196 1.6900003
0 0.53114289 1.6900001
0.038628574 0.5359714 1.6900001
0.045142859 0.534127 1.6926668
0.051748574 0.53527427 1.6980001
-0.024257146 0.54336005 1.6980001
-0.015759526 0.54587001 1.697
-0.0064380961 0.54401904 1.6900003
0 0.54562855 1.6900001
0.038628574 0.54401904 1.6900001
0.045142855 0.54451811 1.6926668
0.051748574 0.54982859 1.6980001
-0.012937143 0.55629712 1.6980001
-0.0064533334 0.55454981 1.6926668
0 0.55367619 1.6900001
0.045092065 0.55396914 1.6908891
0.051748574 0.55467999 1.6980001
-0.014767892 0.56707972 1.6957142
-0.0067348927 0.56474495 1.6907276
0.001073016 0.56226033 1.6900001
0.038628574 0.56816196 1.6900001
0.044794805 0.56474775 1.6907276
0.051748574 0.56600004 1.6980001
-0.024778416 0.577941 1.6966667
-0.016411427 0.57577604 1.6921821
-0.0080476198 0.57620955 1.6900002
0.038628574 0.57459998 1.6900001
0.045190264 0.57664514 1.6944444
-0.026093507 0.58569771 1.6929092
-0.01609524 0.58586663 1.6900003
-0.0080476198 0.58586669 1.6900002
0.038628574 0.58747625 1.6900001
0.04517905 0.58563811 1.6940002
0.051748574 0.58540571 1.6980001
-0.032342859 0.5918743 1.6980001
-0.02583619 0.5957911 1.6953334
-0.016143493 0.5957911 1.6953335
-0.0064380956 0.59552383 1.6900003
0.038628574 0.59552383 1.6900001
0.044801429 0.59566861 1.6950002
-0.026521143 0.60287088 1.6980002
-0.015093334 0.60373336 1.6980001
-0.0071585197 0.60478061 1.6908891
0.037340958 0.60453713 1.6900002
0.044471428 0.60400283 1.6980001
-0.015510857 0.61522293 1.6964
-0.0064380961 0.61483812 1.6900003
0.0016095239 0.61564291 1.6900001
0.038628574 0.61483812 1.6900001
0.043662857 0.61451435 1.6980001
-0.025874287 0.62421727 1.6980001
-0.016146667 0.62472385 1.6950001
-0.0064380961 0.62449533 1.6900003
0.0036214287 0.62489772 1.6900003
0.038628574 0.62610483 1.6900001
0.043024763 0.62435621 1.6940001
0.064533331 0.62758291 1.6939999
0.071154289 0.62745148 1.6980001
-0.026682857 0.63149428 1.6980001
-0.016171429 0.63392001 1.6980001
-0.006460953 0.63454157 1.6953334
0.0048285718 0.63415241 1.6900004
0.015451428 0.6360839 1.6900002
0.038628574 0.63254285 1.6900001
0.045800384 0.63373601 1.6932003
0.054808889 0.63353461 1.6926669
0.06223492 0.63200635 1.6900001
-0.014015239 0.64146668 1.6980001
-0.0058217146 0.64168233 1.6980002
0.0050124871 0.64375073 1.6926668
0.016095238 0.64327306 1.6900002
0.024947621 0.64622384 1.6900001
0.046676192 0.64059049 1.6900001
0.051504765 0.64059049 1.6900001
-0.012937143 0.65009147 1.6980001
-0.0048514288 0.65009147 1.6980001
0.0053904764 0.65170866 1.6980001
0.016800001 0.65206325 1.6964
0.025154287 0.65277255 1.6931999
0.048742861 0.048742861 1.7060001
0.055241905 0.045493335 1.7060001
0.065454692 0.044564899 1.7060002
0.071489528 0.048742861 1.7060001
-0.34607428 0.058491431 1.7060001
-0.30708 0.056866668 1.7060001
-0.26321143 0.055241905 1.7060001
-0.2599619 0.055241905 1.7060001
-0.24371429 0.051992383 1.706
-0.21609335 0.054429527 1.7060001
0.068240002 0.055241905 1.7060001
0.072789334 0.054592002 1.7060001
-0.31195429 0.064990476 1.7060001
-0.30626762 0.064178094 1.7060001
0.072301909 0.064990476 1.7060001
-0.36069715 0.076363817 1.7060001
-0.35636446 0.075822227 1.706
-0.34769905 0.076363817 1.7060001
-0.32495239 0.075280637 1.7060002
-0.31520382 0.071489528 1.706
0.068240002 0.074739046 1.706
0.071489528 0.071489528 1.7060001
-0.36459658 0.085137531 1.7060001
-0.35094857 0.081238098 1.7060001
-0.34769905 0.081238098 1.7060001
-0.33145145 0.081238098 1.7060001
-0.32657716 0.081238098 1.7060001
0.068240002 0.084487617 1.706
0.071489528 0.084487617 1.706
-0.11210858 0.094236195 1.7060002
-0.10642192 0.093423814 1.7060001
0.068240002 0.094236195 1.706
0.072301909 0.095048577 1.7060001
-0.1104838 0.10398477 1.706
-0.10560954 0.10398477 1.7060002
0.068240002 0.10398477 1.7060001
0.07343924 0.10463468 1.7060001
-0.10398477 0.11292095 1.7060001
-0.095860958 0.11698286 1.7060001
0.068240002 0.11373333 1.706
0.071489528 0.11373333 1.706
-0.10365982 0.12608151 1.7060001
-0.096093066 0.12441035 1.7060002
0.068240002 0.12510668 1.7060001
0.071489528 0.12510666 1.7060001
-0.10357858 0.1360738 1.7060002
-0.09667334 0.13729239 1.7060001
0.068240002 0.13648 1.7060001
0.071489528 0.13648 1.7060001
-0.10236001 0.14297906 1.7060001
-0.094236195 0.14622857 1.7060002
-0.087737143 0.14947811 1.7060001
0.068240002 0.14622858 1.706
-0.10723429 0.15597714 1.7060001
-0.090986669 0.15597714 1.706
-0.08643733 0.15597714 1.7060001
0.068240002 0.15597714 1.706
-0.10073524 0.16897525 1.7060001
-0.093153022 0.1668089 1.7060002
-0.08611238 0.16897525 1.7060001
0.063907303 0.16572572 1.706
-0.10073524 0.17547429 1.7060001
-0.093153022 0.1749327 1.7060002
-0.084893808 0.17588048 1.7060002
0.062553339 0.1746619 1.7060001
-0.090986669 0.1835981 1.7060001
-0.084893808 0.18481667 1.7060002
-0.077988572 0.18522286 1.7060001
0.064990476 0.18522286 1.7060001
-0.090986669 0.19497144 1.706
-0.08611238 0.19497144 1.7060002
0.06742762 0.19415906 1.7060001
-0.090986669 0.20472001 1.706
-0.08611238 0.20472001 1.7060002
0.066940188 0.20407009 1.7060001
0.071489528 0.20796953 1.7060001
-0.083404444 0.2133854 1.7060002
-0.077988572 0.21609335 1.7060001
0.064990476 0.2133854 1.706
-0.081238098 0.22096762 1.7060001
-0.076363809 0.22421716 1.7060002
0.062824123 0.22530031 1.706
-0.076688766 0.23331583 1.7060001
0.065532066 0.23396574 1.7060002
-0.077176198 0.24290192 1.7060001
0.058491431 0.24696381 1.7060001
0.064990468 0.2437143 1.7060002
-0.081888005 0.25476268 1.7060001
-0.077988572 0.25508761 1.7060001
0.05709878 0.25578398 1.7060002
0.062390864 0.25411278 1.7060001
-0.081238098 0.26646096 1.706
-0.077988572 0.26646096 1.706
0.054429524 0.26727334 1.7060001
0.061740953 0.26646096 1.7060001
-0.076688766 0.27685943 1.7060001
0.056325078 0.27404317 1.706
0.061740953 0.27296001 1.7060001
-0.082321279 0.28704128 1.706
-0.075203262 0.28595811 1.7060002
-0.066615239 0.28920764 1.7060001
0.058491431 0.28433335 1.7060001
-0.08205048 0.29651907 1.7060001
-0.074739046 0.29524246 1.7060002
-0.065918908 0.29617092 1.7060002
0.061740953 0.29408193 1.7060001
-0.084487617 0.30383047 1.7060001
-0.074089147 0.30480534 1.7060001
-0.064990476 0.30545527 1.7060002
0.058491431 0.30545524 1.7060001
-0.071489528 0.31520382 1.706
-0.064990476 0.31520379 1.7060002
-0.058491431 0.31845334 1.7060001
0.058491431 0.31357905 1.7060001
-0.071489528 0.32332763 1.7060001
-0.065396659 0.32454619 1.7060002
-0.058491431 0.32332763 1.7060001
0.055241905 0.32332763 1.7060001
-0.071489528 0.33632573 1.7060001
-0.066940188 0.33405107 1.7060001
-0.058491427 0.33470097 1.706
0.058491431 0.33307621 1.7060001
0.061740953 0.3379505 1.7060001
-0.073114283 0.34444952 1.7060002
-0.065396667 0.34485576 1.7060002
-0.055241909 0.34444955 1.7060002
-0.048742861 0.34444952 1.706
0.064178094 0.34363714 1.7060001
-0.08205048 0.35338572 1.7060001
-0.074739046 0.3541981 1.7060002
-0.064990483 0.35257331 1.7060002
-0.054777689 0.35326964 1.7060002
0.062553339 0.35338572 1.7060001
-0.081238098 0.36394668 1.7060001
-0.0769054 0.36178032 1.706
-0.053075556 0.36394668 1.706
-0.048742861 0.36069715 1.7060001
0.054429524 0.36313429 1.7060001
-0.051992383 0.37044573 1.7060001
-0.044843428 0.37434515 1.7060001
