# .PCD v0.7 - Point Cloud Data file format
VERSION 0.7
FIELDS x y z
SIZE 4 4 4
TYPE F F F
COUNT 1 1 1
WIDTH 1471
HEIGHT 1
VIEWPOINT 0 0 0 1 0 0 0
POINTS 1471
DATA ascii
0.054321427 0.3448405 1.6900003
0.063307941 0.34658417 1.6900001
0.072428569 0.34604761 1.6900001
0.084768258 0.34497461 1.6900002
0.091742866 0.34443808 1.6900002
0.13412701 0.34229207 1.6900001
0.14324762 0.34363335 1.6900001
0.15491667 0.34443808 1.6900003
0.16417143 0.34443808 1.6900003
0.17392001 0.34461758 1.6908891
0.18509525 0.34443811 1.6900004
0.19570775 0.34444624 1.6922858
0.20451301 0.3462455 1.6953335
0.21245715 0.34765714 1.6900001
-0.061966665 0.35409525 1.6900001
-0.053114288 0.35248572 1.6900001
-0.04184762 0.35731429 1.6900001
-0.035409525 0.35409528 1.6900003
-0.028971428 0.35409525 1.6900001
0.046139687 0.35463175 1.6900002
0.05472381 0.35409528 1.6900003
0.064380959 0.35409528 1.6900003
0.07363572 0.35409528 1.6900003
0.085626677 0.35473904 1.6900002
0.093352385 0.35501501 1.6900003
0.10663095 0.35449764 1.6900003
0.11588572 0.35501501 1.6900003
0.12554285 0.35409531 1.6900003
0.13519999 0.35409531 1.6900003
0.14485715 0.35409525 1.6900003
0.1545143 0.35409528 1.6900003
0.16417143 0.35409522 1.6900003
0.17382856 0.35409531 1.6900003
0.18509525 0.35409525 1.6900004
0.19521715 0.35493335 1.6939999
0.20400931 0.35630226 1.6971111
0.21196799 0.35478631 1.6964
-0.15129524 0.36214286 1.6900001
-0.14807619 0.36375239 1.6900001
-0.12339684 0.36589846 1.6900001
-0.11910477 0.36697143 1.6900001
-0.063307934 0.36321589 1.6900002
-0.05472381 0.36375237 1.6900002
-0.033478096 0.36439618 1.6900002
-0.028971428 0.36375237 1.6900001
0.0032190478 0.36053336 1.6900001
0.017168256 0.36375239 1.6900001
0.026212245 0.36467212 1.6900003
0.035409525 0.36375242 1.6900003
0.04506667 0.36375237 1.6900003
0.054723814 0.36375239 1.6900003
0.064380951 0.36375237 1.6900003
0.074038096 0.36375242 1.6900003
0.08461497 0.36421227 1.6900003
0.094961904 0.36375237 1.6900004
0.10622857 0.36375237 1.6900003
0.11588572 0.36375237 1.6900003
0.12574264 0.36432976 1.6926668
0.13519999 0.36375239 1.6900003
0.14493164 0.36394542 1.6908891
0.15459725 0.36394539 1.6908891
0.16417143 0.36375237 1.6900003
0.17419598 0.36452273 1.6935556
0.18481421 0.36377561 1.6914548
0.19521143 0.36461908 1.694
0.2040443 0.36566523 1.697
0.21346286 0.36547434 1.6980001
-0.12482752 0.37627089 1.6900003
-0.11669049 0.37582386 1.6900003
-0.10663096 0.37703097 1.6900003
-0.094961911 0.37984765 1.6900001
-0.063461222 0.37386942 1.6900003
-0.054723814 0.37501907 1.6900004
-0.04506667 0.3750191 1.6900004
-0.035436191 0.37531626 1.6913337
-0.02897143 0.37501907 1.6900001
0.025037039 0.37412488 1.6900003
0.03494966 0.37248978 1.6900003
0.04506667 0.37180004 1.6900002
0.055126194 0.37300718 1.6900003
0.064380951 0.3750191 1.6900004
0.074038103 0.3750191 1.6900004
0.08369524 0.37501907 1.6900004
0.094961911 0.3750191 1.6900004
0.10622858 0.37501904 1.6900004
0.1159421 0.37423009 1.6908003
0.12613714 0.37517715 1.6980001
0.13572398 0.37521875 1.6929094
0.14491302 0.3751651 1.690667
0.15451428 0.37458012 1.6900004
0.16440305 0.37458518 1.6924002
0.17303427 0.37517715 1.6980001
0.1830606 0.37388343 1.6980002
0.19548532 0.37578934 1.6964
0.20523429 0.37481061 1.6911432
0.21406668 0.37340954 1.6900002
0.22211429 0.3701905 1.6900001
-0.16417143 0.38950479 1.6900001
-0.12514049 0.38588333 1.6900003
-0.11588572 0.38628572 1.6900003
-0.10622858 0.38628572 1.6900003
-0.096571423 0.38628575 1.6900003
-0.05472381 0.38628572 1.6900003
-0.04506667 0.38628578 1.6900003
-0.035409525 0.38628572 1.6900003
-0.028971428 0.38628575 1.6900001
0.025292518 0.38536599 1.6900003
0.032190476 0.38306668 1.6900001
0.064783335 0.38588336 1.6900003
0.074038103 0.38628572 1.6900003
0.08369524 0.38628572 1.6900003
0.094961904 0.38628578 1.6900004
0.10589096 0.38611004 1.6910002
0.11636572 0.38505763 1.697
0.12613715 0.38488001 1.6980001
0.13533884 0.38561398 1.6917779
0.14500952 0.38669208 1.6917779
0.15466057 0.3860046 1.6916002
0.16451682 0.3849456 1.6935556
0.17361197 0.38462096 1.6968572
0.18435431 0.38534206 1.6980001
0.19476885 0.38572091 1.6965455
0.20519482 0.38665524 1.6929092
0.2132619 0.38548097 1.6900001
-0.16417141 0.39594287 1.6900003
-0.15773334 0.39916191 1.6900001
-0.12339684 0.39486983 1.6900001
-0.11910477 0.39594284 1.6900001
-0.10622858 0.39272383 1.6900001
-0.095283821 0.39594287 1.6900003
-0.086914286 0.39916191 1.6900001
-0.065990478 0.39916191 1.6900001
-0.052309524 0.39594287 1.6900001
-0.045066666 0.39594287 1.6900003
-0.035409525 0.39594284 1.6900003
-0.028971428 0.39594284 1.6900001
0.0064380956 0.39916191 1.6900001
0.017168256 0.3970159 1.6900002
0.025292516 0.39686257 1.6900003
0.046676192 0.39916191 1.6900001
0.056011431 0.39723048 1.6900002
0.064380951 0.39594287 1.6900003
0.074038103 0.39594284 1.6900003
0.083695248 0.39594287 1.6900003
0.094961911 0.3959429 1.6900004
0.10628615 0.39507473 1.6908891
0.11595085 0.39466745 1.6956002
0.12613714 0.39458287 1.6980001
0.13537796 0.39550692 1.6980001
0.14542603 0.39588761 1.6966667
0.15437007 0.39582422 1.6934286
0.16494858 0.39498717 1.6980001
0.17424715 0.39498717 1.6980001
0.18507428 0.39541543 1.6965455
0.19413957 0.39532331 1.6936364
0.2054697 0.39580685 1.6908003
0.21245714 0.39594284 1.6900001
-0.17060953 0.40720952 1.6900001
-0.16417143 0.40559998 1.6900003
-0.15612382 0.40559998 1.6900002
-0.12232381 0.40560001 1.6900001
-0.11642224 0.40506348 1.6900002
-0.10730159 0.40452704 1.6900001
-0.09399619 0.40302476 1.6900002
-0.083695248 0.40559995 1.6900003
-0.073578238 0.40651974 1.6900003
-0.065300681 0.40605983 1.6900003
-0.054263946 0.40651974 1.6900003
-0.04506667 0.40559998 1.6900003
-0.035409525 0.40468028 1.6900003
-0.028971428 0.40559998 1.6900001
-0.01609524 0.40720952 1.6900001
-0.0053650797 0.40452704 1.6900001
0.0064380956 0.40399051 1.6900002
0.016497619 0.40519762 1.6900003
0.02575238 0.40559998 1.6900003
0.03494966 0.40651971 1.6900003
0.045469046 0.40600237 1.6900003
0.05472381 0.40559998 1.6900003
0.064380951 0.40559998 1.6900003
0.074957825 0.40605989 1.6900003
0.083695248 0.40559998 1.6900003
0.094961904 0.40559998 1.6900004
0.10665411 0.40533561 1.6916002
0.11633074 0.40494621 1.6921821
0.12579302 0.40478158 1.6933335
0.13508192 0.40406686 1.6921821
0.14554286 0.40428576 1.6980001
0.15547097 0.40421191 1.696
0.16575715 0.40186 1.6980001
0.17511347 0.40336162 1.6980001
0.18552572 0.40494287 1.6940002
0.1963619 0.40559998 1.6900003
0.20546973 0.40514517 1.6908003
0.21245714 0.40559998 1.6900001
-0.17060953 0.41203812 1.6900001
-0.16309841 0.41418412 1.6900002
-0.11588571 0.41579366 1.6900002
-0.1071483 0.41571704 1.6900003
-0.093352377 0.41606191 1.6900003
-0.08369524 0.41525716 1.6900003
-0.074038096 0.41525716 1.6900003
-0.064380951 0.41525713 1.6900003
-0.05472381 0.41525716 1.6900003
-0.045066666 0.41479731 1.6900003
-0.035456624 0.41461575 1.6921821
-0.028971428 0.41525713 1.6900001
-0.017704763 0.41606191 1.6900001
-0.0075111114 0.41740319 1.6900001
0.0064380956 0.41847619 1.6900001
0.017704763 0.41203812 1.6900001
0.025752384 0.41525716 1.6900003
0.035409525 0.4152571 1.6900003
0.04506667 0.41525716 1.6900003
0.05472381 0.41525713 1.6900003
0.064380951 0.41525713 1.6900003
0.074038096 0.41525713 1.6900003
0.08369524 0.41525716 1.6900003
0.095019042 0.41389337 1.6910002
0.10622858 0.41525713 1.6900003
0.1158857 0.41525716 1.6900003
0.12554285 0.41525713 1.6900003
0.1357761 0.41483429 1.6926668
0.14531302 0.41494668 1.6953334
0.15524572 0.41398856 1.6980001
0.16575715 0.41641432 1.6980001
0.17535523 0.41535813 1.697
0.18415791 0.41462815 1.6962222
0.1953548 0.41532052 1.6914548
0.20509933 0.41525719 1.6900003
-0.11427619 0.4233048 1.6900001
-0.10687239 0.42298287 1.6900002
-0.094318099 0.4249143 1.6900003
-0.083695248 0.42491424 1.6900003
-0.074038103 0.42491427 1.6900003
-0.064380959 0.42491427 1.6900003
-0.054723814 0.42491427 1.6900003
-0.04506667 0.42491427 1.6900002
-0.035430476 0.42476332 1.6910002
-0.025771974 0.42520165 1.691143
-0.01609524 0.42531666 1.6900003
-0.008369525 0.42427048 1.6900002
0.02575238 0.4249143 1.6900003
0.035409525 0.4249143 1.6900003
0.04506667 0.4249143 1.6900003
0.054723814 0.42491427 1.6900003
0.064380959 0.4249143 1.6900003
0.074038103 0.42491433 1.6900003
0.083695248 0.4249143 1.6900003
0.093340948 0.42413473 1.6950911
0.10486159 0.42511013 1.6940001
0.11548334 0.42451194 1.6900003
0.12584254 0.42430794 1.6939999
0.1357308 0.42389777 1.6966667
0.1452 0.42431048 1.6939999
0.1550815 0.42324781 1.6962223
0.16486223 0.42346963 1.6971111
0.17384002 0.4219985 1.6964
0.18500115 0.42304459 1.6980002
0.19492528 0.42432424 1.6962223
0.20509933 0.42537418 1.6900003
0.21406668 0.42813334 1.6900001
-0.094961911 0.43457142 1.6900004
-0.08369524 0.43457142 1.6900003
-0.074038096 0.43457142 1.6900003
-0.064380951 0.43457144 1.6900003
-0.056333337 0.43457147 1.6900002
-0.043779049 0.43585905 1.6900002
-0.03552229 0.43536463 1.6955999
-0.026164193 0.43536764 1.6955999
-0.01609524 0.43457142 1.6900003
-0.0072428575 0.43698573 1.6900001
0.025752384 0.43457144 1.6900003
0.035090953 0.43560576 1.694
0.04520889 0.43594795 1.6953335
0.054810159 0.43525714 1.6926668
0.064380959 0.43457142 1.6900003
0.074038096 0.43457142 1.6900003
0.083695248 0.43457142 1.6900003
0.094731748 0.43393555 1.690667
0.1051439 0.4346514 1.6914548
0.11659773 0.43536457 1.6956002
0.12581372 0.43404117 1.6980002
0.13260572 0.43016002 1.6980001
0.14473429 0.43339431 1.6980001
0.15589258 0.43404117 1.6980002
0.16494857 0.43016002 1.6980001
0.17465143 0.43016002 1.6980001
0.18758857 0.43339431 1.6980001
0.19405715 0.43247026 1.6980001
0.20396399 0.43556091 1.6972729
0.21454096 0.43734735 1.6980001
-0.17704763 0.44422859 1.6900001
-0.10408255 0.44530162 1.6900001
-0.094522946 0.44422862 1.6900004
-0.08369524 0.44422859 1.6900003
-0.074038096 0.44422859 1.6900003
-0.065990478 0.44422856 1.6900002
-0.054321427 0.44463098 1.6900003
-0.045088682 0.44446224 1.6908891
-0.035577144 0.44633144 1.6980001
-0.025798095 0.44492954 1.6926668
-0.01609524 0.44422856 1.6900003
-0.0064380961 0.44422856 1.6900003
0.0038628574 0.44616002 1.6900002
0.019314287 0.44583809 1.6900001
0.025752382 0.44422856 1.6900003
0.034653064 0.4467935 1.6980001
0.045156404 0.44516149 1.6935558
0.05472381 0.44422856 1.6900003
0.064380951 0.44422862 1.6900003
0.074038096 0.44422859 1.6900003
0.083695248 0.44422859 1.6900003
0.094961904 0.44422862 1.6900004
0.10622858 0.44422856 1.6900003
0.11613461 0.44516149 1.6935556
0.12613715 0.44633144 1.6980001
0.14230858 0.44309714 1.6980001
0.15524572 0.44309714 1.6980001
0.18435431 0.44794858 1.6980001
0.19190097 0.44740954 1.6980001
0.20052572 0.44794858 1.6980001
-0.17704763 0.4506667 1.6900001
-0.16095239 0.45710477 1.6900001
-0.15531905 0.45630002 1.6900001
-0.14421335 0.45581713 1.6900002
-0.13412699 0.45495877 1.6900002
-0.12795714 0.45469052 1.6900001
-0.11266667 0.45710477 1.6900001
-0.10353 0.45482716 1.6920002
-0.094304003 0.45507088 1.6956002
-0.083874702 0.45484406 1.6935556
-0.074038103 0.4538857 1.6900003
-0.064783335 0.4538857 1.6900003
-0.054723814 0.4538857 1.6900003
-0.045088682 0.45412275 1.6908891
-0.035502646 0.45507425 1.6944447
-0.026271021 0.45388681 1.6934286
-0.01609524 0.4538857 1.6900003
-0.0064380961 0.45348334 1.6900003
0.0042920639 0.45281276 1.6900002
0.016095238 0.45428807 1.6900003
0.025752384 0.4538857 1.6900003
0.035560209 0.45579556 1.6971111
0.045134392 0.45460021 1.6926668
0.05472381 0.4538857 1.6900003
0.064380959 0.4538857 1.6900003
0.074038103 0.45388576 1.6900003
0.08369524 0.4538857 1.6900003
0.094997458 0.45406607 1.690667
0.10622858 0.4538857 1.6900003
0.11588572 0.4538857 1.6900003
0.12607282 0.45579386 1.6971111
0.13260572 0.45765144 1.6980001
0.14554286 0.45765144 1.6980001
0.1574019 0.45819047 1.6980001
0.16494858 0.45649633 1.6980001
0.17465143 0.4560343 1.6980001
0.18435431 0.4560343 1.6980001
0.19324857 0.45765147 1.6980001
0.20052572 0.4592686 1.6980001
-0.31707621 0.46998096 1.6900001
-0.19314286 0.46998096 1.6900001
-0.18992382 0.46998096 1.6900001
-0.17275555 0.46890795 1.6900001
-0.16256191 0.46676192 1.6900002
-0.15483619 0.46547431 1.6900003
-0.14456451 0.46529874 1.6900004
-0.13519999 0.46515241 1.6900004
-0.12795714 0.46434763 1.6900001
-0.11266667 0.46032384 1.6900001
-0.10410494 0.46571082 1.6936364
-0.093794286 0.46573719 1.6980001
-0.084091425 0.46573719 1.6980001
-0.074271753 0.46501079 1.6953334
-0.064551957 0.46476698 1.6944447
-0.05472381 0.46515241 1.6900004
-0.04506667 0.46515241 1.6900004
-0.035409529 0.46515241 1.6900004
-0.027361907 0.46676195 1.6900002
-0.01609524 0.46555474 1.6900003
0.017474832 0.46400276 1.6900003
0.025752382 0.46515238 1.6900004
0.035455234 0.46570101 1.6920003
0.045134392 0.46427262 1.6926668
0.054779686 0.46403393 1.6917779
0.064380951 0.46515241 1.6900004
0.074038096 0.46515241 1.6900004
0.08369524 0.46515241 1.6900004
0.09330079 0.46590614 1.6943637
0.10518014 0.46493283 1.6917145
0.11588573 0.46515241 1.6900004
0.12536106 0.46511242 1.6914548
0.13473524 0.46511027 1.6957142
0.14539047 0.46525124 1.6962222
0.15524572 0.46573719 1.6980001
0.16511354 0.46594056 1.6964
0.17417018 0.4660629 1.6933336
0.18360266 0.46528536 1.6940002
0.19244 0.46250287 1.6980001
-0.33156192 0.47320002 1.6900001
-0.32383621 0.47513142 1.6900002
-0.31707621 0.47641909 1.6900002
-0.20601906 0.47883335 1.6900001
-0.19314286 0.47641906 1.6900001
-0.18992382 0.47641906 1.6900001
-0.1714143 0.47722384 1.6900001
-0.16417143 0.47641903 1.6900003
-0.15488 0.47593722 1.6940001
-0.14485714 0.47641903 1.6900003
-0.13519999 0.47641909 1.6900003
-0.12661587 0.47588253 1.6900002
-0.10471679 0.47621483 1.6936924
-0.093794294 0.47590208 1.6980001
-0.084091432 0.47543997 1.6980001
-0.07431408 0.47494057 1.6962223
-0.064584121 0.47468826 1.6953334
-0.054723814 0.47641909 1.6900003
-0.04506667 0.47641909 1.6900003
-0.035409525 0.47641903 1.6900003
-0.025350001 0.47601667 1.6900003
-0.016095238 0.47641903 1.6900003
-0.0057942858 0.47770667 1.6900002
0.0042920639 0.47856507 1.6900002
0.016497619 0.47682142 1.6900003
0.025752382 0.47641903 1.6900003
0.035450161 0.47691855 1.6917779
0.044936761 0.47585988 1.6972001
0.054635048 0.47585979 1.6972001
0.064429209 0.47518542 1.6913334
0.074160002 0.47555876 1.6926666
0.083959371 0.47631052 1.6953335
0.094071291 0.47540194 1.6945716
0.10441562 0.47586283 1.6972001
0.11624888 0.47631049 1.6953335
0.12659918 0.47636408 1.6980001
0.13260572 0.47544003 1.6980001
0.14554286 0.47544003 1.6980001
0.15524571 0.47544003 1.6980001
0.1645443 0.47584432 1.6980001
0.17423999 0.47593713 1.6940001
0.18288991 0.47563887 1.6964
-0.31732509 0.4864597 1.6913334
-0.21607858 0.48567382 1.6900003
-0.20601904 0.48607621 1.6900003
-0.18992382 0.48285717 1.6900001
-0.17382857 0.48607621 1.6900003
-0.1642561 0.48633018 1.6908891
-0.15516616 0.48488718 1.6971111
-0.14485714 0.48567382 1.6900003
-0.13519999 0.48607615 1.6900003
-0.10263049 0.48468956 1.6926666
-0.094827257 0.48581889 1.6943079
-0.08389587 0.48560703 1.6940001
-0.074125715 0.48503432 1.6920003
-0.06448254 0.48522475 1.6926669
-0.054756194 0.48596147 1.6910002
-0.045127623 0.48581389 1.6922858
-0.035067216 0.48679566 1.6957142
-0.026155766 0.48576504 1.6926668
-0.01609524 0.48607624 1.6900003
-0.0048285718 0.48607624 1.6900002
0.0048285718 0.48607621 1.6900004
0.016095238 0.48607621 1.6900003
0.025349999 0.48567384 1.6900003
0.035498414 0.48561463 1.6939999
0.045684289 0.48554716 1.6980001
0.055112042 0.48573542 1.6929092
0.064895242 0.48569003 1.6958183
0.074032217 0.4858979 1.6965455
0.084091425 0.48514286 1.6980001
0.09339001 0.48514286 1.6980001
0.1060127 0.48550224 1.6980001
0.1164343 0.48514286 1.6980001
0.12613715 0.48514292 1.6980001
0.13260572 0.48514286 1.6980001
0.14554286 0.48352575 1.6980001
0.15524572 0.48352572 1.6980001
0.16494858 0.48352575 1.6980001
0.1741894 0.48421881 1.6980001
0.18241373 0.48449603 1.6980002
0.20052572 0.48837715 1.6980001
0.21509431 0.4869895 1.6960001
-0.31546667 0.49665308 1.6900003
-0.30580953 0.49895239 1.6900001
-0.29937145 0.49895239 1.6900001
-0.2234019 0.49637714 1.6900002
-0.2156762 0.49573338 1.6900003
-0.20601904 0.49412382 1.6900002
-0.18348573 0.49895239 1.6900001
-0.17290887 0.4961932 1.6900003
-0.16376905 0.49533099 1.6900003
-0.15469714 0.49470282 1.6920003
-0.14500953 0.49517843 1.6917779
-0.13520001 0.49573338 1.6900003
-0.1287619 0.49573335 1.6900001
-0.10300953 0.49412382 1.6900001
-0.094228245 0.49531713 1.6913337
-0.084324904 0.49581936 1.6934289
-0.074213333 0.49529716 1.6940001
-0.064632386 0.49607432 1.6966667
-0.05498286 0.49576977 1.6980001
-0.045279998 0.49525002 1.6980001
-0.035981432 0.49525002 1.6980001
-0.025791565 0.49594179 1.6922858
-0.016095238 0.49573338 1.6900003
-0.0048285718 0.49573335 1.6900002
0.0048285718 0.49573329 1.6900004
0.015692858 0.49533096 1.6900003
0.026303673 0.49510369 1.6957142
0.035577144 0.49484572 1.6980001
0.045557715 0.49502173 1.6964
0.05472381 0.49573338 1.6900003
0.064088002 0.49532112 1.6908003
0.074396573 0.49532112 1.6908003
0.083656102 0.49516571 1.6950911
0.092177153 0.49484575 1.6980001
0.10673144 0.49268952 1.6980001
0.11683858 0.49444145 1.6980001
0.12613715 0.49484572 1.6980001
0.1334143 0.49565431 1.6980001
0.16818286 0.49161145 1.6980001
0.17141715 0.49161145 1.6980001
0.18435429 0.49161145 1.6980001
0.19405715 0.49646288 1.6980001
0.20376001 0.49484572 1.6980001
0.21389785 0.4954913 1.6921821
-0.32512382 0.50860953 1.6900001
-0.31454697 0.50493062 1.6900003
-0.30626941 0.50447077 1.6900003
-0.29722542 0.50646347 1.6900002
-0.28971431 0.50860953 1.6900001
-0.26557142 0.50539047 1.6900001
-0.1947524 0.50860953 1.6900001
-0.18465628 0.50568312 1.6900004
-0.14492573 0.50498289 1.6908003
-0.13520001 0.50539047 1.6900003
-0.12594524 0.50579286 1.6900003
-0.11717334 0.50539047 1.6900002
-0.10461906 0.50699997 1.6900001
-0.095478445 0.50553149 1.6914548
-0.08333037 0.50535917 1.6971111
-0.073998094 0.50471538 1.6964
-0.064838439 0.50463587 1.6943637
-0.055521905 0.50562668 1.6980001
-0.045279998 0.50454861 1.6980001
-0.035577144 0.50454861 1.6980001
-0.025752382 0.50539047 1.6900002
-0.01609524 0.50539047 1.6900003
-0.0060357149 0.50579286 1.6900003
0.0048285718 0.50539047 1.6900004
0.016426286 0.50498289 1.6908003
0.025862435 0.50428277 1.6971111
0.035577144 0.50454861 1.6980001
0.045229211 0.50509506 1.6962223
0.05472381 0.50539047 1.6900003
0.064414822 0.50565457 1.6908891
0.074038103 0.50539047 1.6900003
0.083876401 0.50537401 1.6935556
0.092870213 0.50501066 1.6980001
0.10996572 0.50778288 1.6980001
0.11735837 0.50501066 1.6980001
0.12613715 0.50454861 1.6980001
0.13491592 0.50454861 1.6980001
0.14230858 0.50454861 1.6980001
0.19405715 0.50131428 1.6980001
0.20525335 0.50384718 1.697
0.21375027 0.50484574 1.6917779
-0.35731426 0.51504761 1.6900001
-0.32405078 0.51719362 1.6900001
-0.31868574 0.51826668 1.6900001
-0.3090286 0.51343811 1.6900001
-0.29937145 0.5118286 1.6900001
-0.19507429 0.5156914 1.6900002
-0.18509524 0.51504761 1.6900004
-0.17597461 0.51612061 1.6900001
-0.14485714 0.51504767 1.6900003
-0.13541164 0.51585698 1.6926668
-0.12554285 0.51504767 1.6900003
-0.11588572 0.51504767 1.6900003
-0.10530885 0.51550752 1.6900003
-0.09461841 0.51398015 1.6935556
-0.084006771 0.51478773 1.6962223
-0.074462347 0.51475674 1.6929092
-0.064145908 0.51513064 1.6924002
-0.05498286 0.51425141 1.6980001
-0.045280002 0.51425147 1.6980001
-0.035535239 0.51525521 1.6960001
-0.025312111 0.51539594 1.691143
-0.01609524 0.51504761 1.6900003
-0.0064380965 0.51504767 1.6900003
0.0048285718 0.51504761 1.6900004
0.016095238 0.51504761 1.6900003
0.025540192 0.51465303 1.6972001
0.035577148 0.51425147 1.6980001
0.04482048 0.51405001 1.6960001
0.054853335 0.51465714 1.6939999
0.06468571 0.5158686 1.6980001
0.074388571 0.5158686 1.6980001
0.083282858 0.51425147 1.6980001
0.090560004 0.51101714 1.6980001
0.11837485 0.51425141 1.6980002
0.12573287 0.51465571 1.6980001
0.13584001 0.51471347 1.6980001
0.15201144 0.5158686 1.6980001
0.21265429 0.5158686 1.6980001
-0.35409522 0.52524126 1.6900002
-0.34443811 0.52631426 1.6900002
-0.33518335 0.52510715 1.6900003
-0.32512385 0.52470469 1.6900003
-0.3154667 0.52470469 1.6900003
-0.30741906 0.52309525 1.6900001
-0.29293334 0.52792382 1.6900001
-0.28756824 0.52685076 1.6900001
-0.27683809 0.52792382 1.6900001
-0.24142858 0.52631426 1.6900001
-0.23499049 0.52562445 1.6900003
-0.22479685 0.52577776 1.6900002
-0.1947524 0.52470481 1.6900001
-0.18509524 0.52470475 1.6900004
-0.17436509 0.52577776 1.6900002
-0.16739048 0.52792382 1.6900001
-0.14356953 0.52599239 1.6900002
-0.13520001 0.52470475 1.6900003
-0.12554285 0.52470469 1.6900003
-0.11588572 0.52470469 1.6900003
-0.10460157 0.52420747 1.6921821
-0.093794286 0.52395427 1.6980001
-0.083964437 0.52420449 1.6953335
-0.074038103 0.52470475 1.6900003
-0.064380951 0.52470475 1.6900003
-0.054952383 0.52367997 1.6971111
-0.045279998 0.52395433 1.6980001
-0.035490796 0.52433461 1.6940001
-0.025798094 0.52445465 1.6926668
-0.01609524 0.52470475 1.6900003
-0.0064380961 0.52470469 1.6900003
0.0048285718 0.52470475 1.6900004
0.01609524 0.52470481 1.6900003
0.026068576 0.52398032 1.6914548
0.035254028 0.52467608 1.6965455
0.045279998 0.52395433 1.6980001
0.0554449 0.52395427 1.6980001
0.064685717 0.52395427 1.6980002
0.075405717 0.52461845 1.6966667
0.084091425 0.52557141 1.6980001
0.090560004 0.5271886 1.6980001
0.11886 0.52314574 1.6980001
0.12573285 0.52355003 1.6980001
0.1362443 0.52355003 1.6980001
0.14715999 0.52314574 1.6980001
0.15282002 0.52314574 1.6980001
0.18435429 0.5271886 1.6980001
0.21548429 0.52355003 1.6980001
-0.35415429 0.53527427 1.6980001
-0.34606859 0.53527433 1.6980001
-0.33610415 0.53485525 1.6966667
-0.32512379 0.53344214 1.6900003
-0.31506431 0.53395951 1.6900003
-0.30500478 0.53677619 1.6900001
-0.29937145 0.5359714 1.6900001
-0.28810477 0.53114289 1.6900001
-0.27683809 0.53436196 1.6900001
-0.26181588 0.5365079 1.6900001
-0.25384492 0.5352816 1.6900003
-0.24372791 0.53482181 1.6900003
-0.23499046 0.53436196 1.6900003
-0.22533332 0.5343619 1.6900003
-0.21245715 0.5359714 1.6900001
-0.20762858 0.5359714 1.6900001
-0.19544218 0.53482181 1.6900003
-0.18509525 0.5343619 1.6900004
-0.17382857 0.5343619 1.6900003
-0.16509116 0.53482181 1.6900003
-0.15344128 0.5354349 1.6900002
-0.14485714 0.5343619 1.6900003
-0.13560238 0.53395951 1.6900003
-0.12554285 0.5343619 1.6900003
-0.11649 0.53490424 1.6930001
-0.10457525 0.53401649 1.6980001
-0.093794286 0.53365719 1.6980001
-0.084006771 0.53417319 1.6962223
-0.074038096 0.5343619 1.6900003
-0.064419046 0.53427571 1.6910002
-0.054952387 0.53337783 1.6971111
-0.045280002 0.53365713 1.6980001
-0.035577148 0.53365719 1.6980001
-0.026219524 0.53401142 1.694
-0.016156191 0.53485525 1.6966667
-0.006443175 0.53464293 1.6908891
0.0048285718 0.53436184 1.6900004
0.01609524 0.5343619 1.6900003
0.025752382 0.5343619 1.6900003
0.03578629 0.53447235 1.6924002
0.04487323 0.53381211 1.6962223
0.051748574 0.53689146 1.6980001
0.066841908 0.531501 1.6980001
0.075066671 0.53373373 1.6971111
0.083958089 0.53442723 1.6953334
0.092106037 0.53538924 1.6966667
0.10026286 0.53689146 1.6980001
0.11966857 0.53365713 1.6980001
0.12419657 0.5330103 1.6980002
0.13584 0.53365719 1.6980001
0.14446478 0.53581333 1.6980001
0.15395202 0.53495085 1.6980002
0.16559544 0.53559768 1.6980002
0.17680763 0.53581333 1.6980001
0.18112001 0.53527427 1.6980001
-0.35253716 0.54497719 1.6980001
-0.34606853 0.5454182 1.6980001
-0.3363657 0.54497713 1.6980001
-0.32522857 0.54347628 1.6933335
-0.31579855 0.5445931 1.6917779
-0.30580953 0.5440191 1.6900003
-0.29744002 0.54530668 1.6900002
-0.28488573 0.54723811 1.6900001
-0.27683809 0.5440191 1.6900001
-0.26235241 0.54401904 1.6900002
-0.25430477 0.5440191 1.6900003
-0.24464764 0.5440191 1.6900003
-0.23499046 0.54401904 1.6900003
-0.22573572 0.54401904 1.6900003
-0.21406668 0.5440191 1.6900001
-0.20693877 0.54447895 1.6900003
-0.19595952 0.54442143 1.6900003
-0.18516637 0.54423499 1.690667
-0.17400974 0.54459471 1.6917779
-0.16425946 0.54430693 1.6908891
-0.15467344 0.54458964 1.6917779
-0.14516528 0.54516023 1.6935556
-0.13560238 0.54442143 1.6900003
-0.12554285 0.54401904 1.6900003
-0.11577715 0.5444023 1.6932001
-0.10543772 0.54465371 1.6980001
-0.093794286 0.54497713 1.6980001
-0.084385447 0.5454182 1.6980001
-0.074347943 0.54630989 1.6971111
-0.064656757 0.54569137 1.6972001
-0.054982867 0.54497713 1.6980001
-0.046204086 0.542898 1.6980001
-0.035577144 0.54174286 1.6980001
-0.025874287 0.54443812 1.6980001
-0.016171429 0.54453611 1.6980001
-0.0064651854 0.54630989 1.6971111
0.0048400005 0.54552633 1.6946669
0.016118944 0.54488087 1.6926668
0.02575238 0.54401904 1.6900003
0.035507724 0.54545146 1.6944444
0.044561271 0.54479748 1.6980001
0.055276886 0.54483014 1.6980001
0.065332569 0.54562408 1.6980002
0.073902003 0.54401356 1.6936364
0.08369524 0.54401904 1.6900003
0.094381899 0.54449433 1.6940002
0.10452107 0.54630643 1.6971111
0.11643429 0.54497719 1.6980001
0.12721525 0.5412038 1.6980001
0.13584001 0.54174286 1.6980001
0.14446478 0.5412038 1.6980001
0.15524572 0.54012573 1.6980001
0.16710477 0.54497713 1.6980001
0.17465141 0.54567021 1.6980001
0.18112001 0.54012573 1.6980001
-0.35253716 0.55629712 1.6980001
-0.34606856 0.55629718 1.6980001
-0.33584255 0.5554235 1.6953332
-0.32512385 0.55367619 1.6900003
-0.31511697 0.55452532 1.6916002
-0.30448341 0.5542019 1.6916002
-0.29506287 0.55466473 1.6930001
-0.28481248 0.55410248 1.6921821
-0.27668858 0.55418575 1.6940001
-0.26235241 0.55206668 1.6900001
-0.25430477 0.55367619 1.6900003
-0.24464764 0.55367625 1.6900003
-0.23499049 0.55367619 1.6900003
-0.22533335 0.55367619 1.6900003
-0.21567619 0.55367625 1.6900003
-0.20601904 0.55367619 1.6900003
-0.19636191 0.55367619 1.6900003
-0.18523748 0.55411178 1.6913337
-0.17382857 0.55367625 1.6900003
-0.16417143 0.55367619 1.6900003
-0.15451428 0.55367619 1.6900003
-0.14493503 0.55396742 1.6908891
-0.13555387 0.55513567 1.6944444
-0.12581035 0.5548445 1.6935556
-0.11624804 0.55542523 1.6953332
-0.10555533 0.55659127 1.6980001
-0.093794294 0.55629718 1.6980001
-0.084091425 0.55629712 1.6980001
-0.074388571 0.55629718 1.6980001
-0.064685717 0.55589288 1.6980001
-0.058217146 0.55467999 1.6980001
-0.025065716 0.55710578 1.6980001
-0.014877716 0.55759084 1.6980002
-0.0064685717 0.55629718 1.6980001
0.0048514288 0.55629712 1.6980001
0.016171429 0.55629712 1.6980001
0.025833653 0.55542862 1.6953332
0.033151433 0.55629718 1.6980001
0.044355921 0.55629718 1.6980001
0.05492191 0.555713 1.6962223
0.064553648 0.55512887 1.6944444
0.074271746 0.55541843 1.6953335
0.083867937 0.55484444 1.6935558
0.093996197 0.55335432 1.6900003
0.10555533 0.55659109 1.6980001
0.1132 0.55629718 1.6980001
0.16737428 0.55548859 1.6980001
0.17418937 0.55537307 1.6980001
0.21508001 0.55953145 1.6980001
-0.353686 0.56653881 1.6968572
-0.34457526 0.56516379 1.690667
-0.33478096 0.5649429 1.6900004
-0.32486185 0.56522936 1.691231
-0.31471682 0.5654254 1.6946667
-0.30379465 0.56619954 1.6950909
-0.29482517 0.56637716 1.6972001
-0.28438681 0.56654513 1.6936924
-0.27782097 0.56694293 1.696
-0.26203051 0.56590855 1.6900002
-0.25430474 0.5649429 1.6900004
-0.24464762 0.5649429 1.6900004
-0.23499049 0.5649429 1.6900004
-0.22533333 0.56494284 1.6900004
-0.21556503 0.56469893 1.6914548
-0.20537524 0.56429911 1.6900003
-0.1963619 0.5649429 1.6900004
-0.18509524 0.56494284 1.6900004
-0.17382856 0.56494284 1.6900004
-0.16417143 0.5649429 1.6900004
-0.15480693 0.56450397 1.6900004
-0.14493164 0.56363136 1.6908891
-0.13562497 0.56511456 1.6953335
-0.12613714 0.56600004 1.6980001
-0.1164343 0.56600004 1.6980001
-0.10511429 0.56600004 1.6980001
-0.093794286 0.56600004 1.6980001
-0.084312037 0.56668568 1.6965455
-0.074388571 0.56599998 1.6980001
-0.064038858 0.56599998 1.6980002
-0.05498286 0.56599998 1.6980001
-0.045279998 0.56761718 1.6980001
-0.037194289 0.56761718 1.6980001
-0.024580572 0.56599998 1.6980002
-0.01663347 0.56600004 1.6980001
-0.0064668786 0.56570202 1.6971111
0.0048352382 0.56577235 1.6925002
0.016133334 0.56627232 1.6940001
0.025492955 0.56530589 1.6940002
0.035577144 0.56600004 1.6980001
0.045280002 0.56599998 1.6980001
0.05498286 0.56599998 1.6980001
0.064617991 0.56540912 1.6962223
0.074388571 0.56600004 1.6980001
0.084091425 0.56600004 1.6980001
0.094270475 0.56445509 1.6907276
0.10546668 0.5652197 1.6965455
0.1132 0.56761718 1.6980001
0.16818286 0.56276572 1.6980001
0.17141715 0.56276572 1.6980001
0.21508001 0.56276572 1.6980001
-0.34443811 0.57299048 1.6900001
-0.33524081 0.57528979 1.6900003
-0.32569906 0.57682812 1.6930001
-0.31496572 0.57582951 1.6960001
-0.30452192 0.5755657 1.6900002
-0.29638973 0.57568347 1.6932001
-0.28373608 0.57620955 1.6900003
-0.27683809 0.57620955 1.6900001
-0.26181588 0.57513648 1.6900001
-0.25390238 0.57580715 1.6900003
-0.24464764 0.57620955 1.6900003
-0.23499049 0.57620955 1.6900003
-0.22533335 0.57620955 1.6900003
-0.21449552 0.5757603 1.6934288
-0.20440954 0.57620955 1.6900002
-0.19636191 0.57620955 1.6900003
-0.18494892 0.5765022 1.6900004
-0.17382857 0.57620955 1.6900003
-0.16417143 0.57620955 1.6900003
-0.15467346 0.5757376 1.6917779
-0.14531599 0.57479537 1.6953335
-0.13569777 0.57509679 1.6962223
-0.12606943 0.57539988 1.6971111
-0.11643428 0.57570291 1.6980001
-0.10511429 0.57570291 1.6980001
-0.093650371 0.57479531 1.6953335
-0.08339864 0.57507271 1.6934286
-0.074388571 0.57570291 1.6980001
-0.062260006 0.57489431 1.6980001
-0.05498286 0.57570291 1.6980001
-0.045257989 0.57540148 1.6971111
-0.035845719 0.57553142 1.6956002
-0.025527624 0.57563782 1.6943637
-0.016476572 0.57580268 1.6964
-0.0064685717 0.57570291 1.6980001
0.0048285718 0.57620955 1.6900004
0.01609524 0.57620955 1.6900003
0.026092123 0.57602251 1.6929092
0.035577144 0.57570291 1.6980001
0.045279998 0.57570291 1.6980001
0.054982856 0.57570291 1.6980001
0.064685717 0.57570291 1.6980001
0.074388579 0.57570291 1.6980001
0.084091425 0.57570291 1.6980001
0.093332246 0.57570285 1.6980001
0.10442122 0.57385474 1.6980001
0.1132 0.57246858 1.6980001
0.21831429 0.57246858 1.6980001
-0.34121907 0.58586669 1.6900001
-0.33478096 0.58425713 1.6900002
-0.32505268 0.58617741 1.6971111
-0.31372574 0.58540571 1.6980001
-0.30361146 0.58553743 1.6957142
-0.29598323 0.58550096 1.6964
-0.28555238 0.58564001 1.694
-0.27683809 0.58586669 1.6900001
-0.26074287 0.58747625 1.6900001
-0.25301716 0.58651054 1.6900002
-0.24424525 0.58626902 1.6900003
-0.23499049 0.58546436 1.6900003
-0.22603936 0.58610094 1.6953334
-0.21467619 0.58623552 1.6948
-0.20548254 0.58533019 1.6900002
-0.19636191 0.58586669 1.6900003
-0.18509525 0.58586675 1.6900004
-0.17382857 0.58586669 1.6900003
-0.16455808 0.58684909 1.694
-0.15478368 0.58632982 1.6980001
-0.14508533 0.58549643 1.6964
-0.13584001 0.58540577 1.6980001
-0.12594242 0.58448297 1.6953332
-0.11630901 0.58479112 1.6962223
-0.10511429 0.58540577 1.6980001
-0.093794286 0.58540577 1.6980001
-0.084091425 0.58540577 1.6980001
-0.074388579 0.58540577 1.6980001
-0.064685717 0.58540571 1.6980001
-0.05498286 0.58540577 1.6980001
-0.045280002 0.58540577 1.6980001
-0.034812953 0.58508146 1.6924002
-0.026140532 0.58540481 1.6917779
-0.015833074 0.58594841 1.6936364
-0.0064574894 0.58557057 1.6950911
0.0048285718 0.58609647 1.690667
0.01616127 0.58656317 1.6966667
0.02585651 0.58656317 1.6966667
0.03555683 0.58509934 1.6971111
0.044201907 0.5848667 1.6980001
0.05498286 0.58217144 1.6980001
0.067919999 0.58217144 1.6980001
0.07503543 0.58346516 1.6980002
0.083687142 0.58500147 1.6980001
0.090560004 0.58217144 1.6980001
0.11643429 0.58864003 1.6980001
0.13260572 0.58864003 1.6980001
-0.34256127 0.59545213 1.6913334
-0.33636576 0.59510857 1.6980001
-0.32504573 0.59510857 1.6980001
-0.31372574 0.59510857 1.6980001
-0.30402288 0.59510857 1.6980001
-0.29432002 0.59510857 1.6980001
-0.28461716 0.59510857 1.6980001
-0.27663875 0.5973981 1.6953335
-0.26203051 0.59552383 1.6900002
-0.25323176 0.59498733 1.6900002
-0.24464764 0.59552383 1.6900003
-0.23583916 0.5956986 1.6935558
-0.22597143 0.59547198 1.6972001
-0.21482731 0.59601843 1.6960001
-0.20454478 0.5965519 1.6968572
-0.19544218 0.59506398 1.6900003
-0.18509525 0.59552377 1.6900004
-0.17452136 0.59540951 1.6922858
-0.16415952 0.59531808 1.694
-0.15516445 0.59479707 1.6971111
-0.14594714 0.59551287 1.6980001
-0.13584 0.59510863 1.6980001
-0.12613715 0.59510857 1.6980001
-0.11643428 0.59510857 1.6980001
-0.10511428 0.59510857 1.6980001
-0.093794294 0.59510857 1.6980001
-0.084091425 0.59510863 1.6980001
-0.074388579 0.59510857 1.6980001
-0.067919999 0.59510857 1.6980001
-0.043662861 0.5918743 1.6980001
-0.036039181 0.59603268 1.6980001
-0.025384285 0.5958243 1.6920002
-0.01610201 0.59583539 1.6908891
-0.0064601065 0.5963217 1.6953335
0.0041939048 0.5954423 1.6916002
0.015767144 0.59510857 1.6980001
0.029108573 0.5983429 1.6980001
0.037194289 0.5983429 1.6980001
0.042045716 0.59510857 1.6980001
0.083552383 0.5945695 1.6980001
0.21778667 0.59712917 1.6964
-0.34283051 0.60398984 1.6926666
-0.33798286 0.60481149 1.6980001
-0.32666287 0.60481143 1.6980001
-0.31332147 0.60521573 1.6980001
-0.30402288 0.60481149 1.6980001
-0.29431999 0.60481143 1.6980001
-0.28461716 0.60481143 1.6980001
-0.27588382 0.60499239 1.694
-0.26396191 0.60518098 1.6900003
-0.25430477 0.60518104 1.6900003
-0.24560164 0.60548681 1.6934286
-0.23564079 0.60573548 1.6980001
-0.2268043 0.60521579 1.6980001
-0.2144731 0.6046868 1.6943638
-0.20358096 0.60465568 1.6935556
-0.19538878 0.60549766 1.6908891
-0.18575493 0.60641146 1.6944444
-0.17437205 0.60493457 1.6953335
-0.16543849 0.6058526 1.6964
-0.15540539 0.60546392 1.6965455
-0.14554286 0.60481143 1.6980001
-0.13584 0.60481143 1.6980001
-0.12613715 0.60481143 1.6980001
-0.11724286 0.60238576 1.6980001
-0.10608457 0.60222399 1.6980002
-0.093794286 0.60157716 1.6980001
-0.083013333 0.60373336 1.6980001
-0.074388571 0.60481149 1.6980001
-0.067111433 0.60481143 1.6980001
-0.035172861 0.60440719 1.6980001
-0.025798094 0.60505778 1.6926668
-0.01610201 0.6054976 1.6908891
-0.0064533344 0.60451216 1.6945716
0.0054967622 0.60460198 1.6955999
0.016171429 0.60481143 1.6980001
0.025874287 0.60481149 1.6980001
0.035577144 0.6031943 1.6980001
0.042045716 0.60157716 1.6980001
0.21831429 0.60642862 1.6980001
0.22316572 0.60804576 1.6980001
-0.34162286 0.61394858 1.692
-0.33669257 0.61522895 1.6964
-0.32460469 0.61480832 1.6980001
-0.31372574 0.61451429 1.6980001
-0.30402288 0.61451429 1.6980001
-0.29431999 0.61451435 1.6980001
-0.28461716 0.61451435 1.6980001
-0.27502668 0.6156978 1.6953334
-0.26396191 0.61483812 1.6900003
-0.25430477 0.61483818 1.6900003
-0.2454146 0.61462229 1.6953332
-0.2356697 0.61486858 1.6972001
-0.22620608 0.6151585 1.6965455
-0.21566193 0.61394858 1.6920003
-0.20601904 0.61483812 1.6900003
-0.19636191 0.61483812 1.6900003
-0.18494451 0.61495024 1.6928574
-0.17390718 0.61498219 1.6936364
-0.1644254 0.61473018 1.6926668
-0.15457034 0.61460894 1.6957144
-0.14554286 0.61451429 1.6980001
-0.13584 0.61451429 1.6980001
-0.12505905 0.61559242 1.6980001
-0.080857143 0.61128002 1.6980001
-0.073580004 0.61208862 1.6980001
-0.067919999 0.61451429 1.6980001
-0.043662857 0.61451435 1.6980001
-0.035577144 0.61451435 1.6980001
-0.026219524 0.61467814 1.6940002
-0.016143491 0.61516643 1.6953334
-0.0069306125 0.61359024 1.6980001
0.0036385716 0.61370575 1.6980001
0.01709551 0.61405224 1.6980001
0.026278572 0.61491859 1.6980001
0.21993144 0.61128002 1.6980001
0.22316572 0.61128002 1.6980001
-0.3431558 0.62632155 1.6932001
-0.33771622 0.62372702 1.6966667
-0.32504573 0.62421715 1.6980001
-0.31372574 0.62421715 1.6980001
-0.30392349 0.62458426 1.6958183
-0.29482517 0.62456685 1.6972001
-0.28431746 0.62356365 1.6962223
-0.274342 0.62398309 1.6944444
-0.26396191 0.62449521 1.6900003
-0.25500619 0.62483197 1.6920002
-0.24540144 0.62462145 1.6980001
-0.23650715 0.62462139 1.6980001
-0.2264 0.6251412 1.6980001
-0.21495429 0.6254667 1.697
-0.20489335 0.62436384 1.694
-0.1963619 0.6228857 1.6900002
-0.18509525 0.62449533 1.6900004
-0.17382857 0.62449527 1.6900003
-0.16403809 0.62345636 1.6934286
-0.15524572 0.62421715 1.6980001
-0.14554286 0.62421715 1.6980001
-0.13584001 0.62421715 1.6980001
-0.12613715 0.62421715 1.6980001
-0.11886 0.62340856 1.6980001
-0.092177145 0.62745148 1.6980001
-0.084091425 0.62745148 1.6980001
-0.043123811 0.62206095 1.6980001
-0.035577144 0.62260002 1.6980001
-0.025853969 0.62318796 1.6966667
-0.017788572 0.62098289 1.6980001
0.006006531 0.62514126 1.6980001
0.017095512 0.62467921 1.6980001
0.025874287 0.62421721 1.6980001
0.032342859 0.62745148 1.6980001
-0.3428286 0.63415241 1.6900002
-0.33728981 0.63438207 1.6980001
-0.32460469 0.63421404 1.6980001
-0.31372574 0.63391995 1.6980001
-0.3045581 0.63530529 1.6920002
-0.29523847 0.63396227 1.6965455
-0.28512686 0.63426518 1.6972001
-0.27448761 0.6339975 1.6953332
-0.26442176 0.63323265 1.6900003
-0.25505143 0.63441145 1.6949999
-0.24580571 0.63391995 1.6980001
-0.23610288 0.63392001 1.6980001
-0.22627981 0.63358653 1.6971111
-0.21508001 0.63392007 1.6980001
-0.20422205 0.63299596 1.6980001
-0.19498122 0.63438207 1.6980001
-0.18412952 0.63383049 1.6900003
-0.17382856 0.63254285 1.6900002
-0.16494858 0.63392001 1.6980001
-0.15524572 0.63392007 1.6980001
-0.14554286 0.63391995 1.6980001
-0.13584001 0.63392001 1.6980001
-0.12613715 0.63392001 1.6980001
-0.11837486 0.63327318 1.6980002
-0.10467324 0.63362604 1.6980001
-0.093794294 0.63392007 1.6980001
-0.084373713 0.63426518 1.6972001
-0.077622861 0.63068575 1.6980001
-0.025874287 0.63068575 1.6980001
-0.014015239 0.63607621 1.6980001
-0.0058217146 0.63586056 1.6980002
0.0045229206 0.63441026 1.6958667
0.016143724 0.63400179 1.6950911
0.025801906 0.63378352 1.6933335
0.034188949 0.63535011 1.6932001
0.042045716 0.63715428 1.6980001
0.17564762 0.63651246 1.692
0.18318422 0.63629228 1.6957144
0.19082287 0.63715428 1.6980001
-0.34445143 0.64524001 1.6980001
-0.33677 0.64402717 1.6980001
-0.32630348 0.6429041 1.6980001
-0.31318668 0.64362288 1.6980001
-0.30515748 0.64530224 1.6953335
-0.29642776 0.64318973 1.6968572
-0.28554389 0.64336419 1.6965455
-0.27448764 0.6436851 1.6953332
-0.26387 0.64174718 1.6920002
-0.25390023 0.64280343 1.6916002
-0.24546808 0.64313525 1.6936364
-0.23533598 0.64304912 1.6948001
-0.2264 0.64362293 1.6980001
-0.21669714 0.6411972 1.6980001
-0.20214286 0.64685714 1.6980001
-0.19451961 0.64398062 1.6964
-0.18465628 0.64410216 1.6900004
-0.17480724 0.64365876 1.6964
-0.16494858 0.64362288 1.6980001
-0.15524572 0.64362288 1.6980001
-0.14715999 0.64200574 1.6980001
-0.13745715 0.64038861 1.6980001
-0.10349715 0.64362288 1.6980001
-0.093794286 0.64362293 1.6980001
-0.083687149 0.64402717 1.6980001
-0.075312652 0.64408493 1.6980001
-0.022586668 0.64371622 1.694
-0.01612789 0.64188576 1.6934286
-0.0064482545 0.64159626 1.6926668
0.0058125718 0.64115655 1.6932001
0.015093334 0.64254481 1.6980001
0.02749143 0.64362288 1.6980001
0.17249525 0.64254481 1.6980001
-0.3347486 0.65251714 1.6980001
-0.3247762 0.65359521 1.6980001
-0.31295002 0.65457004 1.6960001
-0.30402288 0.65170866 1.6980001
-0.29431999 0.65170854 1.6980001
-0.28542572 0.65090001 1.6980001
-0.27410573 0.65251714 1.6980001
-0.26521146 0.65332568 1.6980001
-0.25618795 0.65283877 1.6953335
-0.24786668 0.65024763 1.6900001
-0.22640002 0.65009147 1.6980001
-0.20214286 0.65009147 1.6980001
-0.18026668 0.65024763 1.6900001
-0.17383698 0.65141642 1.6964
-0.16559544 0.65138519 1.6980002
-0.15605429 0.65090007 1.6980001
-0.14662094 0.65116954 1.6980001
0.21771811 0.037369527 1.7060001
0.22421715 0.035744764 1.7060001
0.23721525 0.035744764 1.7060001
0.25508761 0.038994286 1.7060001
0.26700255 0.03574476 1.7060002
0.27296001 0.032495238 1.7060001
0.21121906 0.045493335 1.7060001
0.25346288 0.042243812 1.7060001
0.21284382 0.34769905 1.7060001
0.20796953 0.3541981 1.7060001
0.17872381 0.37532002 1.7060001
0.18684763 0.37694478 1.7060001
0.19172192 0.37694478 1.7060001
0.17872381 0.384527 1.706
0.18603525 0.38263145 1.7060001
0.17872381 0.39319238 1.7060001
0.16507581 0.40814018 1.7060001
0.17384952 0.40944001 1.7060001
0.16507581 0.41398937 1.7060001
0.17222477 0.41268954 1.7060001
0.13648 0.42893717 1.7060001
0.17547429 0.42893717 1.706
0.18305652 0.42785397 1.706
0.038994286 0.43868575 1.7060001
0.13688618 0.43584239 1.7060002
0.14785334 0.43868575 1.7060001
0.15532723 0.43608612 1.7060001
0.16572572 0.43706098 1.7060002
0.1754743 0.43584239 1.7060002
0.1835981 0.43543622 1.7060002
0.19497144 0.43868575 1.7060001
0.038994286 0.44680953 1.7060001
0.12835619 0.44193524 1.7060001
0.13647999 0.44477862 1.7060002
0.147157 0.445649 1.7060002
0.15597714 0.445649 1.7060002
0.16572572 0.44518477 1.7060002
0.17454585 0.445649 1.7060002
0.18587276 0.44388494 1.7060001
0.19543566 0.44425637 1.7060002
0.2053699 0.44648457 1.7060001
0.21446858 0.44680953 1.7060002
0.22096762 0.44680953 1.7060001
0.13518019 0.45428348 1.7060001
0.14622857 0.45452711 1.7060002
0.15557095 0.45452714 1.7060002
0.16572572 0.45363349 1.7060001
0.17547429 0.45168385 1.706
0.19589987 0.45539755 1.7060002
0.2051262 0.45533952 1.7060002
0.21446858 0.45330861 1.7060002
0.22096762 0.45330858 1.7060001
0.13810477 0.46305716 1.7060001
0.14622858 0.4614324 1.7060001
0.15272762 0.4614324 1.7060001
0.19578382 0.4671191 1.7060001
0.20472001 0.46414039 1.7060002
0.21121906 0.4614324 1.7060001
-0.094236195 0.47605526 1.7060001
0.13842972 0.47508043 1.7060001
0.18847239 0.47605526 1.7060001
0.19404301 0.4739663 1.7060002
0.20472001 0.4744305 1.7060001
0.21446858 0.47768006 1.706
0.097485721 0.48742858 1.7060001
0.1029016 0.48634541 1.706
0.13810475 0.48417905 1.7060002
0.18847239 0.48417905 1.706
0.19497144 0.48417908 1.7060002
0.20518422 0.48464331 1.7060002
0.21446857 0.48222932 1.7060001
0.22096762 0.48417908 1.7060001
0.097485721 0.49555239 1.7060001
0.10463468 0.49587736 1.7060001
0.13810475 0.49392763 1.7060002
0.14622857 0.49392763 1.7060002
0.15597714 0.49392763 1.7060002
0.16531953 0.49392763 1.7060002
0.17640272 0.49439189 1.7060002
0.18587276 0.49457756 1.7060001
0.19497144 0.49392763 1.7060002
0.20634477 0.4906781 1.7060001
-0.054158729 0.50475937 1.706
0.097485721 0.50367624 1.706
0.10398477 0.50367624 1.7060002
0.11210858 0.50367624 1.7060002
0.13972953 0.50205147 1.7060001
0.14663476 0.50327003 1.7060002
0.15557095 0.50367624 1.7060002
0.16572572 0.50172651 1.7060001
0.17547429 0.50172651 1.7060001
0.18562905 0.50327009 1.7060002
0.19497144 0.50692576 1.706
0.20147048 0.50692576 1.7060001
0.08665397 0.51884061 1.706
0.094642386 0.51708043 1.7060002
0.10398477 0.51504952 1.706
0.1128049 0.51667422 1.7060002
0.12998095 0.51342475 1.7060001
0.13756318 0.51342475 1.706
0.14622857 0.51504952 1.706
0.15532723 0.51602441 1.7060001
0.16572572 0.51992381 1.7060001
0.17872381 0.51992381 1.7060001
0.18630604 0.51559108 1.7060002
0.19467603 0.51490176 1.7060001
0.20472001 0.51595211 1.7060002
0.21446858 0.51667428 1.706
0.053617142 0.52642286 1.7060001
0.064990476 0.52642286 1.7060001
0.072572701 0.52425653 1.706
0.084487617 0.52317333 1.706
0.094236195 0.52595866 1.7060002
0.11373334 0.52688706 1.7060002
0.12998095 0.52967238 1.7060001
0.13323048 0.52967238 1.7060001
0.14492877 0.52707279 1.7060001
0.15792686 0.52707279 1.7060001
0.16613191 0.52642286 1.7060002
0.17601587 0.52696443 1.7060002
0.18522286 0.52601671 1.7060002
0.19497144 0.52642286 1.7060002
0.2051262 0.52601671 1.7060002
0.2133854 0.52858919 1.706
-0.10723429 0.53942096 1.7060001
0.048742861 0.53617144 1.7060001
0.0556481 0.53576523 1.7060002
0.063907303 0.53725463 1.7060002
0.071489528 0.53942096 1.7060001
0.095860958 0.53454667 1.7060001
0.10463468 0.53747123 1.7060001
0.11373334 0.53617138 1.7060002
0.12916857 0.53698385 1.7060001
0.14677016 0.53508824 1.7060002
0.15760191 0.53454667 1.7060001
0.16491334 0.53373432 1.7060001
0.17439111 0.53508824 1.7060002
0.1861513 0.53570718 1.7060002
0.19497144 0.53617138 1.7060002
0.20634477 0.53454667 1.7060001
0.2133854 0.53617144 1.706
0.22096762 0.53292191 1.7060001
-0.34769905 0.54267049 1.7060001
-0.042243812 0.54754478 1.7060001
-0.035744764 0.54721981 1.7060001
0.048742861 0.54916954 1.7060001
0.051992383 0.54916954 1.7060001
0.061740953 0.54429525 1.7060001
0.10560954 0.54429525 1.7060001
0.11413953 0.54551381 1.7060002
0.12470049 0.54713857 1.7060002
0.13648 0.54916954 1.706
0.14677016 0.54700321 1.7060002
0.15597714 0.54684842 1.7060002
0.16377601 0.54656994 1.7060001
0.1746619 0.5451076 1.7060001
0.18522286 0.54537845 1.7060002
0.19172192 0.54429525 1.7060001
-0.10073524 0.55404383 1.7060001
-0.053617142 0.55729336 1.7060001
-0.045493335 0.55566859 1.7060002
-0.03574476 0.55566859 1.7060002
-0.025996193 0.55566853 1.7060002
-0.017547429 0.55631846 1.7060001
0.037911113 0.55675179 1.706
0.048742861 0.55404383 1.7060001
0.11617048 0.556481 1.7060001
0.12510665 0.55566859 1.706
0.13647999 0.55566859 1.7060002
0.14582238 0.55526239 1.7060002
0.15638334 0.55526239 1.7060002
0.16328858 0.556481 1.7060001
0.17872381 0.55241907 1.7060001
0.18327315 0.55631846 1.7060001
0.21121906 0.55566859 1.7060001
-0.065802857 0.56622958 1.7060001
-0.055241901 0.56216764 1.706
-0.045493335 0.56379247 1.7060002
-0.035280544 0.56448871 1.7060002
-0.027620953 0.56622958 1.7060001
-0.014622858 0.5686667 1.7060001
0.037369527 0.56216764 1.7060001
0.048742861 0.56216764 1.7060001
0.11617048 0.56541717 1.7060001
0.12510665 0.56541717 1.706
0.13566762 0.56379241 1.7060001
0.14297906 0.56216764 1.7060001
0.16479729 0.56588143 1.7060002
0.17640272 0.56588137 1.7060002
0.18441048 0.56460476 1.7060001
0.19172192 0.56541717 1.7060001
0.2060198 0.56541717 1.7060001
0.21316877 0.56671703 1.7060001
-0.066615239 0.57597816 1.7060001
-0.032495238 0.57191622 1.7060001
-0.029245716 0.57191622 1.7060001
0.11503315 0.57646561 1.7060001
0.12510666 0.57516569 1.706
0.13601577 0.57423729 1.7060002
0.16626731 0.57462412 1.7060002
0.17439111 0.57299942 1.706
0.20715715 0.57435334 1.7060001
0.21406239 0.57516575 1.7060002
0.22096762 0.57841527 1.7060001
-0.066615239 0.5816648 1.7060001
0.048742861 0.58491433 1.7060001
0.055241905 0.58686399 1.7060001
0.064340577 0.58686399 1.7060001
0.071489528 0.58816385 1.7060001
0.094777785 0.58599752 1.7060002
0.10398477 0.58491433 1.7060002
0.11373334 0.58491433 1.7060002
0.12510666 0.58491439 1.706
0.13518019 0.58621418 1.7060001
0.16572572 0.5816648 1.7060001
0.21381867 0.58686405 1.7060001
0.22096762 0.58816385 1.7060001
-0.063365713 0.59628767 1.7060001
-0.055241909 0.59628767 1.7060002
-0.046305716 0.59710002 1.7060001
0.019497143 0.59791243 1.7060001
0.025996191 0.59628767 1.7060002
0.03574476 0.59628767 1.7060002
0.047118098 0.5946629 1.7060002
0.054835718 0.5946629 1.7060002
0.066615239 0.59385049 1.7060001
0.074739046 0.5946629 1.7060002
0.087737143 0.59303814 1.7060001
0.094236195 0.5946629 1.7060002
0.10398477 0.5946629 1.7060002
0.11332715 0.59506905 1.7060002
0.12510665 0.5946629 1.706
0.13688618 0.59506911 1.7060002
0.14297906 0.5946629 1.706
0.21663493 0.5946629 1.706
0.22096762 0.59303814 1.7060001
-0.33470097 0.60603619 1.7060001
-0.32170287 0.60603619 1.7060001
-0.31845334 0.60441142 1.7060001
-0.1153581 0.60766095 1.7060001
-0.10398477 0.60766095 1.706
-0.094236195 0.60766095 1.706
-0.087737143 0.60766095 1.7060001
-0.063040763 0.60376155 1.7060001
-0.055241909 0.60441142 1.7060002
-0.045087144 0.60400528 1.7060002
0.02437143 0.6011619 1.7060001
0.032495238 0.6011619 1.7060001
0.04642177 0.60487562 1.7060002
0.055241905 0.60197431 1.7060001
0.068240002 0.6011619 1.7060001
0.076363809 0.60441142 1.7060002
0.084487617 0.60481757 1.7060002
0.094236195 0.60441142 1.7060002
0.10439096 0.60400528 1.7060002
0.11373334 0.60441142 1.7060002
0.12510666 0.60441148 1.706
0.13647999 0.60441136 1.7060002
0.14406224 0.60332823 1.706
0.1835981 0.60766095 1.7060001
0.19659621 0.60766095 1.7060001
0.20634477 0.60441142 1.7060001
0.21284382 0.60441142 1.7060002
-0.34120002 0.61416 1.7060001
-0.33470097 0.61334765 1.7060001
-0.32170287 0.61091048 1.7060001
-0.12470049 0.61537862 1.7060002
-0.11332715 0.61375386 1.7060002
-0.10398477 0.61416 1.7060002
-0.094236195 0.61416006 1.7060002
-0.085416056 0.6146242 1.7060002
-0.076363817 0.61740953 1.7060001
