# .PCD v0.7 - Point Cloud Data file format
VERSION 0.7
FIELDS x y z
SIZE 4 4 4
TYPE F F F
COUNT 1 1 1
WIDTH 1502
HEIGHT 1
VIEWPOINT 0 0 0 1 0 0 0
POINTS 1502
DATA ascii
-0.16249333 0.5538038 1.7410001
0.048637461 0.5560146 1.7410001
0.05678976 0.55338931 1.7410001
-0.16746762 0.56375241 1.7410001
0.046012145 0.5641669 1.7410001
0.058033332 0.56541049 1.7410001
-0.16912572 0.57370096 1.7410001
0.046012145 0.57370096 1.7410001
0.055960715 0.57328647 1.7410001
-0.16691492 0.58364952 1.7410001
0.056375239 0.58364952 1.7410001
0.063007623 0.58199143 1.7410001
-0.16470413 0.59249276 1.7410001
-0.15917715 0.59691429 1.7410001
0.053059053 0.59359813 1.7410001
-0.15917715 0.60354668 1.7410001
0.047089908 0.60553646 1.7409999
0.053059049 0.6018886 1.7410001
-0.15586096 0.61681145 1.7410001
0.046841197 0.61308074 1.7410001
0.053059049 0.61681145 1.7410001
-0.15586096 0.62344384 1.7410001
0.046426669 0.62344384 1.7410001
-0.15420286 0.63007623 1.7410001
0.055712003 0.63339239 1.7409999
-0.16580953 0.64168292 1.7410001
0.33666667 0.043333337 1.7500001
0.34333333 0.043333337 1.7500001
-0.22500001 0.056666669 1.7500001
-0.22278716 0.06341476 1.7522501
-0.22224097 0.073521905 1.7545
-0.22224097 0.083547622 1.7545
0.083333336 0.083333336 1.7500001
0.12666667 0.086666673 1.7500001
0.13401906 0.085437149 1.7589999
0.14454912 0.084719181 1.7589999
0.15077144 0.085437149 1.7590001
-0.22224534 0.093050674 1.7572
-0.21583334 0.094166666 1.7500001
0.11916666 0.094166666 1.7500001
0.125 0.093333334 1.7500001
0.13401905 0.093813345 1.7589999
0.14407049 0.093813337 1.7589999
0.15160906 0.094650954 1.7590001
-0.22113144 0.10386477 1.7590002
-0.21518572 0.10342477 1.7515001
0.11777777 0.10444445 1.7500001
0.12521714 0.10351334 1.7530001
0.13401906 0.10386476 1.7589999
0.14407048 0.10386476 1.7589999
0.15077144 0.10386477 1.7590002
-0.22113144 0.11224096 1.7590001
-0.21394858 0.11477016 1.755
0.11666667 0.115 1.7500001
0.12504108 0.11453552 1.7538573
0.13401905 0.1139162 1.7589999
0.14407049 0.1139162 1.7589999
0.15077144 0.1139162 1.7590002
-0.22113144 0.12061714 1.7590001
-0.21457928 0.12422572 1.75675
0.11666667 0.125 1.7500001
0.12572418 0.12438057 1.7554001
0.13401906 0.12396762 1.7589999
0.14407049 0.12396762 1.7589999
0.15160906 0.12480524 1.7590001
-0.2140705 0.13379048 1.756
0.11866666 0.13266668 1.7500002
0.12521714 0.13355905 1.7530001
0.13401906 0.13401905 1.7589999
0.14407049 0.13401906 1.7589999
0.15300509 0.13346064 1.7589999
-0.2140705 0.14382477 1.756
0.12 0.14166668 1.7500001
0.12510857 0.14345334 1.7515001
0.13401906 0.14407049 1.7589999
0.14359184 0.14311321 1.7589999
0.15077144 0.14239524 1.7590001
-0.21476328 0.15367129 1.7538573
0.115 0.15333332 1.7500001
0.125 0.15333332 1.7500001
0.13401906 0.15412191 1.7589999
0.14072001 0.15077144 1.7590001
-0.21360667 0.16343953 1.755625
-0.20500001 0.16666667 1.7500001
0.115 0.16333333 1.7500001
0.12553714 0.1640362 1.7575001
0.13066858 0.16417335 1.7590002
-0.21301034 0.17336409 1.7551429
-0.20666668 0.17333335 1.7500001
0.10666667 0.17666668 1.7500001
0.11406001 0.17342418 1.7509
0.12438644 0.17422479 1.7589999
0.13401905 0.17464358 1.7589999
-0.21221524 0.18380477 1.7545
-0.20666666 0.18333334 1.7500001
0.096666671 0.18666667 1.7500001
0.10375001 0.18375 1.7500001
0.11353334 0.18364763 1.753
0.12396762 0.18427621 1.7589999
0.13306178 0.18475483 1.7589999
-0.21203239 0.19366477 1.7530001
-0.20666668 0.19000001 1.7500001
0.096666671 0.19166668 1.7500001
0.1033943 0.19344193 1.751
0.1139162 0.19432762 1.7589999
0.12396763 0.19432762 1.7589999
0.13360023 0.19390881 1.7589999
-0.21184956 0.20350762 1.7515001
-0.20666668 0.20333335 1.7500001
0.096666671 0.20333333 1.7500001
0.10333335 0.20333335 1.7500001
0.11505 0.20341907 1.7507502
0.12532571 0.20385621 1.7545
0.13234381 0.20437907 1.7589999
-0.21198478 0.21332839 1.7554001
-0.20666668 0.215 1.7500001
0.096666671 0.215 1.7500001
0.10375001 0.21375002 1.7500001
0.11365905 0.21394858 1.755
0.12396763 0.2144305 1.7589999
0.13318144 0.21191764 1.7590001
-0.21108001 0.22448193 1.7590002
-0.2042793 0.22432645 1.7545
0.096666671 0.22333334 1.7500001
0.1035162 0.2237162 1.753
0.1139162 0.22448193 1.7589999
0.12329753 0.22247164 1.7590001
-0.21108001 0.23118286 1.7590001
-0.20403621 0.23413335 1.756
-0.19666667 0.23500001 1.7500001
0.095833331 0.23416668 1.7500001
0.10339429 0.23346478 1.751
0.11385334 0.2343981 1.7579999
0.1228508 0.23565017 1.7589999
0.13401905 0.23788382 1.7590001
-0.21108001 0.24626002 1.7590001
-0.2041505 0.24430476 1.757
-0.19583334 0.24250001 1.7500001
0.094000004 0.24200001 1.7500002
0.10333335 0.24333334 1.7500001
0.11366287 0.24402669 1.755
0.12396762 0.24458477 1.7589999
0.13290222 0.2457016 1.7590002
-0.2041505 0.2543467 1.757
-0.19666667 0.25333333 1.7500001
0.095333338 0.25400001 1.7500002
0.10351429 0.25377142 1.753
0.1139162 0.2546362 1.7589999
0.12329753 0.25262591 1.7590001
0.13234381 0.25128573 1.7590001
-0.20392002 0.26408571 1.755
0.076666668 0.26166669 1.7500001
0.086666673 0.26500002 1.7500001
0.094285719 0.26380953 1.7500001
0.1035162 0.26378477 1.753
0.11295892 0.26468763 1.7589999
-0.20392002 0.27411237 1.755
0.085833341 0.27416667 1.7500001
0.093333334 0.27333334 1.7500001
0.10380763 0.27458474 1.7579999
0.11224096 0.27473906 1.7589999
-0.20357454 0.28382525 1.755625
-0.19666667 0.28666669 1.7500001
0.085555561 0.28111112 1.7500001
0.09380953 0.28238094 1.7500001
0.10363429 0.28414094 1.755
0.11190591 0.28412041 1.7590001
-0.20218955 0.29408762 1.7545
-0.19666667 0.29333335 1.7500001
0.08533334 0.29333335 1.7500002
0.093333334 0.29333332 1.7500001
0.10369334 0.29433903 1.756
0.11224097 0.29484192 1.7589999
-0.20218955 0.30411336 1.7545
0.085833341 0.30416667 1.7500001
0.093388572 0.30350855 1.751
0.10386477 0.30489334 1.7589999
0.1139162 0.30656856 1.7590001
-0.20218952 0.31413907 1.7545
0.08375001 0.31375 1.7500001
0.093333334 0.31333333 1.7500001
0.10386477 0.31494477 1.7589999
0.11279938 0.31606159 1.7590002
-0.2025324 0.32472193 1.7575001
-0.19583334 0.32416669 1.7500001
0.076666668 0.32333335 1.7500001
0.083333336 0.32333335 1.7500001
0.093333334 0.32333335 1.7500001
0.10380762 0.32481146 1.7579999
0.11224096 0.32499623 1.7589999
-0.20270383 0.33504763 1.7589999
-0.19666667 0.33333334 1.7500001
0.075000003 0.33666667 1.7500001
0.083809532 0.33380952 1.7500001
0.093443818 0.33371618 1.7520001
0.10386476 0.3350476 1.7589999
-0.20270382 0.3417486 1.7590001
-0.19567144 0.34451333 1.756
0.074285708 0.34380955 1.7500001
0.083333336 0.34291667 1.7500001
0.093333334 0.34333333 1.7500001
0.10386477 0.34509906 1.7589999
-0.19450215 0.35511285 1.75675
0.084666677 0.35466668 1.7500002
0.093497142 0.35394281 1.753
0.10386477 0.35515046 1.7589999
0.11056572 0.35682571 1.7590001
-0.19295157 0.36487976 1.7551429
0.08533334 0.36333334 1.7500002
0.093761906 0.36499432 1.7579999
0.10344595 0.36478311 1.7589999
-0.20102859 0.37525335 1.7590001
-0.1940019 0.37461337 1.756
0.061666667 0.37666669 1.7500001
0.076666668 0.37333333 1.7500001
0.085000008 0.37333333 1.7500001
0.093394533 0.37567216 1.7589999
0.10218953 0.37692857 1.7590001
-0.20102859 0.38195431 1.7590001
-0.19411047 0.38486856 1.757
-0.18666667 0.38500002 1.7500001
0.063333333 0.38333338 1.7500001
0.074285708 0.38380957 1.7500001
0.083333336 0.38333338 1.7500001
0.093710475 0.38486475 1.757
0.10051429 0.38530478 1.7590002
-0.19421905 0.39513147 1.7579999
-0.18666667 0.39333335 1.7500001
0.063999996 0.39133334 1.7500002
0.07333333 0.39333338 1.7500001
0.083333336 0.39333338 1.7500001
0.093659051 0.39468193 1.756
0.10218953 0.39535618 1.7589999
0.11056572 0.39535621 1.7590002
-0.19432762 0.40540764 1.7589999
-0.18583333 0.4041667 1.7500001
0.06666667 0.40000001 1.7500001
0.073749997 0.40333337 1.7500001
0.08338286 0.40356576 1.751
0.093813337 0.40540767 1.7589999
0.10344596 0.40498886 1.7589999
-0.19298743 0.41411886 1.7590001
-0.18442287 0.4141157 1.7512858
0.073749997 0.41291672 1.7500001
0.083670475 0.41498673 1.757
0.093813337 0.41545907 1.7589999
0.10218953 0.41378385 1.7590001
-0.19097716 0.4255105 1.7590002
-0.18386286 0.42454475 1.755
0.075833336 0.42250001 1.7500001
0.0834819 0.42405909 1.753
0.09381333 0.42551047 1.7589999
-0.19097716 0.43556193 1.7590002
-0.18375809 0.43432194 1.7540001
0.076666668 0.43166667 1.7500001
0.083432384 0.43382668 1.7520001
0.092856057 0.4350833 1.7589999
-0.19265239 0.44561338 1.7589999
-0.18548 0.44447339 1.7545
0.073333338 0.44666669 1.7500001
0.083859287 0.44432431 1.7522501
0.093394525 0.44519457 1.7589999
-0.19231734 0.45499468 1.7590001
-0.18548 0.45449904 1.7545
0.074666664 0.45466667 1.7500002
0.083624758 0.45488766 1.756
0.09130048 0.45566478 1.7590001
-0.18496653 0.465514 1.7564286
0.07333333 0.46333334 1.7500001
0.083761908 0.46571615 1.7589999
0.090462863 0.46571618 1.7590001
-0.18340921 0.47495332 1.756
0.074285708 0.47380954 1.7500001
0.083624758 0.47495618 1.756
0.092138104 0.47576761 1.7589999
-0.19097716 0.48581907 1.7590001
-0.18396764 0.48499048 1.756
-0.17666668 0.48500001 1.7500001
0.06666667 0.48166668 1.7500001
0.07333333 0.48333338 1.7500001
0.083573334 0.48471239 1.755
0.093336672 0.48592719 1.757875
0.10051429 0.48749429 1.7590001
-0.18292221 0.49430451 1.7551429
-0.17666668 0.49333334 1.7500001
0.064334698 0.4936958 1.7512858
0.07354667 0.49474287 1.755
0.083761901 0.49587047 1.7589999
0.092138089 0.4958705 1.7589999
-0.18183267 0.50539511 1.7538573
-0.17666668 0.505 1.7500001
0.06555555 0.505 1.7500001
0.073066145 0.50477922 1.7508183
0.083716191 0.5056324 1.7579999
0.092138104 0.5059219 1.7589999
-0.18236953 0.51531339 1.7567501
-0.17585842 0.51644129 1.7530001
0.064166665 0.51416671 1.7500001
0.073865846 0.51466042 1.7512858
0.083670475 0.51538479 1.757
0.092138104 0.51597333 1.7589999
-0.18092573 0.52602482 1.7590002
-0.1754543 0.52467906 1.7545
0.06666667 0.52000004 1.7500001
0.073749997 0.52291667 1.7500001
0.0834819 0.52423048 1.753
0.091803052 0.52602476 1.7590001
-0.18092573 0.53607619 1.7590002
-0.17467511 0.53403264 1.7538573
0.063333333 0.5316667 1.7500001
0.07333333 0.53333336 1.7500001
0.083527617 0.53454858 1.7540001
0.090462863 0.53607625 1.7590002
-0.18092573 0.54445243 1.7590001
-0.17467512 0.54500705 1.7538573
0.063333333 0.54000002 1.7500001
0.07333333 0.54333335 1.7500001
0.08338286 0.54364574 1.751
0.090462863 0.54612762 1.7590002
-0.18092573 0.55952954 1.7590001
-0.17393333 0.5552305 1.756
-0.16666667 0.55333334 1.7500001
0.064999998 0.55333334 1.7500001
0.07333333 0.55333334 1.7500001
0.083670475 0.5555467 1.757
0.090462863 0.55617905 1.7590001
-0.17420466 0.56531131 1.755
-0.16666667 0.56 1.7500001
0.053333338 0.56444442 1.7500001
0.064444445 0.56481481 1.7500001
0.073078856 0.5645811 1.7518002
0.083761901 0.56623054 1.7589999
0.090462863 0.56455529 1.7590001
-0.17587848 0.57576913 1.7554001
0.050000001 0.57666671 1.7500001
0.064999998 0.57500005 1.7500001
0.074129291 0.57670075 1.7589999
0.083761901 0.57628185 1.7589999
0.091803052 0.57628191 1.7590001
-0.17467511 0.58509529 1.7538573
0.064666674 0.58200008 1.7500002
0.073630482 0.58566481 1.757
0.083761901 0.58633339 1.7589999
0.091803052 0.58700347 1.7590001
-0.17393333 0.59536767 1.756
0.056666669 0.59500003 1.7500001
0.063371427 0.59367436 1.751
0.073710471 0.59638476 1.7589999
0.083761908 0.59638476 1.7589999
0.092975713 0.59722239 1.7590001
-0.17171192 0.60559863 1.7590001
-0.16528572 0.60437053 1.7530001
0.056666669 0.60333335 1.7500001
0.063483804 0.60471427 1.7540001
0.073710471 0.60643613 1.7589999
0.083343096 0.60601747 1.7589999
0.092138097 0.604761 1.7590001
-0.17171191 0.61565006 1.7590001
-0.16407143 0.61493289 1.7533751
0.055000003 0.61333328 1.7500001
0.063624762 0.61613524 1.7579999
0.073291667 0.61648768 1.7589999
0.081528254 0.61537081 1.7590002
-0.17221448 0.62720913 1.7590001
-0.16354619 0.62579858 1.7522501
0.055238098 0.6257143 1.7500001
0.063200578 0.62592345 1.7554001
0.073710479 0.62653899 1.7589999
-0.17326748 0.63611186 1.7589999
-0.16333334 0.63500005 1.7500001
0.056666669 0.63333338 1.7500001
0.064525716 0.63565743 1.7564286
0.074380577 0.63726056 1.7590001
0.09269651 0.63547367 1.7590002
-0.17355466 0.64463168 1.7590001
-0.16250001 0.64083338 1.7500001
0.061666667 0.64000005 1.7500001
-0.23236573 0.055565715 1.7680001
-0.23236573 0.063984767 1.7680001
-0.22899811 0.063984767 1.7680001
-0.23236573 0.072403811 1.7680001
-0.22899811 0.07408762 1.7680001
0.15154286 0.077455238 1.7680001
-0.22899811 0.08419048 1.7680001
0.14480762 0.080822863 1.7680001
0.15558401 0.084864005 1.768
-0.22815621 0.095135242 1.7680001
0.15693104 0.093619809 1.768
0.16164573 0.097660959 1.7680001
-0.22731431 0.10439619 1.768
0.15659429 0.10439619 1.768
0.16164573 0.10271238 1.7680001
-0.22478856 0.11534096 1.7680001
0.15659429 0.11449904 1.768
0.16164573 0.11449905 1.7680001
-0.22428341 0.12527543 1.768
0.15693106 0.12392838 1.768
0.16164573 0.12460191 1.7680001
-0.22226286 0.13470477 1.7680001
0.15715556 0.1358273 1.7680001
0.16164573 0.13302097 1.7680001
-0.22226286 0.14144 1.7680001
0.14649144 0.14817524 1.7680001
0.15547176 0.14480762 1.768
0.16164573 0.14480762 1.7680001
-0.22226286 0.15491048 1.7680001
0.14522856 0.15533142 1.7679999
0.15154286 0.15154286 1.7680001
-0.22338539 0.16613588 1.7680001
-0.21889524 0.16838096 1.7680001
0.13638857 0.16501333 1.768
0.14144 0.16332954 1.7680001
-0.22226286 0.17511618 1.7680001
-0.21889524 0.17680001 1.7680001
0.13470477 0.17174858 1.7680001
0.14384545 0.1746351 1.7679999
0.15154286 0.17174858 1.7680001
-0.22226286 0.18521905 1.7680001
-0.21889524 0.18521905 1.7680001
0.13807239 0.18353525 1.7680001
0.14312381 0.18521905 1.768
-0.22310476 0.19616382 1.7680001
-0.21889524 0.19532192 1.7680001
0.13807239 0.19868954 1.7680001
0.14256255 0.19307685 1.7680001
-0.22428341 0.20542476 1.768
-0.21889524 0.20542477 1.7680001
0.13807239 0.20542477 1.7680001
-0.22394668 0.21552761 1.768
-0.21805334 0.21636954 1.7680001
0.13537829 0.21754818 1.768
-0.22226286 0.22226286 1.7680001
-0.21687467 0.22495694 1.768
0.12544382 0.22815621 1.7680001
0.13470477 0.22563049 1.7679999
-0.21328254 0.23573335 1.7680001
0.12684698 0.23348826 1.7680001
0.13470477 0.23531239 1.7679999
-0.21216001 0.24246858 1.7680001
0.13526604 0.24527495 1.768
-0.21552762 0.25635999 1.7679999
0.12544382 0.25846475 1.7680001
0.13470477 0.25593907 1.768
-0.21350706 0.2653684 1.768
0.11786667 0.26604193 1.7680001
0.12235683 0.2649194 1.7680001
-0.21216001 0.27614477 1.7680001
0.11786667 0.27614477 1.7680001
0.12235683 0.27726731 1.7680001
-0.21216001 0.28456384 1.7680001
-0.20879239 0.28961524 1.7680001
0.11702476 0.28708953 1.7680001
0.1220762 0.28624764 1.7680001
-0.20879239 0.29635048 1.7680001
0.11786667 0.29635051 1.7680001
0.12412083 0.29731268 1.7679999
0.13133715 0.29971811 1.7680001
-0.20879239 0.30645335 1.7680001
0.11449905 0.30597225 1.7679999
0.12460192 0.30645335 1.7679999
0.13133715 0.30476952 1.7680001
-0.20879239 0.31655619 1.7680001
0.11506032 0.31599495 1.768
0.12363974 0.31607512 1.7679999
-0.20879239 0.32497525 1.7680001
0.11786667 0.32497525 1.7680001
0.12123429 0.32329145 1.7680001
-0.20879239 0.33339429 1.7680001
0.11281524 0.33507812 1.7680001
-0.21216001 0.34181333 1.7680001
-0.20677182 0.34484416 1.768
0.11197333 0.34265524 1.7680001
-0.20374095 0.35360003 1.768
0.11393777 0.35360003 1.768
-0.20289907 0.36286098 1.7680001
-0.19868954 0.36538666 1.7680001
0.11393777 0.36426416 1.768
-0.20407772 0.3731322 1.768
0.097660959 0.37380573 1.7680001
0.10574323 0.37380573 1.768
0.11281523 0.37380573 1.768
-0.2048635 0.38446987 1.768
0.10641676 0.38458213 1.768
0.11353687 0.38438967 1.7679999
-0.20500383 0.39359048 1.7679999
0.10692191 0.39316955 1.7680001
0.11506032 0.39401147 1.768
-0.20374097 0.40411428 1.768
0.10776381 0.40074667 1.7680001
0.11498015 0.40411428 1.7679999
-0.20289904 0.41337526 1.7680001
-0.19700572 0.41758478 1.7680001
0.1077638 0.41421714 1.7680001
0.11449905 0.41421714 1.7679999
-0.20289907 0.42516193 1.7680001
-0.19700573 0.42432001 1.768
0.10237563 0.42364651 1.768
-0.20205715 0.43273908 1.7680001
-0.1970057 0.43442288 1.768
0.097660959 0.43779048 1.7680001
0.10102858 0.43442285 1.7680001
-0.19784762 0.44368383 1.7680001
0.097660959 0.44115812 1.7680001
0.10237561 0.44519925 1.768
-0.19868954 0.45462859 1.7680001
0.096819051 0.45462859 1.7680001
0.103434 0.45414749 1.7679999
-0.19363812 0.46473145 1.7680001
0.094854601 0.46473145 1.768
0.10187048 0.46388954 1.7680001
-0.1919543 0.47483429 1.7680001
-0.18858667 0.47820193 1.7680001
0.096819051 0.47399241 1.7680001
0.10187048 0.47567621 1.7680001
-0.1919543 0.48325336 1.7680001
-0.18858667 0.48156953 1.7680001
0.097660959 0.48325336 1.7680001
0.1038349 0.48493716 1.768
-0.1919543 0.49504003 1.7680001
-0.18858667 0.49840763 1.7680001
0.097660959 0.49672383 1.7680001
0.10304914 0.49571356 1.768
-0.1919543 0.50514287 1.7680001
-0.18858667 0.50514287 1.7680001
0.097660959 0.50514287 1.7680001
0.10271237 0.50514287 1.768
-0.1919543 0.51356196 1.7680001
-0.18858667 0.51524574 1.7680001
0.097660959 0.51524574 1.7680001
0.10187048 0.51440382 1.7680001
-0.18690287 0.5253486 1.768
0.096819051 0.52619052 1.7680001
0.10187048 0.52619052 1.7680001
-0.18606095 0.53460956 1.7680001
0.096313909 0.53612494 1.768
0.10102858 0.53545147 1.7680001
-0.18606095 0.54555428 1.7680001
0.094293334 0.54555434 1.7680001
-0.18479809 0.55607814 1.7679999
0.092609525 0.55902481 1.7680001
-0.18563999 0.56618094 1.7679999
0.094293334 0.56575996 1.7680001
-0.18319848 0.57518935 1.768
0.094966859 0.57586288 1.768
0.10102858 0.57754672 1.7680001
-0.18185143 0.58596575 1.7680001
0.096819051 0.58596575 1.7680001
-0.18185143 0.59606862 1.7680001
0.094966866 0.59674215 1.768
0.10102858 0.59270096 1.7680001
-0.18319848 0.60684502 1.768
-0.17736129 0.60841656 1.7680001
0.097660959 0.60617143 1.7680001
-0.18185143 0.6162743 1.7680001
-0.17713678 0.6162743 1.768
0.077455238 0.6196419 1.7680001
0.085537523 0.6176213 1.768
0.093872383 0.6162743 1.7679999
-0.18185143 0.62806094 1.7680001
-0.17713675 0.62570363 1.768
0.084611431 0.62679809 1.7679999
0.094293326 0.62637722 1.7679999
0.10102858 0.62806094 1.7680001
-0.18185143 0.63648003 1.7680001
-0.17848381 0.63648003 1.7680001
0.073245719 0.63900572 1.7680001
0.082169905 0.6358065 1.768
0.094293341 0.6344595 1.768
0.10355428 0.63563812 1.7680001
0.11113143 0.63648003 1.7680001
-0.18185143 0.64321524 1.7680001
-0.17848381 0.64321524 1.7680001
-0.2403181 0.055848572 1.7770001
-0.23693334 0.055848572 1.7770001
-0.2403181 0.064310469 1.7770001
-0.23693334 0.064310484 1.7770001
-0.23580508 0.074464768 1.7770001
0.15739143 0.07784953 1.7770001
-0.23354858 0.084619053 1.7770001
0.15739143 0.081234291 1.7770001
0.16359682 0.086875558 1.7770001
-0.23354858 0.094773345 1.7770001
0.16528921 0.094773345 1.7770001
-0.23354858 0.10492762 1.7770001
0.16585335 0.10628152 1.7770001
-0.23151772 0.11440495 1.7770001
0.16720724 0.11575886 1.7770001
-0.23151772 0.12455925 1.7770001
0.16669953 0.12439 1.7770001
-0.22677906 0.13539048 1.7770001
0.16641746 0.13539048 1.7770001
0.17262286 0.13539048 1.7770001
-0.22542515 0.14622173 1.7770001
0.15908381 0.14892954 1.7770001
0.16449943 0.14554477 1.7770001
-0.22677906 0.15569906 1.7770001
0.15612215 0.15612216 1.7770002
0.16246858 0.15569906 1.7770001
-0.2256508 0.16472508 1.7770001
0.14651184 0.16633688 1.7770002
0.15569907 0.16585334 1.7770002
-0.22677906 0.17600763 1.7770001
0.14892954 0.17770001 1.7770001
0.15612215 0.17643072 1.7770002
0.16246858 0.17262286 1.7770001
-0.22593287 0.18616191 1.7770001
0.14892954 0.18616192 1.7770001
0.15316048 0.18531573 1.7770001
-0.23016381 0.19970097 1.7770001
-0.22677906 0.19462381 1.7770001
0.14667302 0.19744445 1.7770001
0.15231429 0.19293143 1.7770001
-0.23016381 0.20647049 1.7770001
-0.22339429 0.20647049 1.7770001
0.14554477 0.20647046 1.7770002
0.15231429 0.20985524 1.7770001
-0.23129207 0.21436827 1.7770001
0.14554477 0.21493238 1.7770001
-0.23016381 0.22000954 1.7770001
-0.2256508 0.2256508 1.7770001
0.14554477 0.22339429 1.7770002
0.15231429 0.22339429 1.7770001
-0.22170192 0.2335486 1.7770001
-0.21662477 0.23693334 1.7770001
0.14512166 0.23312548 1.7770002
-0.22136346 0.2443798 1.7770001
-0.21662478 0.24370284 1.7770001
0.14300619 0.24285668 1.7770001
-0.22436137 0.25337359 1.7770002
-0.21662477 0.25216478 1.7770001
0.14300619 0.25301099 1.7770001
-0.22271733 0.26333445 1.7770001
0.12608239 0.26655 1.7770001
0.13581356 0.26443455 1.7770002
0.14300619 0.26485765 1.7770001
-0.22000952 0.27416572 1.7770001
-0.21662478 0.27416572 1.7770001
0.12636445 0.27360156 1.7770001
0.13539048 0.27078095 1.7770001
0.14300619 0.2750119 1.7770001
-0.22000954 0.28093526 1.7770001
-0.21662477 0.28262764 1.7770001
0.12636445 0.28432 1.7770001
0.13369811 0.28770477 1.7770001
-0.21324001 0.2944743 1.7770001
-0.20985524 0.29785907 1.7770001
0.12692857 0.29278192 1.7770001
0.13490693 0.29544139 1.7770002
0.14385238 0.29785907 1.7770001
-0.21324001 0.30462858 1.7770001
0.13539048 0.3029362 1.7770001
0.14419086 0.30395162 1.7770001
-0.21324001 0.31478289 1.7770001
-0.21324001 0.32493713 1.7770001
0.1252362 0.3283219 1.7770001
-0.21324001 0.33509144 1.7770001
0.11846667 0.33509144 1.7770001
0.12354382 0.33509144 1.7770001
-0.21549653 0.34750223 1.7770001
0.11711277 0.34592265 1.7770001
0.12426913 0.34572929 1.7770002
0.13200572 0.34863049 1.7770001
-0.21324001 0.3554 1.7770001
-0.20985524 0.3554 1.7770001
0.11846667 0.35370764 1.7770001
0.12426912 0.35491648 1.7770002
0.13200572 0.35201526 1.7770001
-0.20850134 0.36623126 1.7770001
0.11846667 0.3655543 1.7770001
0.12354382 0.3655543 1.7770001
0.13200572 0.36893907 1.7770001
-0.21324001 0.37570858 1.7770001
-0.20985524 0.37570858 1.7770001
0.11846667 0.37570858 1.7770001
0.12354382 0.37570858 1.7770001
-0.21324001 0.38924763 1.7770001
-0.20985524 0.38417047 1.7770001
0.11846667 0.38417047 1.7770001
0.12269762 0.38501668 1.7770001
-0.21324001 0.39601716 1.7770001
-0.20985524 0.39940193 1.7770001
0.11846667 0.3926324 1.7770001
0.12185143 0.39940193 1.7770001
-0.21324001 0.40617144 1.7770001
-0.20985524 0.40617144 1.7770001
0.11508191 0.40955621 1.7770001
0.12320534 0.40684837 1.7770001
-0.21324001 0.41294098 1.7770001
-0.20850134 0.41700268 1.7770001
0.11508191 0.41632575 1.7770001
0.12320534 0.41700268 1.7770001
-0.21324001 0.42817241 1.7770001
-0.20850134 0.42580304 1.7770001
0.10746619 0.4273262 1.7770001
0.11508191 0.42444915 1.7770001
0.12185143 0.42309526 1.7770001
-0.20759875 0.43437779 1.7770001
0.10605588 0.43437779 1.7770001
-0.20393191 0.44255766 1.7770001
0.10695847 0.44272691 1.7770001
0.11508191 0.44678858 1.7770001
0.12185143 0.44678858 1.7770001
-0.20308572 0.45355812 1.7770001
0.10831238 0.45355812 1.7770001
0.11440495 0.45423508 1.7770001
-0.20308572 0.46202001 1.7770001
-0.19970097 0.46540478 1.7770001
0.10746619 0.46455857 1.7770001
0.11508191 0.46371242 1.7770002
-0.1963162 0.4738667 1.7770001
0.098158099 0.47048193 1.7770001
0.10661999 0.47386667 1.7770001
0.11508191 0.47386667 1.7770002
0.12320534 0.47454363 1.7770001
-0.1963162 0.48402095 1.7770001
0.10831239 0.48402095 1.7770001
0.11459837 0.48305389 1.7770002
0.12185143 0.48232859 1.7770001
-0.1963162 0.49248287 1.7770001
0.10831238 0.49586764 1.7770001
0.11169714 0.49417529 1.7770001
0.10831239 0.5043295 1.7770001
0.11169714 0.50432956 1.7770001
0.10746619 0.51533002 1.7770001
0.11395365 0.51504797 1.7770001
-0.19293143 0.52294576 1.7770001
0.10662001 0.52463812 1.7770001
0.11305104 0.52531511 1.7770001
-0.18954667 0.53817719 1.7770001
0.10492763 0.53479242 1.7770001
0.12185143 0.53140765 1.7770001
-0.18954667 0.54325426 1.7770001
0.098158099 0.54663908 1.7770001
0.10238905 0.54494667 1.7770001
-0.19293143 0.55848575 1.7770001
-0.18954667 0.55340862 1.7770001
0.096804194 0.55577791 1.7770001
0.10154286 0.55171621 1.7770001
-0.19377762 0.56525528 1.7770001
0.098158099 0.56525522 1.7770001
0.10323524 0.56525522 1.7770001
-0.19293143 0.57540959 1.7770001
-0.18954667 0.57710195 1.7770001
0.098158099 0.57371712 1.7770001
0.10492762 0.57540953 1.7770002
-0.18616192 0.58556384 1.7770001
0.10357372 0.58624077 1.7770001
-0.18616192 0.59571809 1.7770001
0.10357372 0.59571809 1.7770001
-0.18616191 0.60417998 1.7770001
0.10289676 0.6051954 1.7770001
-0.18616191 0.61771905 1.7770001
0.098158099 0.61941147 1.7770001
0.10154286 0.6160267 1.7770001
-0.18531573 0.62618095 1.7770001
0.10492761 0.62569743 1.7770002
-0.18616192 0.63633519 1.7770001
0.088003814 0.63802767 1.7770001
0.10492762 0.63464284 1.7770001
-0.18785429 0.64310479 1.7770001
0.08631143 0.64310479 1.7770001
-0.24493714 0.064636193 1.7860001
-0.24153525 0.074841909 1.7860001
-0.23813334 0.078243814 1.7860001
0.16499239 0.078243814 1.7860001
-0.24153525 0.08164572 1.7860001
-0.23813336 0.085047625 1.7860001
0.16555937 0.082779683 1.7860001
0.17349716 0.085472867 1.7860001
0.18412811 0.085047618 1.7860001
0.19050667 0.08844953 1.7860001
-0.23813336 0.095253326 1.7860001
0.1739224 0.094828099 1.7860001
0.18370286 0.095253326 1.7860001
0.19135714 0.095253333 1.7860001
-0.23813336 0.10545904 1.7860001
0.1739224 0.10503381 1.7860001
0.18030097 0.10205714 1.7860001
-0.23728287 0.11651523 1.7860001
0.17446913 0.11517878 1.7860001
-0.23699938 0.12587048 1.7860001
0.17392239 0.12629572 1.7860001
0.18030097 0.12757143 1.7860001
-0.23132952 0.1360762 1.7860001
0.17463112 0.13664317 1.7860001
0.18256891 0.13494222 1.7860001
-0.23218 0.1471324 1.7860001
0.17349716 0.14628191 1.7860001
0.18030097 0.14458096 1.7860001
-0.2330305 0.15648763 1.7860001
0.16669334 0.15648763 1.7860001
0.17307192 0.15691288 1.7860001
-0.23132953 0.16499239 1.7860001
0.16499239 0.16499239 1.7860001
0.1717962 0.16499239 1.7860001
-0.23473144 0.1717962 1.7860001
0.16533259 0.17349717 1.786
0.17252518 0.17349716 1.7860001
-0.23132953 0.18540382 1.7860001
0.15875556 0.1859708 1.7860001
0.16499239 0.18370287 1.7860001
0.17009525 0.18030097 1.7860001
-0.23132952 0.19390857 1.7860001
0.1574596 0.19439456 1.7860001
0.16329144 0.19390857 1.7860001
-0.23473144 0.20581524 1.7860001
0.15648764 0.2041143 1.7860001
0.16533259 0.20479468 1.786
0.17009525 0.20751619 1.7860001
-0.23473144 0.21432 1.7860001
0.15691285 0.21474525 1.7860001
0.16499239 0.21432002 1.7860001
0.17252518 0.21383402 1.7860001
-0.23132953 0.22622667 1.7860001
0.15691286 0.22452572 1.7860001
0.16499239 0.22452573 1.7860001
0.17009525 0.22452573 1.7860001
-0.22792763 0.23473144 1.7860001
0.14968382 0.23813334 1.7860001
0.15648763 0.23473144 1.7860001
-0.22679365 0.24493714 1.7860001
0.14832306 0.24561754 1.786
0.15606239 0.24493715 1.7860001
0.16329144 0.24833906 1.7860001
-0.23132953 0.25344193 1.7860001
0.14832306 0.25582325 1.786
0.15648761 0.25556812 1.7860001
-0.22679365 0.26761654 1.7860001
0.14832306 0.26466817 1.786
0.15648763 0.26534855 1.7860001
0.16442542 0.26761651 1.7860001
-0.22452573 0.2755543 1.7860001
0.1360762 0.27725524 1.7860001
0.14832306 0.27487391 1.786
0.15648763 0.2755543 1.7860001
0.16329144 0.2755543 1.7860001
0.17349716 0.27725524 1.7860001
-0.22225778 0.28576002 1.7860001
-0.21772191 0.28916192 1.7860001
0.12927239 0.28405905 1.7860001
0.13656218 0.28478807 1.7860001
0.14628191 0.28576002 1.7860001
0.15648763 0.28576005 1.7860001
0.1646522 0.28507966 1.786
0.17281678 0.28439924 1.786
-0.22112381 0.29426479 1.7860001
-0.21772189 0.29596573 1.7860001
0.13777715 0.29256383 1.7860001
0.1467679 0.29499373 1.7860001
0.15551566 0.29596573 1.7860001
-0.22112381 0.30787241 1.7860001
-0.21772189 0.30617145 1.7860001
0.13862762 0.30702192 1.7860001
0.14798287 0.30702192 1.7860001
0.15478668 0.30276954 1.7860001
-0.22112381 0.31467623 1.7860001
-0.21772189 0.31637716 1.7860001
0.12927239 0.31977907 1.7860001
0.1360762 0.31637713 1.7860001
0.1462819 0.31637716 1.7860001
-0.21772189 0.32658288 1.7860001
0.12813842 0.3254489 1.7860001
0.1360762 0.32658288 1.7860001
0.14514795 0.3254489 1.7860001
-0.21602096 0.33508766 1.7860001
0.12927239 0.33508766 1.7860001
0.1360762 0.33508763 1.7860001
-0.22112381 0.34699431 1.7860001
0.12927239 0.34359241 1.7860001
0.13607618 0.34359238 1.7860001
0.14288001 0.34359241 1.7860001
-0.22112381 0.35209715 1.7860001
-0.21772191 0.35549909 1.7860001
0.12927239 0.35720003 1.7860001
0.13704817 0.35428408 1.7860001
0.14373049 0.35379812 1.7860001
-0.21545398 0.36400387 1.7860001
0.12927239 0.36400381 1.7860001
0.1360762 0.36400381 1.7860001
0.14424077 0.36468419 1.786
-0.21432 0.37250859 1.7860001
0.12927239 0.37420952 1.7860001
0.13650143 0.37463477 1.7860001
0.14288001 0.37420952 1.7860001
-0.21432 0.38441524 1.7860001
0.12842192 0.38526574 1.7860001
0.13565096 0.38398996 1.7860001
0.14288001 0.38271427 1.7860001
-0.21772189 0.39462098 1.7860001
0.12629572 0.3950462 1.7860001
0.13267429 0.39462098 1.7860001
-0.21772189 0.40482664 1.7860001
0.12791163 0.40414628 1.786
0.13267429 0.40482664 1.7860001
-0.21432 0.41843429 1.7860001
0.12842192 0.41503239 1.7860001
0.13267429 0.41503239 1.7860001
-0.21432 0.42353714 1.7860001
0.11566477 0.42864001 1.7860001
0.12700446 0.42637205 1.7860001
0.13437524 0.4252381 1.7860001
-0.21318603 0.43771175 1.7860001
0.10886095 0.43884572 1.7860001
0.11566476 0.43544379 1.7860001
0.12587048 0.43544382 1.7860001
0.13437524 0.43544379 1.7860001
-0.2109181 0.44224763 1.7860001
-0.20751619 0.44564953 1.7860001
0.11566476 0.44394854 1.7860001
0.12629572 0.44522429 1.7860001
0.13510422 0.44613555 1.7860001
0.11651525 0.45500478 1.7860001
0.12544525 0.45585525 1.7860001
-0.20411429 0.46946287 1.7860001
0.12544525 0.46648619 1.7860001
-0.20241337 0.47626665 1.7860001
0.1284219 0.47541618 1.7860001
0.13267429 0.47796762 1.7860001
-0.20241334 0.48307049 1.7860001
-0.19731048 0.4864724 1.7860001
0.11736572 0.4898743 1.7860001
0.12684245 0.48695835 1.7860001
0.13267429 0.4864724 1.7860001
-0.20071238 0.49497718 1.7860001
0.11736572 0.49497718 1.7860001
0.12416953 0.49497718 1.7860001
-0.19731049 0.50348186 1.7860001
0.11736572 0.50348186 1.7860001
0.12544525 0.50390714 1.7860001
-0.19731049 0.51368761 1.7860001
0.11736572 0.51198667 1.7860001
0.12587048 0.51368767 1.7860001
0.13267429 0.51368761 1.7860001
-0.19731049 0.52389336 1.7860001
0.1182162 0.52389336 1.7860001
0.12587048 0.52389336 1.7860001
0.13267429 0.52389336 1.7860001
-0.19390857 0.53409904 1.7860001
0.10886095 0.53750098 1.7860001
0.11615074 0.53507107 1.7860001
0.12629572 0.53409904 1.7860001
0.13352476 0.5340991 1.7860001
-0.19390857 0.54090285 1.7860001
0.10801047 0.54430479 1.7860001
0.11566476 0.54430473 1.7860001
0.12587048 0.54430479 1.7860001
0.13403505 0.5436244 1.786
-0.19475904 0.55536091 1.7860001
0.10643101 0.55499649 1.7860001
0.11566477 0.55499643 1.7860001
0.12587048 0.55451053 1.7860001
0.13267429 0.55791241 1.7860001
-0.20071238 0.56471616 1.7860001
-0.19731048 0.56301522 1.7860001
0.10681981 0.56335545 1.786
0.11566476 0.56471622 1.7860001
0.12587048 0.56471622 1.7860001
0.13267429 0.56471622 1.7860001
-0.20071238 0.57152003 1.7860001
-0.19731049 0.57492191 1.7860001
0.10886095 0.57322097 1.7860001
0.11566476 0.57492191 1.7860001
0.12530351 0.57492191 1.7860001
-0.19164063 0.58626157 1.7860001
0.10886095 0.58682859 1.7860001
0.11566476 0.58512759 1.7860001
0.12360255 0.58285969 1.7860001
-0.19050665 0.59533334 1.7860001
0.10886095 0.59533334 1.7860001
0.11566476 0.59533334 1.7860001
-0.19050667 0.60213715 1.7860001
0.10886095 0.60553902 1.7860001
0.11523952 0.6059643 1.7860001
-0.19050665 0.61574483 1.7860001
0.10643101 0.61623079 1.7860001
0.11469279 0.61623085 1.7860001
-0.19050665 0.62595052 1.7860001
0.10772698 0.62481648 1.7860001
0.11566476 0.62595057 1.7860001
0.12246858 0.62595052 1.7860001
-0.19135714 0.63700664 1.7860001
0.10886095 0.6378572 1.7860001
0.1145308 0.63502222 1.7860001
-0.19050667 0.64296001 1.7860001
-0.24731112 0.055844445 1.7950001
-0.24959047 0.06496191 1.7950001
-0.24702621 0.07436429 1.7950001
0.1752262 0.077783339 1.7950001
0.18462859 0.076928578 1.7950001
0.1931762 0.078638099 1.7950001
-0.24480383 0.086159997 1.7950001
0.17437144 0.082057148 1.7950001
0.18120953 0.085476197 1.7950001
0.19531311 0.085048825 1.7950001
0.20172381 0.087185718 1.7950001
-0.24412003 0.09573333 1.7950001
0.19693716 0.09573333 1.7950001
0.20257857 0.095733337 1.7950001
-0.24446191 0.10599048 1.7950001
0.18505597 0.10641786 1.7950001
0.19488573 0.10599048 1.7950001
0.20172381 0.10599048 1.7950001
-0.24412 0.11556382 1.7950001
0.18462859 0.11624762 1.7950001
0.19390886 0.11624761 1.7950001
-0.24389207 0.1242254 1.7950001
-0.23933335 0.12992382 1.7950001
0.18560545 0.12601635 1.7950001
0.1931762 0.12650478 1.7950001
-0.23591429 0.13505238 1.7950001
0.18804763 0.1367619 1.7950001
0.19420192 0.13471048 1.7950001
-0.23728192 0.1429162 1.7950001
0.18633811 0.1436 1.7950001
0.1931762 0.1436 1.7950001
-0.24275239 0.1572762 1.7950001
-0.23933335 0.15385716 1.7950001
0.17779048 0.15385714 1.7950001
0.18420121 0.15342975 1.7950001
0.19146667 0.15214762 1.7950001
-0.24360715 0.16325954 1.7950001
-0.23796573 0.16479811 1.7950001
0.17779048 0.16582382 1.7950001
0.18206429 0.16325954 1.7950001
-0.24275239 0.17437144 1.7950001
-0.2359143 0.17437144 1.7950001
0.17779048 0.17437144 1.7950001
0.18120952 0.17437144 1.7950001
-0.24275239 0.18291906 1.7950001
-0.23705399 0.18462859 1.7950001
0.17479883 0.18505597 1.7950001
0.18120953 0.18462858 1.7950001
-0.23728189 0.19420192 1.7950001
0.16753334 0.19488573 1.7950001
0.17437145 0.19488573 1.7950001
0.18120952 0.19488573 1.7950001
-0.23847857 0.2042881 1.7950001
0.1641143 0.20172381 1.7950001
0.17479883 0.20471548 1.7950001
0.18326096 0.2065105 1.7950001
0.19146667 0.20856191 1.7950001
-0.24275239 0.21540001 1.7950001
-0.23933335 0.21540003 1.7950001
0.17779048 0.21710953 1.7950001
0.18348891 0.21483016 1.7950001
-0.23676905 0.22480239 1.7950001
0.17608096 0.22565715 1.7950001
-0.23335001 0.23505953 1.7950001
0.16582382 0.2359143 1.7950001
0.17339458 0.23542587 1.7950001
-0.23335001 0.24702619 1.7950001
-0.22907619 0.24275239 1.7950001
0.16525398 0.24560161 1.7950001
0.17339458 0.24665989 1.7950001
0.18120953 0.24959049 1.7950001
-0.23676905 0.25813812 1.7950001
0.1572762 0.25300953 1.7950001
0.16582382 0.2564286 1.7950001
0.17437145 0.25642857 1.7950001
0.18120953 0.25984764 1.7950001
0.16639365 0.26440635 1.7950001
0.17437144 0.2649762 1.7950001
0.18234921 0.26554605 1.7950001
-0.23249525 0.27352381 1.7950001
-0.22907619 0.27352381 1.7950001
0.16753334 0.27523333 1.7950001
0.17437145 0.27309644 1.7950001
0.18206429 0.27266905 1.7950001
-0.23420477 0.28207144 1.7950001
-0.22822143 0.28463572 1.7950001
0.16753334 0.28036192 1.7950001
0.17551112 0.28150162 1.7950001
0.18420121 0.28420833 1.7950001
-0.22736667 0.29403809 1.7950001
0.16525398 0.29460797 1.7950001
0.17437145 0.29403812 1.7950001
0.18120952 0.29403809 1.7950001
-0.22428954 0.30361143 1.7950001
0.15556666 0.30771428 1.7950001
0.1641143 0.30429524 1.7950001
0.17323177 0.30315557 1.7950001
-0.22565715 0.3145524 1.7950001
0.15556668 0.3145524 1.7950001
0.16368692 0.3145524 1.7950001
0.17095239 0.31113335 1.7950001
-0.22394763 0.32480955 1.7950001
0.15483402 0.32529798 1.7950001
0.1641143 0.32480955 1.7950001
0.17095239 0.32822859 1.7950001
0.18120953 0.32822859 1.7950001
-0.22360572 0.33575049 1.7950001
-0.21881905 0.33848572 1.7950001
0.14565143 0.33575049 1.7950001
0.15385714 0.33506668 1.7950001
0.1641143 0.33335719 1.7950001
0.17779048 0.33164763 1.7950001
-0.22428954 0.34464002 1.7950001
-0.21881905 0.34361431 1.7950001
0.14701906 0.34532383 1.7950001
0.15385714 0.34532386 1.7950001
0.16069524 0.34874287 1.7950001
-0.22480239 0.35643572 1.7950001
0.14701906 0.35558099 1.7950001
0.15180571 0.35489717 1.7950001
-0.22394763 0.36241907 1.7950001
-0.21881905 0.36754763 1.7950001
0.14701906 0.36241907 1.7950001
0.15271746 0.36697781 1.7950001
-0.22223811 0.37267619 1.7950001
-0.21881907 0.37609527 1.7950001
0.14701906 0.37609527 1.7950001
0.15342975 0.37652263 1.7950001
-0.21881907 0.38635239 1.7950001
0.14496763 0.38772002 1.7950001
0.15385714 0.38635242 1.7950001
-0.22223811 0.39490002 1.7950001
0.1367619 0.39490002 1.7950001
0.1436 0.39489999 1.7950001
0.15385713 0.39489999 1.7950001
0.16069524 0.39660954 1.7950001
-0.22309287 0.40430239 1.7950001
0.1367619 0.40344763 1.7950001
0.1436 0.40344763 1.7950001
0.15271746 0.40401745 1.7950001
-0.22223811 0.41370478 1.7950001
-0.21881905 0.4154143 1.7950001
0.1367619 0.41370478 1.7950001
0.14317262 0.41413221 1.7950001
-0.22223811 0.42396191 1.7950001
-0.21881907 0.42396191 1.7950001
0.1367619 0.42054287 1.7950001
0.1436 0.42396194 1.7950001
0.15385714 0.42738095 1.7950001
0.16240478 0.42738098 1.7950001
-0.22223811 0.43250954 1.7950001
-0.21881907 0.43421903 1.7950001
0.1436 0.43421906 1.7950001
0.15385714 0.434219 1.7950001
0.16274668 0.43558663 1.7950001
-0.21710953 0.44276667 1.7950001
0.1436 0.44447619 1.7950001
0.15385713 0.44447619 1.7950001
0.16368693 0.44490358 1.7950001
-0.20856191 0.45473334 1.7950001
0.12992382 0.45815238 1.7950001
0.13505238 0.45644286 1.7950001
0.14402738 0.45516068 1.7950001
0.15385713 0.45473331 1.7950001
0.16069524 0.4513143 1.7950001
-0.20856191 0.4649905 1.7950001
0.12992382 0.4649905 1.7950001
0.13505238 0.4649905 1.7950001
0.14246032 0.46385083 1.7950001
0.1504381 0.46157146 1.7950001
-0.21198095 0.47695717 1.7950001
-0.20856191 0.47524762 1.7950001
0.13505238 0.4735381 1.7950001
0.14018096 0.47182858 1.7950001
-0.21198095 0.48379526 1.7950001
-0.20651047 0.48687238 1.7950001
0.1367619 0.48550478 1.7950001
-0.20611973 0.4952735 1.7950001
0.12992382 0.49747145 1.7950001
0.13539429 0.49644575 1.7950001
0.14189048 0.49918097 1.7950001
-0.20514286 0.50601906 1.7950001
0.12992382 0.50260001 1.7950001
0.13505238 0.50601906 1.7950001
0.1436 0.50601906 1.7950001
-0.20514286 0.51627618 1.7950001
0.1367619 0.51627618 1.7950001
0.14311157 0.51529932 1.7950001
-0.20343333 0.52653337 1.7950001
0.1367619 0.52653337 1.7950001
0.14018096 0.52653337 1.7950001
-0.20172381 0.53508097 1.7950001
-0.19830477 0.53508097 1.7950001
0.1367619 0.53337145 1.7950001
0.14132065 0.53565079 1.7950001
-0.20172381 0.54020953 1.7950001
-0.19745001 0.5444833 1.7950001
0.1367619 0.54020953 1.7950001
0.14317262 0.54405594 1.7950001
-0.19745001 0.55303103 1.7950001
0.11624762 0.55559528 1.7950001
0.13539429 0.5545696 1.7950001
0.1436 0.55388576 1.7950001
-0.20582667 0.56482667 1.7950001
0.1367619 0.56414288 1.7950001
0.14317262 0.56414288 1.7950001
-0.20400317 0.57440001 1.7950001
0.12650476 0.57610953 1.7950001
0.13539429 0.57508385 1.7950001
0.14246032 0.57383019 1.7950001
-0.20172381 0.58123809 1.7950001
-0.19830477 0.58636671 1.7950001
0.12906906 0.58551192 1.7950001
0.13419762 0.5838024 1.7950001
0.14189048 0.58123809 1.7950001
-0.19488572 0.59491432 1.7950001
0.12650476 0.59491432 1.7950001
0.13334286 0.59491432 1.7950001
-0.19374603 0.60517144 1.7950001
0.11966667 0.60517144 1.7950001
0.12650476 0.60517144 1.7950001
0.13419762 0.60602617 1.7950001
-0.1931762 0.61542857 1.7950001
0.11966667 0.61713815 1.7950001
0.12650476 0.61542857 1.7950001
0.13505238 0.61542857 1.7950001
-0.19488572 0.62568575 1.7950001
0.12693214 0.62525833 1.7950001
0.13505238 0.62397623 1.7950001
-0.20172381 0.63936192 1.7950001
-0.19488572 0.63594288 1.7950001
0.11966667 0.63936192 1.7950001
0.1260774 0.63551545 1.7950001
-0.20172381 0.64278096 1.7950001
-0.19830477 0.64278096 1.7950001
0.11795714 0.64278096 1.7950001
0.12308572 0.64278096 1.7950001
-0.25256002 0.058415242 1.8040001
-0.26115048 0.06528762 1.8040003
-0.2559962 0.065287612 1.804
-0.25359088 0.074908957 1.8040001
0.19929905 0.079032384 1.8040001
-0.25256002 0.08590477 1.804
0.20617144 0.085904762 1.8040001
-0.25170097 0.095354289 1.8040001
-0.24740572 0.096213333 1.8040001
0.20823316 0.096213341 1.8040001
0.21304382 0.096213333 1.8040001
-0.25255999 0.1065219 1.804
0.20788954 0.10652191 1.804
-0.25084192 0.11511239 1.8040001
0.19929905 0.11339429 1.8040001
0.20445335 0.11511238 1.8040001
-0.25084192 0.12370285 1.8040003
-0.24740572 0.12370285 1.8040001
0.19929905 0.12370286 1.8040003
0.20410971 0.1243901 1.8040001
-0.24339683 0.13401143 1.804
0.19929905 0.13401143 1.8040001
0.20445333 0.13401143 1.804
-0.24311048 0.14517906 1.8040001
0.19929905 0.14432001 1.8040003
0.20273525 0.14432 1.8040003
-0.25290364 0.15531582 1.8040001
-0.24568763 0.15462857 1.8040001
0.18899049 0.15806477 1.8040001
0.19684462 0.15511946 1.804
0.20273525 0.15806477 1.8040001
-0.25256002 0.16150096 1.8040001
-0.24740572 0.16665524 1.8040001
0.18761602 0.1656244 1.8040001
0.19537197 0.16493714 1.804
-0.24740572 0.17524572 1.8040003
-0.23709716 0.17868191 1.8040001
0.18727238 0.17524572 1.804
0.1948811 0.17475483 1.804
0.20273525 0.17180952 1.8040001
-0.25084192 0.1872724 1.8040001
-0.24654667 0.18641335 1.8040001
-0.23709716 0.1821181 1.8040001
0.18624154 0.1855543 1.8040001
0.19529016 0.18612699 1.804
0.20273525 0.18899049 1.8040001
-0.24495132 0.19635375 1.804
0.18727238 0.19586287 1.804
0.19543335 0.19543335 1.804
-0.24568762 0.20617144 1.804
0.1872724 0.20445335 1.8040001
0.19586286 0.20617142 1.8040001
-0.25084192 0.21648 1.8040001
-0.24603125 0.21647999 1.8040001
0.1878451 0.21762542 1.8040003
0.19414476 0.21476191 1.8040001
-0.24396951 0.22449778 1.8040003
0.18383621 0.22507048 1.8040001
-0.24053334 0.23366098 1.8040003
-0.23709716 0.23709716 1.8040001
0.17868191 0.23709716 1.8040001
0.18349257 0.23297372 1.8040001
-0.23709716 0.24396954 1.8040003
0.17868191 0.24396954 1.8040003
0.1821181 0.24396953 1.8040001
-0.24053334 0.25256002 1.8040001
-0.23709716 0.25427809 1.8040001
0.18417983 0.25496536 1.8040001
-0.23572269 0.26527393 1.8040001
0.1866997 0.26458669 1.8040003
-0.24298777 0.27538612 1.804
-0.23022477 0.27833143 1.8040001
0.18761602 0.27558249 1.8040001
-0.24298777 0.28471294 1.804
-0.23537907 0.28864002 1.8040001
0.18899049 0.28176764 1.8040001
0.19242667 0.28864002 1.8040001
-0.24053334 0.29379427 1.8040001
-0.23537906 0.29551241 1.804
0.18727238 0.29551241 1.804
-0.23194285 0.30582097 1.804
0.1775365 0.30811176 1.8040003
0.1832635 0.30353019 1.8040003
-0.23194288 0.31612954 1.804
0.16837335 0.31612954 1.8040001
0.17524573 0.31662044 1.804
-0.23194288 0.3264381 1.804
0.16493715 0.3264381 1.8040003
0.17567524 0.32600859 1.804
0.18383619 0.3264381 1.8040001
-0.23022477 0.33502859 1.8040001
-0.22678858 0.33331048 1.8040001
0.17455848 0.33537221 1.8040001
0.1832635 0.33445588 1.8040003
-0.23194285 0.34361908 1.804
0.16493714 0.34361905 1.804
0.17610477 0.34104192 1.8040001
0.18383619 0.34018287 1.8040001
-0.23022477 0.35392761 1.8040003
0.15806477 0.35564572 1.8040001
-0.23022477 0.36251813 1.8040001
-0.22507048 0.36767238 1.8040001
0.1566903 0.36354896 1.8040001
-0.22507048 0.37368572 1.8040001
0.15806477 0.37454477 1.8040001
0.16150096 0.37454477 1.8040003
-0.22335239 0.38657144 1.8040001
0.16356269 0.38622785 1.8040001
-0.22564317 0.39516196 1.8040003
0.16542804 0.39418012 1.804
-0.23022477 0.40718859 1.8040001
-0.22678858 0.40375239 1.8040001
0.15691938 0.4043251 1.8040003
0.16493715 0.40547049 1.804
-0.22678858 0.41577902 1.8040003
0.14775619 0.41234288 1.8040001
0.15462856 0.41577902 1.804
0.16493715 0.41620857 1.804
-0.22678858 0.42608762 1.8040003
0.15462857 0.42436957 1.804
0.16424993 0.42402592 1.8040001
-0.22592953 0.43725523 1.8040001
0.16665524 0.43467811 1.8040001
-0.22507048 0.4449867 1.8040001
-0.21991619 0.44670478 1.8040001
0.16837335 0.4432686 1.8040001
-0.21441829 0.45288992 1.8040001
0.16562438 0.45563883 1.8040001
-0.21390286 0.46474475 1.8040001
0.14775619 0.46732193 1.8040001
0.15531582 0.46594745 1.8040001
0.16493714 0.46388572 1.804
-0.21476191 0.47419429 1.8040001
0.14530179 0.47468519 1.804
0.15462857 0.47213259 1.8040001
0.16321906 0.47075811 1.8040001
-0.21819811 0.48450288 1.804
0.13744763 0.48450285 1.8040001
-0.21648 0.49481142 1.804
0.14432001 0.49652955 1.804
0.15233777 0.49595681 1.8040003
-0.21648002 0.50512004 1.804
0.14775619 0.50168383 1.8040001
0.15364681 0.50561082 1.804
-0.21476191 0.5154286 1.804
0.15462856 0.51499909 1.804
0.16321906 0.5154286 1.8040001
-0.21441829 0.52504998 1.8040001
-0.20960763 0.52745527 1.8040001
0.14569448 0.52504992 1.8040001
0.15806477 0.52230096 1.8040001
-0.21304382 0.53260952 1.8040001
-0.20823316 0.53673297 1.8040001
0.1460381 0.53604573 1.8040001
0.15119238 0.53604573 1.8040001
-0.20660095 0.5467838 1.804
0.14775619 0.54291809 1.8040001
0.15119238 0.54635429 1.8040003
-0.20445335 0.55494475 1.8040001
0.15119238 0.55494475 1.8040001
-0.20685866 0.56147349 1.8040001
0.14775619 0.56697142 1.8040001
0.15119238 0.56353527 1.8040003
-0.20960763 0.57556194 1.8040001
0.14775619 0.57384384 1.8040001
0.15462857 0.57384384 1.804
0.16493715 0.57384384 1.804
-0.20617144 0.58300704 1.8040003
0.13744763 0.58758861 1.8040001
0.14500725 0.58415234 1.8040001
0.15462857 0.58243436 1.804
0.1640781 0.58157521 1.8040001
0.17524572 0.58071619 1.8040003
-0.20273525 0.59789717 1.8040001
-0.19929905 0.59617907 1.8040001
0.13744763 0.59446096 1.8040003
0.14260191 0.59274286 1.8040001
-0.20273525 0.60476953 1.8040003
-0.19929905 0.60476953 1.8040003
0.13744763 0.60476953 1.8040003
-0.20273525 0.61507815 1.8040003
-0.19758095 0.61507809 1.804
0.14202921 0.61736888 1.8040003
-0.20273525 0.62538666 1.8040003
-0.19929905 0.62538671 1.8040003
0.14174287 0.62538671 1.8040001
-0.20273525 0.63569528 1.8040003
-0.19929905 0.63569522 1.8040003
0.13515683 0.63340449 1.8040003
0.14088382 0.63225907 1.8040001
-0.19929905 0.64256763 1.8040001
-0.2625981 0.057011433 1.8140001
-0.25637868 0.054592766 1.8140001
-0.2625981 0.074287623 1.8140001
-0.25799111 0.078318737 1.8140001
0.22804572 0.079470478 1.8140001
0.23553209 0.077166982 1.8140001
0.24186668 0.07774286 1.8140001
-0.25914288 0.086380959 1.8140001
0.21422479 0.086380959 1.8140001
0.22804572 0.086380959 1.8140001
0.23452431 0.086380959 1.8140001
-0.25799111 0.09559492 1.8140001
0.21652825 0.09444318 1.8140001
0.22574222 0.09559492 1.8140001
0.23426516 0.094673529 1.8140001
0.24186668 0.093291432 1.8140001
-0.25827906 0.10279334 1.8140001
0.2159524 0.10365715 1.8140001
0.22804572 0.10365715 1.8140001
0.23236479 0.10279334 1.8140001
-0.25776076 0.11471391 1.8140001
0.21284267 0.11471391 1.8140001
0.22804572 0.11402286 1.8140001
0.23150097 0.11229524 1.8140001
-0.25706971 0.12369753 1.8140001
0.2073143 0.12093334 1.8140001
0.21163334 0.12525238 1.8140001
0.22804572 0.12093334 1.8140001
-0.2522324 0.13475429 1.8140001
-0.24877715 0.13648191 1.8140001
0.21323755 0.13475429 1.8140001
-0.25396001 0.14166477 1.8140001
-0.24877715 0.14512001 1.8140001
0.2073143 0.14512001 1.8140001
0.21076953 0.14512001 1.8140001
-0.24877715 0.15203048 1.8140001
0.20593219 0.15479466 1.8140001
0.21076953 0.15548572 1.8140001
0.19694857 0.16585143 1.8140001
0.20484628 0.16585143 1.8140001
0.21076953 0.16585143 1.8140001
0.22804572 0.16757905 1.8140001
0.23150097 0.16757905 1.8140001
0.20435265 0.17720436 1.8140001
0.21307303 0.17564128 1.8140001
0.18658286 0.18658286 1.8140001
0.19176573 0.18658286 1.8140001
0.20385905 0.18485524 1.8140001
0.21076953 0.18485525 1.8140001
-0.2522324 0.19522095 1.8140001
0.20593219 0.19418439 1.8140001
0.21215162 0.19349334 1.8140001
-0.2522324 0.20385905 1.8140001
0.19522095 0.2073143 1.8140001
0.20385906 0.20385905 1.814
0.21076953 0.20040381 1.8140001
0.20429096 0.21465668 1.8140001
0.21076953 0.21076953 1.8140001
-0.24704954 0.22804572 1.8140001
0.19392525 0.22502241 1.8140001
0.20213145 0.22459048 1.8140001
-0.24647367 0.23265272 1.8140001
0.18658286 0.23841144 1.8140001
0.19234161 0.23380446 1.8140001
0.20213144 0.23150097 1.8140001
-0.24186666 0.24532191 1.8140001
0.18571906 0.24532193 1.8140001
0.1900381 0.24186668 1.8140001
-0.24532191 0.2522324 1.8140001
0.19250612 0.25618124 1.8140001
-0.24186668 0.26778096 1.8140001
0.19349334 0.2655597 1.8140001
-0.23841144 0.27641904 1.8140001
0.19349332 0.27641907 1.8140001
-0.24877715 0.28678477 1.8140001
0.19522096 0.28505716 1.8140001
-0.24647367 0.29369524 1.8140001
0.19522096 0.29369524 1.8140001
0.20040381 0.29024002 1.8140001
-0.24186666 0.30406097 1.8140001
-0.23841144 0.30578858 1.8140001
0.18658286 0.30751619 1.8140001
0.19176573 0.30406094 1.8140001
-0.23841144 0.31442669 1.8140001
0.17967239 0.31788191 1.8140001
0.18450972 0.31373563 1.8140001
-0.23841144 0.32306477 1.8140001
0.18427937 0.32364064 1.8140001
0.1900381 0.32824764 1.8140001
-0.23610795 0.33515811 1.8140001
