# .PCD v0.7 - Point Cloud Data file format
VERSION 0.7
FIELDS x y z
SIZE 4 4 4
TYPE F F F
COUNT 1 1 1
WIDTH 1509
HEIGHT 1
VIEWPOINT 0 0 0 1 0 0 0
POINTS 1509
DATA ascii
-0.034885716 0.44452858 1.6650001
-0.024465308 0.44445306 1.6650001
-0.015857143 0.44400001 1.6650001
-0.0074000005 0.44505715 1.6650001
-0.033828575 0.45615718 1.6650001
-0.025371429 0.45573431 1.6650002
-0.015857143 0.45446572 1.6650002
-0.0052857148 0.45457146 1.6650001
0 0.45668569 1.6650001
-0.025371429 0.46302858 1.6650001
-0.017442858 0.46620002 1.6650001
-0.0039642858 0.46540713 1.6650001
0 0.46619999 1.6650001
-0.015328572 0.4757143 1.6650001
-0.0047571431 0.4757143 1.6650001
0 0.47571433 1.6650001
-0.01427143 0.48522857 1.6650001
-0.005946429 0.485625 1.6650001
0 0.48205715 1.6650001
-0.015857143 0.49474287 1.6650001
-0.00724898 0.49428982 1.6650001
-0.014951021 0.50380415 1.6650001
-0.00724898 0.50471026 1.6650001
-0.014951021 0.51422453 1.6650001
-0.00724898 0.51422453 1.6650001
-0.015222858 0.52423722 1.6650002
-0.0063428576 0.52487153 1.6650003
0.00063428574 0.52582294 1.6650002
-0.012685713 0.53597146 1.6650001
-0.0063428576 0.53597146 1.6650001
0 0.53597146 1.6650001
-0.0054367348 0.54503268 1.6650001
0.00079285714 0.5462786 1.6650001
-0.0063428576 0.55500001 1.6650001
0 0.55817145 1.6650001
-0.012685714 0.56768572 1.6650001
-0.0063428576 0.56451428 1.6650001
0.0015857143 0.56372148 1.6650001
-0.0063428576 0.57402855 1.6650001
0 0.5772 1.6650001
-0.0063428576 0.58512861 1.6650003
-0.0031714286 0.64697146 1.6650001
-0.0047571426 0.65014291 1.6650001
0 0.65014291 1.6650001
0.012746667 0.10675334 1.6730001
-0.10356668 0.11790667 1.6730001
-0.095600009 0.11684445 1.673
-0.086040013 0.11365778 1.673
-0.079666667 0.11153334 1.6730001
0.015933335 0.11408267 1.6730001
-0.10436335 0.12507668 1.6730001
0.017526668 0.12428001 1.6730002
0.022306668 0.12587334 1.6730001
-0.10197333 0.13384001 1.673
-0.095068894 0.13437112 1.6730002
-0.089226671 0.13702667 1.6730001
0.014871112 0.13437112 1.6730002
0.022306668 0.13702667 1.6730001
-0.10197334 0.14021334 1.6730001
-0.094234295 0.14476572 1.6730002
-0.087102227 0.14711778 1.6730002
0.016570667 0.14499334 1.6730001
0.022944 0.14467469 1.6730001
-0.084128007 0.156784 1.6730001
0.017526668 0.15614668 1.6730002
-0.084128007 0.16570666 1.6730001
-0.078604445 0.16783112 1.673
0.014021334 0.16506934 1.6730001
-0.08285334 0.17526667 1.673
-0.078073338 0.17526667 1.6730002
0.0095600002 0.17686 1.6730001
0.014021334 0.17526667 1.6730001
-0.085243344 0.18642002 1.6730001
-0.077390485 0.18482666 1.6730002
0.0095600002 0.18482669 1.673
0.014658667 0.18610135 1.6730001
-0.086039998 0.1912 1.673
-0.078073338 0.19438668 1.6730002
0.0079666674 0.19757333 1.6730001
0.014658667 0.19311199 1.6730001
-0.078073338 0.20394666 1.6730002
0.0087633338 0.20474334 1.6730001
0.012746667 0.20235334 1.6730001
-0.08285334 0.21032001 1.6730001
-0.076081671 0.21549833 1.6730002
0.0087633338 0.21510001 1.6730001
-0.071699999 0.22625335 1.6730002
0.0087633338 0.22625335 1.6730001
-0.071699999 0.23581332 1.6730002
0.0087633338 0.23501667 1.6730001
-0.07010667 0.24537335 1.673
0.0095600002 0.24537335 1.673
0.012746667 0.24378002 1.6730001
-0.07010667 0.25174668 1.6730001
0.0079666674 0.25652668 1.6730001
-0.072231114 0.26449335 1.673
0.0079666674 0.26449335 1.6730002
-0.073293336 0.27405334 1.673
0.0082853343 0.27341598 1.6730001
-0.071381345 0.282976 1.6730001
-0.065326676 0.28839335 1.6730001
0.0095600002 0.28520668 1.6730001
0.012746667 0.28042668 1.6730001
-0.063096002 0.29572266 1.6730001
-0.057360001 0.29954669 1.6730001
0.0040971427 0.29636002 1.6730002
-0.061608892 0.30592 1.673
-0.057360001 0.30432665 1.6730001
0.00079666672 0.30512333 1.6730001
-0.061343335 0.31468335 1.6730001
0.0010622223 0.31548002 1.673
-0.063278101 0.32595047 1.6730002
-0.055766668 0.32185334 1.6730001
0.0063733337 0.32504001 1.6730001
-0.061821334 0.33396268 1.6730001
-0.057360001 0.33619332 1.6730001
0.0095600002 0.3346 1.673
-0.062140003 0.34416002 1.6730001
-0.057360001 0.34097335 1.6730001
0.0095600002 0.34416005 1.673
-0.061343335 0.35292333 1.6730001
-0.057360001 0.35690668 1.6730001
0.0055766669 0.35451666 1.6730001
-0.06054667 0.36009336 1.6730001
-0.054173335 0.36593556 1.6730002
-0.047800001 0.36965334 1.6730001
0.0040971432 0.36510101 1.6730002
-0.046525337 0.37538937 1.6730001
0.0070106671 0.37602669 1.6730001
0.012746667 0.37762001 1.6730001
-0.044613335 0.38558668 1.6730001
0.0044613341 0.38494936 1.6730001
-0.052580003 0.39833334 1.6730001
-0.044613335 0.39196002 1.673
0.0031866669 0.39514667 1.6730001
-0.053376667 0.40391001 1.6730001
0 0.40470669 1.673
-0.054173335 0.41426668 1.6730001
-0.0031866669 0.41586 1.6730001
0 0.41426668 1.673
-0.050986666 0.42382669 1.673
-0.0047800005 0.42382669 1.6730002
-0.050986666 0.43338668 1.673
-0.046206668 0.43657336 1.6730002
-0.0045523806 0.43566284 1.6730002
0 0.43816668 1.6730001
-0.042223338 0.4453367 1.6730001
-0.038240001 0.44932002 1.6730001
-0.0042488892 0.44400892 1.673
0 0.44613335 1.673
-0.042701337 0.45633069 1.6730001
-0.035850003 0.45330334 1.6730001
-0.025493335 0.45410001 1.6730001
0.0015933334 0.45569336 1.6730001
-0.043020006 0.46525335 1.6730002
-0.035451669 0.46565169 1.6730002
-0.025493335 0.46764338 1.6730001
0.0039833337 0.46525335 1.6730001
-0.044082224 0.47428226 1.6730002
-0.035053335 0.47481331 1.6730002
-0.025493333 0.4748134 1.6730002
-0.01912 0.47800002 1.6730001
0.0031866666 0.47481334 1.673
-0.03186667 0.48437333 1.673
-0.025493333 0.48437336 1.6730002
-0.01912 0.48437333 1.673
0.0021244446 0.48437333 1.673
-0.025493333 0.49353501 1.6730002
-0.01912 0.49074668 1.6730001
-0.0031866669 0.49712002 1.6730001
0.00079666672 0.4931367 1.6730001
-0.025948571 0.50440377 1.6730002
-0.01912 0.50827336 1.6730001
-0.0031866666 0.50349331 1.673
0 0.50508666 1.6730001
-0.026555555 0.51836449 1.673
-0.01912 0.51464665 1.6730001
-0.0031866669 0.51464665 1.6730001
0.00079666672 0.51703668 1.6730001
-0.033778667 0.52579999 1.6730001
-0.027086668 0.52500331 1.6730001
-0.01912 0.52898669 1.6730001
0.0031866666 0.52579999 1.673
-0.03186667 0.53695333 1.6730001
-0.028680002 0.53536004 1.673
-0.017845334 0.53599739 1.6730001
0.005098667 0.53599727 1.6730001
-0.03186667 0.54173332 1.6730001
-0.02868 0.54332668 1.6730001
-0.015136667 0.54412329 1.6730001
-0.0095600002 0.54810667 1.6730001
0.0047800005 0.54491997 1.6730002
-0.02868 0.55288672 1.6730001
-0.015478096 0.55539048 1.6730002
-0.0095600002 0.55129337 1.6730001
0.0037177783 0.55501109 1.6730002
-0.02868 0.56404006 1.6730001
-0.015933333 0.56404001 1.6730002
0.0044613341 0.56404001 1.6730001
-0.03186667 0.57997334 1.6730001
-0.02761778 0.57625556 1.6730002
-0.016223032 0.57562786 1.6730002
0.0041426672 0.57423729 1.6730001
-0.03186667 0.58634669 1.673
-0.025948571 0.58680189 1.6730002
-0.015933333 0.58634663 1.6730002
0.00079666672 0.58555001 1.6730001
-0.03186667 0.59590673 1.673
-0.025493333 0.59590673 1.6730002
-0.015933335 0.59590667 1.6730002
-0.0063733333 0.59750003 1.6730002
0.00079666672 0.59511006 1.6730001
-0.027086668 0.60228002 1.6730001
-0.015136667 0.6030767 1.6730001
-0.007435556 0.60440445 1.6730002
-0.0079666674 0.61662006 1.6730001
-0.007648 0.623312 1.6730001
0 0.6214 1.6730001
-0.0063733337 0.65008003 1.6730001
0.0015933334 0.65008003 1.6730001
0.017610477 0.10886477 1.6810001
-0.10502248 0.1146282 1.6810001
-0.096857622 0.11366762 1.6810001
-0.088052385 0.11206667 1.6810001
0.01921143 0.11526857 1.6810001
0.024547936 0.11580223 1.6810001
-0.11206666 0.12487429 1.6810001
-0.10886476 0.12487429 1.6810001
-0.097658098 0.1280762 1.6810001
0.02653007 0.12441687 1.681
-0.11206667 0.13448 1.6810001
-0.10726383 0.13448 1.6810001
-0.099259049 0.13448 1.6810001
0.018144129 0.1334127 1.6810001
0.026015479 0.13407977 1.681
-0.10566287 0.14408572 1.681
-0.098191746 0.14301842 1.6810001
0.026682541 0.14301842 1.6810001
-0.10566287 0.15369146 1.681
-0.096457377 0.15409167 1.681
-0.088586032 0.15475874 1.6810001
0.023480637 0.15475874 1.6810001
-0.10495134 0.16365291 1.681
-0.096057147 0.1648981 1.6809999
-0.089012958 0.16521828 1.6810001
0.018410955 0.16729954 1.6810001
0.022413334 0.1648981 1.6810001
-0.10246096 0.17290287 1.6810001
-0.096057147 0.17610475 1.681
-0.088052385 0.17610477 1.6810001
0.018410955 0.17610477 1.6810001
0.022413334 0.17610477 1.6810001
-0.09365572 0.18491001 1.6810001
-0.087091811 0.18442973 1.6810001
0.017610477 0.18410954 1.6810001
0.022413334 0.18571049 1.6810001
-0.09365572 0.19451572 1.6810001
-0.086451434 0.19691713 1.6810001
0.017610477 0.19691715 1.6810001
0.022413334 0.19211429 1.6810001
-0.092855245 0.20492192 1.6810001
-0.086451426 0.20492192 1.681
0.016924355 0.20537934 1.681
-0.092855245 0.21452762 1.6810001
-0.086095661 0.21523918 1.681
0.0096057151 0.21452762 1.6810001
0.01408838 0.21388724 1.6810001
-0.092855245 0.22093144 1.6810001
-0.084850468 0.22413333 1.6809999
-0.07684572 0.22573429 1.6810001
0.013608095 0.2249338 1.6810001
-0.092855245 0.23534001 1.6810001
-0.084850468 0.23373906 1.6809999
-0.07684572 0.23373906 1.6810001
0.014408571 0.23373906 1.6810001
-0.083516337 0.24441206 1.6809999
-0.075473472 0.24563184 1.681
0.014942224 0.24494572 1.6810001
-0.083249517 0.25615239 1.681
-0.074044049 0.25655264 1.681
0.0096057151 0.25295049 1.6810001
0.01280762 0.25615239 1.6810001
-0.082792111 0.26484326 1.681
-0.076045245 0.26495761 1.6810001
0.01280762 0.2657581 1.6810001
-0.082182221 0.27643114 1.6810001
-0.07684572 0.27536383 1.6810001
0.013874921 0.27749845 1.6810001
-0.083249517 0.28496954 1.681
-0.076045245 0.28577 1.6810001
0.015475874 0.28496954 1.6810001
-0.092855245 0.2961762 1.6810001
-0.084413849 0.29486629 1.6809999
-0.073643811 0.29457524 1.681
-0.06724 0.29777715 1.6810001
0.0096057151 0.29777715 1.6810001
0.013608095 0.29377478 1.6810001
-0.08233469 0.30372354 1.681
-0.073643811 0.30418098 1.681
-0.065639049 0.30418095 1.6810001
0.007044191 0.30354056 1.6810001
-0.080047622 0.31058478 1.6810001
-0.073643811 0.31378669 1.681
-0.066439524 0.31458718 1.6810001
0.0051230481 0.31506744 1.6810001
-0.073643811 0.32499334 1.6809999
-0.065639049 0.32179144 1.6810001
0.0085384129 0.32339239 1.6810001
-0.07204286 0.3362 1.6810001
-0.066439524 0.33700049 1.6810001
0.014408572 0.33940193 1.6810001
-0.083249524 0.34740669 1.6810001
-0.073243573 0.34620601 1.681
-0.066439524 0.34500524 1.6810001
0.013608095 0.34500524 1.6810001
-0.073643811 0.35541141 1.681
-0.065959238 0.35605183 1.6810001
0.0096057151 0.35541144 1.6810001
0.01280762 0.35541144 1.6810001
-0.072728984 0.36455971 1.681
-0.064438336 0.36541739 1.681
0.0096057151 0.36501715 1.6810001
0.01280762 0.36821905 1.6810001
-0.07204286 0.37462288 1.6810001
-0.064038098 0.37462288 1.681
-0.054832622 0.37502307 1.681
0.0096057151 0.37302193 1.6810001
0.016009524 0.3762238 1.6810001
-0.062437143 0.3834281 1.6810001
-0.054432388 0.38422859 1.681
-0.048028573 0.38743049 1.6810001
0.0096057151 0.38582954 1.6810001
0.015369144 0.38358822 1.6810001
-0.060836192 0.39383426 1.6810001
-0.054432385 0.39383429 1.681
-0.048028573 0.39063239 1.6810001
0.0083249528 0.39383429 1.6810001
0.01280762 0.39223334 1.6810001
-0.06220844 0.40572712 1.681
-0.057634287 0.40504098 1.6810001
0.0050315647 0.40572709 1.681
-0.063123271 0.41624761 1.681
-0.056353528 0.41624761 1.6810001
0.0048028575 0.41624761 1.6810001
-0.060836192 0.42425239 1.6810001
-0.056033339 0.42585334 1.6810001
0.00080047623 0.42505285 1.6810001
-0.055713147 0.43481866 1.6810001
0.0010673016 0.43332446 1.6810001
-0.060836192 0.44186288 1.6810001
-0.052511238 0.44442439 1.6810001
-0.046961274 0.44719937 1.6810001
0.0032019049 0.44666573 1.6810001
-0.051230479 0.45467052 1.6810001
-0.046747811 0.45403013 1.6810001
0.0048028575 0.45467052 1.6810001
-0.051230479 0.46427619 1.6810001
-0.048028573 0.46427619 1.6810001
0.0080047622 0.46427619 1.6810001
-0.053974967 0.4747968 1.681
-0.048028573 0.47228098 1.6810001
0.0064038099 0.47388193 1.6810001
-0.052297782 0.48402128 1.6810001
-0.044826664 0.48552522 1.6809999
-0.036821906 0.48668954 1.6810001
0.0056033339 0.48508859 1.6810001
-0.051230479 0.49309334 1.6810001
-0.042425238 0.49549478 1.6810001
-0.035220955 0.49629524 1.681
-0.02561524 0.49949718 1.6810001
0.0042692064 0.49629524 1.6810001
-0.041624762 0.50590092 1.6810001
-0.035220955 0.50590098 1.681
-0.02561524 0.50590104 1.6810001
0.0032019049 0.50590092 1.6810001
-0.051230479 0.51870859 1.6810001
-0.043545909 0.51678741 1.6810001
-0.035220955 0.51550674 1.681
-0.024700409 0.51550668 1.681
0.0040023811 0.51470619 1.6810001
-0.051230479 0.52511239 1.6810001
-0.044826664 0.52511239 1.681
-0.035754602 0.52457875 1.6810001
-0.024814762 0.52591288 1.6810001
0.0064038099 0.52511239 1.6810001
-0.044826668 0.5347181 1.681
-0.036288258 0.53525174 1.6810001
-0.024014287 0.53471804 1.6810001
0.0085384129 0.5347181 1.6810001
-0.04442643 0.54392362 1.681
-0.036135782 0.54478127 1.681
-0.024014287 0.54432386 1.6810001
-0.017610477 0.54752576 1.6810001
0.0096057151 0.54432386 1.6810001
-0.043225709 0.55392957 1.6810001
-0.035220955 0.55392957 1.681
-0.025081588 0.55392957 1.6810001
-0.017610477 0.55232859 1.6810001
0.0096057151 0.55553055 1.6810001
0.01280762 0.55392957 1.6810001
-0.042997006 0.56445009 1.681
-0.035220955 0.56513625 1.6809999
-0.024974857 0.564816 1.681
0.0074711121 0.56353527 1.6810001
-0.041624762 0.57634288 1.6810001
-0.035220955 0.57634288 1.681
-0.023694096 0.57570249 1.6810001
0.0096057151 0.5779438 1.6810001
-0.041624762 0.58274668 1.6810001
-0.036821906 0.58594853 1.6810001
-0.023480637 0.58594865 1.6810001
0.0064038099 0.58594859 1.6810001
-0.036821906 0.59555429 1.6810001
0.0042692064 0.59662157 1.6810001
-0.035220955 0.60515994 1.681
-0.024814762 0.60756147 1.6810001
-0.017610477 0.6083619 1.6810001
-0.0032019049 0.6083619 1.6810001
0.001921143 0.60580039 1.6810001
-0.03362 0.6147657 1.6810001
-0.026896004 0.61348504 1.6810001
-0.016009524 0.61476576 1.681
-0.0053365082 0.61423212 1.6810001
0.0016009525 0.61476576 1.6810001
-0.033299811 0.62373114 1.6810001
-0.028817141 0.62437147 1.6810001
-0.014408573 0.62437153 1.6810001
-0.0042692064 0.62543875 1.6810001
0.001921143 0.62437147 1.6810001
-0.032019049 0.63077527 1.6810001
-0.028817143 0.63237619 1.6810001
-0.015094696 0.63397723 1.681
-0.0060035717 0.63437736 1.681
0.0016009525 0.63397717 1.6810001
-0.015094696 0.64312547 1.681
-0.0061127278 0.6447472 1.6809999
0.0032019049 0.64620262 1.6809999
-0.0096057151 0.65478957 1.6810001
-0.10511429 0.10996572 1.6980001
-0.080857143 0.10834858 1.6980001
-0.076005712 0.10673143 1.6980001
0.016772572 0.1044922 1.6931999
0.025833653 0.10655873 1.6953332
0.034499049 0.10780954 1.6980001
-0.12452 0.11966857 1.6980001
-0.11619217 0.1161854 1.6944444
-0.10944762 0.11427619 1.6900001
-0.096571431 0.11266667 1.6900001
0.027898416 0.1148127 1.6900001
0.035489097 0.11612783 1.6935558
-0.12452 0.12613715 1.6980001
-0.11749525 0.12554286 1.6900002
0.035489101 0.12580699 1.6935558
-0.12371144 0.13503143 1.6980001
-0.11635857 0.13528191 1.6910002
0.035489101 0.13548443 1.6935558
-0.11528163 0.14478694 1.6945714
-0.10944762 0.14807619 1.6900001
0.02897143 0.14646667 1.6900001
0.035577144 0.14554286 1.6980001
-0.11528163 0.1553943 1.6945716
0.027683813 0.15451428 1.6900002
0.035577144 0.15524571 1.6980001
0.042045716 0.15524572 1.6980001
-0.11625651 0.16468951 1.6953335
-0.10944762 0.16739048 1.6900001
0.027361907 0.16417144 1.6900002
0.035577144 0.16494858 1.6980001
0.042045716 0.16494857 1.6980001
-0.11625651 0.17437714 1.6953334
-0.1071483 0.17428844 1.6900003
0.027361907 0.17382859 1.6900002
0.035134763 0.17484811 1.6960001
-0.11643428 0.18435429 1.6980001
-0.10593593 0.18465629 1.6900004
-0.098502859 0.18734857 1.6900002
0.027131975 0.18440546 1.6900003
0.034899808 0.18353678 1.6964
-0.11643428 0.19405715 1.6980001
-0.10645715 0.19569524 1.6935556
-0.098502859 0.19700572 1.6900002
0.02620619 0.19590001 1.6930001
0.034499049 0.19459619 1.6980001
-0.10698231 0.20427048 1.6945714
-0.09818095 0.20601904 1.6900002
0.026115429 0.20566325 1.6924002
0.032342859 0.20376001 1.6980001
-0.11400858 0.21750572 1.6980001
-0.10660952 0.21482478 1.6960001
-0.09818095 0.21567619 1.6900002
0.018509526 0.21648097 1.6900001
0.025838731 0.21635681 1.6953332
0.032342859 0.21508001 1.6980001
-0.1132 0.22316572 1.6980001
-0.1065689 0.22604445 1.6953332
-0.096973814 0.22573572 1.6900003
0.018026669 0.22468953 1.6900002
0.025838731 0.22604445 1.6953335
0.032342859 0.22640002 1.6980001
-0.10557207 0.2348419 1.6966667
-0.097491153 0.23453061 1.6900003
0.019314287 0.23499048 1.6900001
0.025838731 0.23573208 1.6953332
0.032342859 0.23772001 1.6980001
-0.10430571 0.24661431 1.6980001
-0.095400862 0.24494027 1.6900004
-0.086914286 0.24786668 1.6900001
0.019314287 0.24464762 1.6900001
0.025838733 0.24541968 1.6953335
0.032342859 0.24580573 1.6980001
-0.10511428 0.25550857 1.6980001
-0.094961911 0.25430477 1.6900004
0.018026669 0.25494856 1.6900002
0.025862433 0.25537652 1.6971111
0.03396 0.25550857 1.6980001
-0.10511429 0.26521146 1.6980001
-0.094961904 0.26396191 1.6900004
0.017704763 0.26396191 1.6900002
0.025470002 0.26521143 1.6980001
-0.10220343 0.27556115 1.6980002
-0.094133332 0.27368572 1.6924002
-0.085626662 0.27297527 1.6900002
0.017014967 0.27361906 1.6900003
0.025874287 0.27491429 1.6980001
0.035577144 0.27329713 1.6980001
-0.10268857 0.28542572 1.6980001
-0.094640009 0.28477842 1.6900004
0.019314287 0.28542224 1.6900001
0.025496 0.28459048 1.694
-0.10381986 0.29484135 1.6957144
-0.096111573 0.29569253 1.6900003
0.018026669 0.2967962 1.6900002
0.025859049 0.29412189 1.6968572
-0.10524267 0.30409375 1.6948
-0.094522946 0.3055169 1.6900004
-0.086914286 0.30741906 1.6900001
0.0080476198 0.3090286 1.6900001
0.015715715 0.30576715 1.6920002
0.023448572 0.30321428 1.6980001
-0.10349715 0.31372574 1.6980001
-0.093352385 0.31546667 1.6900003
-0.084097624 0.31586906 1.6900003
0.0080476198 0.31385714 1.6900001
0.016125716 0.31488636 1.6926668
0.022640001 0.31049144 1.6980001
-0.10349715 0.32504573 1.6980001
-0.093403168 0.32529652 1.6908891
-0.08369524 0.32512382 1.6900003
0.0096571436 0.32190478 1.6900001
0.016453717 0.32509261 1.6932001
0.023286859 0.3240754 1.6980002
-0.10442122 0.33682778 1.6980001
-0.094564512 0.3346338 1.6907276
-0.08369524 0.33478096 1.6900003
-0.077257149 0.3363905 1.6900001
0.016125716 0.33530924 1.6926668
0.022639999 0.3363657 1.6980001
-0.10107143 0.34526002 1.6980001
-0.093553863 0.34516275 1.6935556
-0.083695248 0.34403569 1.6900003
-0.077257149 0.34282857 1.6900001
0.018532382 0.34565428 1.692
0.022639999 0.34606859 1.6980001
-0.093553863 0.35484192 1.6935556
-0.083695248 0.35449761 1.6900003
0.017028028 0.35433474 1.691143
0.022604445 0.35520765 1.6953334
-0.093283333 0.36504576 1.6960001
-0.083695233 0.36375242 1.6900003
-0.077257149 0.36697143 1.6900001
0.01609524 0.36375242 1.6900003
0.022640001 0.36385715 1.6980001
-0.091638096 0.37302098 1.6980001
-0.083514802 0.37506217 1.6921821
-0.074842863 0.37582383 1.6900003
0.017168256 0.37287304 1.6900002
0.022639999 0.37517715 1.6980001
-0.08346612 0.38548246 1.6945716
-0.074038096 0.38628572 1.6900003
-0.065668568 0.38692957 1.6900002
0.018241271 0.38843179 1.6900001
0.023421906 0.38523525 1.6960001
-0.083494768 0.39526477 1.694
-0.074038103 0.39594287 1.6900003
-0.065990478 0.3959429 1.6900002
0.016646983 0.39625525 1.6913334
0.023912381 0.39356419 1.6964
-0.084400475 0.40421197 1.696
-0.074038103 0.40560001 1.6900003
-0.066795245 0.40479523 1.6900001
0.0096571436 0.40560004 1.6900001
0.016148571 0.40518287 1.6950002
0.022639999 0.40428576 1.6980001
-0.083687142 0.41358429 1.6980001
-0.073727138 0.4153443 1.6920002
-0.067600004 0.41364765 1.6900001
0.0096571436 0.41525719 1.6900001
0.016151113 0.41441143 1.6953335
0.022639999 0.41398859 1.6980001
-0.082150854 0.42304459 1.6980002
-0.074160002 0.42450666 1.6926668
-0.066312388 0.42555815 1.6900002
0.0075111124 0.42598727 1.6900002
0.016151112 0.42409906 1.6953335
0.022640001 0.42207432 1.6980001
-0.080857143 0.43501145 1.6980001
-0.074506283 0.43474746 1.6932001
-0.064380959 0.43457139 1.6900003
0.0068404768 0.43457144 1.6900003
0.016441908 0.43470439 1.6950911
-0.080857143 0.44956574 1.6980001
-0.074119367 0.44469419 1.6917779
-0.064783335 0.44422859 1.6900003
-0.057942856 0.44422856 1.6900001
0.0068404768 0.4438262 1.6900003
0.01615111 0.44563049 1.6953332
-0.080857143 0.45441717 1.6980001
-0.07415662 0.45460531 1.6926668
-0.064380951 0.4538857 1.6900003
-0.056333333 0.4538857 1.6900002
0.0088523822 0.45308095 1.6900001
0.016151112 0.45531812 1.6953332
0.022640001 0.45280001 1.6980001
-0.074340686 0.46496382 1.6968572
-0.064380951 0.46515238 1.6900004
-0.056333337 0.46515238 1.6900003
0.0096571436 0.46193337 1.6900001
0.014288436 0.46540305 1.6934289
-0.071154289 0.47544003 1.6980001
-0.063978575 0.47601667 1.6900003
-0.056333333 0.47320002 1.6900001
0.0096571436 0.47641906 1.6900001
0.014865523 0.47563887 1.6964
-0.071734101 0.48662019 1.6964
-0.064734861 0.48565945 1.6908003
-0.0571381 0.48688099 1.6900001
0.0096571436 0.48607621 1.6900001
0.015247347 0.48560491 1.6980001
-0.072659679 0.49568066 1.6953334
-0.064380951 0.49573338 1.6900003
-0.055643536 0.4961932 1.6900003
-0.047212701 0.49787939 1.6900001
0.008369525 0.49573335 1.6900002
0.016171429 0.49484572 1.6980001
-0.080857143 0.50454855 1.6980001
-0.074182853 0.50473034 1.6932001
-0.064380951 0.50539047 1.6900003
-0.054723814 0.50539047 1.6900003
-0.0466762 0.50539047 1.6900002
0.0080476198 0.50539047 1.6900002
0.015247348 0.50408655 1.6980001
-0.080857143 0.51425147 1.6980001
-0.074654698 0.51378667 1.6934286
-0.064380951 0.51504767 1.6900003
-0.054723814 0.51504761 1.6900003
-0.046676189 0.51504761 1.6900002
0.008369525 0.51504767 1.6900002
0.015238641 0.51436514 1.6968572
-0.080857143 0.5223372 1.6980001
-0.073984288 0.52355003 1.6980001
-0.064099588 0.52520001 1.6945715
-0.056333333 0.52470475 1.6900002
0.0088523813 0.52390003 1.6900001
0.014554287 0.52395433 1.6980001
-0.07277143 0.53365713 1.6980001
-0.06458921 0.5338921 1.6953335
-0.055126194 0.53476429 1.6900003
0.0096571436 0.53275239 1.6900001
0.014943335 0.53423572 1.6960001
-0.071801148 0.54400688 1.6980002
-0.064900778 0.54471588 1.6958181
-0.054723814 0.54401904 1.6900003
0.016448831 0.54471588 1.6958183
-0.071154289 0.55306286 1.6980001
-0.06458921 0.5554235 1.6953335
-0.05472381 0.55367619 1.6900003
-0.048285712 0.55367619 1.6900001
-0.022533335 0.55367619 1.6900001
0.0096571436 0.55367619 1.6900001
0.016568094 0.5555672 1.697
0.022640001 0.55953145 1.6980001
-0.063020319 0.56555814 1.6966667
-0.054481041 0.56499016 1.6914548
-0.048285715 0.5649429 1.6900001
0.0096571436 0.56816196 1.6900001
0.012937143 0.56438291 1.6980001
-0.061451431 0.57408571 1.6980001
-0.055410068 0.57623953 1.6968572
-0.045603175 0.57620955 1.6900002
0.015340001 0.57629716 1.6949999
-0.054578576 0.58540571 1.6980001
-0.046084356 0.58612901 1.6934286
0.0096571436 0.58908576 1.6900001
0.01616127 0.58440703 1.6966667
-0.051748574 0.59349144 1.6980001
-0.044702586 0.59488595 1.6934286
0.008369524 0.59616768 1.6900002
0.014554287 0.59510857 1.6980001
-0.043907054 0.60431546 1.6948
0.008369525 0.60582483 1.6900002
0.014554287 0.60481149 1.6980001
-0.051748574 0.61613142 1.6980001
-0.044509716 0.61438519 1.6932001
-0.038628574 0.61483812 1.6900001
-0.024142858 0.61805719 1.6900001
0.0080476198 0.61483812 1.6900002
0.016171429 0.61451435 1.6980001
-0.052704766 0.62435621 1.6939999
-0.045434285 0.62443817 1.6916002
-0.038628574 0.62449527 1.6900001
-0.02414286 0.62449527 1.6900002
-0.019314287 0.62610483 1.6900001
0.0080476198 0.62449527 1.6900002
0.016171429 0.62421715 1.6980001
-0.054948032 0.63441741 1.6968572
-0.044639457 0.6336593 1.691143
-0.036329251 0.63461226 1.6900003
-0.024142856 0.63415241 1.6900002
-0.019314287 0.63254285 1.6900001
0.0077257147 0.63350856 1.6900002
0.016171429 0.63391995 1.6980001
-0.054058783 0.64316082 1.6980001
-0.045684289 0.64402717 1.6980001
-0.035052858 0.64416718 1.6920002
-0.025752382 0.64380956 1.6900003
-0.019314287 0.64380956 1.6900001
0.0080704764 0.64371622 1.6939999
0.016171429 0.64362288 1.6980001
-0.045280006 0.65009147 1.6980001
-0.03552635 0.65122157 1.6953335
-0.025846859 0.6540038 1.6964
-0.015659319 0.65573227 1.6922858
-0.0096571436 0.6534667 1.6900001
0.0097028576 0.6517086 1.6980001
0.014015239 0.65116954 1.6980001
0.027620953 0.097485721 1.7060001
0.034120001 0.097485721 1.7060001
-0.081238098 0.10398477 1.7060001
0.027620953 0.10073524 1.7060001
0.036827937 0.1029016 1.7060002
0.042243812 0.10398477 1.7060001
-0.13810477 0.11698286 1.7060001
-0.12510668 0.11698286 1.7060001
-0.11048381 0.11048381 1.7060001
-0.10073524 0.11048381 1.7060001
0.042243812 0.11373333 1.706
-0.14362895 0.12543163 1.7060001
-0.13647999 0.12510668 1.706
-0.12998095 0.12510668 1.7060001
0.042243812 0.12185715 1.7060001
-0.14297906 0.13323048 1.7060001
-0.13648 0.13453028 1.7060001
-0.1283562 0.13648 1.7060001
-0.13323048 0.14622858 1.7060001
-0.1242943 0.14704095 1.7060002
0.042243812 0.14785334 1.7060001
-0.12492614 0.15561609 1.7060002
-0.12673144 0.16572572 1.7060002
0.045493335 0.1624762 1.7060001
-0.12673143 0.17547429 1.7060002
0.038994286 0.17222477 1.7060001
0.042243812 0.17547429 1.706
-0.12632525 0.18481667 1.7060002
0.036557145 0.18603525 1.7060001
0.042243812 0.1835981 1.7060001
-0.12564826 0.19388826 1.7060002
0.037911113 0.19388826 1.706
-0.12185716 0.20472001 1.7060002
-0.11535811 0.20472001 1.7060002
0.036557145 0.20390762 1.7060001
-0.12023239 0.21284382 1.7060001
-0.11617048 0.2136562 1.7060001
0.035203174 0.21446858 1.7060002
-0.12185714 0.22421716 1.7060002
-0.11589968 0.22638349 1.706
0.034661587 0.22638349 1.706
-0.12307573 0.23437193 1.7060002
-0.11466178 0.23442996 1.7060002
0.034932382 0.23396572 1.7060001
-0.12348191 0.2437143 1.7060002
-0.11373334 0.2437143 1.7060002
-0.10723429 0.24371429 1.706
0.037369523 0.24371429 1.7060002
0.042243812 0.24696381 1.7060001
-0.1227598 0.25382394 1.7060002
-0.11373333 0.25508764 1.706
0.03834438 0.25411278 1.7060001
0.042243812 0.25833714 1.7060001
-0.12131556 0.26429459 1.706
-0.11373334 0.26646098 1.7060002
0.029245716 0.26646096 1.7060001
0.034444951 0.26646096 1.7060001
-0.11156698 0.27404317 1.706
-0.10723429 0.27620953 1.706
0.035203174 0.2762095 1.7060002
-0.11048381 0.28758287 1.7060001
-0.10723429 0.28595811 1.706
0.034119997 0.28595814 1.7060002
-0.11178362 0.29570669 1.7060001
-0.10723429 0.29570669 1.7060001
0.029245716 0.29895622 1.7060001
0.032495238 0.29408193 1.7060001
-0.11210858 0.30545524 1.7060002
0.027945906 0.30610514 1.7060001
-0.11210858 0.31520382 1.7060002
0.026402382 0.31560999 1.7060002
0.034120001 0.31195429 1.7060001
-0.11210858 0.32495239 1.7060002
0.027079366 0.32495239 1.706
0.032495238 0.32170287 1.7060001
-0.11373334 0.33470094 1.7060002
0.025996191 0.33307621 1.7060001
-0.11332715 0.34404337 1.7060002
-0.10615113 0.34661588 1.706
0.025996191 0.34607428 1.7060001
-0.11048381 0.35094857 1.7060001
-0.10344318 0.3541981 1.7060002
0.025996191 0.3541981 1.706
-0.10236001 0.36069715 1.7060001
-0.097485721 0.3671962 1.7060001
0.027296001 0.36329678 1.7060001
-0.096402548 0.37586161 1.706
0.025996193 0.37239546 1.7060001
-0.093830004 0.38303763 1.7060002
-0.087737143 0.38994288 1.7060001
0.025996191 0.38344383 1.706
-0.087737143 0.39319238 1.7060001
0.025996191 0.39969143 1.7060001
0.025996191 0.40619048 1.706
-0.090986669 0.41268954 1.7060001
-0.087737143 0.41918859 1.7060001
0.027620954 0.41593906 1.7060002
-0.08665397 0.42568764 1.706
0.025996193 0.42698747 1.7060001
-0.084487624 0.43543622 1.706
0.025067756 0.43543619 1.7060002
-0.083187811 0.4458347 1.7060001
0.02437143 0.4451848 1.7060002
-0.084487624 0.45493332 1.706
0.024696384 0.45493332 1.7060001
-0.08205048 0.46386957 1.7060001
-0.074739054 0.46793145 1.7060001
0.019497143 0.46630669 1.7060001
0.024046477 0.46403199 1.7060001
-0.081238098 0.47443047 1.706
-0.07603886 0.47508043 1.7060001
0.019497143 0.47443047 1.706
0.023559049 0.47361815 1.7060001
-0.081238098 0.48580384 1.7060001
-0.076363809 0.48417911 1.7060002
0.019497143 0.48417911 1.706
0.02437143 0.48742858 1.7060001
-0.081238098 0.49392763 1.706
-0.077988572 0.49392763 1.706
0.02437143 0.49392763 1.7060002
-0.083187811 0.5036763 1.7060001
-0.077988572 0.50042671 1.7060001
0.019497143 0.50692576 1.7060001
0.024046477 0.50302637 1.7060001
-0.084487624 0.51504952 1.7060001
0.019497143 0.51342475 1.706
0.023396572 0.51537448 1.7060001
-0.083404452 0.52642286 1.706
-0.077988572 0.52967238 1.7060001
0.019497143 0.52642286 1.706
0.022746667 0.52642286 1.706
-0.081238098 0.53617144 1.706
-0.077988572 0.53617144 1.706
0.019497143 0.53454667 1.7060001
0.022746667 0.53617144 1.706
-0.081238098 0.54429525 1.7060001
-0.076688766 0.54656994 1.7060001
0.023559049 0.54592001 1.7060001
-0.074739054 0.55566853 1.7060001
0.022746667 0.55566859 1.706
-0.072572701 0.56325084 1.706
-0.068240002 0.56704193 1.7060001
0.017872382 0.56704193 1.7060001
-0.066615239 0.57516575 1.7060001
0.012998096 0.57191622 1.7060001
-0.063907303 0.58437276 1.7060002
-0.058491431 0.58816385 1.7060001
-0.06369067 0.5959627 1.7060001
-0.056866668 0.59628767 1.7060001
0.018684762 0.59385049 1.7060001
-0.071489528 0.60603619 1.7060001
-0.064990476 0.60441136 1.7060002
-0.055241909 0.60441142 1.7060002
-0.048742861 0.60441142 1.706
0.019497143 0.60441142 1.706
-0.07343924 0.61416 1.7060001
-0.064990476 0.61416 1.7060002
-0.0556481 0.61375386 1.7060002
-0.048742861 0.61253524 1.7060001
0.019497143 0.61091048 1.7060001
-0.071489528 0.62065905 1.7060001
-0.064584285 0.62350243 1.7060002
-0.057191622 0.62325871 1.7060001
0.022746667 0.62390858 1.706
-0.062553331 0.63446957 1.7060001
-0.058491431 0.63203239 1.7060001
0.022746667 0.63365716 1.706
-0.061740953 0.64015621 1.7060001
-0.058491431 0.64828002 1.7060001
0.022746667 0.64178097 1.7060001
-0.053075556 0.65423751 1.706
-0.044680953 0.65721619 1.7060001
-0.035744764 0.65857023 1.706
-0.025996191 0.65965337 1.7060001
-0.029245716 0.66452765 1.7060001
-0.017872382 0.66452765 1.7060001
-0.084933333 0.10780001 1.715
-0.07676667 0.10453334 1.715
0.017966667 0.10126667 1.715
0.022866668 0.10126667 1.715
0.044100001 0.10780001 1.715
-0.15353334 0.1176 1.715
-0.14536667 0.1176 1.715
-0.1323 0.1176 1.715
-0.12576668 0.11433334 1.715
-0.11596667 0.11106667 1.715
-0.094733335 0.11106667 1.715
-0.086566672 0.11106667 1.715
0.047040004 0.11498667 1.7149999
-0.16006668 0.12576668 1.715
-0.15353334 0.12413333 1.715
-0.147 0.1225 1.715
0.046666671 0.12460002 1.715
0.052266669 0.12413334 1.715
-0.15222666 0.13262667 1.7149999
-0.14618334 0.13475001 1.715
-0.1372 0.1372 1.715
0.044644445 0.13284445 1.715
0.052266669 0.13066667 1.715
-0.15026668 0.14373334 1.715
-0.14373334 0.14373335 1.715
-0.13393334 0.143325 1.715
-0.12740001 0.147 1.715
0.043555558 0.14155556 1.715
-0.14264445 0.15244444 1.715
-0.13486667 0.15400001 1.715
-0.12740001 0.1568 1.715
0.045733336 0.1568 1.715
-0.14186667 0.16426668 1.715
-0.13556665 0.16496669 1.715
0.047040004 0.16529334 1.7149999
-0.14242668 0.17770667 1.7149999
-0.13556667 0.17640001 1.715
0.046550002 0.17640001 1.715
-0.14177334 0.18554668 1.7149999
-0.13486667 0.18666668 1.715
0.044644445 0.18620001 1.715
-0.14046668 0.19600002 1.715
-0.13434167 0.19640835 1.715
-0.12740001 0.19926667 1.715
0.042466667 0.19600002 1.715
-0.14046668 0.20253333 1.715
-0.1323 0.2058 1.715
-0.12740001 0.20580001 1.715
0.0392 0.20743334 1.715
0.042466667 0.2058 1.715
-0.13311666 0.21478334 1.715
-0.12506667 0.21606669 1.715
0.0392 0.21723334 1.715
0.043773334 0.21494667 1.7149999
-0.13148335 0.22458334 1.715
-0.12740001 0.22540002 1.715
0.038383335 0.22458334 1.715
0.043773334 0.22605333 1.7149999
-0.133525 0.23560835 1.715
-0.12740001 0.23193334 1.715
0.0392 0.2352 1.715
0.042466667 0.2352 1.715
-0.13393334 0.24500002 1.715
0.044100001 0.24418333 1.715
-0.133 0.25433332 1.715
-0.12740001 0.25806668 1.715
0.044426668 0.25414667 1.7149999
-0.1323 0.26296669 1.715
-0.12609334 0.26460001 1.7149999
0.037022222 0.26677778 1.715
0.043555558 0.26460001 1.715
-0.12320001 0.27393332 1.715
-0.11651111 0.2765778 1.715
0.0392 0.27113333 1.715
0.042466667 0.27603334 1.715
-0.1225 0.28420004 1.715
-0.11474168 0.28379169 1.715
0.0392 0.28420001 1.715
0.042466667 0.28420001 1.715
-0.12217335 0.29465336 1.7149999
-0.11629333 0.29400003 1.7149999
0.037566669 0.29400003 1.715
-0.13066667 0.30053335 1.715
-0.12320001 0.30333334 1.715
-0.1176 0.30380002 1.715
0.034299999 0.30379999 1.715
-0.1225 0.3136 1.715
-0.1176 0.31360003 1.715
0.035933334 0.31305555 1.715
0.042466667 0.3136 1.715
-0.1225 0.32503337 1.715
-0.1176 0.32503337 1.715
0.0294 0.3283 1.715
0.034299999 0.32503337 1.715
-0.1225 0.33646667 1.715
0.028311111 0.33755556 1.715
-0.1225 0.34626672 1.715
-0.1176 0.34953335 1.715
0.028311111 0.34626666 1.715
0.032666668 0.34626669 1.715
-0.12195555 0.3538889 1.715
-0.11474167 0.356475 1.715
-0.10780001 0.35769999 1.715
0.0294 0.35606667 1.715
0.034299999 0.35933334 1.715
-0.11351667 0.36341667 1.715
-0.105 0.36680001 1.715
0.0294 0.36913335 1.715
0.032666668 0.36586666 1.715
-0.11106667 0.37566671 1.715
-0.10453334 0.37566668 1.715
0.0294 0.37730002 1.715
0.032666668 0.37566671 1.715
-0.11324444 0.38655558 1.715
-0.10453334 0.38546669 1.715
-0.098000005 0.38873336 1.715
0.0294 0.38546669 1.715
0.032666668 0.38546669 1.715
-0.11433334 0.39526668 1.715
-0.10453334 0.39526668 1.715
-0.094733335 0.39526668 1.715
0.0294 0.39526668 1.715
0.032666668 0.39526668 1.715
-0.11678334 0.40425003 1.715
-0.10453334 0.40506664 1.715
-0.094733335 0.40506667 1.715
0.0294 0.4050667 1.715
0.032666668 0.40506664 1.715
-0.11651111 0.4137778 1.715
-0.10453334 0.41486666 1.715
-0.095141672 0.41486672 1.715
0.0294 0.41160002 1.715
0.032666668 0.41486669 1.715
-0.10453334 0.42466664 1.715
-0.094733343 0.42466667 1.715
0.0294 0.42629999 1.715
0.032666668 0.42303336 1.715
-0.10453334 0.43446669 1.715
-0.094733335 0.43446669 1.715
-0.088200003 0.43446669 1.715
0.0294 0.43446669 1.715
0.032666668 0.43773335 1.715
-0.11215556 0.44644442 1.715
-0.10453334 0.44426668 1.715
-0.093100004 0.44426668 1.715
-0.088200003 0.44426668 1.715
0.0294 0.44426668 1.715
0.032666668 0.44426668 1.715
-0.11237333 0.45341334 1.7149999
-0.105 0.45313337 1.715
-0.094733335 0.45406669 1.715
-0.088200003 0.45406666 1.715
0.0294 0.45406672 1.715
-0.12086667 0.4655 1.715
-0.113925 0.464275 1.715
-0.10780001 0.46223336 1.715
-0.092283338 0.46305001 1.715
-0.087383337 0.46468335 1.715
0.0294 0.46223336 1.715
-0.1134 0.47413334 1.715
-0.10453334 0.47366667 1.715
-0.094733335 0.47366673 1.715
-0.086566664 0.4736667 1.715
0.027766667 0.47448334 1.715
-0.11433334 0.48183337 1.715
-0.10780001 0.48183334 1.715
-0.094733335 0.48020002 1.715
-0.085866667 0.48346668 1.715
0.026541667 0.48387504 1.715
-0.092283338 0.49245003 1.715
-0.086566664 0.49489999 1.715
0.0294 0.49490002 1.715
-0.092773333 0.50698674 1.7149999
-0.088200003 0.50633335 1.715
0.028583333 0.50715005 1.715
0.032666668 0.50306666 1.715
-0.093800001 0.51660007 1.715
-0.088200003 0.51613337 1.715
0.028093334 0.51548004 1.7149999
0.032666668 0.5194 1.715
-0.094733328 0.52593338 1.715
-0.088200003 0.52593333 1.715
0.027766667 0.52593333 1.715
-0.093800001 0.53573334 1.715
-0.086566664 0.53573334 1.715
0.027766667 0.53573334 1.715
-0.092283338 0.54471666 1.715
-0.086566664 0.54553336 1.715
0.028093334 0.54488003 1.7149999
-0.091466673 0.55206668 1.715
-0.084933326 0.55533338 1.715
-0.078400001 0.55860001 1.715
0.027766667 0.55533338 1.715
-0.084466673 0.56420004 1.715
-0.077583335 0.56595004 1.715
0.026133334 0.56513339 1.7149999
-0.081666671 0.57493335 1.715
-0.075133339 0.57493341 1.715
0.017966667 0.5765667 1.715
0.022866668 0.57166666 1.715
-0.081666671 0.58310002 1.715
-0.075133339 0.58473337 1.715
-0.068599999 0.58310002 1.715
0.022866668 0.588 1.715
-0.07472501 0.59453338 1.715
-0.066966668 0.59453338 1.715
0.023683334 0.59535003 1.715
-0.075541675 0.60392505 1.715
0.0252 0.60480005 1.715
-0.082483336 0.61495006 1.715
-0.07676667 0.61250001 1.715
0.026133334 0.61413336 1.715
-0.081666671 0.62066668 1.715
-0.076066673 0.62440008 1.715
0.026133334 0.62393337 1.715
-0.084933341 0.63700002 1.715
-0.074725002 0.63414168 1.715
-0.067293331 0.63438666 1.7149999
0.026950002 0.63455003 1.715
-0.093426667 0.64353335 1.7149999
-0.084933333 0.64353341 1.715
-0.074725002 0.643125 1.715
-0.066422224 0.64462227 1.715
0.026950002 0.64353335 1.715
0.033483334 0.64435005 1.715
-0.084933341 0.65006667 1.715
-0.064516671 0.65088338 1.715
-0.057711113 0.65877777 1.715
0.022866668 0.65170002 1.715
-0.052266669 0.66313338 1.715
-0.046141669 0.66680837 1.715
-0.036400001 0.66733342 1.715
-0.024500001 0.66640002 1.715
-0.0196 0.66966671 1.715
0.018050477 0.096816197 1.723
0.022973334 0.096816197 1.723
-0.11158477 0.10830286 1.723
-0.10502096 0.10830286 1.723
-0.091893338 0.10830286 1.723
-0.086970478 0.10666192 1.723
0.048134606 0.10611492 1.723
0.052510478 0.10830286 1.723
-0.16190732 0.1170546 1.723
-0.15589049 0.11486667 1.723
-0.14440382 0.11486667 1.723
-0.1345581 0.11486667 1.723
-0.12471239 0.11158476 1.723
0.049228575 0.11158477 1.723
0.054151431 0.11486667 1.7229999
-0.16503291 0.12424354 1.7229998
0.057433337 0.12471239 1.7229999
-0.16368501 0.13455811 1.7229998
-0.15589049 0.13619906 1.723
0.048134606 0.13674603 1.723
0.05620262 0.13496834 1.7229998
-0.16212609 0.14374743 1.7229999
-0.15589049 0.14440382 1.7229999
0.047915813 0.1450602 1.7229999
0.054698419 0.14440382 1.723
-0.16081335 0.15424953 1.723
-0.15424953 0.15424953 1.7229998
-0.14659175 0.15643747 1.723
0.047915813 0.15359315 1.7229999
0.053823244 0.15490592 1.7229999
-0.16081335 0.16081335 1.723
-0.15424953 0.16409522 1.7229998
-0.14768572 0.16409524 1.723
0.049228575 0.16081335 1.723
0.05382324 0.16343887 1.7229999
-0.15383929 0.1743512 1.7229998
-0.14604476 0.17394096 1.7229999
0.049228575 0.17230001 1.723
0.05333095 0.17394096 1.723
-0.16081335 0.18050477 1.723
-0.15424953 0.18378668 1.7229998
-0.14768572 0.18542764 1.723
0.049228575 0.18378668 1.723
0.052510481 0.18378668 1.723
-0.16081335 0.1969143 1.723
-0.15424955 0.19363239 1.7229998
-0.14604476 0.19363241 1.7229999
0.047587622 0.19363241 1.7229999
0.052510478 0.19035049 1.723
-0.16081335 0.20019619 1.723
-0.15370256 0.20238411 1.7229999
-0.1453415 0.20394693 1.7229998
-0.13784 0.20511904 1.723
0.047587622 0.2034781 1.7229999
-0.15096763 0.21004191 1.723
-0.14410545 0.21451722 1.7229997
-0.13565207 0.21605873 1.7229999
0.048134606 0.21496476 1.7229999
0.052510478 0.21496478 1.723
-0.14112191 0.22645144 1.723
-0.13652726 0.22710781 1.7229999
0.048408099 0.22563097 1.723
-0.14243469 0.23564076 1.7229999
-0.13784 0.23301524 1.723
0.047587622 0.23629713 1.7229999
-0.14346613 0.2466117 1.7229998
0.048408099 0.24614286 1.723
0.054151431 0.24942477 1.723
-0.15096763 0.25270668 1.723
-0.14399359 0.25557834 1.7229998
-0.13784 0.25762951 1.723
0.049228575 0.25598857 1.723
0.052510478 0.25270668 1.723
-0.15096763 0.26747525 1.723
-0.14440383 0.2658343 1.7229998
-0.13587086 0.26714703 1.7229999
0.047915813 0.26649067 1.7229999
-0.13291714 0.27568001 1.7229999
-0.12799428 0.27732098 1.723
0.046493653 0.27567998 1.7229999
-0.13291714 0.28552574 1.7229999
-0.12799428 0.28552571 1.723
0.044305716 0.28470525 1.723
-0.1336204 0.29584026 1.7229998
-0.12717381 0.29455096 1.723
0.03938286 0.29865333 1.723
0.042664763 0.29537144 1.723
-0.13496833 0.30562738 1.7229998
-0.12799428 0.30685812 1.723
0.03938286 0.30521715 1.723
0.045399684 0.30631113 1.7229999
-0.14112191 0.31834477 1.723
-0.13414785 0.31547314 1.7229998
-0.12799428 0.31506288 1.723
0.03938286 0.31834477 1.723
0.045946669 0.31459403 1.7229998
-0.13414785 0.32490855 1.7229998
-0.12799428 0.32490858 1.723
0.037194923 0.32600254 1.7229999
0.0448527 0.32436159 1.7229999
-0.14112191 0.33475432 1.723
-0.1345581 0.33475429 1.7229998
-0.12799428 0.33475432 1.723
0.029537143 0.33803621 1.723
0.035444573 0.33541068 1.7229999
0.044305716 0.3314724 1.723
-0.13209666 0.34377956 1.723
-0.12799428 0.34460005 1.723
0.029537143 0.34460002 1.723
0.036100954 0.34413117 1.7229998
-0.13209666 0.35526621 1.723
-0.12717381 0.35526621 1.723
0.035690717 0.3540355 1.7229998
-0.13127619 0.36265048 1.723
-0.12471238 0.36429146 1.7229998
-0.11650762 0.36757335 1.723
0.038070098 0.36494783 1.7229999
0.042664763 0.36100954 1.723
-0.12471239 0.37413719 1.7229998
-0.11580436 0.37366834 1.7229998
0.037741907 0.37413713 1.7229999
-0.12307143 0.38398287 1.7229999
-0.11683581 0.38332647 1.7229999
0.037741907 0.38398287 1.7229999
-0.1237747 0.39335975 1.7229998
0.037741907 0.3938286 1.7229999
-0.1237747 0.40414315 1.7229998
-0.11267873 0.40586224 1.723
0.037741907 0.40367427 1.7229999
-0.1237747 0.41305119 1.7229998
-0.11289753 0.41286364 1.7229999
0.037741907 0.41351998 1.7229999
-0.12208686 0.42402214 1.7229999
-0.11486667 0.42500672 1.7229997
0.03692143 0.42500669 1.7229998
-0.12143048 0.43649337 1.723
-0.11486667 0.43649331 1.7229998
0.035553969 0.43649337 1.7229999
-0.12225096 0.44715956 1.723
-0.11596064 0.44524506 1.7229999
-0.09845715 0.44633904 1.723
0.036100954 0.44633904 1.723
-0.12307143 0.45618477 1.7229999
-0.11732809 0.45700526 1.723
-0.10338001 0.4594667 1.723
0.034460001 0.45618477 1.7229999
-0.12525937 0.46603048 1.7229999
-0.11814857 0.46274859 1.723
-0.10408328 0.46649933 1.7229998
-0.097144388 0.46668687 1.7229999
0.029537143 0.4693124 1.723
0.034460001 0.46603048 1.7229999
-0.1237747 0.47634506 1.7229998
-0.11814857 0.47423524 1.723
-0.10502096 0.47587621 1.723
0.029537143 0.47259429 1.723
0.035006985 0.4769702 1.7229999
-0.12307144 0.48572195 1.7229999
-0.11486667 0.48900381 1.723
-0.10408328 0.4861908 1.7229998
-0.095175244 0.48613217 1.7229998
0.034460001 0.48572192 1.7229999
-0.12143048 0.49228573 1.723
-0.11486667 0.49515736 1.7229998
-0.10502096 0.49556765 1.7229998
-0.097144388 0.49622402 1.7229999
0.034460001 0.49556765 1.7229999
-0.11814857 0.50213146 1.723
-0.10502096 0.50541329 1.7229998
-0.096269213 0.50431937 1.7229999
0.034788191 0.50541335 1.7229999
-0.10461072 0.51484883 1.7229998
-0.09845715 0.51525903 1.723
0.035690717 0.51566929 1.7229998
-0.10408326 0.52557361 1.7229998
0.036100954 0.52557361 1.7229998
-0.10338 0.53495049 1.7229999
-0.09845715 0.53495049 1.723
0.032819048 0.53495049 1.723
-0.10461071 0.54438603 1.7229998
-0.097636677 0.54561669 1.723
0.034460001 0.54315525 1.723
-0.10338 0.5546419 1.7229999
-0.096112929 0.55511075 1.7229998
0.034460001 0.5546419 1.7229999
-0.10305182 0.56383127 1.7229999
-0.095175244 0.56448764 1.7229998
0.029537143 0.56776953 1.723
0.035006985 0.5639407 1.7229999
-0.10173905 0.57269239 1.723
-0.095175244 0.57433343 1.7229998
-0.086970478 0.57433343 1.7229999
0.027349206 0.57542735 1.7229999
0.032819048 0.57433337 1.723
-0.10173905 0.58582002 1.723
-0.095175244 0.58417904 1.7229998
-0.086970478 0.58417898 1.7229999
0.026255237 0.5841791 1.7229998
-0.094237559 0.59355593 1.7229998
-0.085329525 0.59402478 1.7229998
-0.07876572 0.59730667 1.723
0.02789619 0.59402472 1.7229999
0.032819048 0.59402478 1.723
-0.092713818 0.60305005 1.723
-0.085329533 0.60387057 1.7229998
0.029537143 0.60387045 1.723
0.032819048 0.60387045 1.723
-0.086267218 0.61324733 1.7229998
0.026255239 0.61535716 1.723
0.033639524 0.61289573 1.723
-0.091893338 0.62684381 1.723
-0.086423494 0.62465584 1.7229999
0.02691162 0.62290555 1.7229999
0.033639524 0.62438238 1.723
-0.094847053 0.63603318 1.7229998
-0.085329525 0.63340771 1.7229998
-0.07876572 0.63340765 1.723
0.029537143 0.63340765 1.723
0.034460001 0.63504863 1.7229998
-0.10283303 0.64544135 1.723
-0.096269213 0.64544129 1.723
-0.07876572 0.64981717 1.723
0.029537143 0.64653528 1.723
0.037741907 0.64489436 1.723
-0.082047619 0.65638095 1.723
-0.075483814 0.65473998 1.7229999
-0.065638095 0.65802193 1.723
0.027896192 0.65473998 1.723
0.034460001 0.65309906 1.723
-0.055792384 0.6678676 1.723
-0.1171162 0.10886858 1.7320001
-0.095672384 0.10721905 1.7320001
-0.089074291 0.10556953 1.7320001
0.047836192 0.10227048 1.7320001
0.056496192 0.10515714 1.7320002
0.062681906 0.10886858 1.7320001
-0.19134477 0.11876572 1.7320001
-0.18474668 0.11876572 1.7320001
-0.17484953 0.11876572 1.732
-0.1649524 0.11546668 1.732
-0.15505525 0.11381715 1.7320001
-0.13361144 0.11216763 1.7320001
0.05938286 0.11546668 1.732
0.062681906 0.11546668 1.732
-0.18474668 0.12371429 1.7320001
-0.17484954 0.1253638 1.7320002
0.064001523 0.124704 1.7320001
-0.18144763 0.13196191 1.7320001
-0.17352991 0.13394134 1.7320001
-0.16825144 0.13526095 1.7320001
0.064331435 0.13526095 1.7320002
-0.17155048 0.14350858 1.7320001
-0.16742668 0.14598288 1.7320001
0.056633655 0.1451581 1.7320002
0.062681906 0.14515811 1.732
-0.16660191 0.15505524 1.7320002
0.058558099 0.15423048 1.7320001
0.062681906 0.15505524 1.732
-0.16440256 0.16495238 1.7320002
0.058558095 0.16577716 1.7320001
0.062681906 0.1649524 1.7320001
-0.16330287 0.17484953 1.7320002
-0.1583543 0.17155048 1.7320001
0.058063246 0.17484954 1.7320001
-0.16363278 0.18540648 1.7320001
0.057733338 0.18474668 1.7320002
-0.16363278 0.193984 1.7320001
0.056496195 0.19505621 1.7320002
0.062681906 0.19464381 1.732
-0.16330287 0.20454097 1.7320001
-0.15615493 0.20674032 1.732
0.056083813 0.20454097 1.7320002
0.062681906 0.20454097 1.732
-0.16165334 0.21608762 1.7320001
-0.15546761 0.21485049 1.7320002
0.056633655 0.21333842 1.7320002
-0.16165334 0.22433525 1.7320001
-0.15450539 0.2237854 1.7320002
-0.14713754 0.22499506 1.7320001
0.055671427 0.22474763 1.7320002
-0.16165334 0.23258287 1.7320001
-0.15505524 0.2342324 1.7320002
-0.14763239 0.23340762 1.7320001
0.056083813 0.2342324 1.7320002
-0.16495238 0.24742858 1.7320001
-0.15464285 0.24412952 1.7320002
-0.14763239 0.24330477 1.7320001
0.055671427 0.24371715 1.7320002
-0.15450539 0.25402668 1.7320002
0.054434288 0.25567621 1.7320001
-0.1545054 0.26392382 1.7320002
-0.14845715 0.26062477 1.7320001
0.05278476 0.26392382 1.732
-0.1545054 0.27382097 1.7320002
-0.1451581 0.2754705 1.7320002
-0.13856001 0.2754705 1.7320001
0.049485717 0.27382097 1.7320001
0.052784763 0.27382097 1.7320001
-0.15307581 0.28305832 1.7320001
-0.14515811 0.28371811 1.7320002
-0.13856001 0.28371811 1.732
0.049485717 0.28536764 1.7320001
0.05278476 0.28371811 1.732
-0.1517562 0.29031619 1.7320001
-0.1438385 0.29229563 1.7320001
-0.13856001 0.29361525 1.732
0.047836188 0.29361525 1.7320002
0.05278476 0.29361525 1.732
-0.1517562 0.30186287 1.7320001
-0.14268382 0.30351239 1.7320001
0.047506284 0.30285257 1.7320001
0.054764193 0.30351239 1.7320001
-0.14350858 0.31340954 1.7320002
-0.13856001 0.31340954 1.7320001
0.055141229 0.31388083 1.7320002
-0.1517562 0.32990476 1.7320001
-0.14479154 0.32550606 1.7320002
-0.13856001 0.32660574 1.7320001
0.048660953 0.32578096 1.7320001
0.054434292 0.32495624 1.7320002
-0.16165334 0.33650288 1.7320001
-0.15505525 0.33691522 1.7320002
-0.14680763 0.33650288 1.7320002
0.039588574 0.33815241 1.7320001
0.046657961 0.33744547 1.7320002
0.053609528 0.3356781 1.7320001
-0.16330287 0.34475049 1.7320001
-0.15505525 0.34640002 1.7320002
-0.1451581 0.34640002 1.7320002
-0.13724038 0.34705982 1.7320001
0.039588574 0.34640002 1.7320001
0.046186671 0.34640002 1.7320002
-0.14268382 0.35547239 1.7320001
-0.13724038 0.35563737 1.7320001
0.039588574 0.35959619 1.7320001
0.044537142 0.35629717 1.7320002
-0.13581081 0.36619434 1.7320002
0.04486705 0.36685413 1.7320001
-0.13328153 0.37609142 1.7320001
0.044537146 0.37609145 1.7320002
-0.13361144 0.38928762 1.7320001
-0.12866285 0.38598856 1.732
0.044537142 0.38598856 1.7320002
-0.1347111 0.39533588 1.7320002
-0.12866285 0.39753526 1.7320001
0.044537142 0.39588571 1.7320002
-0.14185905 0.40908191 1.7320001
-0.1347111 0.40688255 1.7320002
-0.12866285 0.40413335 1.7320001
0.044537142 0.40578285 1.7320002
-0.13431837 0.41520873 1.7320002
-0.12866285 0.41732955 1.7320001
0.042887617 0.41568002 1.732
-0.13328153 0.42491737 1.7320001
-0.12734324 0.42623696 1.7320001
0.043712385 0.42557716 1.7320001
-0.12701334 0.43547428 1.7320002
0.039588574 0.43547431 1.732
0.042887621 0.43217525 1.7320001
-0.12701333 0.44537142 1.7320002
0.039588574 0.44537145 1.7320001
0.042887621 0.44207239 1.7320001
-0.12866285 0.45526859 1.732
0.039588574 0.45526859 1.7320001
