# .PCD v0.7 - Point Cloud Data file format
VERSION 0.7
FIELDS x y z
SIZE 4 4 4
TYPE F F F
COUNT 1 1 1
WIDTH 1513
HEIGHT 1
VIEWPOINT 0 0 0 1 0 0 0
POINTS 1513
DATA ascii
0.14112191 0.12471238 1.723
-0.19166324 0.13390172 1.7229999
0.10338001 0.13784 1.723
0.11486667 0.13784 1.723
0.12602514 0.13521448 1.7229999
0.13346413 0.13346411 1.7229999
0.14221589 0.13237016 1.723
-0.19117096 0.14358334 1.723
-0.18706858 0.14440382 1.723
0.10502096 0.14440382 1.723
0.11486667 0.14768572 1.723
0.12602516 0.14571658 1.7229999
0.13291714 0.14358334 1.723
-0.19035049 0.15424953 1.723
-0.18706858 0.15424953 1.723
0.10595864 0.15378068 1.7229998
0.11486667 0.15383929 1.7229998
0.12225096 0.15507001 1.723
-0.19035049 0.16081335 1.723
-0.18542762 0.16409524 1.7229999
0.10502096 0.16409524 1.7229998
0.11486667 0.16409525 1.7229998
0.12143048 0.1657362 1.723
-0.18378668 0.17394096 1.723
0.10543119 0.1743512 1.7229998
0.11486667 0.17394096 1.7229998
0.12143048 0.1755819 1.723
-0.18460716 0.18460716 1.723
0.09845715 0.18542764 1.723
0.10502096 0.18378669 1.7229998
0.11445644 0.18337645 1.7229998
0.12143048 0.18050477 1.723
-0.18542762 0.19363241 1.7229999
0.09845715 0.19363241 1.723
0.10502096 0.19363239 1.7229998
0.11240524 0.19363239 1.723
-0.18542762 0.2034781 1.7229999
0.096488006 0.20479086 1.7229999
0.10502096 0.20347808 1.7229998
0.11158476 0.2034781 1.723
-0.18378668 0.21496478 1.723
0.08664228 0.21791849 1.7229999
0.095473602 0.21541232 1.7229997
0.10361443 0.21379265 1.7229998
-0.18214571 0.22645146 1.7229999
0.07876572 0.22973335 1.723
0.085798368 0.22738911 1.7229998
0.095175244 0.22645146 1.7229998
0.10305182 0.22645144 1.7229999
-0.18214573 0.23629715 1.7229999
0.077124767 0.23629715 1.7229999
0.085329525 0.23629716 1.7229998
0.095175244 0.23629716 1.7229998
0.10461072 0.2358869 1.7229998
-0.18378668 0.24614286 1.723
0.07876572 0.24614286 1.723
0.085329525 0.24614286 1.7229998
0.095175244 0.24614286 1.7229998
0.10502095 0.24614286 1.7229998
0.11322571 0.24286096 1.723
-0.18247391 0.25664493 1.7229999
0.07876572 0.25598857 1.723
0.085329533 0.25598857 1.7229998
0.095175244 0.25598857 1.7229999
0.10255953 0.25516811 1.723
-0.18050475 0.2658343 1.723
-0.17722286 0.26911619 1.723
0.076577783 0.26692826 1.7229999
0.085329525 0.26583427 1.7229998
0.093534291 0.26501381 1.723
-0.18050475 0.27568004 1.723
-0.17722286 0.27568001 1.723
0.075483806 0.27568001 1.7229998
0.085329525 0.27526978 1.7229998
-0.18050475 0.28552571 1.723
-0.17722286 0.28552571 1.723
0.075894043 0.28511551 1.7229998
0.084016755 0.28421298 1.7229999
-0.18050475 0.29537141 1.723
-0.17722286 0.29537144 1.723
0.07876572 0.29208952 1.723
0.085329525 0.29537144 1.7229998
0.091893338 0.29537144 1.723
-0.18050477 0.3035762 1.723
-0.17722286 0.30521715 1.723
0.077671751 0.30740508 1.723
0.085329525 0.30521715 1.7229998
0.091893338 0.30521715 1.723
-0.17525372 0.31440648 1.7229999
0.076421499 0.31553173 1.7229998
0.084235556 0.3139689 1.7229999
-0.17448795 0.32490858 1.7229999
0.068920001 0.32490858 1.723
0.075483814 0.32490861 1.7229998
0.082047619 0.32819048 1.723
-0.17394096 0.33475432 1.723
0.068920001 0.33639526 1.723
0.075483814 0.33475429 1.7229998
0.082047619 0.33311334 1.723
-0.17394096 0.34460005 1.723
0.067279048 0.34459999 1.7229999
0.075483814 0.34459999 1.7229998
0.082047619 0.34295905 1.723
-0.17312048 0.35526621 1.723
0.067279048 0.35444573 1.7229999
0.075483814 0.35444573 1.7229998
-0.1723 0.36429143 1.7229999
0.057433337 0.36757335 1.723
0.066575781 0.36476031 1.7229998
0.072201908 0.36429143 1.723
-0.17197181 0.37479353 1.7229999
0.049228575 0.37249619 1.723
0.055792384 0.37413716 1.7229998
0.065638095 0.37413713 1.7229998
0.072201908 0.37085524 1.723
-0.17065905 0.38398287 1.723
0.057761528 0.38332647 1.7229999
0.065638095 0.38398287 1.7229998
-0.1723 0.3938286 1.7229999
-0.16737714 0.39711049 1.723
0.059074286 0.3938286 1.723
0.065227859 0.3938286 1.7229998
-0.17065905 0.40203333 1.723
-0.16737714 0.40531525 1.723
0.057761528 0.40433067 1.7229999
0.063997142 0.40367427 1.7229999
-0.16737714 0.41023812 1.723
0.05620262 0.41310978 1.7229998
0.06470041 0.41398883 1.7229998
-0.16518919 0.4261007 1.7229999
0.049228575 0.42992955 1.723
0.056090739 0.42515591 1.7229997
0.065638095 0.42500666 1.7229997
-0.17065905 0.43977526 1.723
-0.16573618 0.43649337 1.7229999
0.049228575 0.43649337 1.723
0.055382144 0.43608308 1.7229998
0.065638095 0.43485245 1.7229999
-0.17065905 0.44305715 1.723
-0.16573618 0.44633904 1.7229999
0.046356905 0.4467493 1.7229998
0.055382144 0.44633907 1.7229998
0.062356193 0.44962096 1.723
-0.17065905 0.45290288 1.723
-0.16573618 0.45618477 1.7229999
0.046767145 0.45372337 1.723
0.056730069 0.45571592 1.7229998
0.062356193 0.45618477 1.723
-0.16315755 0.46556163 1.7229998
0.03938286 0.46438953 1.723
0.045946669 0.46274859 1.723
0.057433337 0.46603048 1.7229999
0.063997142 0.46603048 1.7229999
-0.16163382 0.47505572 1.723
0.03938286 0.47587621 1.723
0.057761528 0.47521982 1.7229999
0.065638095 0.47587621 1.7229998
0.073295876 0.4769702 1.723
-0.16081335 0.48572195 1.723
0.03938286 0.48244002 1.723
0.047259431 0.48572192 1.7229999
0.057433337 0.48572195 1.7229999
0.06470041 0.48525307 1.7229998
0.072201908 0.48244002 1.723
-0.16081335 0.49556765 1.723
0.03938286 0.49556765 1.723
0.046884358 0.49556765 1.7229998
0.055792384 0.49556765 1.7229998
0.063997142 0.49556759 1.7229999
-0.16081335 0.50541335 1.723
0.046884354 0.5058822 1.7229998
0.055792376 0.50541335 1.7229998
0.063997149 0.50541335 1.7229999
-0.16081335 0.51525903 1.723
-0.15753144 0.51854098 1.723
0.045946669 0.51525909 1.7229998
0.055792384 0.51525903 1.7229998
0.065638095 0.51525903 1.7229998
0.07302238 0.51607955 1.723
-0.16081335 0.52510476 1.723
-0.15753144 0.52838671 1.723
0.03938286 0.52510476 1.723
0.046356905 0.52551496 1.7229998
0.055323541 0.52416712 1.7229998
-0.16081335 0.53495049 1.723
-0.15753144 0.53659141 1.723
0.045946669 0.53330958 1.7229999
0.052510481 0.53495049 1.723
-0.15753144 0.54151428 1.723
0.054971904 0.5472576 1.723
-0.15424953 0.55792385 1.723
0.009845715 0.55136001 1.723
0.01969143 0.55300093 1.723
0.047040638 0.55518895 1.7229999
0.055792376 0.55464196 1.7229998
-0.16081335 0.56776953 1.723
-0.15589049 0.56612861 1.723
0.01969143 0.56120574 1.723
0.024067303 0.56339365 1.723
0.037741907 0.56612861 1.723
0.045477826 0.56355 1.7229998
0.053604443 0.56229973 1.723
-0.16081335 0.57105148 1.723
-0.1555623 0.57367694 1.7229999
0.037741907 0.57433337 1.7229999
0.044305716 0.57433337 1.7229999
-0.15424953 0.5841791 1.723
0.037741907 0.58417904 1.7229999
0.042664763 0.58417904 1.723
-0.15424953 0.59402484 1.723
0.037741907 0.59402484 1.7229999
0.043485239 0.59484529 1.723
-0.15424953 0.60387051 1.723
0.038562384 0.60305005 1.723
0.044305716 0.60387057 1.7229999
-0.15315557 0.61371619 1.723
0.03938286 0.61535716 1.723
0.046415512 0.61371619 1.7229998
-0.15096763 0.62356192 1.723
0.029537143 0.62684381 1.723
0.036100958 0.62356198 1.7229998
0.045946669 0.62356192 1.7229999
-0.15096763 0.63176668 1.723
-0.14768572 0.63668954 1.723
0.029537143 0.63176668 1.723
0.036100958 0.63504857 1.7229997
0.045946669 0.63559556 1.7229998
0.054151431 0.63997144 1.723
-0.15096763 0.64981717 1.723
-0.14768572 0.64489436 1.723
0.038070098 0.64653528 1.7229999
0.045477826 0.64559758 1.7229998
0.053604443 0.64434737 1.723
0.022973334 0.65638095 1.723
0.016495239 0.097321913 1.7320001
0.02639238 0.097321905 1.7320002
0.034090158 0.096772075 1.732
0.095672376 0.098971434 1.732
0.10556953 0.098971434 1.732
0.11546668 0.098971434 1.732
0.12371429 0.098971434 1.7320001
-0.19794287 0.10886858 1.7320001
-0.1583543 0.10886858 1.7320001
-0.10227048 0.10886858 1.7320001
-0.094572701 0.10776889 1.732
-0.089074291 0.10721906 1.7320001
0.014845715 0.10227048 1.7320001
0.02969143 0.10227048 1.7320001
0.036289528 0.10227048 1.7320001
0.049485717 0.10227048 1.7320001
0.12701333 0.10227048 1.7320001
0.13526097 0.10490972 1.7320001
0.1451581 0.10639429 1.7320001
0.1545054 0.10556953 1.7320002
-0.20124191 0.11876572 1.7320001
-0.19794287 0.11381715 1.7320001
-0.1583543 0.11216763 1.7320001
0.13856001 0.11216763 1.7320001
0.14647773 0.11546668 1.7320001
0.15505524 0.11546666 1.7320002
-0.19794287 0.12536381 1.732
0.14610069 0.12536381 1.7320002
0.15340571 0.12536381 1.7320002
-0.1971181 0.13608572 1.7320001
0.13746034 0.13746034 1.732
0.14625779 0.13636063 1.7320002
0.15307581 0.13460116 1.7320001
-0.19662324 0.14581791 1.7320001
0.13636065 0.14405842 1.732
0.1451581 0.14268382 1.7320001
0.1517562 0.14185905 1.7320001
-0.19464381 0.15505524 1.732
0.11546667 0.1583543 1.7320001
0.12734322 0.15439543 1.7320001
0.13416128 0.15560508 1.7320002
-0.19134477 0.16660191 1.7320001
0.1263064 0.16448109 1.7320002
0.13328151 0.1649524 1.7320001
-0.19134478 0.17484953 1.732
-0.18804573 0.17484953 1.732
0.1263064 0.17437825 1.7320002
0.13196191 0.17155048 1.7320001
-0.19134478 0.18474667 1.732
-0.18804573 0.18309715 1.7320001
0.11876572 0.18804573 1.7320001
0.1257762 0.18515906 1.7320002
0.13196191 0.18474668 1.732
-0.19216952 0.19546857 1.7320001
0.1174461 0.19464383 1.7320001
0.12536381 0.19464381 1.7320002
0.13278666 0.19546857 1.7320001
-0.19216953 0.20454097 1.7320001
0.11711619 0.20454095 1.7320002
0.12495144 0.20412856 1.7320002
0.13361144 0.20124191 1.7320001
-0.18804573 0.2144381 1.732
0.10776889 0.21553779 1.732
0.11546668 0.21443813 1.7320002
0.12206477 0.2144381 1.732
-0.18804573 0.22433525 1.732
0.10754895 0.22433524 1.7320001
0.11546666 0.22433525 1.7320002
0.12206477 0.22433525 1.7320001
-0.18804573 0.23093334 1.7320001
0.10886858 0.23093334 1.7320001
0.11546668 0.2342324 1.7320002
0.12371429 0.23423241 1.7320002
-0.18804573 0.24412954 1.732
0.10886858 0.24083048 1.7320001
0.11593796 0.24412954 1.7320002
0.12489253 0.24507211 1.7320002
0.13196191 0.24742858 1.7320001
-0.18804573 0.25567621 1.7320001
0.095672384 0.25567621 1.7320001
0.10776889 0.25622603 1.732
0.11546666 0.25402665 1.7320002
0.12338438 0.25336686 1.7320001
-0.1863962 0.26557335 1.7320001
0.096497148 0.26474857 1.7320001
0.10598191 0.2643362 1.7320002
0.11452408 0.26345253 1.7320002
0.12206477 0.26062477 1.7320001
-0.18557143 0.27464575 1.7320001
0.096084759 0.27423334 1.7320002
0.10556953 0.27382097 1.7320002
0.11381713 0.27382097 1.7320002
-0.1863962 0.28371811 1.7320002
0.086874925 0.28481779 1.732
0.095672384 0.28371811 1.7320002
0.10556953 0.28371808 1.7320002
0.11546668 0.28041905 1.732
-0.1863962 0.29361525 1.7320002
0.08742477 0.29031619 1.7320001
0.096614964 0.29314396 1.7320002
0.10359009 0.29295546 1.7320001
-0.1860663 0.30351239 1.7320001
0.097321905 0.30351242 1.7320002
0.10359009 0.30417222 1.7320001
-0.18276724 0.31340954 1.7320001
0.089074291 0.31670859 1.7320001
0.096084759 0.31382194 1.7320002
0.10424991 0.31208992 1.7320001
-0.18144763 0.32330668 1.732
-0.17814858 0.32495618 1.7320001
0.086435065 0.32495621 1.7320001
0.095372468 0.32450631 1.7320002
0.10556952 0.32000762 1.732
0.11216763 0.32000762 1.7320001
-0.17814858 0.33650288 1.732
0.086717829 0.33697414 1.7320002
0.094022863 0.33650288 1.7320002
-0.17814858 0.34640002 1.732
0.086717837 0.34687132 1.7320002
0.094022863 0.34640002 1.7320002
-0.18144763 0.35794669 1.7320001
-0.17814858 0.35629714 1.732
0.085775249 0.35629719 1.7320002
0.094729789 0.35676843 1.7320002
-0.18144763 0.36619431 1.7320001
-0.17814858 0.36619428 1.732
0.07752762 0.36619428 1.7320002
0.085775249 0.36619428 1.7320002
-0.17484953 0.37279239 1.7320001
0.076290473 0.37650383 1.7320002
0.085775249 0.37444195 1.7320002
-0.17484953 0.38598859 1.732
0.075878099 0.38598859 1.7320002
0.082476191 0.38763809 1.7320001
0.069280006 0.39588574 1.7320001
0.075878099 0.39588574 1.7320002
0.084455624 0.39720535 1.7320001
-0.17374985 0.40578285 1.732
0.069280006 0.40578285 1.732
0.075878091 0.40578291 1.7320002
0.085775249 0.40578291 1.7320002
-0.16825144 0.41732955 1.7320001
0.069280006 0.41403049 1.7320001
0.075878099 0.41568005 1.7320002
0.084455624 0.41436037 1.7320001
-0.16825144 0.42392763 1.7320001
0.075878091 0.42557713 1.7320002
0.083300956 0.42640191 1.7320001
-0.17155047 0.43547431 1.732
0.075878091 0.43547434 1.7320002
0.083300956 0.43629909 1.7320001
-0.17374985 0.4475708 1.732
0.05938286 0.44537145 1.7320001
0.065980956 0.44537142 1.7320002
0.075465716 0.44495904 1.7320002
0.082476191 0.44372192 1.7320001
-0.1732 0.45609337 1.7320001
0.067630485 0.45526859 1.7320002
0.072579049 0.45526859 1.732
-0.17265016 0.46296635 1.732
-0.16825144 0.46846479 1.7320001
0.068455242 0.46434098 1.7320001
0.074935511 0.46516576 1.7320002
0.082476191 0.46516573 1.7320001
-0.16715175 0.47506288 1.732
0.069280006 0.47176382 1.7320001
0.076349385 0.47412029 1.7320002
0.085775249 0.47671238 1.7320002
0.092373334 0.47836193 1.7320001
-0.16495238 0.48495999 1.732
0.069280006 0.48825908 1.7320001
0.076427937 0.48496005 1.7320002
0.084125713 0.48166096 1.7320001
-0.16495238 0.49485716 1.732
0.069280006 0.49485716 1.732
0.075465716 0.49526951 1.7320002
0.082476191 0.49650669 1.7320001
-0.16495238 0.5047543 1.732
0.069280006 0.5047543 1.732
0.075878091 0.5047543 1.7320002
0.082476191 0.50310481 1.7320001
-0.16495238 0.51465142 1.732
0.069280006 0.51135242 1.7320001
0.075053334 0.51382667 1.7320001
-0.16495238 0.52619815 1.7320001
0.065980949 0.52619815 1.7320002
0.07521829 0.52520835 1.7320001
-0.16495238 0.53279626 1.7320001
0.057733338 0.53444576 1.7320002
0.065980956 0.53444576 1.7320002
0.07422857 0.53444576 1.7320002
-0.16165334 0.54599237 1.7320001
-0.1583543 0.54764193 1.7320001
0.057733338 0.54434294 1.7320002
0.065980963 0.54434282 1.7320002
-0.1583543 0.55423999 1.732
0.065980956 0.55423999 1.7320002
0.075878099 0.55423999 1.7320002
0.083300956 0.5550648 1.7320001
-0.16165334 0.56413716 1.732
-0.1583543 0.5624876 1.7320001
0.058283176 0.56633657 1.732
0.065980956 0.56413716 1.7320002
0.075878091 0.56413722 1.7320002
0.085362867 0.56454957 1.7320002
-0.16412763 0.57485902 1.7320001
0.048660953 0.57320952 1.7320001
0.056083813 0.57403439 1.7320002
0.065980956 0.57403433 1.7320002
0.075878099 0.57403427 1.7320002
0.084832653 0.57356304 1.7320002
-0.16165334 0.58393145 1.732
-0.1583543 0.58393145 1.732
0.048166096 0.58459127 1.7320001
0.056083806 0.58393151 1.7320002
0.065980956 0.58393151 1.7320002
0.075878099 0.58393145 1.7320002
0.083795808 0.58327162 1.7320001
-0.1583543 0.59382862 1.732
0.047836196 0.59382862 1.7320002
0.056083813 0.59382856 1.7320002
0.064661339 0.59250897 1.7320001
0.076427944 0.59272885 1.7320002
0.083795808 0.59316874 1.7320001
-0.16165334 0.60372573 1.7320001
-0.1583543 0.60372573 1.732
0.049485717 0.60372573 1.732
0.056083813 0.60372567 1.7320002
0.062681906 0.60702479 1.7320001
-0.1583543 0.61032385 1.7320001
0.049485717 0.61032385 1.7320001
0.056083817 0.6136229 1.7320002
0.062681906 0.6136229 1.7320001
-0.15505524 0.62351996 1.732
0.046186667 0.62351996 1.732
0.056083813 0.62352014 1.7320002
0.062681906 0.62352008 1.732
0.046186667 0.63341713 1.732
0.056083813 0.63341713 1.7320002
0.063506663 0.63341713 1.7320001
-0.15395556 0.64386415 1.7320002
0.046186667 0.64001524 1.7320001
0.057403434 0.64199466 1.7320001
0.064881273 0.64386415 1.7320002
0.019794287 0.65980953 1.7320001
0.016580954 0.097827621 1.7410001
0.089537144 0.099485718 1.7410001
0.11938286 0.094511434 1.7410001
0.12933144 0.099485718 1.7410001
0.13430572 0.099485718 1.7410001
0.14812317 0.097274922 1.7410001
0.15917715 0.099485718 1.7410001
-0.15586096 0.10943429 1.7410001
-0.1425962 0.10943429 1.7410001
-0.1061181 0.10943429 1.7410001
-0.096169524 0.10777619 1.7410001
0.0082904771 0.10280191 1.7410001
0.019897144 0.10280191 1.7410001
0.046426669 0.10280191 1.7410001
0.13928001 0.10280191 1.7410001
0.14591239 0.10280191 1.7410001
0.15917715 0.10446 1.7410001
0.16249333 0.10611811 1.7410001
-0.20394573 0.11772476 1.7410001
-0.15586096 0.11275048 1.7410001
-0.14591238 0.11440857 1.7410001
0.16359873 0.11827746 1.7410001
-0.20228763 0.12601525 1.7410001
0.15917715 0.12601525 1.7410001
0.16249333 0.12601525 1.7410001
-0.20228763 0.13596381 1.7410001
0.15586096 0.13928001 1.7410001
-0.20228763 0.14591239 1.7410001
0.13762191 0.14922857 1.7410001
0.14591238 0.1479021 1.7409999
0.15420286 0.14591238 1.7410001
-0.20228763 0.15420286 1.7410001
-0.19897144 0.15586096 1.7410001
0.13817461 0.15475556 1.7410001
0.14591239 0.15586096 1.7410001
0.15420286 0.15586096 1.7410001
-0.19698171 0.16514629 1.7409999
0.13845097 0.16580953 1.7410001
0.1442543 0.16580953 1.7410001
-0.19565524 0.17410001 1.7410001
0.13596381 0.17575811 1.7410001
0.1425962 0.17244191 1.7410001
-0.19565524 0.18570668 1.7410001
0.13729028 0.18570669 1.7409999
-0.19676064 0.19565524 1.7410001
0.13706921 0.19565524 1.7410001
-0.19731334 0.20477477 1.7410001
0.12933144 0.20892 1.7410001
0.13596381 0.20615654 1.7410001
0.1442543 0.20394573 1.7410001
-0.1931681 0.21472335 1.7410001
0.12734172 0.21488914 1.7409999
-0.19233905 0.22550096 1.7410001
0.12546255 0.22605366 1.7410001
0.13264762 0.22881715 1.7410001
-0.19233905 0.23710763 1.7410001
-0.18902287 0.23710763 1.7410001
0.12933144 0.23544954 1.7410001
0.13264762 0.23544954 1.7410001
-0.19233905 0.2453981 1.7410001
0.12767334 0.24208191 1.7410001
0.13264762 0.24374001 1.7410001
-0.19233905 0.25534669 1.7410001
-0.18902287 0.25203049 1.7410001
0.1285024 0.25617576 1.7410001
0.13397411 0.25600991 1.7409999
-0.19233905 0.26529524 1.7410001
-0.18902287 0.26197904 1.7410001
0.11938286 0.26695335 1.7410001
0.12601523 0.26529527 1.7410001
0.13430572 0.26197904 1.7410001
-0.19233905 0.27524382 1.7410001
-0.18902287 0.27358574 1.7410001
0.11938286 0.27524379 1.7410001
0.1235281 0.27607286 1.7410001
-0.19233905 0.2851924 1.7410001
0.11606666 0.28685048 1.7410001
0.1235281 0.28436333 1.7410001
-0.19233905 0.29514095 1.7410001
0.10860524 0.29596999 1.7410001
0.11275048 0.29514095 1.7410001
-0.19233905 0.3050895 1.7410001
-0.18902287 0.30508953 1.7410001
0.10860525 0.30426049 1.7410001
0.11357953 0.30591857 1.7410001
-0.19233905 0.31172192 1.7410001
-0.18819383 0.31503811 1.7410001
0.10777619 0.3166962 1.7410001
0.11407696 0.31503814 1.7409999
-0.18736477 0.3249867 1.7410001
0.10611811 0.32664478 1.7410001
0.11606667 0.32432348 1.7409999
-0.18371697 0.33493525 1.7409999
0.099485718 0.33493528 1.7410001
0.10517062 0.33540899 1.7410001
0.11275048 0.33825144 1.7410001
-0.1823905 0.34488383 1.7410001
0.099485718 0.34488383 1.7410001
0.10611811 0.34488383 1.7410001
0.11407696 0.34554708 1.7409999
-0.18239048 0.3531743 1.7410001
0.099485718 0.35483241 1.7410001
0.1061181 0.35483241 1.7410001
0.11496127 0.35427973 1.7410001
-0.18404858 0.36643904 1.7410001
0.096169531 0.36643907 1.7410001
0.10570358 0.36436641 1.7410001
0.11275048 0.36146477 1.7410001
-0.1823905 0.37472954 1.7410001
-0.17907429 0.37638766 1.7410001
0.096169524 0.37472951 1.7410001
0.10363096 0.37390047 1.7410001
-0.1823905 0.38467813 1.7410001
-0.17907429 0.38467813 1.7410001
0.086635478 0.3842636 1.7410001
-0.18239048 0.39628476 1.7410001
-0.17907429 0.39462671 1.7410001
0.087879054 0.39462671 1.7410001
0.092853338 0.39462668 1.7410001
-0.1823905 0.40457526 1.7410001
-0.17907429 0.40457526 1.7410001
0.095222048 0.40504906 1.7410001
0.10280191 0.40789145 1.7410001
-0.17509487 0.41386062 1.7409999
0.087879047 0.41784 1.7410001
0.096169524 0.41452384 1.7410001
0.10446 0.41452384 1.7410001
-0.17244191 0.42447242 1.7410001
0.087879039 0.42447236 1.7410001
0.096169524 0.42447236 1.7410001
0.10363096 0.42364335 1.7410001
-0.17465271 0.43442097 1.7410001
0.088210665 0.43508419 1.7409999
0.095506296 0.43243128 1.7409999
0.10280191 0.43110478 1.7410001
-0.17686351 0.44436955 1.7410001
0.088210665 0.44503278 1.7409999
0.093682386 0.44354051 1.7410001
-0.17824525 0.45431814 1.7410001
0.078262106 0.45498133 1.7409999
0.08622095 0.45431811 1.7410001
0.092853338 0.4576343 1.7410001
-0.17824525 0.46509576 1.7410001
0.078483179 0.46205589 1.7410001
0.086635478 0.4638522 1.7410001
0.096169524 0.46426672 1.7410001
0.10280191 0.4659248 1.7410001
-0.17376839 0.47355205 1.7409999
0.079588577 0.47089908 1.7410001
0.08622095 0.47255719 1.7410001
0.096169524 0.47421524 1.7410001
0.10280191 0.47421527 1.7410001
-0.17244191 0.48084763 1.7410001
-0.16912572 0.48416385 1.7410001
0.087049998 0.48665097 1.7410001
0.096169531 0.48416379 1.7410001
0.10390731 0.48195302 1.7410001
-0.16912572 0.4941124 1.7410001
0.079588577 0.49245429 1.7410001
0.086635478 0.49369791 1.7410001
0.093958735 0.49190161 1.7410001
-0.16912572 0.50406098 1.7410001
0.087879039 0.50406098 1.7410001
0.093682386 0.50323194 1.7410001
-0.16912572 0.51400954 1.7410001
0.079588577 0.51566768 1.7410001
0.084894471 0.51268303 1.7409999
-0.16802032 0.52395809 1.7410001
0.079588577 0.52395809 1.7410001
0.083733812 0.52395809 1.7410001
-0.16912572 0.5339067 1.7410001
0.079588577 0.5339067 1.7410001
0.082904764 0.5339067 1.7410001
-0.16691492 0.54164451 1.7410001
0.076746121 0.54480273 1.7410001
0.08456286 0.54385525 1.7410001
-0.16249333 0.55546188 1.7410001
0.076272383 0.55048764 1.7410001
0.086220957 0.5538038 1.7409999
-0.16470413 0.56375241 1.7410001
0.089537144 0.56209433 1.7410001
0.093958735 0.56596321 1.7410001
-0.16829668 0.57287192 1.7410001
0.089537144 0.57701719 1.7410001
0.094179817 0.57303774 1.7409999
-0.16691492 0.58364958 1.7410001
0.089537144 0.58364958 1.7410001
0.092853338 0.58364958 1.7410001
-0.16359873 0.59359813 1.7410001
0.067981906 0.59691429 1.7410001
0.076272383 0.59691429 1.7410001
0.088708095 0.59276909 1.7410001
-0.16249333 0.6018886 1.7410001
0.06577111 0.60354668 1.7410001
0.076272391 0.60299402 1.7410001
0.086635478 0.60396117 1.7410001
0.092853338 0.60354668 1.7410001
-0.16249333 0.61183715 1.7410001
-0.15917715 0.61681145 1.7410001
0.066323809 0.61415851 1.7409999
0.08456286 0.61017907 1.7410001
-0.15917715 0.62012762 1.7410001
0.066323809 0.62344384 1.7410001
-0.15586096 0.63505054 1.7410001
0.068313524 0.63272917 1.7409999
-0.15586096 0.64334095 1.7410001
0.067981906 0.64168292 1.7410001
-0.15254477 0.65328956 1.7410001
0.010000001 0.096666671 1.7500001
0.087112382 0.095488578 1.7590001
0.093934283 0.093934283 1.7533751
0.10051429 0.095488578 1.7590001
0.13736953 0.097163811 1.7590001
0.14202668 0.096915245 1.7545002
0.155 0.096666671 1.7500001
0.16389905 0.096998096 1.7560002
0.19613561 0.094390854 1.7572
0.20186621 0.09381333 1.7590001
-0.21108001 0.10721524 1.7590001
-0.20437904 0.10721525 1.7590002
-0.15359049 0.10684953 1.7530001
-0.14574572 0.10721524 1.7590001
-0.10166667 0.10666667 1.7500001
0.0050085718 0.10360762 1.7545002
0.010000001 0.1 1.7500001
0.043556191 0.10051429 1.7590001
0.077060953 0.10051429 1.7590001
0.083470486 0.10017142 1.7530001
0.14333335 0.1 1.7500001
0.155 0.1 1.7500001
0.16604763 0.10262857 1.7522501
0.17383239 0.10362478 1.755
0.18331893 0.10386477 1.7589999
0.19432762 0.10386476 1.7589999
0.20186621 0.10302715 1.7590001
-0.21131811 0.11568306 1.7554001
-0.20533335 0.11266667 1.7500002
-0.15185952 0.11180811 1.7522501
-0.14704382 0.11194953 1.7545002
-0.1139162 0.11056572 1.7590002
-0.07538572 0.1139162 1.7590001
0.16583334 0.11333334 1.7500001
0.17345086 0.11429314 1.7545
0.18427621 0.1139162 1.7589999
0.1932108 0.11279938 1.7589999
-0.21376041 0.12329753 1.7590001
-0.20666668 0.125 1.7500001
0.16584128 0.12466159 1.7530001
0.17453429 0.12430714 1.757875
0.1838574 0.12396763 1.7589999
0.19181477 0.12480524 1.7590001
-0.21108001 0.13401906 1.7590002
-0.20666666 0.13333334 1.7500001
0.16396429 0.13392143 1.7522501
0.17422476 0.13401905 1.7589999
0.18331894 0.13354041 1.7589999
0.19097716 0.13066858 1.7590001
-0.21239525 0.14382191 1.756
-0.20666666 0.14333333 1.7500001
0.15666667 0.14333335 1.7500001
0.16380572 0.14374477 1.755
0.17374614 0.14311321 1.7589999
-0.21374168 0.15434571 1.75675
-0.20666666 0.15333334 1.7500001
0.155 0.15166667 1.7500001
0.16389716 0.15385713 1.756
0.17171191 0.15412191 1.7590001
-0.2124202 0.16350324 1.7590001
-0.20500003 0.16333334 1.7500001
0.14500001 0.16666667 1.7500001
0.15404999 0.16406716 1.7533751
0.16417333 0.16417336 1.7589999
0.17171191 0.16333573 1.7590001
-0.21191762 0.17338714 1.7590001
-0.20333336 0.17333333 1.7500001
0.14555557 0.17555557 1.7500001
0.15351237 0.17353332 1.7520001
0.16417336 0.17422478 1.7589999
0.17310794 0.17310794 1.7589999
-0.21108001 0.18427618 1.7590002
-0.20380384 0.1837505 1.7540001
-0.19666667 0.18000001 1.7500001
0.14375 0.18333334 1.7500001
0.15368952 0.18375428 1.7540001
0.16361143 0.18364763 1.753
0.17221448 0.18427619 1.7590001
-0.20380384 0.19377334 1.7540001
0.14375 0.19375002 1.7500001
0.15377714 0.19388382 1.755
0.16417335 0.19432762 1.7589999
0.17254953 0.19432764 1.7589999
-0.20553143 0.20385621 1.7545
0.14500001 0.2 1.7500001
0.15351237 0.20356384 1.7520001
0.16417335 0.20437907 1.7589999
0.17171192 0.20521668 1.7590001
-0.20403621 0.21406478 1.756
-0.19666667 0.21666667 1.7500001
0.13500001 0.215 1.7500001
0.14333333 0.21333335 1.7500001
0.15333332 0.21333335 1.7500001
0.16417333 0.21443048 1.7589999
0.17254953 0.21443047 1.7589999
-0.2041505 0.22422859 1.757
-0.19666667 0.22333334 1.7500001
0.13333334 0.22333333 1.7500001
0.14382286 0.22410096 1.756
0.15386285 0.22410287 1.756
0.16417333 0.22448193 1.7589999
0.17171191 0.22448191 1.7590001
-0.20342179 0.2340547 1.7589999
-0.19583334 0.23333335 1.7500001
0.13666667 0.23333335 1.7500001
0.14407048 0.23453334 1.7589999
0.15211162 0.23386323 1.7590001
-0.20270382 0.24458478 1.7589999
-0.19666667 0.24333334 1.7500001
0.13666667 0.24333334 1.7500001
0.14399049 0.24444382 1.7579999
0.15077144 0.24458477 1.7590001
-0.20102859 0.2546362 1.7590002
-0.19666667 0.25333333 1.7500001
0.13666667 0.25166667 1.7500001
0.14407048 0.2546362 1.7589999
0.15244667 0.2546362 1.7590001
-0.20270382 0.26468763 1.7589999
-0.19666667 0.26333335 1.7500001
0.13500001 0.26666668 1.7500001
0.14391048 0.26438859 1.757
0.15244667 0.26468763 1.7590001
-0.20270382 0.27473903 1.7589999
-0.19666667 0.27333334 1.7500001
0.12666667 0.27500001 1.7500001
0.13348953 0.27364761 1.7520001
0.14407048 0.27473903 1.7589999
0.15160906 0.27390143 1.7590001
0.16082287 0.27641428 1.7590001
-0.20186621 0.28395286 1.7590001
-0.19666667 0.28333333 1.7500001
0.12666667 0.28666669 1.7500001
0.13364381 0.28398287 1.7540001
0.14407049 0.28479049 1.7589999
0.15412191 0.28479049 1.7589999
0.16166049 0.28395286 1.7590001
-0.20102859 0.29484192 1.7590002
-0.19666667 0.29333335 1.7500001
0.11833333 0.29500002 1.7500001
0.12533334 0.294 1.7500002
0.13379619 0.29433906 1.756
0.14407048 0.29484192 1.7589999
0.15412191 0.29484192 1.7589999
0.16082287 0.29484192 1.7590002
-0.20102859 0.30489334 1.7590002
-0.19666667 0.30333334 1.7500001
0.11833333 0.30333331 1.7500001
0.125 0.30333331 1.7500001
0.13394478 0.30472192 1.7579999
0.14390858 0.30454665 1.757
0.15244667 0.30489334 1.7589999
0.16082287 0.30154288 1.7590001
-0.20102859 0.31494477 1.7590002
-0.19583334 0.31416667 1.7500001
0.11916666 0.31416667 1.7500001
0.12521714 0.31387332 1.7530001
0.13401905 0.31494477 1.7589999
0.14365166 0.31452596 1.7589999
0.15188827 0.31271115 1.7590002
-0.20102859 0.3249962 1.7590002
-0.19516857 0.32361051 1.7515001
0.12 0.32333335 1.7500001
0.12521714 0.32388765 1.7530001
0.13360023 0.32457739 1.7589999
0.14340039 0.32298595 1.7590001
-0.20102859 0.33337241 1.7590001
-0.1941293 0.33439285 1.7533751
-0.18666667 0.33666667 1.7500001
0.11533333 0.33399999 1.7500002
0.12532571 0.33419049 1.7545
0.13360025 0.33462885 1.7589999
-0.1934181 0.34379953 1.7545
-0.18666667 0.34500003 1.7500001
0.11866666 0.34266669 1.7500002
0.12532286 0.34421051 1.7545
0.13401905 0.34509906 1.7589999
0.14206019 0.34509906 1.7590001
-0.19248952 0.3548505 1.7575001
-0.18666667 0.35333335 1.7500001
0.11888888 0.35444447 1.7500001
0.12510857 0.35363904 1.7515001
0.13401906 0.35515046 1.7589999
0.14239524 0.35515049 1.7589999
-0.19212191 0.36482477 1.7572
-0.18666667 0.36333334 1.7500001
0.11711238 0.36557668 1.7567501
0.12340922 0.36520192 1.7589999
0.13497631 0.36472327 1.7589999
0.14311321 0.36472327 1.7589999
-0.19216383 0.37429333 1.7545
-0.18666667 0.375 1.7500001
0.10666667 0.37666669 1.7500001
0.11385335 0.37503812 1.7579999
0.12354882 0.37567216 1.7589999
0.13401906 0.37525335 1.7589999
0.14239526 0.37525335 1.7589999
0.15077144 0.37860382 1.7590001
-0.19232666 0.38465047 1.756
-0.18666667 0.38333336 1.7500001
0.094999999 0.38500002 1.7500001
0.10380954 0.38428575 1.7500001
0.11372762 0.38464761 1.756
0.12396762 0.38530472 1.7589999
0.13401905 0.38530478 1.7589999
0.14155763 0.38446715 1.7590001
0.15077144 0.38195431 1.7590001
-0.19232666 0.39467907 1.756
-0.18583333 0.39333335 1.7500001
0.095333338 0.39266667 1.7500002
0.10333335 0.39333338 1.7500001
0.11372764 0.3946819 1.756
0.12396762 0.39535621 1.7589999
0.13306178 0.39487758 1.7589999
0.14072001 0.39200574 1.7590001
-0.19216381 0.40437052 1.7545
-0.18666667 0.40333334 1.7500001
0.094999999 0.40000001 1.7500001
0.10333334 0.40333337 1.7500001
0.11405828 0.40320745 1.7509
0.12438644 0.40582648 1.7589999
0.13360025 0.40498883 1.7589999
0.14072001 0.40373242 1.7590001
-0.19216383 0.4143962 1.7545
-0.18444444 0.41444448 1.7500001
0.10666667 0.41000003 1.7500001
0.114 0.41333336 1.7500002
0.12438644 0.41545904 1.7589999
0.13234381 0.41545907 1.7589999
-0.19181477 0.4246729 1.7590001
-0.18365145 0.42406288 1.753
-0.17666668 0.42333332 1.7500001
0.10666667 0.42666668 1.7500001
0.11346477 0.423821 1.7520001
0.12396763 0.42551053 1.7589999
0.13234381 0.4255105 1.7589999
-0.19097716 0.43221146 1.7590001
-0.18305443 0.43492272 1.7564286
-0.17666668 0.43166667 1.7500001
0.1047764 0.43511587 1.7518002
0.11385335 0.43531621 1.7579999
0.12396762 0.43556193 1.7589999
0.13200876 0.4355619 1.7590001
-0.19097716 0.44728857 1.7590001
-0.18375809 0.44434479 1.7540001
0.095555551 0.44222224 1.7500001
0.10357524 0.4443467 1.7540001
0.1139162 0.44561338 1.7589999
0.12285081 0.44449654 1.7589999
0.13234381 0.44226289 1.7590001
-0.19097716 0.45566478 1.7590002
-0.18548 0.4544991 1.7545
0.09533333 0.454 1.7500002
0.10363429 0.45463052 1.755
0.1139162 0.45566478 1.7589999
0.12145476 0.45482719 1.7590001
-0.19097716 0.46404096 1.7590001
-0.18548 0.46452475 1.7545
0.096666671 0.46000001 1.7500001
0.10453588 0.46261653 1.7515001
0.1139162 0.46571615 1.7589999
0.12145476 0.46655381 1.7590001
-0.18325208 0.47455049 1.7545
0.10666666 0.47333336 1.7500001
0.11385335 0.47549522 1.7579999
0.12354881 0.47618642 1.7589999
0.13066858 0.47911811 1.7590001
-0.18244667 0.48540762 1.7575001
-0.17583334 0.48416668 1.7500001
0.10666667 0.48333335 1.7500001
0.11505 0.4835391 1.7507501
0.12553714 0.48540762 1.7575001
0.13290223 0.48470223 1.7589999
-0.18176335 0.49503288 1.7590001
-0.17530286 0.49418196 1.7530001
0.096666671 0.4966667 1.7500001
0.10345335 0.49390092 1.7520001
0.11534286 0.49481475 1.7552501
0.12564287 0.4958705 1.7589999
0.13234381 0.4958705 1.7589999
-0.18226592 0.50659198 1.7590001
-0.17515132 0.50539511 1.7538573
0.095833339 0.50416666 1.7500001
0.10316286 0.50477487 1.7527001
0.1139162 0.50592196 1.7589999
0.12396762 0.5059219 1.7589999
0.13234381 0.5059219 1.7589999
-0.18226592 0.51530325 1.7590001
-0.17587848 0.51558405 1.7554001
0.086666673 0.51666671 1.7500001
0.093999997 0.51533335 1.7500002
0.10402215 0.51506788 1.7545
0.1139162 0.51597333 1.7589999
0.12396762 0.51597333 1.7589999
0.13234381 0.51597333 1.7589999
-0.18092573 0.52602476 1.7590002
-0.17467512 0.52496302 1.7538573
0.086666673 0.52166671 1.7500001
0.093495235 0.52423435 1.753
0.10374858 0.5254305 1.757
0.11439484 0.52506751 1.7589999
0.12396762 0.52602482 1.7589999
0.13234381 0.52434957 1.7590001
-0.18092573 0.53440094 1.7590001
-0.1754543 0.5347048 1.7545
0.086666673 0.53333336 1.7500001
0.093813337 0.53565741 1.7589999
0.10386477 0.53607619 1.7590001
0.11726667 0.53272575 1.7590001
0.12396762 0.53607625 1.7589999
-0.17434032 0.54473048 1.7545
0.086666673 0.54000002 1.7500001
0.093813337 0.54654646 1.7589999
0.10274794 0.54668599 1.7589999
0.12396763 0.54612756 1.7589999
-0.17393333 0.55523044 1.756
-0.16666667 0.55333334 1.7500001
0.093710475 0.55554473 1.757
0.10135191 0.55701667 1.7590001
0.11447462 0.55729586 1.7589999
0.12354882 0.55576026 1.7589999
0.13066858 0.55617905 1.7590002
-0.17262031 0.56647468 1.7540001
-0.16666667 0.56166667 1.7500001
0.095333338 0.56266665 1.7500002
0.10332229 0.56573486 1.7554001
0.1139162 0.56623054 1.7589999
0.12396763 0.56623054 1.7589999
0.13066858 0.56623048 1.7590002
-0.17587848 0.57576913 1.7554001
0.10402215 0.57522213 1.7545
0.1139162 0.57628191 1.7589999
0.12396763 0.57580328 1.7589999
0.13066858 0.57293147 1.7590001
-0.17467511 0.58509529 1.7538573
0.096666671 0.58333337 1.7500001
0.10375049 0.58566672 1.757
0.11343756 0.58537608 1.7589999
0.12396762 0.5829829 1.7590001
-0.17266794 0.59374791 1.7545
-0.16666667 0.59666669 1.7500001
0.095333338 0.59400004 1.7500002
0.10290749 0.59590614 1.7589999
0.11726667 0.59303433 1.7590001
-0.1708743 0.60643625 1.7590002
-0.16695239 0.60437334 1.7530001
0.07 0.60666668 1.7500001
0.095833339 0.60250002 1.7500001
0.10344596 0.60685503 1.7589999
-0.1708743 0.61481237 1.7590001
-0.1672381 0.61544192 1.756
0.073749997 0.61291671 1.7500001
0.082500011 0.61583334 1.7500001
0.09380953 0.61428577 1.7500001
0.10380763 0.61613721 1.7579999
0.11168256 0.61760443 1.7590002
-0.16369823 0.62565958 1.7538573
0.07333333 0.62500006 1.7500001
0.083174855 0.62528569 1.7536001
0.093671046 0.62624741 1.7563
0.10381162 0.62688524 1.7580999
0.11295892 0.62701768 1.7589999
0.12396762 0.62988955 1.7590001
-0.16393824 0.63565743 1.7564286
0.075000003 0.63500005 1.7500001
0.08402428 0.6357857 1.755625
0.093813337 0.63700932 1.7589999
0.10386477 0.63700932 1.7589999
0.11378857 0.63586289 1.757
0.12340921 0.63659048 1.7589999
0.1356943 0.63491523 1.7590001
0.14072001 0.63659048 1.7590001
0.15412192 0.63659048 1.7590002
-0.1708743 0.64999241 1.7590001
-0.16389905 0.64553905 1.756
0.074701585 0.6433112 1.7560002
0.084176883 0.64521199 1.7577143
0.093813337 0.64664197 1.7589999
0.10368762 0.64553905 1.756
0.11302368 0.64332628 1.7525715
0.12061714 0.64329147 1.7590001
-0.16166668 0.65000004 1.7500001
-0.15666667 0.6566667 1.7500001
0.097163811 0.6533429 1.7590001
0.10218953 0.6533429 1.7590001
0.083228298 0.093812242 1.7679999
0.090925716 0.090925716 1.7680001
0.15827811 0.092609525 1.7680001
0.16164573 0.092609525 1.7680001
0.17511618 0.097660959 1.7680001
0.18521905 0.097660959 1.7680001
0.1919543 0.097660959 1.7680001
0.20744534 0.094293341 1.768
0.21216001 0.094293334 1.7680001
-0.21418056 0.10372267 1.768
-0.20710859 0.10271238 1.7680001
-0.11281524 0.10776381 1.7680001
-0.10776381 0.10776381 1.7680001
-0.0050514285 0.10776381 1.7680001
0.0016838096 0.10608 1.7680001
0.043779049 0.10439619 1.7680001
0.052198097 0.10102858 1.7680001
0.072403811 0.10102858 1.7680001
0.18858667 0.10439619 1.7680001
0.20744534 0.10506971 1.768
0.21300191 0.1052381 1.7680001
-0.21754818 0.11382552 1.768
0.19756699 0.11674413 1.7680001
0.20500383 0.1140781 1.7679999
0.21216001 0.11113143 1.7680001
-0.21777271 0.12684698 1.7680001
0.18858667 0.12460191 1.7680001
0.19734249 0.12392838 1.768
0.20500383 0.12502286 1.7679999
-0.21721143 0.13470477 1.768
0.18858667 0.13638857 1.7680001
0.19574288 0.13512573 1.7679999
0.20500383 0.13428381 1.7679999
-0.21889524 0.14144 1.7680001
0.17680001 0.14817524 1.7680001
0.18521905 0.14480761 1.7679999
0.19532193 0.14480762 1.7679999
0.20317967 0.14256255 1.7680001
0.17713678 0.15491048 1.768
0.18521905 0.15491048 1.7679999
0.19532192 0.15491048 1.7679999
-0.21552762 0.16838096 1.7680001
0.17713678 0.16568686 1.768
0.18521905 0.16501334 1.7679999
0.19435973 0.16501333 1.7679999
-0.21552762 0.17680001 1.7680001
0.17736129 0.17736126 1.7680001
0.18479812 0.17469524 1.7679999
0.1919543 0.17343238 1.7680001
-0.21552762 0.18185143 1.7680001
0.17764193 0.18521905 1.7680001
0.18319848 0.18454553 1.768
-0.21216001 0.19532192 1.7680001
0.1784838 0.19532192 1.7680001
0.18479809 0.19574285 1.7679999
-0.21216001 0.20542479 1.7680001
0.17713675 0.20475125 1.768
0.18521905 0.20638694 1.7679999
0.19307685 0.2065473 1.7680001
-0.21216001 0.21552761 1.7680001
0.1784838 0.21552764 1.7680001
0.18521905 0.21552759 1.7679999
0.19330135 0.21485409 1.768
-0.21216001 0.22226286 1.7680001
0.17713678 0.22563048 1.768
0.18521905 0.22563046 1.7679999
0.1936381 0.22563048 1.768
-0.20879239 0.23741716 1.7680001
0.15743619 0.23657525 1.7680001
0.16501336 0.23573335 1.7679999
0.17469522 0.23531239 1.7679999
0.18606095 0.23320763 1.7680001
0.19419938 0.23348826 1.7680001
-0.20879239 0.2458362 1.7680001
0.15533143 0.2458362 1.7679999
0.16501336 0.2458362 1.7679999
0.17343238 0.24752 1.7680001
-0.20677182 0.25526553 1.768
0.15539156 0.25593907 1.7679999
0.16501336 0.25593907 1.7679999
0.17343239 0.25593904 1.768
0.18185143 0.25762287 1.7680001
-0.20879239 0.26604193 1.7680001
0.15539157 0.26604193 1.7679999
0.16501334 0.26604193 1.7679999
0.17469525 0.26646286 1.7679999
0.18185143 0.26604193 1.7680001
0.15693104 0.27681831 1.768
0.16597553 0.27566364 1.7679999
0.17511618 0.27614474 1.7679999
0.18185143 0.27614477 1.7680001
-0.20542477 0.28793144 1.7680001
0.15491048 0.28624761 1.7680001
0.16703391 0.28692114 1.768
0.17469524 0.28624761 1.7679999
0.18353525 0.28288001 1.7680001
-0.20542477 0.29635051 1.7680001
0.16669714 0.29635048 1.768
0.17399366 0.29522792 1.768
-0.20542477 0.30645335 1.7680001
0.15827811 0.30645335 1.7680001
0.16543429 0.30687428 1.7679999
0.1751162 0.30982095 1.7680001
-0.20542477 0.31655619 1.7680001
0.14817524 0.31992382 1.7680001
0.15603302 0.31767878 1.768
0.16501336 0.31655622 1.7679999
0.1751162 0.31655619 1.7679999
0.18297398 0.31767875 1.7680001
-0.20542477 0.32329145 1.7680001
0.14817524 0.32665905 1.7680001
0.15491049 0.32497525 1.768
0.16501336 0.32497525 1.768
0.1751162 0.32497525 1.768
0.18185143 0.32665905 1.7680001
-0.20542477 0.33002669 1.7680001
0.13807239 0.33002669 1.7680001
0.14480764 0.33339429 1.7679999
0.15491048 0.33339429 1.7679999
0.16501334 0.33339429 1.7679999
0.1751162 0.33137375 1.768
0.18185143 0.33002669 1.7680001
-0.20205717 0.34349713 1.7680001
0.13807239 0.34012952 1.7680001
0.14593016 0.34293589 1.768
0.15491049 0.34349716 1.7679999
0.16389081 0.34125209 1.7680001
-0.19868954 0.35360003 1.7680001
0.14817524 0.35360003 1.7680001
0.15491049 0.35360003 1.7679999
-0.19756699 0.36370286 1.7680001
0.12796953 0.3670705 1.7680001
0.13133715 0.3670705 1.7680001
0.14817524 0.36370289 1.7680001
0.15448952 0.36328197 1.7679999
0.16164573 0.36033526 1.7680001
-0.19868954 0.37380573 1.7680001
0.12796953 0.37212193 1.7680001
0.13133715 0.3704381 1.7680001
0.14817524 0.37380573 1.7680001
0.15322666 0.37380573 1.768
-0.19868954 0.3839086 1.7680001
0.14733334 0.38475049 1.7680001
0.15547174 0.3839086 1.768
-0.19868954 0.39401141 1.7680001
0.13807239 0.39737907 1.7680001
0.1457698 0.39449257 1.7679999
0.15322667 0.39401147 1.768
-0.19868954 0.40243047 1.7680001
0.13807239 0.40074667 1.7680001
0.1457698 0.40363318 1.7679999
0.15448953 0.40411428 1.7679999
0.13807239 0.41421714 1.7680001
0.14480764 0.4142172 1.7679999
0.15491048 0.41421717 1.7679999
0.16164573 0.41758478 1.7680001
-0.19532192 0.42768764 1.7680001
0.13807239 0.42432001 1.7680001
0.14480762 0.42432004 1.7679999
0.15406857 0.42179433 1.7680001
-0.19419938 0.43442285 1.7680001
-0.18858667 0.43442288 1.7680001
0.13723047 0.43526477 1.7680001
0.14480762 0.43442288 1.7679999
0.15154286 0.43442288 1.7680001
-0.19307685 0.44452572 1.7680001
-0.18858667 0.44115812 1.7680001
0.12796953 0.44789335 1.7680001
0.1360518 0.44587278 1.768
0.14480762 0.44452572 1.7679999
0.15154286 0.44284192 1.7680001
-0.19532192 0.45462859 1.7680001
0.12662248 0.45462856 1.768
0.13470477 0.45462859 1.7679999
0.14480762 0.45126095 1.7680001
-0.19532192 0.46136382 1.7680001
0.12628572 0.46473145 1.768
0.13470477 0.46515238 1.7679999
0.14480762 0.46641526 1.7680001
-0.1919543 0.47483429 1.7680001
-0.18858667 0.47820193 1.7680001
0.12796953 0.47315049 1.7680001
0.1337426 0.47531542 1.7679999
-0.1919543 0.48156953 1.7680001
-0.18858667 0.48493716 1.7680001
0.13694984 0.48381463 1.7680001
0.14480762 0.48662099 1.768
-0.18746412 0.49504003 1.7680001
0.13723047 0.49419811 1.7680001
0.14312382 0.49504003 1.768
-0.18634158 0.50514287 1.7680001
0.13807239 0.50514287 1.7680001
0.14144 0.50514287 1.7680001
-0.18858667 0.51692951 1.7680001
0.13807239 0.51524574 1.7680001
0.1422819 0.51608765 1.7680001
-0.18606095 0.5253486 1.7680001
0.1360518 0.52602214 1.768
0.14438666 0.52576953 1.7679999
0.15154286 0.5253486 1.7680001
-0.18521905 0.53545141 1.7680001
0.10439619 0.53769654 1.7680001
0.11353688 0.53593248 1.7679999
0.13470477 0.53545141 1.7679999
0.14368509 0.53489012 1.768
-0.18185143 0.54555434 1.7680001
0.094293334 0.54387045 1.7680001
0.10551873 0.54443175 1.7680001
0.11449904 0.54555434 1.7679999
0.13428383 0.54513335 1.7679999
-0.18185143 0.55734098 1.7680001
-0.17848381 0.55228955 1.7680001
0.10641676 0.55633068 1.768
0.11393779 0.55453461 1.768
0.13386287 0.55481529 1.7680001
-0.18185143 0.56239241 1.7680001
-0.17848381 0.56744385 1.7680001
0.10776381 0.56239241 1.7680001
0.12796953 0.56239241 1.7680001
0.13470477 0.56575996 1.7680001
-0.18185143 0.57417905 1.7680001
0.12460191 0.57923049 1.7680001
0.13566694 0.57634401 1.7679999
0.12460192 0.58731282 1.768
0.1326842 0.58529222 1.768
-0.17848381 0.59943622 1.7680001
0.10776381 0.59943622 1.7680001
0.11449905 0.59654969 1.7679999
0.12460191 0.59606862 1.7679999
0.13217907 0.59522671 1.7680001
0.14144 0.59270096 1.7680001
-0.1759581 0.60532951 1.7680001
0.10776381 0.60448766 1.7680001
0.11449905 0.60617143 1.7679999
0.12460191 0.60617143 1.7679999
0.1337426 0.60665256 1.7679999
-0.1751162 0.6162743 1.7680001
0.11498015 0.61531216 1.7679999
0.12460192 0.6162743 1.7679999
0.13470477 0.61627424 1.7679999
0.14144 0.6196419 1.7680001
-0.17174858 0.62637717 1.7680001
0.11702476 0.62553525 1.7680001
0.12460191 0.62637722 1.7679999
0.13470477 0.62637722 1.7679999
0.14144 0.62637717 1.7680001
-0.17174858 0.63816381 1.7680001
-0.16838096 0.63311243 1.7680001
0.12460191 0.63648003 1.7680001
0.13335773 0.63513303 1.768
0.14396572 0.63732195 1.7680001
0.15491048 0.63648003 1.7680001
-0.17174858 0.64658284 1.7680001
-0.16838096 0.64321524 1.7680001
0.077455238 0.6499505 1.7680001
0.082506672 0.65331811 1.7680001
0.092609525 0.65668571 1.7680001
0.15231429 0.088003814 1.7770001
0.006769524 0.098158099 1.7770001
0.13539048 0.098158099 1.7770001
0.14639096 0.093927145 1.7770001
0.15400667 0.09308096 1.7770001
0.16754572 0.09308096 1.7770001
0.17939238 0.094773337 1.7770001
0.18616192 0.09477333 1.7770001
0.19293143 0.094773337 1.7770001
0.21662477 0.096465722 1.7770001
0.22000954 0.096465722 1.7770001
-0.22000954 0.10662 1.7770001
0.037232384 0.10492762 1.7770001
0.044001907 0.10154286 1.7770001
0.057540953 0.10154286 1.7770001
0.21662477 0.10323524 1.7770001
0.22291076 0.10589469 1.7770002
0.23354858 0.10831239 1.7770001
0.2403181 0.10831238 1.7770001
-0.22339429 0.11846667 1.7770001
0.20985524 0.11846667 1.7770001
0.21527085 0.11575886 1.7770001
0.2225481 0.11254333 1.7770001
-0.22339429 0.12354381 1.7770001
0.20985524 0.12185143 1.7770001
0.2140862 0.1252362 1.7770001
0.22000954 0.12692857 1.7770001
0.20985524 0.13877524 1.7770001
0.21436827 0.13313398 1.7770001
0.22000954 0.13877524 1.7770001
-0.22000954 0.14723715 1.7770001
0.20759873 0.14667302 1.7770001
-0.22000954 0.15231429 1.7770001
0.20647049 0.15569906 1.7770002
-0.22000954 0.16416097 1.7770001
0.19970097 0.16585335 1.7770001
0.20477812 0.16585334 1.7770001
-0.22000954 0.17600763 1.7770001
0.18954667 0.17939238 1.7770001
0.19728327 0.17649116 1.7770002
0.20534223 0.17487937 1.7770001
-0.22000954 0.18277715 1.7770001
-0.21662477 0.18785429 1.7770001
0.18870047 0.18700811 1.7770001
0.1963162 0.18616192 1.7770002
0.20308572 0.18785429 1.7770001
-0.21662478 0.1963162 1.7770001
0.18954667 0.19293143 1.7770001
0.1963162 0.19631618 1.7770002
0.20579353 0.1976701 1.7770001
-0.21662477 0.20308572 1.7770001
0.18616191 0.20308572 1.7770001
0.19699314 0.20647049 1.7770001
0.20550339 0.20647049 1.7770002
0.19970097 0.21493238 1.7770001
0.20477811 0.21493238 1.7770001
-0.21324001 0.22677906 1.7770001
0.19885477 0.2225481 1.7770001
0.20393191 0.22339429 1.7770001
0.18446952 0.23693334 1.7770001
0.19744445 0.23354858 1.7770001
0.20308572 0.2318562 1.7770001
0.17736153 0.24370286 1.7770001
0.18616192 0.24370286 1.7770002
0.19462381 0.24201047 1.7770001
0.17939238 0.25385714 1.7770001
0.18277715 0.2504724 1.7770001
-0.20985524 0.26401144 1.7770001
0.17939238 0.26231906 1.7770001
0.18277715 0.26739621 1.7770001
-0.20985524 0.2758581 1.7770001
0.18616192 0.27416572 1.7770001
-0.21324001 0.28093526 1.7770001
-0.20985524 0.28432 1.7770001
0.17939238 0.28770477 1.7770001
0.18729018 0.28488412 1.7770001
0.19462381 0.28432 1.7770001
0.17939238 0.29785907 1.7770001
0.18519484 0.29399079 1.7770002
0.17600764 0.30462858 1.7770002
0.18446952 0.30124381 1.7770001
-0.20985524 0.31816763 1.7770001
0.18277715 0.31478286 1.7770001
-0.20900905 0.32578334 1.7770001
0.18712899 0.32493713 1.7770002
-0.20759875 0.33509144 1.7770001
0.17431524 0.33678383 1.7770001
0.18616192 0.33283493 1.7770001
0.16585334 0.34592265 1.7770001
0.17262286 0.34355336 1.7770001
-0.20308572 0.3554 1.7770001
0.16585334 0.35540003 1.7770002
0.17262286 0.35540003 1.7770001
-0.20308572 0.36216953 1.7770001
-0.19970097 0.36893907 1.7770001
0.15908381 0.36893907 1.7770001
0.16627643 0.36597741 1.7770002
0.17346905 0.3647081 1.7770001
-0.20308572 0.37232381 1.7770001
0.15908381 0.37570858 1.7770001
0.16585332 0.37570858 1.7770002
0.17262286 0.37570858 1.7770001
-0.20308572 0.38586286 1.7770001
0.15908381 0.38924763 1.7770001
0.16585334 0.38586289 1.7770002
0.17262286 0.38586286 1.7770001
0.15908381 0.39601716 1.7770001
0.16585334 0.39601713 1.7770002
-0.19970097 0.40955621 1.7770001
0.15908381 0.40617144 1.7770001
0.16585334 0.40617144 1.7770002
0.17262286 0.40278667 1.7770001
-0.19970097 0.41632572 1.7770001
0.16627643 0.41590267 1.7770002
-0.19970097 0.42309526 1.7770001
0.15637602 0.42851084 1.7770001
0.16246858 0.42648003 1.7770001
0.156376 0.43460339 1.7770001
0.16246858 0.43324953 1.7770001
-0.1963162 0.44340384 1.7770001
0.15666614 0.4429203 1.7770002
0.16500714 0.44594237 1.7770001
0.14554477 0.45694289 1.7770001
0.15569906 0.45355812 1.7770002
0.16416097 0.45355812 1.7770001
-0.1963162 0.46709716 1.7770001
0.13539048 0.46371239 1.7770001
0.14554477 0.46328932 1.7770002
0.15569906 0.46371242 1.7770002
0.16543025 0.46413553 1.7770002
0.17262286 0.46540478 1.7770001
-0.1963162 0.47217429 1.7770001
0.13877524 0.47555906 1.7770001
0.14622173 0.4738667 1.7770001
0.15569904 0.47217429 1.7770001
0.16488627 0.47338313 1.7770002
-0.19293143 0.48740572 1.7770001
0.14554477 0.48232856 1.7770001
0.15527597 0.4835979 1.7770002
0.16416097 0.48232859 1.7770001
-0.19293143 0.49417529 1.7770001
0.14892954 0.49586764 1.7770001
0.1536682 0.49349833 1.7770001
-0.19293143 0.50094479 1.7770001
-0.18954666 0.5043295 1.7770001
0.14757563 0.50500649 1.7770001
0.15231429 0.50094479 1.7770001
-0.18954667 0.51448381 1.7770001
0.14723715 0.51448381 1.7770001
0.15231429 0.51448381 1.7770001
-0.18954667 0.52463812 1.7770001
0.14892954 0.52294576 1.7770001
0.15612215 0.52421504 1.7770002
0.16246858 0.52802289 1.7770001
-0.18954666 0.53479242 1.7770001
0.14723715 0.53817719 1.7770001
0.15569906 0.53479242 1.7770002
-0.18785429 0.54579288 1.7770001
0.14602831 0.54591376 1.7770002
0.15473199 0.54446316 1.7770002
-0.1853157 0.55510098 1.7770001
0.13877524 0.55510098 1.7770001
0.14385238 0.55510098 1.7770001
0.15739144 0.55510098 1.7770001
0.16382249 0.55577791 1.7770001
-0.18531573 0.56610143 1.7770001
0.13877524 0.56525528 1.7770001
0.14216 0.56187052 1.7770001
0.15772991 0.56525528 1.7770001
0.16585334 0.56525528 1.7770002
0.17262286 0.56863999 1.7770001
-0.18531573 0.57456338 1.7770001
0.13877524 0.57202476 1.7770001
0.14300619 0.57456338 1.7770001
0.15908381 0.57371712 1.7770001
0.16528921 0.57428128 1.7770001
0.17431524 0.57202476 1.7770001
-0.18277715 0.58556384 1.7770001
0.13877524 0.58725619 1.7770001
0.14216 0.58556384 1.7770001
-0.18277715 0.59571815 1.7770001
0.13708286 0.59656429 1.7770001
0.14780128 0.5968464 1.7770001
0.15231429 0.59910285 1.7770001
-0.18277715 0.60587239 1.7770001
