# .PCD v0.7 - Point Cloud Data file format
VERSION 0.7
FIELDS x y z
SIZE 4 4 4
TYPE F F F
COUNT 1 1 1
WIDTH 1482
HEIGHT 1
VIEWPOINT 0 0 0 1 0 0 0
POINTS 1482
DATA ascii
0.12435715 0.12933144 1.7410001
-0.32498667 0.13928001 1.7410001
-0.29182476 0.13928001 1.7410001
-0.2851924 0.13928001 1.7410001
-0.27607286 0.13845097 1.7410001
-0.26612428 0.13845097 1.7410001
-0.25617573 0.13762191 1.7410001
-0.24622715 0.13513477 1.7410001
-0.23876572 0.13264762 1.7410001
-0.22384286 0.13264762 1.7410001
-0.21389429 0.13264762 1.7410001
-0.20560382 0.13264762 1.7410001
-0.19565524 0.13264762 1.7410001
-0.18570668 0.13264762 1.7410001
-0.17575811 0.13264762 1.7410001
-0.16514629 0.13397411 1.7409999
-0.15519771 0.13463733 1.7409999
-0.14591239 0.13541111 1.7410001
-0.13679285 0.13347667 1.7410001
-0.12767334 0.13264762 1.7410001
-0.10446 0.13264762 1.7410001
-0.096169524 0.13264762 1.7410001
-0.089537144 0.13264762 1.7410001
-0.07295619 0.13264762 1.7410001
-0.067981906 0.13264762 1.7410001
0.039794289 0.13264762 1.7410001
0.07793048 0.13264762 1.7410001
0.085557714 0.13397411 1.7409999
0.094511434 0.13264762 1.7410001
0.11606667 0.13264762 1.7410001
-0.35372698 0.14591238 1.7410001
-0.34488386 0.14591238 1.7409999
-0.33493528 0.1425962 1.7410001
-0.3249867 0.1425962 1.7410001
-0.31420904 0.14342526 1.7410001
-0.30426046 0.14342526 1.7410001
-0.29735175 0.1437016 1.7410001
-0.35151622 0.15254477 1.7410001
0.059691429 0.15917715 1.7410001
-0.34156764 0.16912572 1.7410001
-0.33825144 0.16746762 1.7410001
-0.32332858 0.16912572 1.7410001
-0.31503811 0.16912572 1.7410001
-0.3050895 0.16912572 1.7410001
-0.29514095 0.16912572 1.7410001
-0.046426669 0.16580953 1.7410001
-0.036478095 0.16912572 1.7410001
0.049742859 0.16580953 1.7410001
0.056375239 0.16580953 1.7410001
0.063836671 0.16663858 1.7410001
0.089537144 0.16415143 1.7410001
0.11938286 0.16912572 1.7410001
0.12269905 0.16580953 1.7410001
-0.35234526 0.17492905 1.7410001
-0.34488383 0.17575811 1.7410001
-0.33493525 0.17575811 1.7410001
-0.3249867 0.17575812 1.7410001
-0.31503811 0.17575811 1.7410001
-0.30467498 0.17575811 1.7410001
-0.29679906 0.17575811 1.7410001
-0.28560695 0.17617263 1.7410001
-0.27358571 0.17492905 1.7410001
-0.21555239 0.17741621 1.7410001
-0.11606667 0.17244191 1.7410001
-0.04587397 0.17520539 1.7410001
0.097827621 0.17410001 1.7410001
0.10280191 0.17575811 1.7410001
0.11938286 0.17410001 1.7410001
0.12601523 0.1741 1.7410001
-0.3531743 0.18570668 1.7410001
-0.3448838 0.18570668 1.7410001
-0.33493522 0.18570668 1.7410001
-0.32432345 0.18636993 1.7409999
-0.31545267 0.18529215 1.7410001
-0.30508953 0.18404858 1.7410001
-0.28566614 0.18665417 1.7410001
-0.27477008 0.18665418 1.7410001
-0.26662174 0.18636991 1.7409999
-0.22351125 0.18636993 1.7409999
-0.21721049 0.18570668 1.7410001
-0.045321271 0.18460126 1.7410001
0.11689571 0.18570668 1.7410001
0.1266785 0.18703315 1.7409999
-0.34529835 0.19565523 1.7410001
-0.33534977 0.19524071 1.7410001
-0.3249867 0.19565524 1.7410001
-0.31669623 0.19565524 1.7410001
-0.30343142 0.19565524 1.7410001
-0.29514095 0.19565523 1.7410001
-0.2851924 0.19565524 1.7410001
-0.27524379 0.19233905 1.7410001
-0.26861143 0.19233905 1.7410001
-0.22351125 0.19499201 1.7409999
-0.21555237 0.19565524 1.7410001
-0.20759353 0.19565524 1.7409999
0.068534605 0.19454984 1.7410001
0.07295619 0.19565524 1.7410001
0.089537144 0.19565524 1.7410001
-0.35483238 0.20892 1.7410001
-0.34488383 0.20693028 1.7409999
-0.33588269 0.20607756 1.7410001
-0.3249867 0.20560382 1.7410001
-0.31503811 0.20465635 1.7410001
-0.30442631 0.20427735 1.7409999
-0.29514095 0.20560382 1.7410001
-0.28566614 0.20465633 1.7410001
-0.2769019 0.20394573 1.7410001
-0.22218478 0.20560382 1.7410001
-0.21610509 0.20560384 1.7410001
0.12933144 0.20228763 1.7410001
0.13264762 0.20228763 1.7410001
-0.35372698 0.21444698 1.7410001
-0.34405479 0.21389429 1.7410001
-0.33559847 0.21356268 1.7409999
-0.3249867 0.21389428 1.7410001
-0.31503811 0.2122362 1.7410001
-0.30398414 0.21334159 1.7410001
-0.29569367 0.21444698 1.7410001
-0.28850859 0.21389429 1.7410001
-0.31172192 0.22881715 1.7410001
-0.29735175 0.22771175 1.7410001
-0.31172192 0.23544954 1.7410001
-0.30508953 0.23296238 1.7410001
-0.29624638 0.23434414 1.7410001
-0.25368857 0.23876572 1.7410001
-0.2470562 0.23876572 1.7410001
-0.35151622 0.2487143 1.7410001
-0.3216705 0.2453981 1.7410001
-0.31420907 0.24456906 1.7410001
-0.30840573 0.2453981 1.7410001
-0.25285953 0.24456906 1.7410001
-0.24539812 0.24587186 1.7410001
-0.2453981 0.25534669 1.7410001
-0.23793668 0.25534669 1.7410001
-0.24374001 0.26197904 1.7410001
0.12933144 0.27856001 1.7410001
-0.35151622 0.28850859 1.7410001
-0.34820002 0.28850859 1.7410001
-0.34654194 0.29845715 1.7410001
-0.33493525 0.29845715 1.7410001
-0.3448838 0.30260238 1.7410001
-0.33493525 0.30177334 1.7410001
0.087112382 0.097163811 1.7590001
0.092859998 0.096201912 1.7567501
0.10051429 0.097163811 1.7590001
-0.34 0.10666667 1.7500001
-0.33447051 0.10703238 1.756
-0.30556342 0.10587505 1.7590001
-0.22113144 0.10721524 1.7590001
-0.21370478 0.10518 1.7530001
-0.20666668 0.10666667 1.7500001
-0.16389334 0.10703238 1.7560002
-0.15328428 0.10637762 1.7590001
-0.1449081 0.10637762 1.7590001
-0.13401905 0.10587505 1.7590001
-0.12396763 0.10721525 1.7590002
-0.11559144 0.10721524 1.7590001
-0.090462863 0.10721524 1.7590001
-0.084488094 0.10624047 1.7567501
-0.06666667 0.10666667 1.7500001
-0.042607144 0.10192382 1.7545002
-0.035000004 0.10333334 1.7500001
-0.02680381 0.10386477 1.7590001
-0.010051429 0.10721524 1.7590001
-0.0050257146 0.10721524 1.7590001
0.0033504763 0.10721524 1.7590001
0.010000001 0.10333334 1.7500001
0.053521905 0.10034286 1.756
0.060308572 0.10051429 1.7590001
0.073710479 0.10051429 1.7590001
0.081872389 0.10025714 1.7545002
-0.33166668 0.11000001 1.7500001
-0.32666668 0.11000001 1.7500001
-0.30214539 0.11148826 1.7560002
-0.29575431 0.11362477 1.7545002
-0.28381336 0.11574984 1.7530001
-0.27333334 0.11333334 1.7500001
-0.26803809 0.11056572 1.7590001
-0.24290952 0.1139162 1.7590001
-0.23279573 0.11597905 1.7522501
-0.22445811 0.11347906 1.7522501
-0.18046287 0.11194953 1.7545002
-0.17377906 0.11194953 1.7545
-0.16349791 0.11144648 1.7518002
-0.15359904 0.11185524 1.7530001
-0.14345334 0.11176095 1.7515001
-0.13333334 0.11166667 1.7500001
-0.12438057 0.11167277 1.7554001
-0.11454445 0.11176095 1.7515001
-0.10666667 0.11000001 1.7500001
-0.091666669 0.11000001 1.7500001
-0.083333343 0.11000001 1.7500001
-0.073464766 0.11018858 1.7530001
-0.023333333 0.12666667 1.7500001
-0.016666668 0.12666667 1.7500001
-0.24000001 0.13666667 1.7500001
-0.23333335 0.13500001 1.7500001
-0.22250001 0.13583334 1.7500001
-0.21333332 0.13666667 1.7500001
-0.20333333 0.13666667 1.7500001
-0.19333334 0.13666667 1.7500001
-0.18333334 0.13666667 1.7500001
-0.17333335 0.13666667 1.7500001
-0.13333334 0.13666667 1.7500001
-0.12348762 0.13600905 1.7522502
-0.115 0.13416667 1.7500001
-0.1025 0.13583334 1.7500001
-0.093333334 0.13583334 1.7500001
-0.083333343 0.13500001 1.7500001
-0.07416667 0.13583334 1.7500001
-0.062666669 0.13533333 1.7500002
-0.053333331 0.13500001 1.7500001
-0.043333337 0.13500001 1.7500001
-0.032957383 0.13392572 1.7522501
-0.023398096 0.13372 1.755
-0.013373333 0.13372 1.755
-0.0053504766 0.13441829 1.7554001
0.0033419051 0.13535143 1.7545
0.013372517 0.13468489 1.7551429
0.022871835 0.13438612 1.7512858
0.033333335 0.13500001 1.7500001
0.044000003 0.13533333 1.7500002
0.053968716 0.13468491 1.7551429
0.063496195 0.13535143 1.7545
0.072345078 0.13467874 1.7530001
0.080000006 0.13666667 1.7500001
0.093333334 0.13666667 1.7500001
0.10298524 0.13383786 1.7511251
0.11241365 0.13467874 1.7530001
0.1228508 0.1362527 1.7590002
0.13066858 0.13736953 1.7590001
-0.34 0.14666668 1.7500001
-0.33333334 0.14666668 1.7500001
-0.32416669 0.14583334 1.7500001
-0.31333333 0.14666668 1.7500001
-0.30666667 0.14666668 1.7500001
-0.29266667 0.14533333 1.7500002
-0.28357333 0.14512573 1.7515001
-0.27333334 0.145 1.7500001
-0.26333335 0.145 1.7500001
-0.25466666 0.14400001 1.7500002
-0.24520858 0.14345905 1.7515001
-0.23386475 0.14366668 1.7540001
-0.22384572 0.14366667 1.7540001
-0.21369904 0.14358477 1.753
-0.20379621 0.14366667 1.7540001
-0.19410475 0.14391048 1.757
-0.18406861 0.14391048 1.757
-0.17392762 0.14383048 1.756
-0.16361335 0.14358477 1.753
-0.15342285 0.14341715 1.751
-0.14309667 0.14393643 1.7522501
-0.13379049 0.14383048 1.756
-0.12396763 0.14407051 1.7589999
-0.11343756 0.14311321 1.7589999
-0.10386477 0.14407049 1.7589999
-0.093653351 0.14383048 1.756
-0.083712392 0.14399047 1.7579999
-0.073628575 0.14391048 1.757
-0.063240238 0.14365168 1.7589999
-0.053453337 0.14366668 1.7540001
-0.043455239 0.14374858 1.755
-0.033956464 0.14301035 1.7577143
-0.023453334 0.14239524 1.7589999
-0.014071999 0.14206019 1.7590001
-0.0044673015 0.14183684 1.7590002
0.0033504765 0.14239526 1.7589999
0.013820714 0.14365166 1.7589999
0.023438098 0.14399049 1.7579999
0.033390477 0.14358096 1.753
0.043533336 0.14399049 1.7579999
0.053607624 0.14407048 1.7589999
0.06365905 0.14407049 1.7589999
0.073666669 0.14399049 1.7579999
0.083520003 0.14366476 1.7540001
0.093333334 0.14333333 1.7500001
0.10386477 0.14407049 1.7589999
0.1139162 0.14407049 1.7589999
0.12330667 0.14421286 1.755625
0.13166668 0.14500001 1.7500001
-0.3538889 0.15444444 1.7500001
-0.34333333 0.15333332 1.7500001
-0.3335219 0.15342285 1.751
-0.32388765 0.1536019 1.753
-0.31351429 0.15342285 1.751
-0.30333331 0.15333332 1.7500001
-0.29333332 0.15333332 1.7500001
-0.28365335 0.15350667 1.7520001
-0.27458096 0.15403236 1.7579999
-0.26453525 0.15403618 1.7579999
-0.25463623 0.15412191 1.7589999
-0.24458477 0.15412191 1.7589999
-0.23453334 0.15412191 1.7589999
-0.22406311 0.15370311 1.7589999
-0.21443048 0.15412191 1.7589999
-0.20437907 0.15412191 1.7589999
-0.19474643 0.15412191 1.7589999
-0.18427621 0.15412191 1.7589999
-0.17422476 0.15412191 1.7589999
-0.16417335 0.15412191 1.7589999
-0.15385714 0.15385523 1.756
-0.14407049 0.15412191 1.7589999
-0.13401905 0.15412191 1.7589999
-0.12463772 0.15613219 1.7590001
-0.1139162 0.15579714 1.7589999
-0.10338613 0.15460055 1.7589999
-0.09381333 0.15412191 1.7589999
-0.083761908 0.15412191 1.7589999
-0.074380577 0.154792 1.7590001
-0.063201673 0.15444213 1.757875
-0.053333338 0.15333332 1.7500001
-0.043333337 0.15333332 1.7500001
-0.033441905 0.15385905 1.756
-0.023034526 0.15454072 1.7589999
-0.014742096 0.15479201 1.7590001
-0.0033504763 0.15747239 1.7590001
0.0025128573 0.15663478 1.7590001
0.014359184 0.15460055 1.7589999
0.023382856 0.15368 1.7540001
0.033487622 0.15403427 1.7579999
0.043483809 0.15385714 1.756
0.053544767 0.15394285 1.757
0.063478097 0.15367809 1.7540001
0.073415242 0.15350474 1.7520001
0.083333336 0.15333332 1.7500001
0.093333349 0.15333332 1.7500001
0.10386477 0.15412191 1.7589999
0.1144063 0.15421523 1.7563
0.12422572 0.15350166 1.75675
0.13166668 0.15333332 1.7500001
-0.36083335 0.16416667 1.7500001
-0.35333332 0.16333334 1.7500001
-0.34375003 0.16291668 1.7500001
-0.3335219 0.16342476 1.751
-0.32370287 0.16351619 1.7520001
-0.31351426 0.16342476 1.751
-0.30333331 0.16333334 1.7500001
-0.29333332 0.16333334 1.7500001
-0.28333333 0.16333334 1.7500001
-0.27364382 0.16351619 1.7520001
-0.26408571 0.16379431 1.755
-0.25472715 0.16354024 1.75675
-0.24487428 0.16425124 1.7563
-0.23453334 0.16417336 1.7589999
-0.22448193 0.16417333 1.7589999
-0.21431048 0.16407809 1.7579999
-0.20402479 0.16389333 1.756
-0.19432762 0.16417333 1.7589999
-0.18427621 0.16417333 1.7589999
-0.17412762 0.16407812 1.7579999
-0.16361333 0.16360763 1.753
-0.15350665 0.16351621 1.7520001
-0.14382477 0.16388763 1.756
-0.13386667 0.16398287 1.757
-0.12422572 0.16354024 1.75675
-0.11417486 0.16391352 1.7527001
-0.10345335 0.16351619 1.7520001
-0.093333334 0.16333334 1.7500001
-0.083333336 0.16333334 1.7500001
-0.073497146 0.16370286 1.7540001
-0.063516192 0.16379428 1.755
-0.054285716 0.16285716 1.7500001
-0.042000003 0.16200002 1.7500002
-0.033441905 0.16389334 1.756
-0.023453332 0.16417333 1.7589999
-0.013401905 0.16417333 1.7589999
-0.0046906667 0.16484344 1.7590001
0.003350476 0.16417335 1.7589999
0.013358097 0.16370477 1.7540001
0.023333333 0.16333334 1.7500001
0.033333331 0.16333334 1.7500001
0.043333337 0.16333334 1.7500001
0.053333338 0.16000001 1.7500001
0.065833338 0.16250001 1.7500001
0.07333333 0.16333334 1.7500001
0.083380952 0.16342476 1.751
0.094285712 0.16285716 1.7500001
0.10339239 0.16342478 1.751
0.11504715 0.1634019 1.7507501
0.12533334 0.16266668 1.7500002
0.13166668 0.16333334 1.7500001
-0.36083335 0.1725 1.7500001
-0.35416669 0.17166667 1.7500001
-0.34666669 0.17 1.7500001
-0.33333334 0.17 1.7500001
-0.31333333 0.17333335 1.7500001
-0.29222223 0.17333335 1.7500001
-0.28266668 0.17200002 1.7500002
-0.27333334 0.17285715 1.7500001
-0.26333335 0.17333333 1.7500001
-0.255 0.17333335 1.7500001
-0.245 0.17333336 1.7500001
-0.2335981 0.17352764 1.7520001
-0.22346288 0.1734305 1.751
-0.21291669 0.17291668 1.7500001
-0.20344764 0.17343049 1.751
-0.19388193 0.17382479 1.755
-0.18416953 0.17412382 1.7579999
-0.17372952 0.17373334 1.7540001
-0.16333334 0.17333335 1.7500001
-0.15333332 0.17333335 1.7500001
-0.14333333 0.17333333 1.7500001
-0.13333334 0.17333333 1.7500001
-0.125 0.17333335 1.7500001
-0.11484849 0.17333336 1.7500001
-0.10333335 0.17333333 1.7500001
-0.093333334 0.17333335 1.7500001
-0.083333336 0.17333333 1.7500001
-0.07333333 0.17333335 1.7500001
-0.063333333 0.17333333 1.7500001
-0.054285716 0.17380953 1.7500001
-0.040833339 0.17416668 1.7500001
-0.03303881 0.17441857 1.75675
-0.023453334 0.17422478 1.7589999
-0.013363809 0.17372574 1.7540001
-0.0050142854 0.17377619 1.7545
0.0033333334 0.17333333 1.7500001
0.013333333 0.17333335 1.7500001
0.023333333 0.17333335 1.7500001
0.033411428 0.17373523 1.7540001
0.043403812 0.17363428 1.753
0.053333331 0.17500001 1.7500001
0.063333333 0.17500001 1.7500001
0.07333333 0.17333335 1.7500001
0.083333336 0.17333333 1.7500001
0.092380948 0.17285715 1.7500001
0.10444444 0.17222224 1.7500001
0.11345906 0.17353146 1.7520001
0.125 0.17 1.7500001
0.13250001 0.17250001 1.7500001
-0.36000001 0.18166667 1.7500001
-0.35666668 0.18000001 1.7500001
-0.31 0.185 1.7500001
-0.30166668 0.185 1.7500001
-0.29466668 0.184 1.7500002
-0.2825 0.1825 1.7500001
-0.27333334 0.18166667 1.7500001
-0.26238096 0.18285714 1.7500001
-0.255 0.18333334 1.7500001
-0.245 0.18333335 1.7500001
-0.23333335 0.18333334 1.7500001
-0.22416668 0.18083334 1.7500001
-0.21166669 0.18333334 1.7500001
-0.20333336 0.18333334 1.7500001
-0.19388191 0.18385714 1.755
-0.18427619 0.18427621 1.7589999
-0.17422475 0.18427621 1.7589999
-0.16333334 0.18333334 1.7500001
-0.15333332 0.18333334 1.7500001
-0.14333333 0.18333334 1.7500001
-0.13333334 0.18333334 1.7500001
-0.125 0.18333334 1.7500001
-0.11504856 0.18341334 1.7507501
-0.10333334 0.18333334 1.7500001
-0.093333334 0.18333334 1.7500001
-0.083333336 0.18333334 1.7500001
-0.07333333 0.18333334 1.7500001
-0.063333333 0.18333334 1.7500001
-0.053333338 0.18333334 1.7500001
-0.040833335 0.18333334 1.7500001
-0.033422854 0.18385524 1.755
-0.023453334 0.18427619 1.7589999
-0.01336 0.18375431 1.7540001
-0.0050257146 0.18427621 1.7589999
0.0033485712 0.18417335 1.7579999
0.013375239 0.18396574 1.756
0.023375237 0.18365143 1.753
0.033428572 0.18385145 1.755
0.043556195 0.18427621 1.7589999
0.053607624 0.18427619 1.7589999
0.063333333 0.18333334 1.7500001
0.07333333 0.18333334 1.7500001
0.083333328 0.18333334 1.7500001
0.093441911 0.18353908 1.7520001
0.10351619 0.18364765 1.753
0.11419979 0.18280214 1.7520001
0.125 0.18166667 1.7500001
0.13000001 0.18166667 1.7500001
-0.31166664 0.19333334 1.7500001
-0.30333334 0.19000001 1.7500001
-0.29500002 0.19000001 1.7500001
-0.28 0.19666667 1.7500001
-0.27333334 0.19666667 1.7500001
-0.26291668 0.19375002 1.7500001
-0.255 0.19333334 1.7500001
-0.24510573 0.19341765 1.7507501
-0.23333335 0.19333336 1.7500001
-0.21166667 0.19000001 1.7500001
-0.20291668 0.19333336 1.7500001
-0.19333336 0.19333336 1.7500001
-0.18406288 0.19410475 1.757
-0.17373142 0.19377144 1.7540001
-0.16333334 0.19333336 1.7500001
-0.15333332 0.19333336 1.7500001
-0.14333333 0.19333336 1.7500001
-0.13333334 0.19333336 1.7500001
-0.125 0.19333334 1.7500001
-0.11504858 0.19341479 1.7507501
-0.10333334 0.19333336 1.7500001
-0.093333334 0.19333336 1.7500001
-0.083333336 0.19333336 1.7500001
-0.073413335 0.1935524 1.7520001
-0.063333333 0.19333336 1.7500001
-0.053333338 0.19333336 1.7500001
-0.043333333 0.19333336 1.7500001
-0.033422858 0.19388382 1.755
-0.023453334 0.19432762 1.7589999
-0.013382856 0.19410665 1.757
-0.0050257142 0.19432764 1.7589999
0.0033504763 0.19432762 1.7589999
0.013820714 0.19432762 1.7589999
0.023453334 0.19432762 1.7589999
0.033409525 0.19377144 1.7540001
0.043556195 0.19432762 1.7589999
0.053607624 0.19432762 1.7589999
0.062916666 0.19291669 1.7500001
0.074444443 0.19222224 1.7500001
0.083476186 0.1936705 1.753
0.09375 0.19291669 1.7500001
0.10351619 0.19366479 1.753
0.11349739 0.19474643 1.7589999
0.12346739 0.19462214 1.757875
0.13033429 0.19550572 1.7545002
-0.33333334 0.20333333 1.7500001
-0.31111112 0.20111112 1.7500001
-0.28 0.2 1.7500001
-0.27238095 0.20285717 1.7500001
-0.26333335 0.20333336 1.7500001
-0.255 0.20333333 1.7500001
-0.24520858 0.20350479 1.7515001
-0.23333335 0.20333336 1.7500001
-0.22666667 0.20333333 1.7500001
-0.21250001 0.20500001 1.7500001
-0.2029167 0.20375003 1.7500001
-0.19333336 0.20333336 1.7500001
-0.18333334 0.20333336 1.7500001
-0.17343049 0.20345145 1.751
-0.16361335 0.20368764 1.753
-0.15333332 0.20333335 1.7500001
-0.14333333 0.20333336 1.7500001
-0.13333334 0.20333336 1.7500001
-0.125 0.20333336 1.7500001
-0.11504715 0.20342194 1.7507502
-0.10351048 0.20368764 1.753
-0.093333349 0.20333336 1.7500001
-0.083333343 0.20333336 1.7500001
-0.07333333 0.20333336 1.7500001
-0.063333333 0.20333335 1.7500001
-0.053333338 0.20333336 1.7500001
-0.043333337 0.20333335 1.7500001
-0.03340381 0.20379812 1.7540001
-0.023379048 0.20368193 1.753
-0.013358096 0.20380002 1.7540001
-0.0050257142 0.20437907 1.7589999
0.003350476 0.20437907 1.7589999
0.013401906 0.20437907 1.7589999
0.023453334 0.20437907 1.7589999
0.03338857 0.20368573 1.753
0.043556195 0.20437907 1.7589999
0.053607624 0.20437905 1.7589999
0.063403815 0.20356193 1.7520001
0.07337524 0.20344764 1.751
0.083761908 0.20437905 1.7589999
0.093710475 0.20414478 1.757
0.10357334 0.20380002 1.7540001
0.1139162 0.20437907 1.7589999
0.12396762 0.20437907 1.7589999
0.13166668 0.20666668 1.7500001
-0.34666669 0.21666667 1.7500001
-0.33333334 0.21666667 1.7500001
-0.3226667 0.21400002 1.7500002
-0.31238094 0.21380953 1.7500001
-0.30444446 0.21222222 1.7500001
-0.29333335 0.21666667 1.7500001
-0.28333333 0.21333335 1.7500001
-0.27333334 0.21333335 1.7500001
-0.26333335 0.21333335 1.7500001
-0.255 0.21333335 1.7500001
-0.245 0.21333335 1.7500001
-0.23333335 0.21333335 1.7500001
-0.22380953 0.21428573 1.7500001
-0.21333335 0.21375002 1.7500001
-0.20333336 0.21333335 1.7500001
-0.19333336 0.21333335 1.7500001
-0.18333334 0.21333335 1.7500001
-0.17363051 0.21370476 1.753
-0.16360953 0.21370286 1.753
-0.15342285 0.21345717 1.751
-0.14349523 0.21357717 1.7520001
-0.13333334 0.21333335 1.7500001
-0.12446694 0.2141279 1.7525715
-0.11491325 0.21373005 1.7557274
-0.10386477 0.21443047 1.7589999
-0.093388587 0.21345717 1.751
-0.083333336 0.21333335 1.7500001
-0.07333333 0.21333335 1.7500001
-0.063333333 0.21333335 1.7500001
-0.053333338 0.21333335 1.7500001
-0.043333337 0.21333335 1.7500001
-0.033441905 0.21406478 1.756
-0.023453334 0.21443048 1.7589999
-0.013382857 0.21418858 1.757
-0.0050171427 0.21388191 1.7545
0.003350476 0.21406478 1.756
0.013401905 0.21443048 1.7589999
0.023453334 0.21443048 1.7589999
0.033504762 0.2144305 1.7589999
0.043556195 0.21443048 1.7589999
0.05360762 0.21443048 1.7589999
0.063659042 0.21443048 1.7589999
0.073459044 0.21370478 1.753
0.083571434 0.21394287 1.755
0.093548574 0.21381718 1.7540001
0.10386476 0.21443048 1.7589999
0.1139162 0.21443047 1.7589999
0.1236819 0.21394667 1.755
0.13267483 0.21428709 1.7538573
-0.35414666 0.22384572 1.7540001
-0.3435314 0.22346288 1.751
-0.33333331 0.22333333 1.7500001
-0.32333335 0.22333333 1.7500001
-0.3133333 0.22333333 1.7500001
-0.30374998 0.22291668 1.7500001
-0.29291666 0.22375001 1.7500001
-0.28333333 0.22333333 1.7500001
-0.27333334 0.22333333 1.7500001
-0.26333335 0.22333333 1.7500001
-0.255 0.22333334 1.7500001
-0.245 0.22333334 1.7500001
-0.23333335 0.22333333 1.7500001
-0.22333333 0.22333333 1.7500001
-0.21333335 0.22333333 1.7500001
-0.20333335 0.22333333 1.7500001
-0.19333336 0.22333333 1.7500001
-0.18333334 0.22333333 1.7500001
-0.17363048 0.22371048 1.753
-0.16360953 0.22371429 1.753
-0.15386285 0.22410287 1.756
-0.14407049 0.22448193 1.7589999
-0.13355619 0.2237162 1.753
-0.12396762 0.22448193 1.7589999
-0.1139162 0.22448193 1.7589999
-0.10386477 0.22448193 1.7589999
-0.09349905 0.2237162 1.753
-0.083333336 0.22333333 1.7500001
-0.07333333 0.22333333 1.7500001
-0.063333333 0.22333333 1.7500001
-0.053333335 0.22333333 1.7500001
-0.043333337 0.22333333 1.7500001
-0.033422858 0.22397144 1.755
-0.023453334 0.2244819 1.7589999
-0.013401904 0.22448193 1.7589999
-0.0050228569 0.22429335 1.7575001
0.0033504765 0.22435623 1.7579999
0.013401906 0.22448193 1.7589999
0.023453334 0.22448193 1.7589999
0.033504765 0.22448193 1.7589999
0.043556195 0.22448193 1.7589999
0.053607624 0.2244819 1.7589999
0.063659042 0.22448193 1.7589999
0.073710479 0.22448193 1.7589999
0.083615236 0.22409715 1.756
0.09360572 0.22397144 1.755
0.10386477 0.22448193 1.7589999
0.11433501 0.22490074 1.7589999
0.12389525 0.22435433 1.7579999
0.13401906 0.22448193 1.7589999
-0.36185145 0.23285809 1.7590001
-0.35434669 0.23400381 1.755
-0.34333333 0.23333335 1.7500001
-0.33333331 0.23333335 1.7500001
-0.32333335 0.23333335 1.7500001
-0.31388891 0.23333335 1.7500001
-0.30444446 0.23222224 1.7500001
-0.29133335 0.23333335 1.7500002
-0.28333333 0.23333335 1.7500001
-0.27333334 0.23333335 1.7500001
-0.26333335 0.23333335 1.7500001
-0.255 0.23333335 1.7500001
-0.24531144 0.23363477 1.7522502
-0.23333335 0.23333335 1.7500001
-0.22333333 0.23333335 1.7500001
-0.21333335 0.23333335 1.7500001
-0.20333336 0.23333335 1.7500001
-0.19333336 0.23333335 1.7500001
-0.18333334 0.23333335 1.7500001
-0.17333333 0.23333335 1.7500001
-0.16333334 0.23333335 1.7500001
-0.15385714 0.23413144 1.756
-0.14390476 0.23426668 1.757
-0.13341144 0.23346859 1.751
-0.12521429 0.23373048 1.7530001
-0.11504715 0.23343335 1.7507502
-0.10368572 0.23413144 1.756
-0.093813337 0.23453334 1.7589999
-0.0834819 0.23373334 1.753
-0.07333333 0.23333335 1.7500001
-0.063333333 0.23333335 1.7500001
-0.053394292 0.23359619 1.7520001
-0.043333337 0.23333335 1.7500001
-0.033441901 0.23413335 1.756
-0.023453334 0.23453334 1.7589999
-0.013401905 0.23453334 1.7589999
-0.0050257142 0.23453332 1.7589999
0.003350476 0.23453334 1.7589999
0.013401905 0.23453334 1.7589999
0.023453334 0.23453334 1.7589999
0.033504762 0.23453334 1.7589999
0.043556195 0.23453334 1.7589999
0.054026432 0.23453332 1.7589999
0.063659042 0.23453334 1.7589999
0.073710471 0.23453334 1.7589999
0.083761908 0.23453334 1.7589999
0.093761906 0.23440188 1.7579999
0.10386477 0.23453334 1.7589999
0.11433501 0.23411451 1.7589999
0.12382286 0.23426859 1.757
0.13379048 0.23413335 1.756
-0.36185145 0.24458477 1.7590001
-0.35374096 0.24360953 1.7520001
-0.34333333 0.24333334 1.7500001
-0.33333331 0.24333334 1.7500001
-0.32380956 0.24238096 1.7500001
-0.31333333 0.24133334 1.7500002
-0.30374998 0.24375001 1.7500001
-0.29333332 0.24333334 1.7500001
-0.28333333 0.24333334 1.7500001
-0.27333334 0.24333334 1.7500001
-0.26333335 0.24333334 1.7500001
-0.25666669 0.24666667 1.7500001
-0.24277778 0.24333334 1.7500001
-0.23333335 0.24333334 1.7500001
-0.22333333 0.24333334 1.7500001
-0.21333335 0.24333334 1.7500001
-0.20333335 0.24333334 1.7500001
-0.19333336 0.24333334 1.7500001
-0.18333334 0.24333334 1.7500001
-0.17333335 0.24333334 1.7500001
-0.16333334 0.24333334 1.7500001
-0.15403238 0.24444763 1.7579999
-0.14407048 0.24458477 1.7589999
-0.13356763 0.2437505 1.753
-0.125 0.24333334 1.7500001
-0.115 0.24333334 1.7500001
-0.10368191 0.24416763 1.756
-0.093813337 0.24458477 1.7589999
-0.08338286 0.2434743 1.751
-0.07333333 0.24333334 1.7500001
-0.063405722 0.24361335 1.7520001
-0.053548578 0.24431048 1.757
-0.043360006 0.2434743 1.751
-0.033852857 0.2445343 1.755625
-0.022336507 0.24514318 1.7589999
-0.013401906 0.24458477 1.7589999
-0.0050257142 0.24458478 1.7589999
0.0033504763 0.24458477 1.7589999
0.013401904 0.24458477 1.7589999
0.023453334 0.24458477 1.7589999
0.033923574 0.24416597 1.7589999
0.043077555 0.24362747 1.7589999
0.064496666 0.2420719 1.7590001
0.074827306 0.24346794 1.7589999
0.083761908 0.24458477 1.7589999
0.093813337 0.24458477 1.7589999
0.10386477 0.24458477 1.7589999
0.11433501 0.2450036 1.7589999
0.12382286 0.24430476 1.757
0.13356191 0.24374478 1.753
-0.36185145 0.25296098 1.7590001
-0.35333335 0.25375 1.7500001
-0.34333333 0.25333333 1.7500001
-0.33333331 0.25333333 1.7500001
-0.32333335 0.25333333 1.7500001
-0.31333333 0.25333333 1.7500001
-0.30333331 0.25333333 1.7500001
-0.29350284 0.25348002 1.751
-0.28349712 0.25347999 1.751
-0.27442667 0.25435045 1.757
-0.26363811 0.25362477 1.7520001
-0.25533333 0.25400001 1.7500002
-0.24000001 0.25 1.7500001
-0.23291668 0.25291666 1.7500001
-0.22333333 0.25333333 1.7500001
-0.21333335 0.25333333 1.7500001
-0.20333336 0.25333333 1.7500001
-0.19333336 0.25333333 1.7500001
-0.18333334 0.25333333 1.7500001
-0.17333335 0.25333333 1.7500001
-0.16333334 0.25333333 1.7500001
-0.15359238 0.25376952 1.753
-0.14407049 0.2546362 1.7589999
-0.13356572 0.25376952 1.753
-0.125 0.25333333 1.7500001
-0.115 0.25333333 1.7500001
-0.10362478 0.25405905 1.755
-0.093813337 0.2546362 1.7589999
-0.083432384 0.25362098 1.7520001
-0.073373333 0.25348002 1.751
-0.063620955 0.25449336 1.7579999
-0.053607624 0.2546362 1.7589999
-0.043485716 0.2542038 1.756
-0.033441905 0.25420192 1.756
-0.022113144 0.2546362 1.7590001
-0.013401905 0.2546362 1.7589999
-0.0050257146 0.2546362 1.7589999
0.0033504765 0.2546362 1.7589999
0.013401905 0.2546362 1.7589999
0.023034524 0.25421739 1.7589999
0.034462042 0.2546362 1.7589999
0.042439368 0.25519457 1.7589999
0.050257146 0.2546362 1.7590001
0.077060953 0.25128573 1.7590001
0.083761908 0.2546362 1.7589999
0.093813337 0.2546362 1.7589999
0.10386477 0.2546362 1.7589999
0.11433501 0.2546362 1.7589999
0.12396762 0.2546362 1.7589999
0.13386476 0.25435051 1.757
-0.35166669 0.26333335 1.7500001
-0.34333333 0.26333335 1.7500001
-0.33371809 0.2636362 1.7520001
-0.32333335 0.26333335 1.7500001
-0.31333333 0.26333335 1.7500001
-0.30419618 0.26408383 1.755
-0.2945067 0.26438668 1.757
-0.28366095 0.26363242 1.7520001
-0.27442285 0.26438475 1.757
-0.2640914 0.26408762 1.755
-0.255 0.26333335 1.7500001
-0.245 0.26555556 1.7500001
-0.23333335 0.26333335 1.7500001
-0.22333333 0.26333335 1.7500001
-0.21333335 0.26333335 1.7500001
-0.20333335 0.26333335 1.7500001
-0.19333336 0.26333335 1.7500001
-0.18343621 0.26348573 1.751
-0.17363237 0.26378858 1.753
-0.16342667 0.26348573 1.751
-0.15385333 0.26423624 1.756
-0.14407048 0.26468763 1.7589999
-0.13387047 0.26438856 1.757
-0.125 0.26333335 1.7500001
-0.115 0.26333335 1.7500001
-0.10350858 0.26378095 1.753
-0.093649536 0.26423427 1.756
-0.083333336 0.26333335 1.7500001
-0.073373333 0.26348191 1.751
-0.063510478 0.2640819 1.755
-0.053518098 0.2642343 1.756
-0.043459047 0.2640838 1.755
-0.034697525 0.26226744 1.7518002
-0.023453334 0.26133716 1.7590001
-0.010051429 0.26133716 1.7590001
-0.0044673015 0.262454 1.7590002
0.0029316668 0.26426882 1.7589999
0.013401904 0.26426882 1.7589999
0.021778097 0.26468763 1.7589999
0.034462042 0.264209 1.7589999
0.041043334 0.26385 1.7590001
0.085437149 0.26552522 1.7590001
0.093813337 0.26468763 1.7589999
0.10274795 0.26357082 1.7589999
0.11559144 0.26301241 1.7590001
0.124305 0.26410165 1.757875
0.13333334 0.26333335 1.7500001
-0.35166669 0.27333334 1.7500001
-0.34411621 0.27395618 1.7540001
-0.33409524 0.27395427 1.7540001
-0.32370669 0.27364382 1.7520001
-0.31333333 0.27333334 1.7500001
-0.30333331 0.27333334 1.7500001
-0.29350287 0.27348763 1.751
-0.28333333 0.27333334 1.7500001
-0.27333334 0.27333334 1.7500001
-0.26333335 0.27333334 1.7500001
-0.255 0.27333334 1.7500001
-0.245 0.27333334 1.7500001
-0.23333335 0.27333334 1.7500001
-0.22333333 0.27333334 1.7500001
-0.21333335 0.27333334 1.7500001
-0.20333336 0.27333334 1.7500001
-0.1935524 0.27364951 1.7520001
-0.1837505 0.2739619 1.7540001
-0.17393333 0.27427047 1.756
-0.16389336 0.27427617 1.756
-0.15385905 0.2742762 1.756
-0.14382477 0.27427617 1.756
-0.13394096 0.27458474 1.7579999
-0.12389525 0.27458474 1.7579999
-0.1135962 0.27395999 1.7540001
-0.10368763 0.27427617 1.756
-0.093704768 0.27442858 1.757
-0.083430469 0.27364954 1.7520001
-0.07333333 0.27333334 1.7500001
-0.063333333 0.27333334 1.7500001
-0.053333335 0.27333334 1.7500001
-0.043333337 0.27333334 1.7500001
-0.036729526 0.2737962 1.7530001
-0.013401905 0.27808952 1.7590001
-0.0067009525 0.27808952 1.7590001
0.0067009525 0.27641428 1.7590001
0.013401906 0.27473906 1.7589999
0.023453332 0.27473903 1.7589999
0.087112382 0.27138859 1.7590001
0.097163811 0.27306384 1.7590001
0.10051429 0.27306384 1.7590001
0.1273181 0.27473906 1.7590002
0.13416667 0.27083334 1.7500001
-0.35341448 0.28464463 1.7551429
-0.34470665 0.28446856 1.757
-0.3335219 0.28349525 1.751
-0.32333335 0.28333333 1.7500001
-0.3133333 0.28333333 1.7500001
-0.30333331 0.28333333 1.7500001
-0.29333332 0.28333333 1.7500001
-0.28333333 0.28333333 1.7500001
-0.27333334 0.28333333 1.7500001
-0.26333335 0.28333333 1.7500001
-0.255 0.28333333 1.7500001
-0.245 0.28333333 1.7500001
-0.23333335 0.28333333 1.7500001
-0.22333333 0.28333333 1.7500001
-0.21370097 0.28382286 1.753
-0.20333336 0.28333333 1.7500001
-0.19333336 0.28333333 1.7500001
-0.18364763 0.28381336 1.753
-0.17333335 0.28333333 1.7500001
-0.16417335 0.28479052 1.7589999
-0.1540343 0.28462669 1.7579999
-0.14407049 0.28479049 1.7589999
-0.13401905 0.28479052 1.7589999
-0.12396763 0.28479049 1.7589999
-0.1139162 0.28479049 1.7589999
-0.10386476 0.28479049 1.7589999
-0.093813337 0.28479049 1.7589999
-0.083761908 0.28479049 1.7589999
-0.07333333 0.28333333 1.7500001
-0.063371427 0.28349525 1.751
-0.053419054 0.28381905 1.753
-0.043556195 0.28479052 1.7589999
-0.036855239 0.28479049 1.7590002
-0.022615716 0.28730333 1.7590001
0.0067009525 0.28144002 1.7590001
0.014072001 0.28412041 1.7590001
0.023872145 0.2843717 1.7589999
0.12620127 0.28255686 1.7590002
0.13401905 0.28814095 1.7590002
-0.36000001 0.29166669 1.7500001
-0.35380957 0.29428571 1.7500001
-0.34333336 0.29333332 1.7500001
-0.33333331 0.29333332 1.7500001
-0.32333335 0.29333332 1.7500001
-0.3133333 0.29333332 1.7500001
-0.30333331 0.29333332 1.7500001
-0.29333332 0.29333332 1.7500001
-0.28333333 0.29333332 1.7500001
-0.27333334 0.29333332 1.7500001
-0.26333335 0.29333332 1.7500001
-0.255 0.29333332 1.7500001
-0.24552001 0.29396477 1.7537502
-0.23386857 0.29400572 1.7540001
-0.22448193 0.29484195 1.7589999
-0.21406667 0.29434288 1.756
-0.20333336 0.29333332 1.7500001
-0.19333336 0.29333332 1.7500001
-0.18333334 0.29333332 1.7500001
-0.1734305 0.29350284 1.751
-0.16417335 0.29484192 1.7589999
-0.15412191 0.29484195 1.7589999
-0.14407049 0.29484192 1.7589999
-0.13401906 0.29484192 1.7589999
-0.12396762 0.29484195 1.7589999
-0.1139162 0.29484192 1.7589999
-0.10386477 0.29484192 1.7589999
-0.093813337 0.29484192 1.7589999
-0.083761908 0.29484195 1.7589999
-0.073628575 0.29451048 1.757
-0.063447617 0.29383621 1.753
-0.05341905 0.29383621 1.753
-0.043556195 0.29484192 1.7589999
-0.036017619 0.29567954 1.7590001
-0.023034526 0.29526073 1.7589999
-0.016752381 0.29819238 1.7590001
0.0067009525 0.2931667 1.7590001
0.013401905 0.29484192 1.7589999
0.023453334 0.29316667 1.7589999
0.030154286 0.29149145 1.7590001
0.13443786 0.2944231 1.7589999
-0.34133333 0.30333334 1.7500002
-0.33238098 0.30380949 1.7500001
-0.32333335 0.30333331 1.7500001
-0.3133333 0.30333331 1.7500001
-0.30333331 0.30333331 1.7500001
-0.29333332 0.30333331 1.7500001
-0.28333333 0.30333331 1.7500001
-0.27333334 0.30333331 1.7500001
-0.26333335 0.30333331 1.7500001
-0.255 0.30333331 1.7500001
-0.24531144 0.30372474 1.7522501
-0.23373334 0.30385903 1.753
-0.22435433 0.30472192 1.7579999
-0.21407048 0.30437332 1.756
-0.20333336 0.30333331 1.7500001
-0.19333336 0.30333331 1.7500001
-0.18354098 0.30368379 1.7520001
-0.17402285 0.30454859 1.757
-0.16417333 0.30489334 1.7589999
-0.15394667 0.30454478 1.757
-0.14407049 0.30489334 1.7589999
-0.13401905 0.30489331 1.7589999
-0.12492491 0.30537197 1.7589999
-0.11486494 0.30388275 1.7549092
-0.10357144 0.30402285 1.7540001
-0.093704768 0.30454665 1.757
-0.083761908 0.30489334 1.7589999
-0.073710479 0.30489334 1.7589999
-0.063659042 0.30489331 1.7589999
-0.053512383 0.30437711 1.756
-0.043556195 0.30489334 1.7589999
-0.036855239 0.30489334 1.7590002
-0.023453334 0.30154288 1.7590001
0.015077143 0.30154288 1.7590001
0.1362527 0.30265972 1.7590002
0.14072001 0.30321813 1.7590001
-0.34411621 0.3140552 1.7540001
-0.33333331 0.3133333 1.7500001
-0.32333335 0.31333333 1.7500001
-0.31333333 0.31333333 1.7500001
-0.30350855 0.31351429 1.751
-0.29333332 0.3133333 1.7500001
-0.28333333 0.3133333 1.7500001
-0.27364382 0.31369522 1.7520001
-0.26378477 0.31387618 1.753
-0.25587714 0.31441048 1.756
-0.24531287 0.31373617 1.7522501
-0.23413335 0.31441334 1.756
-0.22496057 0.31398746 1.7589999
-0.21429548 0.31432667 1.757875
-0.20380002 0.31405523 1.7540001
-0.19388382 0.31423429 1.755
-0.1851138 0.31243193 1.7590001
-0.17422478 0.31159431 1.7590002
-0.16283314 0.31360459 1.7590001
-0.15523873 0.3138279 1.7589999
-0.14407048 0.31159431 1.7590001
-0.12173396 0.31271115 1.7590002
-0.11279938 0.31382796 1.7589999
-0.10374667 0.31458858 1.757
-0.093813337 0.31452596 1.7589999
-0.084432006 0.31293449 1.7590001
-0.072872862 0.31243193 1.7590001
-0.06365905 0.31159431 1.7590002
-0.053607624 0.31159431 1.7590002
-0.043556195 0.31326953 1.7589999
-0.036855239 0.31326956 1.7590001
-0.33370745 0.32365602 1.7590001
-0.32480955 0.32481337 1.7579999
-0.31494477 0.3249962 1.7589999
-0.30447453 0.32457739 1.7589999
-0.29383621 0.32389334 1.753
-0.28397906 0.32407814 1.7540001
-0.27442476 0.3246305 1.757
-0.26468763 0.3249962 1.7589999
-0.25463623 0.3249962 1.7589999
-0.24458477 0.32499623 1.7589999
-0.23788382 0.3249962 1.7590002
-0.20437907 0.32332096 1.7589999
-0.19432764 0.32164574 1.7590002
-0.10218953 0.32164574 1.7590001
-0.33169717 0.33504763 1.7590002
-0.32480955 0.33485526 1.7579999
-0.31494477 0.33504763 1.7589999
-0.29819238 0.33337241 1.7590001
-0.28311527 0.33337241 1.7590001
-0.27808952 0.33169717 1.7590001
-0.26468766 0.33504766 1.7589999
-0.25262594 0.33571774 1.7590001
-0.24458477 0.33504763 1.7589999
-0.23788382 0.33504763 1.7590002
-0.21108001 0.3383981 1.7590001
-0.20437907 0.3383981 1.7590002
-0.12396763 0.3383981 1.7590001
0.13066858 0.3383981 1.7590001
-0.3445076 0.34617999 1.756
-0.33466858 0.34470284 1.757
-0.32351622 0.34352767 1.751
-0.31476381 0.34490097 1.7579999
-0.30656856 0.34593666 1.7590001
-0.29149145 0.34844953 1.7590001
-0.28383324 0.34557769 1.7589999
-0.27339888 0.34643921 1.7590001
-0.26468763 0.34509909 1.7589999
-0.25421742 0.34551784 1.7589999
-0.24458477 0.34509909 1.7589999
-0.23453334 0.34509909 1.7589999
-0.22448193 0.34509903 1.7589999
-0.21443048 0.34551784 1.7589999
-0.20437905 0.34509903 1.7589999
-0.17422476 0.34844953 1.7590001
-0.16417335 0.34844956 1.7590002
-0.15412192 0.34844956 1.7590002
-0.14323287 0.3476119 1.7590001
-0.13334897 0.34710938 1.7590001
-0.12438644 0.34551784 1.7589999
-0.1139162 0.34677431 1.7589999
-0.10453486 0.34710938 1.7590001
-0.090462863 0.34844953 1.7590001
-0.083761908 0.34844956 1.7590002
-0.072753198 0.34557769 1.7589999
-0.067009524 0.34509906 1.7590002
0.13468914 0.34710932 1.7590001
0.14239524 0.34677431 1.7590001
-0.34333336 0.35333335 1.7500001
-0.33352569 0.35353333 1.751
-0.32333335 0.35333332 1.7500001
-0.31476381 0.35495049 1.7579999
-0.30489334 0.35515049 1.7589999
-0.29484189 0.35556927 1.7589999
-0.28479049 0.35515049 1.7589999
-0.27458283 0.3549467 1.7579999
-0.26468763 0.35515049 1.7589999
-0.25421739 0.35515046 1.7589999
-0.24417336 0.35454476 1.756
-0.23399809 0.35434288 1.755
-0.22397335 0.35434097 1.755
-0.21430668 0.35494858 1.7579999
-0.20437907 0.35515049 1.7589999
-0.19432764 0.35459206 1.7589999
-0.1838574 0.3555693 1.7589999
-0.17422478 0.35515049 1.7589999
-0.16417335 0.35515049 1.7589999
-0.15412191 0.35515049 1.7589999
-0.14407049 0.35515046 1.7589999
-0.13394284 0.35494858 1.7579999
-0.12389525 0.35494858 1.7579999
-0.1139162 0.35515046 1.7589999
-0.10386477 0.35515049 1.7589999
-0.09381333 0.35515046 1.7589999
-0.083761908 0.35515049 1.7589999
-0.073710471 0.35515049 1.7589999
-0.063659042 0.35515049 1.7589999
-0.054947812 0.35649067 1.7590001
-0.043556195 0.35850096 1.7590002
0.13443786 0.35473168 1.7589999
0.14072001 0.35515049 1.7590001
-0.34335595 0.36338812 1.7522501
-0.33409908 0.36416763 1.7540001
-0.32333335 0.36333334 1.7500001
-0.31494477 0.36520192 1.7589999
-0.30489334 0.36520192 1.7589999
-0.29484192 0.36520195 1.7589999
-0.28446856 0.3647905 1.757
-0.27348763 0.36354101 1.751
-0.26453525 0.36499622 1.7579999
-0.2546362 0.36654216 1.7590001
-0.24458477 0.36520192 1.7589999
-0.23453334 0.36520192 1.7589999
-0.22448193 0.36520192 1.7589999
-0.21577068 0.36654216 1.7590001
-0.2060543 0.36855239 1.7590001
-0.18092573 0.36185145 1.7590001
-0.17422476 0.36386174 1.7590001
-0.16417335 0.36185145 1.7590002
-0.15412191 0.36520192 1.7589999
-0.14407049 0.36520195 1.7589999
-0.13371049 0.36436763 1.755
-0.12396763 0.36520192 1.7589999
-0.1139162 0.36520192 1.7589999
-0.10386477 0.36520192 1.7589999
-0.093813337 0.36520195 1.7589999
-0.083761908 0.36520195 1.7589999
-0.073710471 0.36520192 1.7589999
-0.063659042 0.36520192 1.7589999
-0.053607624 0.36520192 1.7589999
-0.043974999 0.36562076 1.7589999
0.13602933 0.36453184 1.7590001
0.14072001 0.36520192 1.7590002
-0.34286544 0.3730197 1.7590002
-0.33441669 0.37459666 1.757875
-0.32389143 0.37397712 1.753
-0.31422287 0.37439811 1.755
-0.30472001 0.37503815 1.7579999
-0.29467431 0.37503815 1.7579999
-0.28414094 0.37439811 1.755
-0.27426666 0.37461719 1.756
-0.2646876 0.37525338 1.7589999
-0.25463623 0.37525335 1.7589999
-0.24458477 0.37525335 1.7589999
-0.23453334 0.37525335 1.7589999
-0.22448191 0.37190288 1.7590001
-0.20102859 0.37692857 1.7590001
-0.19390881 0.37567219 1.7589999
-0.18469501 0.37567216 1.7589999
-0.17623505 0.37525335 1.7590001
-0.15316463 0.37477472 1.7589999
-0.14407049 0.37525335 1.7589999
-0.13401906 0.37525338 1.7589999
-0.12354882 0.3748346 1.7589999
-0.11343756 0.37429604 1.7589999
-0.10386476 0.37525338 1.7589999
-0.093813337 0.37525338 1.7589999
-0.083761908 0.37525335 1.7589999
-0.073710479 0.37525338 1.7589999
-0.06365905 0.37525335 1.7589999
-0.053607624 0.37525335 1.7589999
-0.043975003 0.37483457 1.7589999
-0.33253479 0.38446715 1.7590001
-0.32444766 0.38464764 1.756
-0.31422475 0.3844305 1.755
-0.30350855 0.38355434 1.751
-0.29333332 0.38333338 1.7500001
-0.28381336 0.3839905 1.753
-0.27473903 0.38530475 1.7589999
-0.26468766 0.38530475 1.7589999
-0.25463623 0.38530475 1.7589999
-0.24458477 0.38530478 1.7589999
-0.23453334 0.38530478 1.7589999
-0.22448193 0.38865528 1.7590002
-0.2134732 0.3857834 1.7589999
-0.20437907 0.38530478 1.7589999
-0.19432762 0.38530478 1.7589999
-0.18427621 0.38530472 1.7589999
-0.17506239 0.38698003 1.7590001
-0.15370309 0.38572359 1.7589999
-0.14407048 0.38530472 1.7589999
-0.13513587 0.38474634 1.7589999
-0.12061714 0.38530478 1.7590001
-0.11279937 0.38418794 1.7590002
-0.10453486 0.38329449 1.7590001
-0.093813337 0.38195431 1.7590002
-0.083343096 0.38488594 1.7589999
-0.073710471 0.38530475 1.7589999
-0.06365905 0.38530472 1.7589999
-0.053607624 0.38530478 1.7589999
-0.042439368 0.38753843 1.7590002
-0.32249811 0.39434481 1.7545
-0.31404382 0.3942343 1.7540001
-0.30385903 0.39400765 1.753
-0.29383621 0.39401338 1.753
-0.28484288 0.39443597 1.75675
-0.27406898 0.39334592 1.7590001
-0.26468763 0.39535618 1.7589999
-0.2546362 0.39535621 1.7589999
-0.24458477 0.39535618 1.7589999
-0.23453334 0.39535618 1.7589999
-0.22448193 0.39535621 1.7589999
-0.21443047 0.39535618 1.7589999
-0.20437907 0.39535621 1.7589999
-0.19432762 0.39535621 1.7589999
-0.1838574 0.39535618 1.7589999
-0.17464358 0.39577499 1.7589999
-0.16082287 0.39703143 1.7590001
-0.15077144 0.39535621 1.7590001
-0.14365166 0.39577499 1.7589999
-0.13468914 0.39602628 1.7590001
-0.1273181 0.39535618 1.7590002
-0.082804628 0.39487758 1.7589999
-0.073710471 0.39535621 1.7589999
-0.06365905 0.39535618 1.7589999
-0.055617906 0.39468607 1.7590001
-0.33337238 0.40540767 1.7589999
-0.32426289 0.40448385 1.755
-0.31386667 0.40402287 1.753
-0.30437332 0.40471622 1.756
-0.29484192 0.40540764 1.7589999
-0.28479052 0.40540764 1.7589999
-0.27362224 0.4048492 1.7589999
-0.26468766 0.40540767 1.7589999
-0.2546362 0.40540764 1.7589999
-0.24458477 0.40540767 1.7589999
-0.23453334 0.40540764 1.7589999
-0.22448193 0.40540764 1.7589999
-0.2144305 0.40540767 1.7589999
-0.20437907 0.40540764 1.7589999
-0.19474643 0.40498886 1.7589999
-0.18331894 0.40492901 1.7589999
-0.17422475 0.40540767 1.7589999
-0.16350324 0.40607771 1.7590001
-0.15747239 0.40708286 1.7590001
-0.14239524 0.40540764 1.7589999
-0.13401905 0.40540767 1.7589999
-0.1273181 0.40540764 1.7590002
-0.082804628 0.40588626 1.7589999
-0.073710479 0.40540764 1.7589999
-0.06533429 0.40540767 1.7589999
-0.3417486 0.41713428 1.7590001
-0.33504763 0.4154591 1.7589999
-0.32389334 0.41404194 1.753
-0.3140476 0.41428384 1.7540001
-0.30437332 0.41475052 1.756
-0.29484195 0.41545907 1.7589999
-0.2852093 0.41587791 1.7589999
-0.27362224 0.41657591 1.7590002
-0.26373035 0.41498044 1.7589999
-0.2546362 0.41545907 1.7589999
-0.24458477 0.41545904 1.7589999
-0.23453334 0.4154591 1.7589999
-0.22448193 0.4154591 1.7589999
-0.2144305 0.41545904 1.7589999
-0.20437907 0.4154591 1.7589999
-0.19684048 0.41629669 1.7590001
-0.18427619 0.41378385 1.7590001
-0.17380595 0.41504025 1.7589999
-0.16369469 0.41641635 1.7589999
-0.15460053 0.41641635 1.7589999
-0.14351207 0.4160175 1.7589999
-0.13066858 0.41378385 1.7590001
-0.1273181 0.41378385 1.7590001
-0.083343104 0.41504025 1.7589999
-0.074129291 0.41545904 1.7589999
-0.067009524 0.4121086 1.7590001
-0.3417486 0.42383528 1.7590001
-0.33504766 0.42551047 1.7589999
-0.3249962 0.42551047 1.7589999
-0.31494474 0.42551047 1.7589999
-0.30471998 0.4252705 1.7579999
-0.29484192 0.42551053 1.7589999
-0.28479049 0.42551053 1.7589999
-0.27473906 0.42551047 1.7589999
-0.26426882 0.42592928 1.7589999
-0.2546362 0.42551053 1.7589999
-0.24458477 0.42551047 1.7589999
-0.23453332 0.42509168 1.7589999
-0.2240033 0.42455319 1.7589999
-0.21443047 0.42509168 1.7589999
-0.20485771 0.42455319 1.7589999
-0.1976781 0.42216003 1.7590001
-0.16082287 0.4255105 1.7590002
-0.15663476 0.42634812 1.7590001
-0.14574572 0.4255105 1.7590001
-0.34286544 0.43779555 1.7590002
-0.33504763 0.43556193 1.7589999
-0.3249962 0.43556193 1.7589999
-0.31494474 0.43388668 1.7589999
-0.30441472 0.43460464 1.7589999
-0.29484192 0.4355619 1.7589999
-0.28479049 0.4355619 1.7589999
-0.27473906 0.43556193 1.7589999
-0.2646876 0.43556193 1.7589999
-0.25463617 0.4355619 1.7589999
-0.24458477 0.4355619 1.7589999
-0.23453332 0.43604055 1.7589999
-0.22280668 0.4355619 1.7590001
-0.21443048 0.43514311 1.7589999
-0.20437907 0.43556193 1.7589999
-0.19488604 0.43612036 1.7589999
-0.16216306 0.43489185 1.7590001
-0.154792 0.43355164 1.7590001
-0.14742096 0.43388671 1.7590001
-0.34342384 0.44561335 1.7589999
-0.33546644 0.44519457 1.7589999
-0.32595348 0.44513473 1.7589999
-0.30447453 0.44519454 1.7589999
-0.29484189 0.44561338 1.7589999
-0.28479049 0.44561332 1.7589999
-0.27473906 0.44519457 1.7589999
-0.26420897 0.4446561 1.7589999
-0.25463617 0.44561332 1.7589999
-0.24458477 0.44561332 1.7589999
-0.23453332 0.44561338 1.7589999
-0.22336508 0.44449654 1.7590002
-0.21331365 0.44449654 1.7589999
-0.20437907 0.44561332 1.7589999
-0.19432762 0.44561332 1.7589999
-0.18427619 0.44561335 1.7590001
-0.17590001 0.44728857 1.7590001
-0.16082287 0.44561335 1.7590002
-0.154792 0.44762364 1.7590001
-0.1449081 0.4481262 1.7590001
-0.11224096 0.44896382 1.7590001
-0.34509906 0.45499468 1.7590001
-0.3023805 0.45566478 1.7590001
-0.29685217 0.45499468 1.7590001
-0.28814095 0.45398957 1.7590001
-0.25463617 0.45566478 1.7589999
-0.24458477 0.45566478 1.7589999
-0.23620857 0.45566478 1.7589999
-0.21108001 0.45231432 1.7590001
-0.20326222 0.45454797 1.7589999
-0.19432762 0.45566478 1.7589999
-0.18427618 0.45566478 1.7590002
-0.17757525 0.45231432 1.7590001
-0.16082287 0.45398957 1.7590001
-0.15345182 0.45365453 1.7590001
-0.1446289 0.45622322 1.7589999
-0.11168256 0.45789841 1.7590002
-0.10386477 0.45901525 1.7590002
-0.097163811 0.45901525 1.7590001
-0.34254098 0.46285382 1.7545002
-0.33504763 0.46404096 1.7590001
-0.30154288 0.46236572 1.7590001
-0.29819238 0.46236572 1.7590001
-0.25686982 0.46459937 1.7590002
-0.24324457 0.46437603 1.7590001
-0.2370462 0.46487856 1.7590001
-0.19516525 0.46487859 1.7590001
-0.17422476 0.46906668 1.7590001
-0.11190592 0.46638632 1.7590001
-0.10498159 0.46348253 1.7590002
-0.3417486 0.47241715 1.7590001
-0.26401752 0.4777779 1.7590001
-0.25511482 0.47672489 1.7589999
-0.24793525 0.47911811 1.7590001
-0.2060543 0.47576764 1.7590001
-0.19432762 0.47576764 1.7590001
-0.17254953 0.47241715 1.7590001
-0.12396763 0.47911811 1.7590001
-0.1139162 0.47576761 1.7590002
-0.27339888 0.48514897 1.7590001
-0.26426882 0.48540026 1.7589999
-0.25463623 0.48581907 1.7589999
-0.24793525 0.48581907 1.7590002
-0.15579715 0.48246858 1.7590001
-0.13066858 0.48749429 1.7590001
-0.12396762 0.48581907 1.7589999
-0.11559144 0.48414382 1.7590001
-0.27473906 0.49252 1.7590001
-0.26133716 0.49252 1.7590001
-0.25547379 0.49335763 1.7590001
-0.24793525 0.49252 1.7590001
-0.12564287 0.49252 1.7590001
-0.30405575 0.51597333 1.7590001
-0.19656128 0.51709014 1.7590002
-0.20102859 0.52267432 1.7590001
-0.19544446 0.52546638 1.7589999
-0.20270382 0.53942668 1.7590001
-0.1976781 0.53607619 1.7590001
-0.20214541 0.54389399 1.7590002
-0.1976781 0.54445243 1.7590001
-0.22113144 0.63994098 1.7590001
0.083348572 0.093451433 1.7680001
-0.17343238 0.10776381 1.7680001
-0.15659429 0.10439619 1.7680001
-0.14144 0.10439619 1.7680001
-0.13302097 0.10271238 1.7680001
-0.12527543 0.10304914 1.768
-0.11449905 0.10551873 1.7680001
-0.10439619 0.10776381 1.7680001
-0.095977142 0.10776381 1.7680001
-0.08419048 0.10439619 1.7680001
-0.07408762 0.1077638 1.7680001
-0.063984767 0.10776381 1.7680001
-0.047146667 0.10102858 1.7680001
-0.035360001 0.10102858 1.7680001
-0.023573333 0.10439619 1.7680001
-0.016838096 0.10439619 1.7680001
0 0.10776381 1.7680001
0.015154285 0.10102858 1.7680001
0.063984767 0.10102858 1.7680001
0.07408762 0.10102858 1.7680001
-0.29635048 0.11281524 1.7680001
-0.28793144 0.11449905 1.7680001
-0.27782857 0.11113143 1.7680001
-0.23741716 0.11449905 1.7680001
-0.11618286 0.14817524 1.7680001
-0.067352384 0.14817524 1.7680001
-0.031992383 0.14817524 1.7680001
-0.023573333 0.14817524 1.7680001
-0.012628571 0.14733334 1.7680001
-0.0056126988 0.14705271 1.7680001
0.0033676189 0.14817524 1.7680001
0.010102858 0.14817524 1.7680001
-0.22899811 0.15827811 1.7680001
-0.1919543 0.15491048 1.7680001
-0.12376001 0.15238476 1.7680001
-0.11449905 0.15154286 1.7680001
-0.10608 0.15322667 1.7680001
-0.073245719 0.15406857 1.7680001
-0.067352384 0.15154286 1.7680001
-0.026940953 0.15154286 1.7680001
-0.011786667 0.15406857 1.7680001
-0.0053881905 0.15423696 1.768
0.0040411432 0.15288991 1.768
0.010102858 0.15322667 1.7680001
-0.0067352382 0.16164573 1.7680001
0.010102858 0.19532192 1.7680001
0.11113143 0.22226286 1.7680001
-0.36370286 0.23910096 1.7680001
0.050514288 0.23573335 1.7680001
0.11113143 0.23910096 1.7680001
-0.36370286 0.2458362 1.7680001
-0.030308573 0.24246858 1.7680001
