# .PCD v0.7 - Point Cloud Data file format
VERSION 0.7
FIELDS x y z
SIZE 4 4 4
TYPE F F F
COUNT 1 1 1
WIDTH 1529
HEIGHT 1
VIEWPOINT 0 0 0 1 0 0 0
POINTS 1529
DATA ascii
-0.16333334 0.11324444 1.715
-0.1323 0.11433334 1.715
-0.013066667 0.11433333 1.715
-0.43120003 0.12740001 1.715
-0.42303336 0.12576668 1.715
-0.41813335 0.12413335 1.715
-0.40180001 0.12576668 1.715
-0.39526668 0.12413335 1.715
-0.38873336 0.12086667 1.715
-0.013066667 0.12413334 1.715
-0.42466667 0.13393334 1.715
-0.39417776 0.13284445 1.715
-0.38546669 0.13556667 1.715
-0.37566671 0.1372 1.715
-0.36750001 0.1372 1.715
-0.017422223 0.13393334 1.715
-0.3626 0.14046668 1.715
-0.35606667 0.14046668 1.715
-0.34953335 0.14046668 1.715
-0.33565 0.14455001 1.715
-0.32503334 0.14373334 1.715
-0.31359997 0.14536665 1.715
-0.30445334 0.14569333 1.7149999
-0.022866668 0.14536667 1.715
-0.0196 0.14373334 1.715
-0.3021667 0.15190001 1.715
-0.29563335 0.15353334 1.715
-0.022866668 0.15190001 1.715
-0.33483332 0.16823334 1.715
-0.32536 0.16921334 1.7149999
-0.31360003 0.16823334 1.715
-0.30380002 0.16333334 1.715
-0.29563335 0.16006668 1.715
-0.28746668 0.16986667 1.715
-0.0196 0.16496667 1.715
-0.3438167 0.17721668 1.715
-0.33646667 0.17640001 1.715
-0.32503337 0.17640001 1.715
-0.31406665 0.17546667 1.715
-0.30488887 0.17422223 1.715
-0.016333334 0.17803334 1.715
-0.34585834 0.18579169 1.715
-0.33646667 0.18619999 1.715
-0.32797337 0.18750668 1.7149999
-0.3136 0.18946667 1.715
-0.30053335 0.18620001 1.715
-0.015026668 0.18685333 1.7149999
-0.3438167 0.19600001 1.715
-0.33646667 0.19599999 1.715
-0.32518184 0.19570301 1.715
-0.31196669 0.19600002 1.715
-0.3021667 0.19436666 1.715
-0.015516668 0.19681667 1.715
-0.34300002 0.2058 1.715
-0.33605835 0.20580001 1.715
-0.32518184 0.20580001 1.715
-0.31266665 0.20626667 1.715
-0.30380002 0.20825002 1.715
-0.015516668 0.20498335 1.715
-0.3438167 0.21560001 1.715
-0.33646667 0.21560001 1.715
-0.32458791 0.21589699 1.715
-0.3136 0.21560001 1.715
-0.30380002 0.21560001 1.715
-0.29726669 0.21233334 1.715
-0.013066667 0.21886668 1.715
-0.34300002 0.22376668 1.715
-0.33605832 0.22499166 1.715
-0.3250334 0.22540003 1.715
-0.31359997 0.2254 1.715
-0.30380002 0.2254 1.715
-0.013066667 0.22213334 1.715
-0.33320001 0.23193334 1.715
-0.32503334 0.23519999 1.715
-0.31359997 0.23520003 1.715
-0.30420837 0.23520002 1.715
-0.29726669 0.23846668 1.715
-0.28420004 0.23846668 1.715
-0.27766669 0.23846668 1.715
-0.016333334 0.23520002 1.715
-0.32448894 0.2439111 1.715
-0.3136 0.24499999 1.715
-0.30380002 0.24499999 1.715
-0.294 0.24500002 1.715
-0.28420001 0.24500002 1.715
-0.27533334 0.24546668 1.715
-0.26786667 0.24826668 1.715
-0.016333334 0.24336667 1.715
-0.32013336 0.25480002 1.715
-0.31359997 0.25479999 1.715
-0.30379999 0.25479999 1.715
-0.294 0.25479999 1.715
-0.28420001 0.25479999 1.715
-0.27603334 0.25316668 1.715
-0.016333334 0.25480002 1.715
-0.32013336 0.26460001 1.715
-0.3136 0.26460001 1.715
-0.30380002 0.26460001 1.715
-0.29400003 0.26460001 1.715
-0.28615999 0.26394668 1.7149999
-0.32013336 0.2744 1.715
-0.3136 0.27439997 1.715
-0.30380002 0.27440003 1.715
-0.29563335 0.27276665 1.715
-0.016333334 0.27276665 1.715
-0.32340002 0.28420001 1.715
-0.3136 0.28420001 1.715
-0.30380002 0.28460836 1.715
-0.29563335 0.28583336 1.715
-0.0196 0.28420001 1.715
-0.32340002 0.29400003 1.715
-0.31490666 0.29269335 1.7149999
-0.30053335 0.29073334 1.715
-0.29563335 0.29073334 1.715
-0.014700001 0.29073334 1.715
-0.32339999 0.30379999 1.715
-0.31686667 0.30543333 1.715
-0.016333334 0.30543333 1.715
-0.32013336 0.31033334 1.715
-0.31251112 0.31251112 1.715
-0.30445334 0.31556001 1.7149999
-0.2933467 0.31556001 1.7149999
-0.28420001 0.3136 1.715
-0.27439997 0.31359997 1.715
-0.26623333 0.31360003 1.715
-0.016333334 0.31196666 1.715
-0.30380002 0.32013336 1.715
-0.294 0.32013336 1.715
-0.28256667 0.32013336 1.715
-0.27440003 0.3250334 1.715
-0.26460001 0.32503337 1.715
-0.25520834 0.32625836 1.715
-0.24581668 0.32911667 1.715
-0.27276665 0.33320001 1.715
-0.26378334 0.33401668 1.715
-0.2569778 0.33428887 1.715
-0.24336666 0.33483332 1.715
-0.23628891 0.33755556 1.715
-0.26296669 0.34953335 1.715
-0.25480002 0.34953335 1.715
-0.24459167 0.34667501 1.715
-0.23628891 0.34572223 1.715
-0.013066667 0.34626669 1.715
-0.31033334 0.35933334 1.715
-0.30461669 0.35851669 1.715
-0.29236668 0.35933334 1.715
-0.28420004 0.35933337 1.715
-0.27399167 0.356475 1.715
-0.26460001 0.35606667 1.715
-0.25588891 0.35497776 1.715
-0.24826668 0.35280001 1.715
-0.013066667 0.3560667 1.715
-0.31033334 0.3626 1.715
-0.30706668 0.3626 1.715
-0.294 0.3626 1.715
-0.28326669 0.36540002 1.715
-0.27440003 0.36586672 1.715
-0.26460001 0.36586666 1.715
-0.25526667 0.36680004 1.715
-0.013066667 0.36586666 1.715
-0.28175002 0.37485003 1.715
-0.27505332 0.37370667 1.7149999
-0.26460001 0.37403333 1.715
-0.25479999 0.37566671 1.715
-0.016333334 0.37566671 1.715
-0.28093335 0.3822 1.715
-0.27603334 0.3822 1.715
-0.26296669 0.3822 1.715
-0.25433332 0.38546667 1.715
-0.2352 0.3822 1.715
-0.22213334 0.38710004 1.715
-0.016333334 0.38546669 1.715
-0.25439167 0.39485836 1.715
-0.245 0.39853334 1.715
-0.2352 0.39853334 1.715
-0.22540002 0.39526668 1.715
-0.017966667 0.39445001 1.715
-0.26296669 0.40506667 1.715
-0.25439167 0.40506667 1.715
-0.24445556 0.40615556 1.715
-0.23601668 0.40670002 1.715
-0.22458336 0.40506667 1.715
-0.016333334 0.40506667 1.715
-0.27505332 0.41552001 1.7149999
-0.26460001 0.41486666 1.715
-0.25479999 0.41486669 1.715
-0.24630669 0.41356 1.7149999
-0.23846668 0.41160002 1.715
-0.014700001 0.41486669 1.715
-0.2744 0.42466667 1.715
-0.26460001 0.42466667 1.715
-0.25480002 0.42466667 1.715
-0.24540834 0.42425835 1.715
-0.014700001 0.42466667 1.715
-0.27276665 0.43283337 1.715
-0.26460001 0.43400002 1.715
-0.25480002 0.43446672 1.715
-0.24593334 0.43493336 1.715
-0.013066667 0.43446669 1.715
-0.26133335 0.44426668 1.715
-0.25479999 0.44385833 1.715
-0.24500002 0.44426668 1.715
-0.23846668 0.44590002 1.715
-0.016333334 0.44753334 1.715
-0.25480002 0.45080003 1.715
-0.24500002 0.45406669 1.715
-0.23560835 0.45447505 1.715
-0.22540003 0.45406669 1.715
-0.21560001 0.45406669 1.715
-0.013066667 0.45406666 1.715
-0.26133335 0.4655 1.715
-0.25479999 0.46386665 1.715
-0.24500002 0.46386665 1.715
-0.2352 0.46386665 1.715
-0.2254 0.46386665 1.715
-0.21756001 0.46386665 1.7149999
-0.015244446 0.46386668 1.715
-0.26296669 0.47040001 1.715
-0.25414667 0.47170669 1.7149999
-0.24554445 0.47257781 1.715
-0.23479168 0.47325838 1.715
-0.2254 0.47366673 1.715
-0.21653333 0.47413334 1.715
-0.015244446 0.47366667 1.715
-0.24336669 0.48265001 1.715
-0.23479168 0.48387507 1.715
-0.2254 0.48346668 1.715
-0.21560001 0.48346674 1.715
-0.20906667 0.48510003 1.715
-0.01687778 0.48346671 1.715
-0.24282223 0.49598894 1.715
-0.23520002 0.49424666 1.7149999
-0.22540002 0.49489999 1.715
-0.21592669 0.49457335 1.7149999
-0.20906667 0.49490005 1.715
-0.018511111 0.49381113 1.715
-0.24406667 0.50586665 1.715
-0.23520003 0.50633335 1.715
-0.22499168 0.505925 1.715
-0.21519168 0.505925 1.715
-0.20743334 0.50715005 1.715
-0.19926667 0.50960004 1.715
-0.01715 0.50551665 1.715
-0.24173336 0.51613331 1.715
-0.23683335 0.51613337 1.715
-0.21396667 0.51613337 1.715
-0.20620835 0.51572502 1.715
-0.19845 0.51531667 1.715
-0.24255002 0.52675003 1.715
-0.23613335 0.52640003 1.715
-0.2254 0.52593338 1.715
-0.21466668 0.52546668 1.715
-0.20906667 0.52593333 1.715
-0.18293335 0.52593333 1.715
-0.013066667 0.52429998 1.715
-0.24369335 0.53442669 1.7149999
-0.2352 0.53573334 1.715
-0.2254 0.53573334 1.715
-0.2156 0.53573334 1.715
-0.20825 0.53573334 1.715
-0.016333334 0.53573334 1.715
-0.24173334 0.54226667 1.715
-0.23438334 0.54308337 1.715
-0.22540002 0.54512501 1.715
-0.21466668 0.54506665 1.715
-0.20620835 0.54594171 1.715
-0.19926667 0.54879999 1.715
-0.016333334 0.54716671 1.715
-0.22474667 0.5533734 1.7149999
-0.21513334 0.55440003 1.715
-0.20580001 0.55533338 1.715
-0.19640833 0.55574167 1.715
-0.18946667 0.55860001 1.715
-0.016333334 0.55206668 1.715
-0.21233334 0.5618667 1.715
-0.20362222 0.56404448 1.715
-0.19559167 0.56513333 1.715
-0.18666668 0.56606668 1.715
-0.016333334 0.56840003 1.715
-0.20362222 0.57602221 1.715
-0.19600001 0.57493329 1.715
-0.18579167 0.574525 1.715
-0.17836 0.57428002 1.7149999
-0.016333334 0.57493335 1.715
-0.20334999 0.58555001 1.715
-0.19654445 0.58364445 1.715
-0.18620001 0.58473337 1.715
-0.17509334 0.58473337 1.7149999
-0.016333334 0.58473331 1.715
-0.20416667 0.59453338 1.715
-0.19646668 0.59546673 1.715
-0.18620001 0.59616673 1.715
-0.17585556 0.59507781 1.715
-0.016333334 0.59453332 1.715
-0.20335001 0.60515004 1.715
-0.19640833 0.6043334 1.715
-0.18620001 0.6043334 1.715
-0.17640002 0.60433334 1.715
-0.16823334 0.6043334 1.715
-0.016333334 0.6043334 1.715
-0.2041667 0.61413336 1.715
-0.19693334 0.61366665 1.715
-0.18579169 0.61372501 1.715
-0.17640001 0.61413336 1.715
-0.16856 0.61478674 1.7149999
-0.15190001 0.61740005 1.715
-0.016333334 0.61413336 1.715
-0.20486668 0.62346667 1.715
-0.19763334 0.62475002 1.715
-0.18424001 0.62393337 1.7149999
-0.17640001 0.62393337 1.715
-0.16541213 0.62423033 1.715
-0.15353334 0.62393332 1.715
-0.147 0.62393337 1.715
-0.017966667 0.62393337 1.715
-0.20486666 0.63373333 1.715
-0.19599999 0.63373339 1.715
-0.18620002 0.63373333 1.715
-0.17640001 0.63373339 1.715
-0.16452122 0.63403034 1.715
-0.15353334 0.6304667 1.715
-0.147 0.6304667 1.715
-0.016333334 0.63155556 1.715
-0.0098000001 0.63700002 1.715
-0.21478334 0.64435005 1.715
-0.20580001 0.64353341 1.715
-0.19600002 0.64353347 1.715
-0.18620001 0.64353335 1.715
-0.17640001 0.64312506 1.715
-0.16452123 0.6432364 1.715
-0.22376668 0.65006667 1.715
-0.21886668 0.65006667 1.715
-0.19436668 0.65006667 1.715
-0.18620001 0.65006667 1.715
-0.16170001 0.65170002 1.715
-0.11188333 0.66640002 1.715
-0.10535001 0.66803336 1.715
-0.093916669 0.66885 1.715
-0.088200003 0.66966671 1.715
-0.094733335 0.67293334 1.715
-0.057166666 0.67293334 1.715
-0.4865424 0.10584144 1.723
-0.20183715 0.10830286 1.723
-0.16245429 0.10502096 1.723
-0.15643747 0.1072089 1.723
-0.045946669 0.10283303 1.723
-0.029537143 0.10502096 1.723
-0.013127619 0.10830286 1.723
-0.43567288 0.1173281 1.723
-0.42430344 0.11674204 1.7229998
-0.41417637 0.11683581 1.7229999
-0.40301791 0.11683581 1.7229999
-0.39546955 0.11486667 1.723
-0.35116383 0.11158477 1.723
-0.3314724 0.11486667 1.723
-0.21824667 0.11322571 1.723
-0.20511904 0.11158477 1.723
-0.17230001 0.11158477 1.723
-0.1657362 0.11158477 1.723
-0.15589049 0.11158477 1.723
-0.13784 0.11486667 1.723
-0.009845715 0.11650762 1.723
-0.4693124 0.12143048 1.723
-0.45290288 0.12143048 1.723
-0.44305715 0.12471239 1.723
-0.43690357 0.12430216 1.7229998
-0.42796046 0.12339963 1.7229999
-0.41352001 0.12471239 1.7229998
-0.40613574 0.1238919 1.723
-0.013127619 0.12471239 1.723
-0.009845715 0.12143048 1.723
-0.43583697 0.13258895 1.7229999
-0.42485753 0.1345581 1.7229997
-0.41352001 0.1345581 1.7229998
-0.4036743 0.1345581 1.7229998
-0.39711049 0.13784 1.723
-0.014768572 0.1345581 1.723
-0.39054668 0.14112191 1.723
-0.38398287 0.14112191 1.723
-0.37331668 0.1419424 1.723
-0.36429143 0.14330985 1.723
-0.35444573 0.14440382 1.723
-0.34525639 0.14637294 1.7229999
-0.33803621 0.14768572 1.723
-0.32326764 0.14768572 1.723
-0.017722286 0.14440382 1.7229999
-0.3413181 0.15096763 1.723
-0.33475432 0.15424953 1.7229998
-0.32537743 0.15331185 1.7229998
-0.31506288 0.15424953 1.7229998
-0.30652994 0.1555623 1.7229999
-0.018050477 0.15424953 1.7229999
-0.38234192 0.16737714 1.723
-0.37741905 0.16737714 1.723
-0.34295905 0.16737714 1.723
-0.33428547 0.16315755 1.7229998
-0.32490858 0.16464223 1.7229999
-0.31506285 0.16245429 1.7229999
-0.30849907 0.16081335 1.723
-0.016409524 0.16409524 1.723
-0.39054668 0.17230001 1.723
-0.3839829 0.17394096 1.7229998
-0.37413716 0.17394096 1.7229998
-0.36470169 0.17435119 1.7229998
-0.35444573 0.17394094 1.7229998
-0.34591278 0.17262819 1.7229999
-0.015315555 0.17394096 1.723
-0.38288891 0.18269271 1.7229999
-0.37413716 0.18378669 1.7229998
-0.36429143 0.18378668 1.7229998
-0.3553834 0.18331783 1.7229998
-0.013127619 0.18214571 1.723
-0.009845715 0.18378668 1.723
-0.37577808 0.19363241 1.7229999
-0.36388123 0.19322217 1.7229998
-0.35444573 0.19363241 1.7229998
-0.34788191 0.19363239 1.723
-0.013127619 0.19527334 1.723
-0.009845715 0.19035049 1.723
-0.36232227 0.2034781 1.7229999
-0.35444573 0.2034781 1.7229998
-0.34624097 0.20429857 1.723
-0.013127619 0.20676 1.723
-0.009845715 0.20183715 1.723
-0.38288891 0.21551175 1.723
-0.36319745 0.21478243 1.7229998
-0.35444573 0.21496476 1.7229997
-0.34788191 0.21441777 1.723
-0.01312762 0.21332383 1.723
-0.38398287 0.22316954 1.723
-0.35444576 0.22645146 1.7229998
-0.34591275 0.2277642 1.7229999
-0.013127619 0.2280924 1.723
-0.3524766 0.23564076 1.7229999
-0.34459999 0.23629716 1.7229998
-0.33672342 0.23695354 1.7229999
-0.013948096 0.23629716 1.723
-0.35116383 0.24450192 1.723
-0.34418979 0.24573261 1.7229998
-0.33569199 0.2466117 1.7229998
-0.32654953 0.24942477 1.723
-0.014221587 0.24614286 1.723
-0.34460002 0.25598857 1.7229998
-0.33434406 0.25557834 1.7229998
-0.32654953 0.25598857 1.7229999
-0.013948096 0.25680906 1.723
-0.34624094 0.26419336 1.723
-0.33278513 0.26517791 1.7229999
-0.32654953 0.2658343 1.7229999
-0.014768572 0.2658343 1.7229999
-0.33229285 0.27485955 1.723
-0.32654953 0.27568001 1.7229999
-0.013948096 0.27650049 1.723
-0.33434403 0.28593597 1.7229998
-0.014768572 0.28552571 1.7229999
-0.34460005 0.29701239 1.7229999
-0.33475432 0.29537141 1.7229998
-0.016409524 0.29701239 1.723
-0.34328726 0.30390438 1.7229999
-0.33475432 0.30521715 1.7229998
-0.016409524 0.30193526 1.723
-0.3413181 0.31178096 1.723
-0.33475432 0.31178096 1.723
-0.32490858 0.31342191 1.723
-0.31725082 0.31725082 1.723
-0.016409524 0.31834477 1.723
-0.31424239 0.32244715 1.723
-0.30521715 0.32531881 1.7229998
-0.29537144 0.32531881 1.7229998
-0.28599459 0.32584625 1.7229998
-0.015096761 0.32556495 1.7229999
-0.30412319 0.33256635 1.723
-0.2937305 0.3314724 1.723
-0.28486937 0.33278513 1.7229999
-0.27650049 0.33721572 1.723
-0.26747525 0.33803621 1.723
-0.25352716 0.33557478 1.723
-0.24942477 0.33639526 1.723
-0.016409524 0.33475429 1.723
-0.31440648 0.34656915 1.7229999
-0.30587354 0.34656912 1.7229999
-0.29537144 0.34788191 1.723
-0.28552571 0.34788191 1.723
-0.27568001 0.34459999 1.7229998
-0.26583427 0.34459999 1.7229998
-0.25598857 0.34460002 1.7229998
-0.24696334 0.34213859 1.723
-0.013127619 0.34295905 1.723
-0.32326764 0.35608667 1.723
-0.31506288 0.35444573 1.7229998
-0.30480692 0.3540355 1.7229998
-0.29537141 0.35444573 1.7229998
-0.28552571 0.35444576 1.7229998
-0.27650049 0.35198432 1.723
-0.26911619 0.35116383 1.723
-0.013127619 0.35116383 1.723
-0.32293946 0.36363506 1.7229999
-0.31600055 0.36476025 1.7229998
-0.30456075 0.36626059 1.7229999
-0.29591843 0.36538541 1.7229999
-0.28880763 0.36757335 1.723
-0.009845715 0.36429143 1.723
-0.31309372 0.37413713 1.7229999
-0.30521715 0.37413713 1.7229998
-0.29537144 0.37413713 1.7229998
-0.28798717 0.37495762 1.723
-0.27239811 0.37741905 1.723
-0.013127619 0.37577811 1.723
-0.31178096 0.38070098 1.723
-0.30302921 0.38179493 1.723
-0.29537144 0.38398287 1.7229998
-0.28646344 0.38445178 1.7229998
-0.27521116 0.38398287 1.7229998
-0.26630312 0.3839829 1.7229998
-0.25762951 0.38726479 1.723
-0.01312762 0.3839829 1.723
-0.009845715 0.38562381 1.723
-0.31178096 0.39711049 1.723
-0.30412319 0.39492258 1.7229999
-0.29537144 0.3938286 1.7229998
-0.28552574 0.3938286 1.7229998
-0.27568001 0.39382857 1.7229998
-0.26583427 0.39382857 1.7229998
-0.013948096 0.39464906 1.723
-0.009845715 0.39054668 1.723
-0.32162669 0.40367427 1.723
-0.31506288 0.40326408 1.7229998
-0.30521715 0.4036743 1.7229998
-0.29537144 0.40367427 1.7229998
-0.28552574 0.4036743 1.7229998
-0.27568001 0.40367427 1.7229998
-0.26630312 0.40367427 1.7229998
-0.25927049 0.4036743 1.723
-0.01312762 0.40367427 1.723
-0.009845715 0.40203333 1.723
-0.31615683 0.4113321 1.723
-0.30521715 0.41351998 1.7229998
-0.29537141 0.41351998 1.7229998
-0.28552571 0.41352004 1.7229998
-0.27513304 0.41242608 1.7229999
-0.26911619 0.41023812 1.723
-0.01312762 0.41352001 1.723
-0.30467018 0.42227176 1.7229999
-0.29584026 0.42242807 1.7229998
-0.28552574 0.42500663 1.7229997
-0.27568001 0.42582715 1.7229998
-0.013127619 0.42828858 1.723
-0.009845715 0.42008382 1.723
-0.28552571 0.43608305 1.7229998
-0.2769928 0.43780613 1.7229999
-0.2658343 0.43813431 1.723
-0.27568001 0.44633901 1.7229998
-0.26747525 0.44633904 1.7229999
-0.25598857 0.44962096 1.723
-0.01312762 0.44633904 1.723
-0.29208952 0.45618477 1.723
-0.27526978 0.45577461 1.7229998
-0.2658343 0.45618474 1.7229998
-0.25598857 0.4571225 1.7229998
-0.009845715 0.45618477 1.723
-0.29208952 0.46274859 1.723
-0.28552574 0.4693124 1.723
-0.27568001 0.46603048 1.7229998
-0.26677197 0.46556166 1.7229998
-0.013127619 0.46767145 1.723
-0.009845715 0.46603051 1.723
-0.27526975 0.47546595 1.7229998
-0.26630312 0.47681388 1.7229998
-0.25680906 0.47833765 1.723
-0.2450489 0.47806415 1.723
-0.23957905 0.4791581 1.723
-0.013127619 0.47587621 1.723
-0.009845715 0.47587621 1.723
-0.27239811 0.48244002 1.723
-0.26542407 0.48531166 1.7229998
-0.2559886 0.48572192 1.7229998
-0.24745563 0.48637834 1.7229999
-0.23957905 0.48244002 1.723
-0.013127619 0.48572195 1.723
-0.009845715 0.48572192 1.723
-0.27239811 0.49228573 1.723
-0.26419336 0.49556765 1.7229999
-0.25598857 0.49556765 1.7229998
-0.24811201 0.49491125 1.7229999
-0.013948096 0.49638811 1.723
-0.0085329525 0.49622402 1.7229999
-0.26419336 0.50541335 1.7229999
-0.2559886 0.50541335 1.7229998
-0.24942477 0.50541335 1.723
-0.013948096 0.5045929 1.723
-0.0090252385 0.50623381 1.723
-0.26255238 0.51361811 1.723
-0.25598857 0.51525903 1.7229998
-0.24811201 0.51591539 1.7229999
-0.23301524 0.51690006 1.723
-0.22692028 0.51619667 1.7229998
-0.21988763 0.51525903 1.723
-0.01312762 0.51525909 1.723
-0.0090252385 0.51443863 1.723
-0.26255238 0.52346385 1.723
-0.25598857 0.52510476 1.7229998
-0.24778382 0.52510476 1.7229999
-0.23301524 0.52510482 1.723
-0.22645144 0.52182287 1.723
-0.21988763 0.52510476 1.723
-0.013127619 0.52182287 1.723
-0.009845715 0.52510476 1.723
-0.25557834 0.53454024 1.7229998
-0.24833079 0.53604442 1.723
-0.21988763 0.5316686 1.723
-0.013127619 0.53330958 1.723
-0.009845715 0.5316686 1.723
-0.25352713 0.54397571 1.723
-0.24708055 0.54526508 1.7229998
-0.23793811 0.54807812 1.723
-0.21988763 0.54807812 1.723
-0.25270668 0.55300093 1.723
-0.24614286 0.55464196 1.7229998
-0.23629716 0.55464196 1.7229998
-0.2280924 0.55464196 1.723
-0.21988763 0.55136001 1.723
-0.016409524 0.55792385 1.723
-0.24614286 0.56448764 1.7229998
-0.23629716 0.5644877 1.7229998
-0.22645146 0.5644877 1.7229998
-0.2158764 0.56521696 1.7229998
-0.2034781 0.56776953 1.723
-0.016409524 0.56448764 1.723
-0.25270668 0.57105148 1.723
-0.2450489 0.57323939 1.7229999
-0.23575015 0.57323939 1.7229999
-0.2260412 0.57392317 1.7229998
-0.21430841 0.57367694 1.7229998
-0.20593952 0.57515383 1.723
-0.01312762 0.57433337 1.723
-0.009845715 0.57433337 1.723
-0.24286096 0.58417904 1.723
-0.23301524 0.5841791 1.723
-0.22645143 0.58511674 1.7229998
-0.21277682 0.58472604 1.7229999
-0.20676 0.58582002 1.723
-0.01312762 0.5841791 1.723
-0.009845715 0.58089715 1.723
-0.23520319 0.59511876 1.7229999
-0.22645146 0.59402484 1.7229998
-0.2148156 0.5943231 1.7229997
-0.013948096 0.59484529 1.723
-0.23629716 0.60387057 1.7229998
-0.22645143 0.60387051 1.7229998
-0.21496476 0.60387051 1.7229997
-0.20676 0.60551143 1.723
-0.01312762 0.60387045 1.723
-0.24614286 0.61371619 1.723
-0.23535946 0.61324739 1.7229998
-0.22645144 0.61330605 1.7229998
-0.21496476 0.61371619 1.7229997
-0.01312762 0.61371619 1.723
-0.009845715 0.61699814 1.723
-0.23301524 0.62192094 1.723
-0.22645144 0.62315166 1.7229998
-0.21541233 0.62356192 1.7229997
-0.01312762 0.62356192 1.723
-0.22645144 0.63012576 1.723
-0.21529298 0.63493919 1.7229997
-0.013127619 0.63176668 1.723
-0.0072201909 0.63734591 1.7229999
0 0.63997144 1.723
-0.22316954 0.64817619 1.723
-0.21824667 0.6448943 1.723
-0.17394096 0.64981717 1.723
-0.17312048 0.65391952 1.723
-0.16737714 0.65473998 1.723
-0.046186667 0.098971434 1.732
-0.49485716 0.10886858 1.7320001
-0.48496002 0.10886858 1.7320001
-0.47506288 0.10886858 1.732
-0.21278858 0.10886858 1.7320001
-0.20784001 0.10886858 1.7320001
-0.044537142 0.10392 1.7320001
-0.036949337 0.10424991 1.7320001
-0.024742857 0.10556953 1.7320001
-0.50145525 0.11216763 1.7320001
-0.49485716 0.11216763 1.732
-0.48825908 0.11216763 1.7320001
-0.47616255 0.11601651 1.7320002
-0.46681526 0.11876572 1.7320001
-0.45361906 0.11876572 1.7320001
-0.44702098 0.11876572 1.7320001
-0.43464956 0.11381714 1.7320001
-0.41238096 0.11546667 1.7320001
-0.40908191 0.11546667 1.7320001
-0.36949334 0.11216763 1.7320001
-0.34640002 0.11216763 1.7320001
-0.33320382 0.11216763 1.7320001
-0.32990476 0.11381715 1.7320001
-0.22433525 0.11216763 1.7320001
-0.14350858 0.11546667 1.7320001
-0.0076977783 0.11546668 1.732
-0.48166096 0.12206477 1.7320001
-0.4757227 0.12404419 1.7320001
-0.46516573 0.12371429 1.7320002
-0.4547973 0.12536381 1.7320002
-0.44867051 0.12536381 1.732
-0.0082476195 0.12371429 1.7320001
-0.44537145 0.13361144 1.7320001
-0.43712384 0.13856001 1.7320001
-0.40908191 0.13856001 1.7320001
-0.013196191 0.13691048 1.7320001
-0.43217525 0.14185905 1.7320001
-0.42722666 0.14185905 1.7320001
-0.40248382 0.14185905 1.7320001
-0.39506096 0.14433333 1.7320001
-0.38598856 0.14680763 1.7320002
-0.37675124 0.14713754 1.7320001
-0.36701906 0.14763239 1.7320001
-0.35629717 0.14845715 1.732
-0.01319619 0.14515811 1.732
-0.37279239 0.1517562 1.7320001
-0.36454478 0.1517562 1.7320001
-0.35547242 0.15258096 1.7320001
-0.3468124 0.15546763 1.7320002
-0.32495621 0.1583543 1.7320001
-0.01319619 0.15505524 1.732
-0.42227811 0.16660191 1.7320001
-0.41458035 0.16715175 1.732
-0.40908191 0.16825144 1.7320001
-0.39588571 0.16693182 1.7320001
-0.38681334 0.16577715 1.7320001
-0.37543163 0.16627201 1.7320001
-0.36619428 0.16825144 1.732
-0.35629714 0.16660191 1.7320002
-0.34687132 0.16400981 1.7320002
-0.32495621 0.16165334 1.7320001
-0.01319619 0.1649524 1.732
-0.42227811 0.17320001 1.7320001
-0.41520873 0.17390694 1.7320002
-0.40578285 0.17484953 1.7320002
-0.39682832 0.17532083 1.7320002
-0.36289525 0.17155048 1.7320001
-0.013196191 0.17320001 1.7320001
-0.0098971436 0.17484954 1.7320001
-0.39456612 0.18342707 1.7320001
-0.38818792 0.18694603 1.732
-0.0098971436 0.18474668 1.7320001
-0.39258668 0.19134477 1.7320001
-0.38598859 0.19464383 1.7320002
-0.37279239 0.19464381 1.732
-0.36949334 0.19794287 1.7320001
-0.0087974602 0.19464381 1.732
-0.39423621 0.20619048 1.7320001
-0.38557619 0.20495334 1.7320002
-0.37609142 0.20454097 1.7320002
-0.36866859 0.20454097 1.7320001
-0.007422857 0.20536573 1.7320001
-0.39423621 0.2144381 1.7320002
-0.38645986 0.21443811 1.7320002
-0.37609145 0.21443813 1.7320002
-0.36949334 0.21443811 1.7320001
-0.0090723811 0.21526286 1.7320001
-0.39423621 0.22433525 1.7320002
-0.38598856 0.22480655 1.7320002
-0.37650383 0.22392288 1.7320002
-0.36666557 0.22527783 1.7320002
-0.0098971436 0.22433525 1.732
-0.39423621 0.23423241 1.7320002
-0.38598856 0.2342324 1.7320002
-0.37562016 0.23328981 1.7320002
-0.36619428 0.2342324 1.7320002
-0.35959619 0.23588192 1.7320001
-0.0085775238 0.2348922 1.7320001
-0.39423621 0.24083048 1.7320001
-0.38708827 0.24193017 1.732
-0.3657819 0.24371716 1.7320002
-0.35794666 0.24412954 1.7320002
-0.0085775238 0.24346972 1.7320001
-0.39258668 0.25072762 1.7320001
-0.36289525 0.25402665 1.732
-0.35629717 0.25402668 1.7320002
-0.34969905 0.25237715 1.7320001
-0.013196191 0.25072762 1.7320001
-0.0098971436 0.25402668 1.732
-0.37609145 0.26392382 1.7320001
-0.36421487 0.26458365 1.7320001
-0.35629717 0.26392379 1.7320002
-0.34310094 0.26392382 1.732
-0.33980191 0.26392382 1.732
-0.0098971436 0.26392382 1.732
-0.37279239 0.27712002 1.7320001
-0.3657819 0.27423334 1.7320002
-0.35723975 0.27382097 1.7320002
-0.3468124 0.27340856 1.7320002
-0.33848232 0.27382097 1.7320001
-0.0090723811 0.27382097 1.7320001
-0.36660668 0.28330573 1.7320002
-0.35959619 0.28206858 1.7320001
-0.3474997 0.28481779 1.7320002
-0.33870223 0.28151873 1.732
-0.0098971436 0.28041905 1.7320001
-0.35299811 0.29361525 1.732
-0.34640002 0.29196572 1.7320002
-0.013196191 0.29691431 1.7320001
-0.35299811 0.30351239 1.732
-0.34804952 0.30681145 1.7320001
-0.01319619 0.30351239 1.732
-0.35299811 0.31176001 1.7320001
-0.34734258 0.31388083 1.7320002
-0.33650288 0.31670859 1.732
-0.32990476 0.31670859 1.7320001
-0.01319619 0.31340954 1.732
-0.0098971436 0.31340954 1.7320001
-0.32495621 0.322207 1.7320002
-0.31560889 0.32880509 1.732
-0.013196191 0.32000762 1.7320001
-0.31230983 0.3370527 1.7320002
-0.30285257 0.33716267 1.7320001
-0.29295546 0.3378225 1.7320001
-0.28536764 0.33980191 1.7320001
-0.01319619 0.33650288 1.732
-0.33650288 0.34804952 1.7320001
-0.32424927 0.34734258 1.7320002
-0.31340954 0.34310094 1.732
-0.30351239 0.34475049 1.7320001
-0.29361525 0.34475052 1.7320002
-0.28536764 0.34475052 1.7320001
-0.0098971436 0.34640002 1.732
-0.34640002 0.35299811 1.7320001
-0.33485332 0.35629717 1.7320002
-0.32792535 0.35497755 1.7320001
-0.0098971436 0.35299811 1.7320001
-0.33485335 0.36289525 1.7320001
-0.32880509 0.36619428 1.732
-0.0087974602 0.36619434 1.732
-0.32236406 0.37562016 1.7320002
-0.31670859 0.37609145 1.7320001
-0.0098971436 0.37609145 1.732
-0.32000762 0.38433906 1.7320001
-0.31340954 0.38640097 1.7320002
-0.30571178 0.38818797 1.732
-0.0098971436 0.38268954 1.7320001
-0.32371905 0.39712286 1.7320002
-0.31388083 0.39494315 1.7320002
-0.30681145 0.39258668 1.7320001
-0.0082476195 0.39753526 1.7320001
-0.32825527 0.40578285 1.7320002
-0.31670859 0.40908191 1.7320001
-0.0074228579 0.40660763 1.7320001
-0.32472056 0.41520876 1.7320002
-0.31538898 0.41633981 1.7320001
-0.0098971436 0.41568002 1.732
-0.32083237 0.42475241 1.7320001
-0.31382191 0.42598954 1.7320002
-0.30351239 0.42887619 1.7320001
-0.29526478 0.42887619 1.7320001
-0.0087974602 0.42557716 1.732
-0.32000762 0.43382478 1.7320001
-0.31340954 0.43588668 1.7320002
-0.30351242 0.43547434 1.7320002
-0.29526478 0.43547431 1.7320002
-0.0098971436 0.43547431 1.732
-0.31011048 0.44207239 1.7320001
-0.30219275 0.44405183 1.7320001
-0.29402766 0.44578382 1.7320002
-0.28569755 0.44603127 1.7320001
-0.0098971436 0.44537148 1.732
-0.30103809 0.45526859 1.7320001
-0.29361525 0.45485622 1.7320002
-0.28536764 0.45526859 1.7320002
-0.0082476195 0.45526859 1.7320001
-0.30021334 0.46516573 1.732
-0.29361525 0.46516576 1.7320002
-0.28466067 0.46469444 1.7320002
-0.0065980949 0.46516573 1.732
-0.30021334 0.47836193 1.7320001
-0.29361522 0.47506285 1.7320002
-0.2850377 0.4757227 1.7320001
-0.0065980949 0.47506288 1.732
-0.29031619 0.48166096 1.7320001
-0.28289336 0.48248574 1.7320001
-0.27602032 0.4871594 1.732
-0.0065980949 0.48495999 1.732
-0.28041905 0.49485716 1.7320001
-0.27382097 0.49485716 1.7320002
-0.0065980954 0.49320763 1.7320001
-0.30351239 0.50805336 1.7320001
-0.29196572 0.50805336 1.7320001
-0.2812438 0.50557905 1.7320001
-0.27382097 0.5047543 1.7320002
-0.005498413 0.5047543 1.732
-0.30021334 0.51135242 1.7320001
-0.29314396 0.51370889 1.7320002
-0.2812438 0.51382667 1.7320001
-0.27217144 0.51465136 1.7320002
-0.26722288 0.51630092 1.7320001
-0.0041238097 0.51547623 1.7320001
-0.29031619 0.52124953 1.7320001
-0.28041905 0.52124953 1.7320001
-0.27217144 0.52454859 1.7320002
-0.26639813 0.52372384 1.7320001
-0.0076977783 0.52454859 1.732
-0.27184153 0.53378594 1.7320001
-0.26557335 0.53444576 1.7320002
-0.0076977783 0.53664511 1.732
-0.26392382 0.54434288 1.7320002
-0.25732571 0.54764193 1.7320001
-0.01319619 0.54434282 1.732
-0.0098971436 0.54269338 1.7320001
-0.2622743 0.55753905 1.7320001
-0.25732571 0.55423999 1.732
-0.01319619 0.55423999 1.732
-0.26351145 0.56372476 1.7320002
-0.25567618 0.56413716 1.7320002
-0.013196191 0.56578672 1.7320001
-0.0098971436 0.56743622 1.7320001
-0.26392385 0.57403433 1.7320002
-0.25512636 0.57458419 1.7320002
-0.23753144 0.57733333 1.7320001
-0.013196191 0.57073528 1.7320001
-0.0072579049 0.57469416 1.7320001
-0.2622743 0.58063239 1.7320001
-0.25270706 0.5826118 1.7320001
-0.24412952 0.58393145 1.7320002
-0.2348922 0.58327162 1.7320001
-0.22186096 0.58393145 1.7320001
-0.21691239 0.5847562 1.7320001
-0.0056555108 0.58440274 1.7320002
-0.25072762 0.59382862 1.732
-0.24412952 0.59382856 1.7320002
-0.23753144 0.59217906 1.7320001
-0.21773715 0.59217906 1.7320001
-0.0082476195 0.59382862 1.7320002
-0.25204724 0.6043855 1.7320001
-0.24577905 0.60372573 1.7320002
-0.0082476195 0.60372573 1.7320002
-0.25308409 0.6140942 1.7320002
-0.24467938 0.6136229 1.7320002
-0.0085775238 0.61296308 1.7320001
-0.25270706 0.62220037 1.7320001
-0.24412952 0.62352008 1.7320002
-0.23753144 0.62516952 1.7320001
-0.2276343 0.62022096 1.7320001
-0.0098971436 0.62516952 1.7320001
-0.25072762 0.63176763 1.7320001
-0.24460082 0.63247454 1.7320002
-0.23478223 0.63341713 1.7320002
-0.22680953 0.63424188 1.7320001
-0.0072579049 0.63407695 1.7320001
0.0016495239 0.63671619 1.7320001
-0.25072762 0.64001524 1.7320001
-0.24577907 0.64248955 1.7320001
-0.23093335 0.6433143 1.732
-0.2262204 0.64425689 1.7320002
-0.0032990477 0.64001524 1.7320001
0.0016495239 0.64001524 1.7320001
-0.2276343 0.65321147 1.7320001
-0.039794289 0.099485718 1.7410001
-0.48748001 0.10943429 1.7410001
-0.35649049 0.10943429 1.7410001
-0.21555239 0.10722349 1.7410001
-0.0099485721 0.10943429 1.7410001
-0.50406098 0.11772477 1.7410001
-0.4941124 0.11772477 1.7410001
-0.48582187 0.11606667 1.7410001
-0.47532067 0.11496127 1.7410001
-0.46360344 0.11739315 1.7409999
-0.45431811 0.11606667 1.7410001
-0.44436955 0.11496127 1.7410001
-0.43110478 0.11275048 1.7410001
-0.42778859 0.11275048 1.7410001
-0.35151622 0.11275048 1.7410001
-0.23213334 0.11606667 1.7410001
-0.22218478 0.11275048 1.7410001
-0.1425962 0.11275048 1.7410001
-0.0049742861 0.11440857 1.7410001
-0.5024029 0.12269905 1.7410001
-0.49411243 0.12506777 1.7410001
-0.48482704 0.12667848 1.7409999
-0.47421527 0.12933144 1.7410001
-0.46426669 0.12933144 1.7410001
-0.0066323816 0.12601525 1.7410001
-0.48250574 0.13264762 1.7410001
-0.47421527 0.13347667 1.7410001
-0.46426669 0.13430573 1.7410001
-0.45498133 0.13463733 1.7409999
-0.44602764 0.13928001 1.7410001
-0.0099485721 0.13596381 1.7410001
-0.44105336 0.1425962 1.7410001
-0.43773717 0.1425962 1.7410001
-0.42447242 0.1442543 1.7410001
-0.41618192 0.1425962 1.7410001
-0.40346989 0.14591239 1.7410001
-0.39794287 0.14757048 1.7410001
-0.0088431751 0.14701778 1.7410001
-0.40125906 0.15917715 1.7410001
-0.39296857 0.15586096 1.7410001
-0.38467813 0.15586095 1.7410001
-0.37472957 0.15627548 1.7410001
-0.36478099 0.15751906 1.7410001
-0.35704318 0.15807176 1.7410001
-0.0086220959 0.15519771 1.7409999
-0.43110478 0.16746762 1.7410001
-0.42447239 0.16746762 1.7410001
-0.41286573 0.16580953 1.7410001
-0.40523848 0.16647276 1.7409999
-0.39545572 0.16332239 1.7410001
-0.38467813 0.16249333 1.7410001
-0.3739005 0.16332237 1.7410001
-0.36544421 0.16381982 1.7409999
-0.35649049 0.16249333 1.7410001
-0.0099485721 0.16580953 1.7410001
-0.4334735 0.17575811 1.7410001
-0.42579889 0.17708458 1.7409999
-0.41784 0.17907429 1.7410001
-0.0082904771 0.17741621 1.7410001
-0.4222616 0.18460126 1.7410001
-0.41499758 0.18475918 1.7410001
-0.40498981 0.18612121 1.7410001
-0.39794287 0.18736477 1.7410001
-0.0066323816 0.18570668 1.7410001
-0.41784 0.19233905 1.7410001
-0.40291718 0.19565524 1.7410001
-0.3966164 0.19631848 1.7409999
-0.0055269846 0.19565524 1.7410001
-0.4211562 0.20560382 1.7410001
-0.41518706 0.20626707 1.7409999
-0.40416074 0.20601836 1.7410001
-0.39462665 0.20228763 1.7410001
-0.0033161908 0.20560382 1.7410001
-0.43276286 0.21886858 1.7410001
-0.41784 0.21555239 1.7410001
-0.40362781 0.21507862 1.7410001
-0.0049742861 0.21389428 1.7410001
-0.41784 0.22218478 1.7410001
-0.40324879 0.2241745 1.7409999
-0.37472954 0.22881715 1.7410001
-0.0066323816 0.22550096 1.7410001
-0.40416074 0.23586407 1.7410001
-0.38136193 0.23876572 1.7410001
-0.37804574 0.23876572 1.7410001
-0.0041452381 0.23462048 1.7410001
-0.40410152 0.24539809 1.7410001
-0.39462665 0.2470562 1.7410001
-0.38373062 0.24587186 1.7410001
-0.37567705 0.24587186 1.7410001
-0.0041452381 0.24622716 1.7410001
-0.40125906 0.25368857 1.7410001
-0.39462665 0.25576121 1.7410001
-0.38467813 0.25534666 1.7410001
-0.37472951 0.25534666 1.7410001
-0.36809716 0.25534669 1.7410001
-0.0066323811 0.25368857 1.7410001
-0.39462668 0.26529527 1.7410001
-0.38467813 0.26529527 1.7410001
-0.37431505 0.26529527 1.7410001
-0.36809716 0.26197904 1.7410001
-0.0066323811 0.26861143 1.7410001
-0.3929686 0.27358574 1.7410001
-0.38467813 0.27524382 1.7410001
-0.37583494 0.27413842 1.7410001
-0.35483238 0.27524382 1.7410001
-0.34488383 0.27856001 1.7410001
-0.0066323811 0.27524382 1.7410001
-0.38467813 0.2851924 1.7410001
-0.37638763 0.2851924 1.7410001
-0.36312288 0.28850859 1.7410001
-0.35649049 0.2851924 1.7410001
-0.34598923 0.2829816 1.7410001
-0.0079588573 0.28585565 1.7409999
-0.38384908 0.2926538 1.7410001
-0.37555858 0.2926538 1.7410001
-0.36478096 0.29514098 1.7410001
-0.35814857 0.29514095 1.7410001
-0.008622095 0.29447776 1.7409999
-0.36411771 0.30309981 1.7409999
-0.35814857 0.30508953 1.7410001
-0.0099485721 0.30508956 1.7410001
-0.36146477 0.31503811 1.7410001
-0.35731953 0.31586716 1.7410001
-0.0099485721 0.31503811 1.7410001
-0.3531743 0.3216705 1.7410001
-0.34535763 0.32403919 1.7410001
-0.33493528 0.32443398 1.7410001
-0.32664478 0.32830286 1.7410001
-0.013264762 0.32498667 1.7410001
-0.0099485721 0.3249867 1.7410001
-0.32366019 0.33360878 1.7409999
-0.31724891 0.33714604 1.7410001
-0.0099485721 0.33493528 1.7410001
-0.35262159 0.34709463 1.7410001
-0.34571287 0.34737098 1.7410001
-0.334272 0.34621033 1.7409999
-0.3249867 0.34322575 1.7410001
-0.30177334 0.34322572 1.7410001
-0.29845715 0.34156764 1.7410001
-0.0082904771 0.34488383 1.7410001
-0.35441789 0.35524693 1.7410001
-0.34446931 0.35483241 1.7410001
-0.33493525 0.35151622 1.7410001
-0.0077377781 0.35483241 1.7410001
-0.36588636 0.36533368 1.7410001
-0.35483241 0.36478093 1.7410001
-0.34488383 0.36478093 1.7410001
-0.33659333 0.36809716 1.7410001
-0.0082904771 0.36312288 1.7410001
-0.36588636 0.37251875 1.7410001
-0.33327714 0.37472954 1.7410001
-0.32830286 0.37804574 1.7410001
-0.0066323816 0.37472954 1.7410001
-0.36312285 0.38467813 1.7410001
-0.35577989 0.38467813 1.7410001
-0.3324481 0.38550717 1.7410001
-0.32697639 0.38534135 1.7409999
-0.0066323816 0.38467813 1.7410001
-0.34156764 0.39794287 1.7410001
-0.33398774 0.39510041 1.7410001
-0.32564992 0.39263695 1.7409999
-0.0066323811 0.3929686 1.7410001
-0.34239668 0.4054043 1.7410001
-0.3365933 0.40457526 1.7410001
-0.0033161906 0.40789145 1.7410001
-0.34156764 0.41452384 1.7410001
-0.33588269 0.41499758 1.7410001
-0.0055269846 0.41452384 1.7410001
-0.34156764 0.4211562 1.7410001
-0.33382985 0.4222616 1.7410001
-0.32747382 0.42530146 1.7410001
-0.0066323811 0.42447239 1.7410001
-0.32664478 0.43442097 1.7410001
-0.31503811 0.43442097 1.7410001
-0.0066323811 0.43110478 1.7410001
-0.32332858 0.44105336 1.7410001
-0.31570134 0.44635925 1.7409999
-0.30674762 0.44768572 1.7410001
-0.0066323811 0.44436955 1.7410001
-0.31255096 0.45348904 1.7410001
-0.30707926 0.45365486 1.7409999
-0.0058033336 0.45431811 1.7410001
-0.31172192 0.46758288 1.7410001
-0.30674762 0.46426669 1.7410001
-0.0033161906 0.46260858 1.7410001
-0.31172192 0.47421527 1.7410001
-0.30550408 0.47462979 1.7410001
-0.0033161906 0.47421527 1.7410001
-0.31172192 0.48416385 1.7410001
-0.3050895 0.48416379 1.7410001
-0.2958042 0.48615354 1.7409999
-0.28685051 0.48748001 1.7410001
-0.31172192 0.4941124 1.7410001
-0.30343142 0.4941124 1.7410001
-0.29514095 0.49411237 1.7410001
-0.28560689 0.49369791 1.7410001
-0.0033161908 0.4941124 1.7410001
-0.31172192 0.50737715 1.7410001
-0.30343142 0.50406098 1.7410001
-0.29514095 0.50406098 1.7410001
-0.28613988 0.50358719 1.7410001
-0.0033161906 0.50406098 1.7410001
0 0.50406098 1.7410001
-0.31172192 0.51400954 1.7410001
-0.30556327 0.51448333 1.7410001
-0.29845715 0.51069337 1.7410001
-0.28767955 0.51483858 1.7410001
-0.27856001 0.51566768 1.7410001
-0.0033161906 0.51069337 1.7410001
0 0.51400954 1.7410001
-0.31172192 0.52395809 1.7410001
-0.30343142 0.52395815 1.7410001
-0.29608846 0.52443182 1.7410001
-0.28613991 0.52443182 1.7410001
-0.27856001 0.52395815 1.7410001
-0.0033161906 0.52561617 1.7410001
0 0.52064192 1.7410001
-0.29182476 0.53059047 1.7410001
-0.28353429 0.5339067 1.7410001
-0.27856001 0.5339067 1.7410001
-0.0066323811 0.53224862 1.7410001
-0.28353429 0.54053909 1.7410001
-0.27524382 0.54330254 1.7410001
-0.0066323811 0.54385525 1.7410001
-0.2958042 0.55579358 1.7409999
-0.28187621 0.55712003 1.7410001
-0.27358571 0.5546329 1.7410001
-0.26529524 0.55546194 1.7410001
-0.0099485721 0.5538038 1.7410001
-0.30177334 0.56043619 1.7410001
-0.2945883 0.56264704 1.7410001
-0.28424492 0.56327862 1.7410001
-0.27524382 0.56375241 1.7410001
-0.26861143 0.56043619 1.7410001
-0.013264762 0.56375241 1.7410001
-0.0099485721 0.56375241 1.7410001
-0.27413842 0.57370096 1.7410001
-0.26861143 0.5703848 1.7410001
-0.0049742861 0.57370096 1.7410001
-0.27303302 0.58143872 1.7410001
-0.26612431 0.5861367 1.7410001
-0.2570048 0.58696574 1.7410001
-0.0033161906 0.58033335 1.7410001
-0.26529524 0.59359813 1.7410001
-0.25700477 0.59359813 1.7410001
-0.0033161906 0.59525621 1.7410001
-0.27192762 0.60354668 1.7410001
-0.26529524 0.60396129 1.7410001
-0.25733641 0.60288346 1.7409999
-0.0033161908 0.60354668 1.7410001
-0.27192762 0.61349529 1.7410001
-0.26529524 0.61349529 1.7410001
-0.25866288 0.61349529 1.7410001
-0.2648215 0.62249631 1.7410001
-0.2570048 0.62676001 1.7410001
-0.0066323816 0.62344384 1.7410001
-0.26595849 0.63140267 1.7409999
-0.2570048 0.63339239 1.7410001
-0.0049742861 0.63339239 1.7410001
0.0016580953 0.63670862 1.7410001
-0.25493217 0.6437555 1.7410001
-0.24397686 0.64523596 1.7410001
-0.2373445 0.64570969 1.7410001
-0.25203049 0.65328956 1.7410001
-0.2453981 0.65328956 1.7410001
-0.23544954 0.65494764 1.7410001
-0.035085715 0.096915245 1.7545002
-0.36000001 0.10666667 1.7500001
-0.35590857 0.10694095 1.7545002
-0.3417486 0.10721524 1.7590001
-0.3383981 0.10721524 1.7590001
-0.22149397 0.10573842 1.7530001
-0.21333334 0.105 1.7500001
-0.20666668 0.10666667 1.7500001
-0.033457622 0.10206095 1.7567501
-0.02680381 0.10386477 1.7590001
-0.47248346 0.11278324 1.7518002
-0.46739143 0.1139162 1.7590001
-0.45475385 0.11431239 1.7522501
-0.44666669 0.11333334 1.7500001
-0.35256669 0.11028287 1.7545002
-0.34305948 0.11368649 1.7554001
-0.33666667 0.11000001 1.7500001
-0.24000001 0.11666667 1.7500001
-0.23309574 0.11362049 1.7545002
-0.22558287 0.11028287 1.7545002
-0.15077144 0.1139162 1.7590001
-0.14471953 0.11209524 1.7567501
-0.13736953 0.1139162 1.7590001
-0.0041666669 0.11333334 1.7500001
0.002605926 0.11408848 1.756
-0.50749999 0.12583333 1.7500001
-0.0033333334 0.12666667 1.7500001
0.0020102859 0.12438057 1.7554001
-0.51262289 0.1356943 1.7590001
-0.50645876 0.13305552 1.7525715
-0.49484852 0.13363637 1.7500001
-0.48333335 0.13666667 1.7500001
-0.47333336 0.13666667 1.7500001
-0.0050000004 0.13333334 1.7500001
0.0016752383 0.13401903 1.7589999
-0.51262289 0.14072001 1.7590001
-0.50536346 0.14295365 1.7589999
-0.4954448 0.14227524 1.7575001
-0.48471621 0.14374858 1.755
-0.47468382 0.14374858 1.755
-0.46492189 0.14383048 1.756
-0.4544991 0.14314921 1.7545
-0.44531095 0.14621048 1.7545002
-0.435 0.14666668 1.7500001
-0.42166668 0.14666668 1.7500001
-0.41333336 0.14583334 1.7500001
-0.4066667 0.14666668 1.7500001
-0.010000001 0.14333335 1.7500001
-0.0046666665 0.14266667 1.7500002
0.0023931973 0.14444137 1.7577143
-0.48246858 0.15412192 1.7590002
-0.47241715 0.15412191 1.7590002
-0.46906671 0.15412192 1.7590002
-0.44519454 0.15412191 1.7589999
-0.43408191 0.15359618 1.753
-0.42333338 0.15333332 1.7500001
-0.41333339 0.15333332 1.7500001
-0.40380958 0.1542857 1.7500001
-0.38666669 0.15666667 1.7500001
-0.0041666664 0.1525 1.7500001
0 0.15412191 1.7590002
-0.50424671 0.16752382 1.7590001
-0.48534042 0.16513062 1.7589999
-0.4744274 0.16551352 1.7590001
-0.46619484 0.16513062 1.7589999
-0.45454797 0.16529016 1.7589999
-0.44511047 0.16398476 1.757
-0.43413037 0.16249852 1.7512858
-0.42333338 0.16166668 1.7500001
-0.41333339 0.16166668 1.7500001
-0.40444446 0.16111112 1.7500001
-0.0050085713 0.16375335 1.7545
0 0.16584858 1.7590001
-0.48581907 0.17422475 1.7589999
-0.47576761 0.17422476 1.7589999
-0.4654533 0.17412382 1.7579999
-0.45411429 0.17362669 1.753
-0.44375002 0.17291667 1.7500001
-0.4366667 0.17 1.7500001
-0.0050028577 0.17347907 1.7515001
0 0.17422478 1.7590002
-0.48470223 0.1831594 1.7589999
-0.47576761 0.18427621 1.7589999
-0.46386671 0.18354097 1.7520001
-0.45333332 0.18333334 1.7500001
-0.44333336 0.18333334 1.7500001
-0.43333337 0.185 1.7500001
-0.42666668 0.18333334 1.7500001
-0.0033390478 0.18364191 1.7530001
0.0013401905 0.18475771 1.7572
-0.48246858 0.19432764 1.7590002
-0.47576761 0.19432762 1.7589999
-0.46413332 0.19366477 1.753
-0.45333332 0.19333336 1.7500001
-0.44333336 0.19333336 1.7500001
-0.43333337 0.19333336 1.7500001
-0.42428574 0.19380954 1.7500001
-0.41375005 0.19375002 1.7500001
-0.0033333334 0.19333334 1.7500001
0.0013401905 0.19392648 1.7554001
-0.48246858 0.20437907 1.7590002
-0.47576761 0.20437908 1.7589999
-0.46492761 0.2040305 1.756
-0.45333332 0.20333335 1.7500001
-0.44333336 0.20333336 1.7500001
-0.43333337 0.20333336 1.7500001
-0.42444447 0.20222223 1.7500001
-0.41380957 0.20238097 1.7500001
-0.0033333334 0.2 1.7500001
0.0013401905 0.20462744 1.7554001
-0.4753488 0.21401167 1.7589999
-0.46466288 0.21394096 1.755
-0.45333332 0.21333335 1.7500001
-0.44333336 0.21333335 1.7500001
-0.43333337 0.21333335 1.7500001
-0.42428574 0.21380953 1.7500001
-0.41444448 0.21444446 1.7500001
0.0013401905 0.21332495 1.7554001
-0.47576761 0.22406311 1.7589999
-0.46439812 0.22384575 1.7540001
-0.45333332 0.22333333 1.7500001
-0.44333336 0.22333333 1.7500001
-0.43285719 0.22428572 1.7500001
-0.42428574 0.22380953 1.7500001
-0.41375005 0.22333334 1.7500001
-0.4066667 0.22666667 1.7500001
-0.0033333332 0.22333334 1.7500001
0 0.22615716 1.7590001
-0.48246858 0.23788382 1.7590001
-0.47576767 0.23453334 1.7589999
-0.46492571 0.23413526 1.756
-0.45333332 0.23333335 1.7500001
-0.44333336 0.23333335 1.7500001
-0.43333337 0.23333335 1.7500001
-0.42333338 0.23333335 1.7500001
-0.41375005 0.23291668 1.7500001
-0.4066667 0.23 1.7500001
-0.0033333334 0.23 1.7500001
0.0013401905 0.23338668 1.7554001
-0.48246858 0.24123429 1.7590001
-0.47576761 0.24458477 1.7589999
-0.46571615 0.24458477 1.7589999
-0.45385143 0.24360953 1.7520001
-0.44333336 0.24333334 1.7500001
-0.43357909 0.2434743 1.751
-0.42381909 0.24361525 1.7520001
-0.41428575 0.24380954 1.7500001
-0.4066667 0.24666667 1.7500001
0.0016752383 0.24437334 1.7575001
-0.47481036 0.25415757 1.7589999
-0.46571615 0.25463617 1.7589999
-0.45333332 0.25333333 1.7500001
-0.44333336 0.25333333 1.7500001
-0.43333337 0.25333333 1.7500001
-0.42406288 0.25376379 1.753
-0.41375005 0.25375 1.7500001
-0.4066667 0.255 1.7500001
-0.0033333334 0.255 1.7500001
0.0013401905 0.2534484 1.7554001
-0.49419525 0.26803809 1.7590001
-0.48581907 0.26636288 1.7589999
-0.4753488 0.26510641 1.7589999
-0.46571621 0.26468766 1.7589999
-0.45488766 0.2642419 1.756
-0.4443486 0.26394093 1.7540001
-0.43333337 0.26333335 1.7500001
-0.42381909 0.26363429 1.7520001
-0.41333339 0.26333335 1.7500001
-0.40500006 0.26333335 1.7500001
-0.0050000004 0.26333335 1.7500001
0 0.26468763 1.7590002
-0.49335763 0.27390143 1.7590001
-0.48540026 0.27432024 1.7589999
-0.47465083 0.27418062 1.7589999
-0.46906668 0.27473906 1.7590001
-0.454548 0.27362224 1.7589999
-0.44561338 0.27473906 1.7589999
-0.4335829 0.27349144 1.751
-0.42333338 0.27333334 1.7500001
-0.41333339 0.27333334 1.7500001
-0.40375003 0.27375001 1.7500001
-0.0033333332 0.27333334 1.7500001
0 0.27306384 1.7590001
-0.49252 0.28144002 1.7590001
-0.47241715 0.28144002 1.7590001
-0.44310051 0.28395286 1.7590001
-0.43531621 0.28463048 1.7579999
-0.42430097 0.28397906 1.7540001
-0.41333339 0.28333333 1.7500001
-0.4033334 0.28333333 1.7500001
-0.39500001 0.28333333 1.7500001
-0.38666669 0.28333333 1.7500001
-0.0033333332 0.28333333 1.7500001
-0.45343113 0.29707554 1.7590002
-0.44519454 0.29526073 1.7589999
-0.43531621 0.29467618 1.7579999
-0.423821 0.29367048 1.7520001
-0.41333339 0.29333332 1.7500001
-0.40333337 0.29333332 1.7500001
-0.39428574 0.2938095 1.7500001
-0.38666669 0.29333335 1.7500001
-0.375 0.29666668 1.7500001
-0.0033447619 0.29433337 1.756
0 0.29819238 1.7590001
-0.45454797 0.30377653 1.7590002
-0.44513473 0.30489331 1.7589999
-0.4355619 0.30489334 1.7589999
-0.42527047 0.30471811 1.7579999
-0.41522101 0.30471811 1.7579999
-0.40333337 0.30333331 1.7500001
-0.39333338 0.30333331 1.7500001
-0.38333338 0.30333331 1.7500001
-0.3742857 0.30380949 1.7500001
-0.0053401911 0.30328721 1.7536001
-0.44393814 0.31159431 1.7590001
-0.4355619 0.31159431 1.7590002
-0.42509168 0.31452596 1.7589999
-0.4154591 0.31494477 1.7589999
-0.40472001 0.31440952 1.756
-0.39356005 0.31351426 1.751
-0.38333338 0.31333333 1.7500001
-0.37333331 0.31333333 1.7500001
-0.36533335 0.31266665 1.7500002
-0.0058376193 0.31457382 1.7522501
-0.42216003 0.3249962 1.7590002
-0.41545907 0.3249962 1.7589999
-0.40540764 0.32499623 1.7589999
-0.39468384 0.32444382 1.756
-0.38398859 0.32388955 1.753
-0.37333333 0.32333335 1.7500001
-0.36374998 0.32375002 1.7500001
-0.35500002 0.32666668 1.7500001
-0.0053401901 0.32466859 1.7536001
-0.41411886 0.33370745 1.7590001
-0.40540764 0.33462885 1.7589999
-0.39577502 0.33462882 1.7589999
-0.38497338 0.33308956 1.7575001
-0.37429333 0.33252379 1.7545
-0.36416766 0.33409902 1.7540001
-0.35375005 0.33374998 1.7500001
-0.34333336 0.33333331 1.7500001
-0.33444443 0.33444443 1.7500001
-0.32666668 0.33666667 1.7500001
-0.0053607621 0.33504766 1.7590001
-0.41450182 0.34557769 1.7589999
-0.40540767 0.34509906 1.7589999
-0.39535618 0.34509909 1.7589999
-0.38642159 0.34621587 1.7589999
-0.37525335 0.34844956 1.7590002
-0.36437717 0.34431243 1.755
-0.35380957 0.34238094 1.7500001
-0.34374997 0.34291667 1.7500001
-0.33333334 0.34166667 1.7500001
-0.32666668 0.34 1.7500001
-0.0050142859 0.34451333 1.756
-0.43556193 0.35850096 1.7590001
-0.42417032 0.35649067 1.7590001
-0.41545907 0.35515049 1.7589999
-0.40517718 0.35494667 1.7579999
-0.39513144 0.35494667 1.7579999
-0.38572359 0.3555693 1.7589999
-0.3750419 0.35494667 1.7579999
-0.36398575 0.35314167 1.7511251
-0.0033504765 0.35515049 1.7590002
-0.42383528 0.36520192 1.7589999
-0.41522482 0.36499435 1.7579999
-0.40356195 0.36354282 1.751
-0.39356005 0.36354291 1.751
-0.38355052 0.36353907 1.751
-0.37428573 0.36285713 1.7500001
-0.36466667 0.36333334 1.7500002
-0.0046666665 0.36266667 1.7500002
0 0.3635267 1.7590001
-0.42455322 0.37477472 1.7589999
-0.4154591 0.37525335 1.7589999
-0.40356195 0.37354863 1.751
-0.39378673 0.37376007 1.7520001
-0.38355243 0.37354857 1.751
-0.3742857 0.37380955 1.7500001
-0.36166668 0.375 1.7500001
-0.35333335 0.375 1.7500001
-0.34333333 0.375 1.7500001
-0.0033390478 0.37397906 1.7530001
0 0.37525335 1.7590002
-0.42327687 0.38307115 1.7590002
-0.41498044 0.3843475 1.7589999
-0.40426099 0.38421142 1.7540001
-0.39446101 0.38443241 1.755
-0.38464957 0.38464573 1.756
-0.37333333 0.38333338 1.7500001
-0.36333334 0.38000003 1.7500001
-0.35222223 0.38222227 1.7500001
-0.34333333 0.38333338 1.7500001
-0.33666667 0.38500002 1.7500001
-0.0033333332 0.38333336 1.7500001
0 0.38530478 1.7590002
-0.4121086 0.39368099 1.7590001
-0.40517911 0.39513338 1.7579999
-0.39535621 0.39535621 1.7589999
-0.38530478 0.39535621 1.7589999
-0.37354863 0.39356005 1.751
-0.36333334 0.39500001 1.7500001
-0.35291666 0.39375004 1.7500001
-0.34333333 0.39333338 1.7500001
-0.0033333332 0.39333335 1.7500001
0 0.39870667 1.7590001
-0.40498886 0.40498886 1.7589999
-0.39535621 0.40540764 1.7589999
-0.38530475 0.40540764 1.7589999
