# .PCD v0.7 - Point Cloud Data file format
VERSION 0.7
FIELDS x y z
SIZE 4 4 4
TYPE F F F
COUNT 1 1 1
WIDTH 1459
HEIGHT 1
VIEWPOINT 0 0 0 1 0 0 0
POINTS 1459
DATA ascii
-0.26545715 0.44409621 1.7530001
-0.114 0.44300002 1.7500002
-0.10374287 0.44510475 1.757
-0.093813337 0.44561338 1.7589999
-0.087112382 0.44226289 1.7590001
-0.27138859 0.45566478 1.7590002
-0.26426429 0.45462433 1.7533751
-0.11166667 0.45000002 1.7500001
-0.10356382 0.45436764 1.7540001
-0.095488578 0.45566478 1.7589999
-0.27138859 0.46571618 1.7590001
-0.26379049 0.46412766 1.753
-0.11333334 0.46583337 1.7500001
-0.10291667 0.46375 1.7500001
-0.09540572 0.4653219 1.7575001
-0.27138859 0.47576761 1.7590002
-0.26500002 0.47333336 1.7500001
-0.13166668 0.47666669 1.7500001
-0.115 0.47333336 1.7500001
-0.10362668 0.47469145 1.755
-0.09477061 0.47528896 1.7589999
-0.27138859 0.48581907 1.7590002
-0.26666668 0.48333335 1.7500001
-0.13083334 0.48416668 1.7500001
-0.12416667 0.48416668 1.7500001
-0.11504715 0.48354197 1.7507501
-0.10421501 0.48509172 1.757875
-0.096046984 0.48358539 1.7590002
-0.27138859 0.49419525 1.7590001
-0.26490161 0.49529305 1.7530001
-0.13083334 0.49333334 1.7500001
-0.12466667 0.49400002 1.7500002
-0.11514142 0.49396765 1.7522502
-0.10637762 0.49503285 1.7590001
-0.26409143 0.50477332 1.755
-0.25583333 0.50749999 1.7500001
-0.13000001 0.50166667 1.7500001
-0.1247619 0.50428569 1.7500001
-0.11540877 0.50501174 1.7512001
-0.10637762 0.5059219 1.7590001
-0.26267737 0.51597333 1.7590001
-0.255 0.51500005 1.7500001
-0.12333333 0.51500005 1.7500001
-0.11463302 0.51532447 1.753
-0.10482205 0.51645195 1.7589999
-0.26267737 0.52535474 1.7590001
-0.25583333 0.52250004 1.7500001
-0.12416666 0.5241667 1.7500001
-0.11514143 0.52400619 1.7522502
-0.10386477 0.52602476 1.7589999
-0.094371744 0.52658325 1.7589999
-0.26133716 0.53607619 1.7590002
-0.25616333 0.53318143 1.7522501
-0.14 0.53333336 1.7500001
-0.13266668 0.53466666 1.7500002
-0.125 0.53333336 1.7500001
-0.11514143 0.53401911 1.7522502
-0.10470238 0.53440094 1.7590001
-0.26133716 0.54277718 1.7590001
-0.25544 0.54426759 1.7530001
-0.14 0.54333335 1.7500001
-0.13333334 0.54333329 1.7500001
-0.125 0.54333335 1.7500001
-0.11514143 0.54403192 1.7522502
-0.26133716 0.55785429 1.7590001
-0.25566 0.55475622 1.7545
-0.14 0.55666667 1.7500001
-0.13291667 0.55374998 1.7500001
-0.12446694 0.55462748 1.7525715
-0.11502233 0.55535865 1.7573638
-0.10386477 0.55617905 1.7589999
-0.097163811 0.55785429 1.7590001
-0.26133716 0.56623048 1.7590002
-0.25566 0.5647819 1.7545
-0.25 0.56999999 1.7500001
-0.14142857 0.56571424 1.7500001
-0.13338904 0.5652414 1.7507501
-0.12398078 0.56612885 1.7549092
-0.11466477 0.56665248 1.7565455
-0.10386477 0.56623054 1.7589999
-0.097163819 0.56623054 1.7590002
-0.25547379 0.57628191 1.7590001
-0.25 0.57500005 1.7500001
-0.14333333 0.57500005 1.7500001
-0.13333334 0.57500005 1.7500001
-0.125 0.57500005 1.7500001
-0.11467791 0.57576913 1.7554001
-0.10482205 0.57580328 1.7589999
-0.095488578 0.57293147 1.7590001
-0.2546362 0.58633333 1.7590002
-0.25 0.58333337 1.7500001
-0.14291666 0.58291668 1.7500001
-0.13333334 0.58333331 1.7500001
-0.125 0.58333331 1.7500001
-0.11523857 0.58458197 1.7537502
-0.10721525 0.58633333 1.7590002
-0.2546362 0.59470952 1.7590001
-0.24833333 0.59333342 1.7500001
-0.14 0.59500003 1.7500001
-0.13285714 0.59428579 1.7500001
-0.125 0.59333342 1.7500001
-0.11528715 0.59485912 1.7545
-0.10609841 0.59526795 1.7590002
-0.25128573 0.60643619 1.7590002
-0.24666667 0.60333335 1.7500001
-0.14166667 0.60333341 1.7500001
-0.13333334 0.60333329 1.7500001
-0.12406287 0.60530573 1.7545
-0.11452458 0.60579252 1.7580999
-0.25240257 0.61648762 1.7590002
-0.2475 0.61416668 1.7500001
-0.15000001 0.61500001 1.7500001
-0.14333333 0.6133334 1.7500001
-0.13333334 0.6133334 1.7500001
-0.12375239 0.61543244 1.756
-0.1139162 0.61648762 1.7589999
-0.10721524 0.61816287 1.7590001
-0.25631142 0.62653905 1.7589999
-0.24857143 0.62476188 1.7500001
-0.15303029 0.62545455 1.7500001
-0.14333333 0.625 1.7500001
-0.13333334 0.625 1.7500001
-0.12412343 0.6249727 1.7518002
-0.11502233 0.62686533 1.7573638
-0.10721524 0.62318861 1.7590001
-0.26133716 0.63994098 1.7590001
-0.25559348 0.63659048 1.7589999
-0.24777777 0.63555557 1.7500001
-0.16000001 0.63666672 1.7500001
-0.15372191 0.63663429 1.7545
-0.14407048 0.63826573 1.7589999
-0.13345048 0.63554579 1.7515001
-0.125 0.63500005 1.7500001
-0.11491325 0.63570762 1.7557273
-0.083761908 0.63826573 1.7590001
-0.07 0.63333338 1.7500001
-0.26301241 0.64664191 1.7590001
-0.25521877 0.64569175 1.7564286
-0.248 0.64333338 1.7500002
-0.15318775 0.64379895 1.7538573
-0.14399049 0.64627242 1.7579999
-0.13458695 0.64427513 1.7538573
-0.11333334 0.64000005 1.7500001
-0.25333333 0.65000004 1.7500001
-0.24833333 0.6516667 1.7500001
-0.15166667 0.6516667 1.7500001
-0.14266667 0.65133339 1.7500002
-0.13356763 0.65111428 1.7530001
-0.10271238 0.097660959 1.7680001
-0.095977142 0.097660959 1.7680001
-0.29971811 0.10776381 1.7680001
-0.11449905 0.10439619 1.7680001
-0.10439619 0.10271239 1.768
-0.095977142 0.10102858 1.7680001
-0.053881902 0.10102858 1.7680001
-0.047146667 0.10608 1.7680001
-0.31487238 0.11786667 1.7680001
-0.30813715 0.11449905 1.7680001
-0.29298288 0.11113143 1.7680001
-0.28624761 0.11113143 1.7680001
-0.041758478 0.11449905 1.768
-0.03704381 0.11618286 1.7680001
-0.31453562 0.12392838 1.768
-0.043779053 0.12460191 1.7679999
-0.03704381 0.1229181 1.7680001
-0.31318858 0.13302097 1.7680001
-0.30869842 0.13694984 1.7680001
-0.050514288 0.13807239 1.7680001
-0.042816874 0.13470477 1.7679999
-0.03704381 0.13302097 1.7680001
-0.30392763 0.14396572 1.7680001
-0.050514288 0.14312381 1.7680001
-0.043358099 0.14438666 1.7679999
-0.03704381 0.14649144 1.7680001
-0.30308571 0.15491048 1.7680001
-0.053881906 0.15533142 1.7679999
-0.043779053 0.15491048 1.7679999
-0.03704381 0.15491049 1.7680001
-0.30308571 0.16501333 1.7680001
-0.062300954 0.16669714 1.7680001
-0.053881902 0.16501334 1.7679999
-0.043779049 0.16501334 1.7679999
-0.03704381 0.16501334 1.7680001
-0.30308571 0.17174858 1.7680001
-0.29971811 0.17680001 1.7680001
-0.062300958 0.17343239 1.7680001
-0.053881902 0.1751162 1.7679999
-0.045462858 0.1751162 1.7680001
-0.29971811 0.18521905 1.7680001
-0.063984767 0.18185143 1.7680001
-0.05388191 0.18353523 1.768
-0.044620954 0.18606095 1.7680001
-0.29971811 0.19532192 1.7680001
-0.060617145 0.19868954 1.7680001
-0.052759364 0.19644445 1.768
-0.043779049 0.19599544 1.768
-0.03704381 0.19700572 1.7680001
-0.062300958 0.20205715 1.7680001
-0.053881906 0.20542476 1.768
-0.044901591 0.20766985 1.7680001
-0.03704381 0.20710859 1.7680001
-0.29803431 0.21721143 1.7680001
-0.054443177 0.21665017 1.768
-0.047146667 0.21721143 1.7680001
-0.29887623 0.22478858 1.7680001
-0.07408762 0.22394666 1.7680001
-0.060617145 0.22899811 1.7680001
-0.054443177 0.22563046 1.768
-0.29859558 0.23573335 1.7680001
-0.055565715 0.23573333 1.768
-0.29550856 0.2466781 1.7680001
-0.062300961 0.24583621 1.768
-0.056407623 0.2449943 1.7680001
-0.29298288 0.25425524 1.7680001
-0.063563809 0.25635999 1.7679999
-0.070720002 0.26604193 1.7680001
-0.063984767 0.2660419 1.7679999
-0.063984767 0.27614474 1.7679999
-0.055565715 0.27951241 1.7680001
-0.29298288 0.28793144 1.7680001
-0.063503675 0.28528547 1.7679999
-0.055228956 0.28557411 1.768
-0.29298288 0.29635048 1.7680001
-0.060617145 0.29466668 1.7680001
-0.053881906 0.29635048 1.7679999
-0.29298288 0.30645335 1.7680001
-0.060617145 0.30813715 1.7680001
-0.053460952 0.30687428 1.7679999
-0.047146667 0.30645335 1.7680001
-0.29298288 0.31487238 1.7680001
-0.28961524 0.31655619 1.7680001
-0.063022591 0.31703731 1.7679999
-0.054302856 0.31613526 1.7679999
-0.28961524 0.32497525 1.7680001
-0.063984767 0.32497525 1.768
-0.055565715 0.32497525 1.7680001
-0.070720002 0.33676192 1.7680001
-0.063984759 0.33339429 1.7679999
-0.057249527 0.33002669 1.7680001
-0.080822863 0.34686476 1.7680001
-0.070720002 0.34012952 1.7680001
-0.063984774 0.34349716 1.7679999
-0.057249527 0.34012952 1.7680001
-0.072403811 0.35696763 1.7680001
-0.066510484 0.35275811 1.7680001
-0.28288001 0.3670705 1.7680001
-0.066510484 0.36454478 1.7680001
-0.28288001 0.37380573 1.7680001
-0.070720002 0.37717333 1.7680001
-0.066005334 0.3731322 1.768
-0.072403811 0.3855924 1.7680001
-0.066229843 0.38166353 1.7680001
-0.28624764 0.39569527 1.7680001
-0.075771429 0.39401141 1.768
-0.28624764 0.40411428 1.7680001
-0.077455238 0.40411434 1.7680001
-0.28456384 0.41253334 1.7680001
-0.077455238 0.41421714 1.7680001
-0.07408762 0.42480111 1.7679999
-0.067352384 0.42768764 1.7680001
-0.072403811 0.43442285 1.768
-0.067352384 0.43442285 1.7680001
-0.27614477 0.44789335 1.7680001
-0.083516955 0.44654632 1.768
-0.074648887 0.44452572 1.768
-0.065668575 0.44115812 1.7680001
-0.27614477 0.45294476 1.7680001
-0.090925716 0.45631242 1.7680001
-0.086435556 0.45238349 1.7680001
-0.27446097 0.46641526 1.7680001
-0.090925716 0.46473145 1.7680001
-0.087558098 0.46641526 1.7680001
-0.27614477 0.47483429 1.7680001
-0.090925716 0.47483432 1.7680001
-0.084611431 0.47525522 1.7679999
-0.075771429 0.47820193 1.7680001
-0.27614477 0.48156953 1.7680001
-0.091767624 0.48577908 1.7680001
-0.08419048 0.48493713 1.7679999
-0.075210162 0.48381463 1.7680001
-0.10215112 0.49504003 1.7680001
-0.094293334 0.4916724 1.7680001
-0.082506672 0.49335623 1.7680001
-0.075771429 0.4933562 1.7680001
-0.27277714 0.50514287 1.7680001
-0.10237563 0.50446934 1.768
-0.097660959 0.50851047 1.7680001
-0.27277714 0.51187813 1.7680001
-0.26828697 0.5174908 1.7680001
-0.10187048 0.51440382 1.7680001
-0.094293341 0.51861334 1.7680001
-0.085313022 0.5174908 1.7680001
-0.26940954 0.52366483 1.7680001
-0.093619809 0.52332807 1.768
-0.085874289 0.5253486 1.768
-0.077455238 0.52871621 1.7680001
-0.2660419 0.53545141 1.7680001
-0.10271238 0.53713524 1.7680001
-0.094293334 0.53641361 1.7679999
-0.085152648 0.53593254 1.7679999
-0.077455238 0.53545141 1.7680001
-0.26491937 0.54555434 1.7680001
-0.10439619 0.54555434 1.7679999
-0.094293334 0.54387045 1.768
-0.084611431 0.54513335 1.7679999
-0.077455238 0.54555434 1.7680001
-0.26469487 0.55498362 1.768
-0.10439619 0.55228955 1.7680001
-0.094854601 0.55509585 1.768
-0.087558098 0.55565715 1.7680001
-0.2660419 0.56576002 1.7680001
-0.092609525 0.56575996 1.768
-0.087558098 0.56407619 1.7680001
-0.26379684 0.57586288 1.7680001
-0.25930667 0.57586288 1.7680001
-0.10102858 0.57923049 1.7680001
-0.093170792 0.57642418 1.768
-0.2626743 0.58596575 1.7680001
-0.25930667 0.58596569 1.7680001
-0.10237563 0.58663929 1.768
-0.095415868 0.58372062 1.7680001
-0.25930667 0.59606862 1.7680001
-0.10372267 0.59606862 1.768
-0.25762284 0.60617143 1.768
-0.10574324 0.60684502 1.768
-0.25762287 0.6162743 1.768
-0.10397524 0.61585337 1.7679999
-0.2626743 0.62637717 1.7680001
-0.25930667 0.62300956 1.7680001
-0.10343401 0.62685823 1.7679999
-0.2626743 0.63648003 1.7680001
-0.10535836 0.6369611 1.7679999
-0.08419048 0.63984764 1.7680001
-0.075771429 0.63984764 1.7680001
-0.063984767 0.63648003 1.7680001
-0.2643581 0.6465829 1.7680001
-0.10608 0.64321524 1.7680001
-0.30462858 0.10831238 1.7770001
-0.12185143 0.10492762 1.7770001
-0.044001907 0.10577381 1.7770001
-0.037232384 0.10831238 1.7770001
-0.31647524 0.11508191 1.7770001
-0.30801335 0.11169714 1.7770001
-0.037232384 0.11169714 1.7770001
-0.31816763 0.12862095 1.7770001
-0.03554 0.12523618 1.7770001
-0.31703937 0.13539048 1.7770001
-0.037232384 0.13877524 1.7770001
-0.31139812 0.14554477 1.7770001
-0.30801335 0.14723715 1.7770001
-0.03554 0.14554477 1.7770001
-0.30801335 0.15569906 1.7770001
-0.30801335 0.16585334 1.7770001
-0.044001907 0.16585334 1.7770001
-0.037232384 0.16585334 1.7770001
-0.30632097 0.17600763 1.7770001
-0.042647999 0.17600763 1.7770001
-0.037232384 0.17600763 1.7770001
-0.30462858 0.18616192 1.7770001
-0.042309523 0.18446952 1.7770001
-0.036104128 0.18729018 1.7770001
-0.30462858 0.1963162 1.7770001
-0.042873651 0.19518794 1.7770001
-0.037232384 0.19293143 1.7770001
-0.30209002 0.2056243 1.7770001
-0.05077143 0.20477811 1.7770001
-0.043437779 0.20534223 1.7770001
-0.03554 0.20647049 1.7770001
-0.30350032 0.21436827 1.7770001
-0.05077143 0.21493238 1.7770001
-0.043324955 0.21459392 1.7770001
-0.037232384 0.21493238 1.7770001
-0.30462858 0.22339429 1.7770001
-0.05077143 0.22339429 1.7770001
-0.043578811 0.22381739 1.7770002
-0.037232384 0.22170192 1.7770001
-0.30462858 0.23354858 1.7770001
-0.05077143 0.23354858 1.7770001
-0.044001907 0.23354858 1.7770002
-0.30124381 0.24370284 1.7770001
-0.051617622 0.24454904 1.7770001
-0.044678859 0.24167201 1.7770001
-0.30124381 0.2504724 1.7770001
-0.29785907 0.25554955 1.7770001
-0.054720316 0.25385717 1.7770001
-0.29532051 0.26316524 1.7770001
-0.054156192 0.26401144 1.7770002
-0.047386669 0.26401144 1.7770001
-0.2944743 0.27416572 1.7770001
-0.054156192 0.27416569 1.7770002
-0.047386669 0.2758581 1.7770001
-0.2944743 0.28262764 1.7770001
-0.05077143 0.28432003 1.7770001
-0.046032764 0.28432003 1.7770001
-0.29785907 0.2944743 1.7770001
-0.05077143 0.29278192 1.7770001
-0.046540476 0.29532051 1.7770001
-0.29785907 0.30462858 1.7770001
-0.044848099 0.3029362 1.7770001
-0.29785907 0.31478286 1.7770001
-0.044848099 0.31732142 1.7770001
-0.2944743 0.32493713 1.7770001
-0.05077143 0.32493716 1.7770001
-0.047386665 0.32493716 1.7770001
-0.29108953 0.33509144 1.7770001
-0.054156192 0.33509144 1.7770002
-0.047386669 0.33170667 1.7770001
-0.29108953 0.34355336 1.7770001
-0.054720316 0.34524572 1.7770001
-0.29108953 0.35370764 1.7770001
-0.28770477 0.35878477 1.7770001
-0.062279619 0.35607699 1.7770001
-0.055848569 0.3554 1.7770001
-0.28770477 0.36386192 1.7770001
-0.062279619 0.36487734 1.7770001
-0.056694761 0.3647081 1.7770001
-0.28770477 0.37570858 1.7770001
-0.061771907 0.37655479 1.7770001
-0.056187045 0.37503162 1.7770001
-0.28770477 0.38586286 1.7770001
-0.06318222 0.38699111 1.7770001
-0.055284444 0.3847346 1.7770001
-0.047386669 0.38247812 1.7770001
-0.29108953 0.39770955 1.7770001
-0.28770477 0.3926324 1.7770001
-0.071079999 0.39601716 1.7770001
-0.065438725 0.39545307 1.7770001
-0.057540953 0.3926324 1.7770001
-0.29108953 0.40617144 1.7770001
-0.073618576 0.40532523 1.7770001
-0.067695238 0.40955621 1.7770001
-0.29108953 0.41294098 1.7770001
-0.28657651 0.41858223 1.7770001
-0.072772384 0.41632572 1.7770001
-0.067695238 0.41463333 1.7770001
-0.28319177 0.42648003 1.7770001
-0.071079999 0.42309526 1.7770001
-0.064310476 0.42648003 1.7770002
-0.054156195 0.42986476 1.7770001
-0.28093526 0.43494192 1.7770001
-0.063633524 0.43528041 1.7770001
-0.054156195 0.43494192 1.7770001
-0.047386669 0.43494192 1.7770001
-0.28093526 0.44340381 1.7770001
-0.071079999 0.44678858 1.7770001
-0.06318222 0.44396794 1.7770001
-0.054156192 0.44340384 1.7770002
-0.047386665 0.44340381 1.7770001
-0.28093526 0.45017335 1.7770001
-0.08236254 0.45581463 1.7770001
-0.074464768 0.45412228 1.7770001
-0.06388738 0.45313504 1.7770002
-0.053733096 0.45355812 1.7770002
-0.047386669 0.45017335 1.7770001
-0.27755049 0.46202001 1.7770001
-0.084619053 0.46322888 1.7770002
-0.077003337 0.46371239 1.7770001
-0.062618092 0.46371239 1.7770001
-0.27755049 0.47048193 1.7770001
-0.082362548 0.47161019 1.7770001
-0.074464761 0.47386667 1.7770002
-0.066566981 0.47499493 1.7770001
-0.057540953 0.47048193 1.7770001
-0.27755049 0.48740572 1.7770001
-0.073110864 0.48537487 1.7770001
-0.065664388 0.48334402 1.7770001
-0.27755049 0.49079049 1.7770001
-0.094773345 0.49756002 1.7770001
-0.088003814 0.49586764 1.7770001
-0.072772384 0.49332905 1.7770001
-0.066002853 0.49417529 1.7770001
-0.10154286 0.50094479 1.7770001
-0.094773345 0.50432956 1.7770002
-0.084619045 0.5043295 1.7770002
-0.074464761 0.50432956 1.7770002
-0.066566981 0.50320131 1.7770001
-0.27416572 0.51786858 1.7770001
-0.094350249 0.51490688 1.7770002
-0.084619045 0.51406068 1.7770002
-0.074887857 0.51406074 1.7770002
-0.27416572 0.52463812 1.7770001
-0.094773337 0.52125335 1.7770001
-0.081234291 0.52463812 1.7770001
-0.075431839 0.52512163 1.7770002
-0.067695238 0.52802289 1.7770001
-0.27213484 0.53411543 1.7770001
-0.081234291 0.53479242 1.7770001
-0.07349769 0.535276 1.7770002
-0.067695238 0.53479242 1.7770001
-0.27078095 0.54494667 1.7770001
-0.072772384 0.54494667 1.7770001
-0.066849045 0.54579288 1.7770001
-0.27078095 0.55510098 1.7770001
-0.26739621 0.55171621 1.7770001
-0.093927145 0.55256242 1.7770001
-0.082588196 0.55577791 1.7770001
-0.07531096 0.55425477 1.7770001
-0.27078095 0.56525528 1.7770001
-0.091388576 0.56187052 1.7770001
-0.082926668 0.56525522 1.7770001
-0.07784953 0.56356287 1.7770001
-0.27078095 0.57540953 1.7770001
-0.26739621 0.5787943 1.7770001
-0.084619045 0.57540959 1.7770002
-0.26739621 0.58556384 1.7770001
-0.093645088 0.58782035 1.7770001
-0.088003814 0.58556384 1.7770001
-0.26401144 0.5974105 1.7770001
-0.094773337 0.59571815 1.7770002
-0.088003814 0.59571815 1.7770001
-0.26401144 0.60587239 1.7770001
-0.10154286 0.60587239 1.7770001
-0.094773345 0.60587239 1.7770002
-0.088003814 0.60417998 1.7770001
-0.26401144 0.6160267 1.7770001
-0.10154286 0.61264193 1.7770001
-0.094773345 0.61602664 1.7770002
-0.26626796 0.62618095 1.7770001
-0.096465714 0.62618095 1.7770001
-0.26739621 0.63633531 1.7770001
-0.10154286 0.63802767 1.7770001
-0.098158099 0.63464284 1.7770001
-0.071079999 0.63972002 1.7770001
-0.065438725 0.63859177 1.7770001
-0.26739621 0.64479721 1.7770001
-0.10154286 0.64818192 1.7770001
-0.095619522 0.64564335 1.7770001
-0.088003814 0.64310479 1.7770001
-0.29936764 0.10886095 1.7860001
-0.20411427 0.10886095 1.7860001
-0.044224765 0.10205714 1.7860001
-0.036286984 0.10545904 1.7860001
-0.32431495 0.1179327 1.7860001
-0.31637716 0.11226287 1.7860001
-0.032318097 0.11566477 1.7860001
-0.024947302 0.11623175 1.7860001
-0.32488191 0.12587048 1.7860001
-0.032318097 0.12587048 1.7860001
-0.025514286 0.12416953 1.7860001
-0.32318097 0.13437524 1.7860001
-0.31977907 0.1394781 1.7860001
-0.034019049 0.1360762 1.7860001
-0.31637716 0.14628191 1.7860001
-0.032885078 0.14628191 1.7860001
-0.027215239 0.14968382 1.7860001
-0.31540519 0.15697362 1.7860001
-0.032318097 0.15648763 1.7860001
-0.027215239 0.15818858 1.7860001
-0.31467623 0.16499239 1.7860001
-0.032318097 0.16499239 1.7860001
-0.025514286 0.16499239 1.7860001
-0.31467623 0.17349714 1.7860001
-0.032318097 0.17349716 1.7860001
-0.024238573 0.17307191 1.7860001
-0.31297526 0.18200192 1.7860001
-0.30957335 0.18370287 1.7860001
-0.03333867 0.18302248 1.786
-0.027215239 0.18200192 1.7860001
-0.31297526 0.19390857 1.7860001
-0.30957335 0.19390857 1.7860001
-0.032318097 0.19475904 1.7860001
-0.027215239 0.19390857 1.7860001
-0.31297526 0.20071238 1.7860001
-0.30872285 0.20496477 1.7860001
-0.032318097 0.20411427 1.7860001
-0.024947302 0.20524828 1.7860001
-0.017009525 0.20071238 1.7860001
-0.30872288 0.21346954 1.7860001
-0.032885078 0.21432 1.7860001
-0.023813335 0.21091811 1.7860001
-0.014741587 0.21205206 1.7860001
-0.30957335 0.22452573 1.7860001
-0.034869526 0.22537619 1.7860001
-0.30957335 0.23473144 1.7860001
-0.037420955 0.23473144 1.7860001
-0.30787241 0.24493717 1.7860001
-0.043374289 0.24748859 1.7860001
-0.037420955 0.24493714 1.7860001
-0.30447048 0.25514287 1.7860001
-0.051028572 0.25684381 1.7860001
-0.044224765 0.25514287 1.7860001
-0.037420955 0.25514287 1.7860001
-0.30276954 0.26364762 1.7860001
-0.29936764 0.26704955 1.7860001
-0.043799527 0.26534858 1.7860001
-0.036570478 0.26534858 1.7860001
-0.29936764 0.2755543 1.7860001
-0.043252792 0.27506831 1.7860001
-0.037420955 0.2755543 1.7860001
-0.29936764 0.28576002 1.7860001
-0.041673336 0.28576005 1.7860001
-0.037420955 0.28576002 1.7860001
-0.30276954 0.2959657 1.7860001
-0.042183623 0.29528534 1.786
-0.037420955 0.29596573 1.7860001
-0.30276954 0.30617145 1.7860001
-0.042523813 0.30787241 1.7860001
-0.036570478 0.30532098 1.7860001
-0.30276954 0.31637716 1.7860001
-0.042523813 0.31467623 1.7860001
-0.037420955 0.31637716 1.7860001
-0.30276954 0.32318097 1.7860001
-0.29936764 0.32658288 1.7860001
-0.042523813 0.32658288 1.7860001
-0.037420955 0.32658288 1.7860001
-0.29709971 0.33452067 1.7860001
-0.043544382 0.33542785 1.786
-0.037420955 0.33508766 1.7860001
-0.29596573 0.34359241 1.7860001
-0.051028572 0.34359241 1.7860001
-0.044224765 0.34359238 1.7860001
-0.036570478 0.34359241 1.7860001
-0.29511526 0.35294765 1.7860001
-0.051028568 0.35379812 1.7860001
-0.044224765 0.35379809 1.7860001
-0.037420955 0.35209715 1.7860001
-0.29341429 0.36315334 1.7860001
-0.051879048 0.36485434 1.7860001
-0.045196738 0.36351785 1.7860001
-0.29256383 0.37420952 1.7860001
-0.28916192 0.37080762 1.7860001
-0.051879048 0.37335905 1.7860001
-0.044224765 0.37420952 1.7860001
-0.29256383 0.38441524 1.7860001
-0.052162539 0.38328126 1.7860001
-0.043799527 0.38441521 1.7860001
-0.036570478 0.38356477 1.7860001
-0.2936978 0.39462098 1.7860001
-0.062935241 0.39802286 1.7860001
-0.053458508 0.39510697 1.7860001
-0.044650003 0.39462098 1.7860001
-0.037420955 0.39292002 1.7860001
-0.29596573 0.40482667 1.7860001
-0.071440004 0.40822858 1.7860001
-0.064150207 0.40579864 1.7860001
-0.054430481 0.4048267 1.7860001
-0.044650003 0.40440142 1.7860001
-0.29511526 0.41588286 1.7860001
-0.071440004 0.41163048 1.7860001
-0.062935241 0.41503242 1.7860001
-0.054430481 0.41503242 1.7860001
-0.045358732 0.41559935 1.7860001
-0.29426479 0.42523813 1.7860001
-0.28916192 0.42693907 1.7860001
-0.063785717 0.4226867 1.7860001
-0.054430481 0.42523807 1.7860001
-0.044791747 0.42410412 1.7860001
-0.037420955 0.4218362 1.7860001
-0.29426479 0.43204191 1.7860001
-0.28746098 0.43544379 1.7860001
-0.044224761 0.43476343 1.786
-0.28576002 0.44564953 1.7860001
-0.044224765 0.44564953 1.7860001
-0.28235811 0.45755619 1.7860001
-0.071440004 0.45925716 1.7860001
-0.068038099 0.45925716 1.7860001
-0.057832383 0.45585525 1.7860001
-0.045585524 0.45653564 1.786
-0.28235811 0.46606097 1.7860001
-0.08164572 0.46606097 1.7860001
-0.07280077 0.46606097 1.786
-0.06512218 0.46606094 1.7860001
-0.054430481 0.46606097 1.7860001
-0.044650003 0.46606097 1.7860001
-0.28235811 0.47626671 1.7860001
-0.06350223 0.47569969 1.7860001
-0.054005243 0.47669193 1.7860001
-0.044224765 0.47626671 1.7860001
-0.037420955 0.47286478 1.7860001
-0.28235811 0.48647237 1.7860001
-0.062935241 0.48732287 1.7860001
-0.054855719 0.48604718 1.7860001
-0.045925718 0.4864724 1.7860001
-0.28235811 0.49497718 1.7860001
-0.2789562 0.49667811 1.7860001
-0.061234288 0.49497718 1.7860001
-0.055110861 0.49531737 1.786
-0.044905145 0.49531737 1.786
-0.28235811 0.50007999 1.7860001
-0.2789562 0.50348186 1.7860001
-0.063275434 0.50484264 1.786
-0.054430481 0.50348192 1.7860001
-0.044224765 0.50348192 1.7860001
-0.035720002 0.5068838 1.7860001
-0.2789562 0.51368767 1.7860001
-0.064210959 0.51411289 1.7860001
-0.054430477 0.51198667 1.7860001
-0.044650003 0.51326245 1.7860001
-0.037420955 0.51028574 1.7860001
-0.2789562 0.52389336 1.7860001
-0.071440004 0.52389336 1.7860001
-0.065608166 0.52340728 1.7860001
-0.2789562 0.53069717 1.7860001
-0.064636193 0.53409904 1.7860001
-0.2755543 0.54430479 1.7860001
-0.063275434 0.54498518 1.786
-0.057832383 0.54770666 1.7860001
-0.2755543 0.55791241 1.7860001
-0.073140956 0.55791241 1.7860001
-0.064150207 0.55548245 1.7860001
-0.054430481 0.55451041 1.7860001
-0.047626667 0.5511086 1.7860001
-0.2755543 0.56471616 1.7860001
-0.073140956 0.56471622 1.7860001
-0.064636201 0.56471622 1.7860001
-0.054430481 0.56471622 1.7860001
-0.2755543 0.57492191 1.7860001
-0.074841902 0.57492185 1.7860001
-0.064636193 0.57492197 1.7860001
-0.055564448 0.57378799 1.7860001
-0.27328637 0.58512765 1.7860001
-0.083346672 0.58682859 1.7860001
-0.074841902 0.58512759 1.7860001
-0.064636193 0.58512765 1.7860001
-0.056471623 0.58444726 1.786
-0.27215239 0.59193146 1.7860001
-0.26875049 0.59703434 1.7860001
-0.084075652 0.59581935 1.7860001
-0.074841909 0.59533334 1.7860001
-0.064636193 0.59533334 1.7860001
-0.057832383 0.5936324 1.7860001
-0.26875049 0.60553908 1.7860001
-0.083346672 0.60553908 1.7860001
-0.074841902 0.60553908 1.7860001
-0.065608166 0.60505307 1.7860001
-0.26875049 0.61574477 1.7860001
-0.085047625 0.61574483 1.7860001
-0.075267144 0.61531955 1.7860001
-0.064636193 0.61234289 1.7860001
-0.051028572 0.61234289 1.7860001
-0.27215239 0.62595046 1.7860001
-0.26875049 0.62424958 1.7860001
-0.091851436 0.62765145 1.7860001
-0.085047625 0.62595057 1.7860001
-0.075813882 0.62643653 1.7860001
-0.27215239 0.63615626 1.7860001
-0.093212195 0.63683653 1.786
-0.085047625 0.6361562 1.7860001
-0.074841909 0.6361562 1.7860001
-0.064210959 0.63573092 1.7860001
-0.057832379 0.6361562 1.7860001
-0.27215239 0.64296001 1.7860001
-0.094572954 0.64432079 1.786
-0.085047625 0.64296001 1.7860001
-0.076542862 0.64296001 1.7860001
-0.10716 0.65316576 1.7860001
-0.098655239 0.65316576 1.7860001
-0.033335716 0.098297626 1.7950001
-0.027352381 0.097442865 1.7950001
0.0068380954 0.099152386 1.7950001
-0.3145524 0.10940953 1.7950001
-0.3008762 0.10599048 1.7950001
-0.29403809 0.10940953 1.7950001
-0.11966667 0.10257144 1.7950001
-0.041028574 0.10599048 1.7950001
-0.032139052 0.10530667 1.7950001
-0.024421768 0.10696734 1.7950001
-0.014530953 0.10855477 1.7950001
-0.0051285718 0.10940953 1.7950001
0.0025642859 0.10855477 1.7950001
-0.33164763 0.11795714 1.7950001
-0.32651907 0.1145381 1.7950001
-0.28036192 0.11282858 1.7950001
-0.27523333 0.11282858 1.7950001
-0.021653971 0.11510795 1.7950001
-0.014103572 0.11582024 1.7950001
-0.0054704761 0.11556382 1.7950001
0.0027352381 0.1141962 1.7950001
-0.33164763 0.12650478 1.7950001
-0.030771431 0.12992382 1.7950001
-0.022565715 0.12787239 1.7950001
-0.014103572 0.12693216 1.7950001
-0.0068380958 0.12650478 1.7950001
-0.32822859 0.13505238 1.7950001
-0.030771431 0.13505238 1.7950001
-0.023933334 0.13505238 1.7950001
-0.01436 0.13471048 1.7950001
-0.3231 0.1436 1.7950001
-0.030771429 0.1436 1.7950001
-0.023933332 0.1436 1.7950001
-0.015727619 0.14291619 1.7950001
-0.3231 0.15385716 1.7950001
-0.022956463 0.15385713 1.7950001
-0.013676192 0.15385713 1.7950001
-0.0068380954 0.1504381 1.7950001
-0.32344192 0.16479811 1.7950001
-0.021369049 0.16325954 1.7950001
-0.013676192 0.16411431 1.7950001
-0.0068380954 0.16753334 1.7950001
-0.32275811 0.17368762 1.7950001
-0.032480955 0.17437144 1.7950001
-0.020514287 0.17779048 1.7950001
-0.013676192 0.17437145 1.7950001
-0.0059833331 0.1752262 1.7950001
0.0034190477 0.17779048 1.7950001
-0.31711668 0.18548334 1.7950001
-0.032480955 0.18804763 1.7950001
-0.022956464 0.18511702 1.7950001
-0.013676192 0.18462859 1.7950001
-0.0059833331 0.18548335 1.7950001
0 0.18804763 1.7950001
-0.32139048 0.19830477 1.7950001
-0.31797144 0.19488573 1.7950001
-0.030771431 0.19488572 1.7950001
-0.022956463 0.19488572 1.7950001
-0.013676192 0.19488572 1.7950001
-0.0051285713 0.19488573 1.7950001
-0.32139048 0.20514286 1.7950001
-0.31660384 0.20582667 1.7950001
-0.021653971 0.2028635 1.7950001
-0.01324881 0.20557025 1.7950001
-0.0051285713 0.20514286 1.7950001
0.0011396826 0.20742224 1.7950001
-0.32139048 0.21198095 1.7950001
-0.31626192 0.2154 1.7950001
-0.030771431 0.21710953 1.7950001
-0.023933334 0.21710952 1.7950001
-0.01310635 0.21653968 1.7950001
-0.0051285713 0.2154 1.7950001
0.00085476192 0.21454524 1.7950001
-0.3145524 0.22565715 1.7950001
-0.030771429 0.22565715 1.7950001
-0.023933332 0.22565715 1.7950001
-0.014164627 0.22468027 1.7950001
-0.0068380954 0.22565715 1.7950001
-0.31592003 0.2365981 1.7950001
-0.032480955 0.23591428 1.7950001
-0.024360716 0.23548692 1.7950001
-0.017095238 0.23591429 1.7950001
-0.31592003 0.24548765 1.7950001
-0.032480955 0.24617146 1.7950001
-0.023933334 0.24617144 1.7950001
-0.015385714 0.24617143 1.7950001
-0.31250098 0.25574476 1.7950001
-0.30771428 0.25984764 1.7950001
-0.032480955 0.2564286 1.7950001
-0.023933336 0.2564286 1.7950001
-0.015727619 0.25574476 1.7950001
-0.31113335 0.2649762 1.7950001
-0.30771428 0.2649762 1.7950001
-0.031911116 0.26440635 1.7950001
-0.023933334 0.2649762 1.7950001
-0.017095238 0.26326668 1.7950001
-0.31113335 0.27352381 1.7950001
-0.30600476 0.27352381 1.7950001
-0.032822859 0.27420762 1.7950001
-0.31113335 0.28036192 1.7950001
-0.30600476 0.28378096 1.7950001
-0.032480955 0.28378096 1.7950001
-0.027352381 0.2872 1.7950001
-0.015955554 0.28606033 1.7950001
-0.30685952 0.29318333 1.7950001
-0.032480955 0.29403812 1.7950001
-0.027352381 0.29574764 1.7950001
-0.015955554 0.29517779 1.7950001
-0.31113335 0.30771428 1.7950001
-0.30771428 0.30429524 1.7950001
-0.032139052 0.30429524 1.7950001
-0.024617145 0.30292764 1.7950001
-0.31113335 0.3145524 1.7950001
-0.30771428 0.3145524 1.7950001
-0.031911116 0.31227303 1.7950001
-0.30685952 0.32566428 1.7950001
-0.034190476 0.32480955 1.7950001
-0.30344048 0.33592144 1.7950001
-0.032480955 0.33335716 1.7950001
-0.025642857 0.33506668 1.7950001
-0.30173096 0.34446907 1.7950001
-0.032480955 0.34617859 1.7950001
-0.023933332 0.34532386 1.7950001
-0.017095238 0.34190479 1.7950001
-0.3008762 0.35558096 1.7950001
-0.033506669 0.35489714 1.7950001
-0.02598476 0.35489714 1.7950001
-0.3008762 0.36583814 1.7950001
-0.29745716 0.36754763 1.7950001
-0.041028574 0.36754763 1.7950001
-0.037609525 0.36583814 1.7950001
-0.3008762 0.37609527 1.7950001
-0.29745716 0.37609527 1.7950001
-0.037609525 0.37609527 1.7950001
-0.3008762 0.38635239 1.7950001
-0.29745716 0.38635239 1.7950001
-0.3008762 0.39490002 1.7950001
-0.29745716 0.39490002 1.7950001
-0.041028574 0.39660954 1.7950001
-0.034190476 0.39660954 1.7950001
-0.3008762 0.40173811 1.7950001
-0.29745716 0.40686667 1.7950001
-0.0359 0.40344763 1.7950001
-0.3008762 0.4154143 1.7950001
-0.042168256 0.41256511 1.7950001
-0.0359 0.41370478 1.7950001
-0.3008762 0.42396191 1.7950001
-0.041028574 0.42396194 1.7950001
-0.034760315 0.42396191 1.7950001
-0.3008762 0.43421903 1.7950001
-0.29574764 0.4376381 1.7950001
-0.044447623 0.43080002 1.7950001
-0.03461786 0.43379167 1.7950001
-0.29403812 0.44496465 1.7950001
-0.041028574 0.44447622 1.7950001
-0.0359 0.44447622 1.7950001
-0.29147381 0.45387858 1.7950001
-0.2872 0.45644286 1.7950001
-0.041028574 0.45473334 1.7950001
-0.0359 0.45473334 1.7950001
-0.29061905 0.4649905 1.7950001
-0.2872 0.4649905 1.7950001
-0.041028574 0.4649905 1.7950001
-0.035167344 0.46499047 1.7950001
-0.29061905 0.47524762 1.7950001
-0.2872 0.47524762 1.7950001
-0.035558097 0.47524762 1.7950001
-0.29147381 0.48635954 1.7950001
-0.2872 0.48550478 1.7950001
-0.041028574 0.4872143 1.7950001
-0.0359 0.48550478 1.7950001
-0.29175875 0.49348259 1.7950001
-0.2872 0.49576196 1.7950001
-0.051285718 0.49405241 1.7950001
-0.041028574 0.49405241 1.7950001
-0.0359 0.49576196 1.7950001
-0.28583238 0.50670284 1.7950001
-0.0359 0.50430954 1.7950001
-0.28549048 0.51627618 1.7950001
-0.054704763 0.51764381 1.7950001
-0.041028574 0.51969528 1.7950001
-0.035558097 0.51696002 1.7950001
-0.28549048 0.52653337 1.7950001
-0.061542861 0.52824289 1.7950001
-0.054704763 0.52653337 1.7950001
-0.044447623 0.52653337 1.7950001
-0.035899997 0.52653337 1.7950001
-0.28264129 0.53565079 1.7950001
-0.061542861 0.53508097 1.7950001
-0.054704767 0.53508091 1.7950001
-0.044447619 0.53508091 1.7950001
-0.0359 0.53508097 1.7950001
-0.28172952 0.54294479 1.7950001
-0.061542861 0.54191905 1.7950001
-0.054704763 0.54362857 1.7950001
-0.044447619 0.54362857 1.7950001
-0.0359 0.54362851 1.7950001
-0.28036192 0.55388576 1.7950001
-0.27694288 0.55559528 1.7950001
-0.052995242 0.55046672 1.7950001
-0.044020243 0.55388576 1.7950001
-0.035558097 0.55251819 1.7950001
-0.28036192 0.56414288 1.7950001
-0.044447619 0.56414288 1.7950001
-0.28036192 0.57440001 1.7950001
-0.051285718 0.57781905 1.7950001
-0.044447619 0.57440001 1.7950001
-0.28036192 0.58294761 1.7950001
-0.27694288 0.58807623 1.7950001
-0.052140482 0.5838024 1.7950001
-0.045424491 0.58465713 1.7950001
-0.27608809 0.59576905 1.7950001
-0.052995238 0.59491432 1.7950001
-0.045424491 0.59540278 1.7950001
-0.27523333 0.60517144 1.7950001
-0.061542861 0.60859048 1.7950001
-0.054704759 0.60517144 1.7950001
-0.044447619 0.60517144 1.7950001
-0.037609525 0.60859048 1.7950001
-0.27523333 0.61542863 1.7950001
-0.06410715 0.61713815 1.7950001
-0.055132143 0.61542857 1.7950001
-0.044447619 0.61542863 1.7950001
-0.037609525 0.61542863 1.7950001
-0.27557522 0.62568581 1.7950001
-0.071800001 0.62568575 1.7950001
-0.06496191 0.62568575 1.7950001
-0.054704767 0.62568569 1.7950001
-0.044447619 0.62568575 1.7950001
-0.036754765 0.62483102 1.7950001
-0.29061905 0.63936192 1.7950001
-0.2829262 0.63850713 1.7950001
-0.27694288 0.63594288 1.7950001
-0.06496191 0.63252383 1.7950001
-0.053727895 0.63545448 1.7950001
-0.044936057 0.63496602 1.7950001
-0.037609525 0.63423336 1.7950001
-0.28036192 0.64278096 1.7950001
-0.27580318 0.6462 1.7950001
-0.052995242 0.64278096 1.7950001
-0.046157144 0.64278096 1.7950001
0.0034361905 0.089340955 1.8040001
-0.022335239 0.099649526 1.8040001
-0.013744763 0.097931422 1.804
-0.005154286 0.09793143 1.8040001
0.0024544219 0.096213341 1.804
0.013744763 0.099649526 1.8040003
-0.33331048 0.1099581 1.8040001
-0.3264381 0.10995809 1.8040003
-0.29723048 0.10652191 1.8040001
-0.28864002 0.1099581 1.8040001
-0.041234288 0.10308572 1.8040001
-0.022335239 0.10308572 1.8040001
-0.013057524 0.10446019 1.8040001
-0.005154286 0.10480382 1.8040001
0.0041234288 0.10446019 1.8040001
0.013744763 0.1065219 1.804
0.024053333 0.10995809 1.8040003
0.030925715 0.1099581 1.8040001
-0.33502859 0.11511239 1.8040001
-0.32987431 0.11339429 1.8040001
0.0068723811 0.11683048 1.8040001
0.013744763 0.11511239 1.804
0.023366095 0.11545601 1.8040001
-0.33674669 0.12198476 1.8040001
-0.010308572 0.12198476 1.8040001
-0.0034361903 0.12370286 1.8040003
0.0034361903 0.12370285 1.804
0.013744763 0.12370285 1.804
0.022907937 0.12255746 1.804
-0.33331048 0.13572952 1.8040001
-0.010308572 0.13744763 1.8040001
-0.0048106667 0.13469867 1.8040001
0.0034361908 0.13401143 1.804
0.013744763 0.13401145 1.804
0.022335239 0.13401143 1.804
-0.3281562 0.14432001 1.8040001
-0.011167619 0.14517905 1.8040001
-0.005154286 0.14432001 1.804
0.0034361908 0.14432001 1.804
0.013744762 0.14432001 1.804
0.024053335 0.14432001 1.804
0.030925715 0.14775619 1.8040001
-0.32987431 0.15806477 1.8040001
-0.0048106667 0.15531582 1.8040001
0.0034361908 0.15462857 1.804
0.013744761 0.15462856 1.804
0.024053333 0.15462857 1.804
0.030925715 0.15291047 1.8040001
-0.32987431 0.16493715 1.8040001
-0.0048106671 0.16424993 1.8040001
0.0034361905 0.16493714 1.804
0.013744762 0.16493715 1.804
0.024053335 0.16493715 1.8040003
-0.32872891 0.17524572 1.8040003
-0.0034361905 0.17352763 1.8040001
0.0034361908 0.17481622 1.804
0.013744763 0.17524573 1.804
0.024053335 0.17524572 1.8040001
-0.32386094 0.18469526 1.8040001
-0.0034361905 0.18383619 1.8040001
0.0038657144 0.18512477 1.804
0.013744761 0.18555428 1.804
-0.32414731 0.19586284 1.8040003
0.0034361903 0.19586287 1.804
0.013744762 0.19586287 1.804
0.020617144 0.19414476 1.8040001
-0.32557905 0.20617144 1.8040001
0.0045815874 0.20502603 1.804
0.013253878 0.20518968 1.804
0.020617144 0.20445335 1.8040001
-0.32472003 0.21648002 1.8040001
0.005497905 0.21716726 1.8040001
0.011167619 0.21648002 1.8040001
-0.31956571 0.22507048 1.8040001
-0.0045815874 0.22449778 1.8040003
0.0034361908 0.22507049 1.804
0.013744762 0.22507048 1.8040001
-0.31956571 0.23194286 1.8040001
-0.012026668 0.23366095 1.804
-0.005154286 0.23366095 1.804
0.0017180952 0.23366098 1.804
0.017180953 0.23022477 1.8040001
-0.32300192 0.24396953 1.8040001
-0.020617144 0.24053334 1.8040001
-0.011167619 0.24311048 1.8040001
-0.005154286 0.24396954 1.804
0.00085904764 0.24311048 1.8040001
-0.31956571 0.25427809 1.8040003
-0.010308572 0.25427809 1.8040003
-0.005154286 0.25427809 1.804
0.0024544219 0.25476897 1.804
0.010308572 0.2577143 1.8040001
-0.31750399 0.26458669 1.8040001
-0.012762994 0.26507756 1.804
-0.0051542856 0.26458669 1.804
0.0034361903 0.26458666 1.804
0.010308572 0.26458669 1.8040001
-0.31612954 0.27489525 1.8040003
-0.030925715 0.27145904 1.8040001
-0.024053333 0.27489525 1.804
-0.013744763 0.27489525 1.804
-0.005154286 0.27489522 1.804
0.0022907937 0.27374986 1.804
0.010308572 0.27145904 1.8040001
-0.31383875 0.28520381 1.8040003
-0.023623811 0.2847743 1.804
-0.012599365 0.28405842 1.804
-0.005154286 0.28520381 1.804
-0.31269336 0.29551241 1.8040003
-0.023071567 0.2950215 1.804
-0.012599365 0.2949397 1.804
-0.005154286 0.29551241 1.804
-0.31383875 0.30582097 1.8040003
-0.023194287 0.30753905 1.8040001
-0.013744762 0.30582094 1.804
-0.0060133338 0.30496189 1.8040001
-0.31441146 0.31698859 1.8040001
-0.03321651 0.31842032 1.8040003
-0.024053335 0.31612954 1.804
-0.014890159 0.31498417 1.804
-0.0068723811 0.31269336 1.8040001
-0.31406784 0.32575089 1.8040001
-0.031784762 0.32643813 1.8040001
-0.024053335 0.32643807 1.804
-0.014235647 0.32741985 1.804
-0.31269336 0.33331048 1.8040001
-0.30925715 0.33502859 1.8040001
-0.020617144 0.33502859 1.8040001
-0.015462859 0.33502859 1.8040001
-0.30811176 0.34361902 1.8040003
-0.03207111 0.34132826 1.8040003
-0.022335239 0.34361905 1.8040001
-0.013315239 0.34361908 1.804
-0.0068723811 0.34361905 1.8040001
-0.30582097 0.35392761 1.8040003
-0.020617144 0.35564572 1.8040001
-0.013744761 0.35392761 1.804
-0.0068723811 0.35736382 1.8040001
-0.30582097 0.36423621 1.8040003
-0.03264381 0.36423624 1.804
-0.023623811 0.36466575 1.804
-0.013744761 0.36423621 1.804
-0.005154286 0.36423624 1.804
-0.30582097 0.37454477 1.8040003
-0.03264381 0.37454477 1.804
-0.024053333 0.37454474 1.804
-0.013744761 0.37454477 1.804
-0.0068723811 0.3745448 1.8040001
-0.30582097 0.38485336 1.8040003
-0.032300193 0.38485336 1.8040001
-0.024482857 0.38442382 1.804
-0.013744761 0.38313523 1.804
-0.30582097 0.3951619 1.8040003
-0.032300193 0.39447469 1.8040001
-0.027489522 0.39516196 1.8040003
-0.30467558 0.40547049 1.8040003
-0.030925715 0.40547049 1.8040003
-0.02519873 0.40604317 1.804
-0.30410287 0.41577905 1.8040001
-0.030925715 0.41577908 1.8040003
-0.025771428 0.41663811 1.8040001
-0.30582097 0.42780572 1.8040001
-0.030925715 0.42265144 1.8040001
-0.026344126 0.42494226 1.8040003
-0.30582097 0.43467811 1.8040001
-0.041234288 0.43639621 1.8040001
-0.030925715 0.43983239 1.8040001
-0.30238476 0.4449867 1.8040001
-0.29894859 0.44670478 1.8040001
-0.29780319 0.45586798 1.8040003
-0.29379427 0.46216762 1.8040001
-0.29379427 0.47419429 1.8040001
-0.030925715 0.47419429 1.8040003
-0.29551238 0.48450288 1.8040003
-0.030925715 0.48450288 1.8040003
-0.025771428 0.48278478 1.8040001
-0.29780319 0.49481145 1.8040003
-0.027489524 0.49824762 1.8040001
-0.29345068 0.5044328 1.8040001
-0.030925715 0.50511998 1.8040003
-0.027489522 0.50511998 1.8040003
-0.2920762 0.5154286 1.8040003
-0.030925715 0.5154286 1.8040003
-0.027489522 0.5154286 1.8040003
-0.29293525 0.52573717 1.8040001
-0.030925715 0.52230096 1.8040001
-0.2920762 0.53260952 1.8040001
-0.28864002 0.53776383 1.8040001
-0.030925715 0.53776383 1.8040001
-0.026344126 0.53719115 1.8040003
-0.28692192 0.5480724 1.8040001
-0.030925715 0.54635429 1.8040003
-0.02577143 0.54635429 1.804
-0.28520381 0.55494475 1.8040001
-0.03264381 0.55666286 1.8040001
-0.025771428 0.55322671 1.8040001
-0.28606287 0.56353527 1.8040001
-0.035736382 0.56422246 1.8040001
-0.28520381 0.57384384 1.8040003
-0.036080003 0.5738439 1.804
-0.28520381 0.5841524 1.8040003
-0.041234288 0.5841524 1.8040001
-0.036079999 0.5841524 1.804
-0.28176764 0.59446096 1.8040003
-0.041234288 0.59446096 1.8040003
-0.036423616 0.59377372 1.8040001
-0.28176764 0.60476953 1.8040003
-0.036080003 0.60476953 1.804
-0.28176764 0.61507809 1.8040003
-0.034361906 0.61507815 1.8040003
-0.28176764 0.62538666 1.8040003
-0.03321651 0.62653208 1.8040003
-0.28348571 0.63569528 1.8040001
-0.033502858 0.6365543 1.8040001
-0.027489524 0.63913143 1.8040001
-0.042952381 0.64256763 1.8040001
-0.03504914 0.64394206 1.8040001
0 0.089836195 1.8140001
-0.010365714 0.093291432 1.8140001
-0.0051828572 0.093291432 1.8140001
-0.33343047 0.10711239 1.8140001
-0.32479241 0.10711239 1.8140001
-0.31269908 0.10711239 1.8140001
-0.29369524 0.10711239 1.8140001
-0.21076953 0.10711239 1.8140001
-0.2073143 0.10711239 1.8140001
0.024186669 0.10538477 1.8140001
0.032824762 0.10711239 1.8140001
-0.34206858 0.1174781 1.8140001
-0.33861333 0.11229524 1.8140001
-0.28332955 0.11056762 1.8140001
-0.27987429 0.11056762 1.8140001
0.027641905 0.11402286 1.8140001
0.034984287 0.11445476 1.8140001
0.041462857 0.11056762 1.8140001
-0.34206858 0.12438858 1.8140001
-0.33861333 0.12784381 1.8140001
0.026490159 0.12669207 1.8140001
0.033400636 0.12323684 1.8140001
-0.34206858 0.13129905 1.8140001
-0.33861336 0.13475429 1.8140001
0.027641905 0.13475429 1.8140001
0.031097144 0.13475429 1.8140001
-0.3328546 0.14512001 1.8140001
0.032248888 0.14512001 1.8140001
-0.33343047 0.15548572 1.8140001
0.03553959 0.15597932 1.8140001
0.041462857 0.15894096 1.8140001
-0.33400634 0.16585143 1.8140001
0.024186665 0.16585141 1.8140001
0.03455238 0.16585141 1.814
0.042326666 0.16585141 1.8140001
-0.33400634 0.17621715 1.8140001
0.024186667 0.17621715 1.8140001
0.03455238 0.17664908 1.8140001
0.044918101 0.17621715 1.814
-0.33170286 0.18485525 1.8140001
-0.32824764 0.18658286 1.8140001
0.024186669 0.18485524 1.8140001
0.033688571 0.18571906 1.8140001
0.041462857 0.18485525 1.8140001
-0.32824764 0.19349332 1.8140001
0.025173876 0.19299972 1.8140001
0.031097144 0.1900381 1.8140001
-0.33170286 0.20385905 1.8140001
0.024186667 0.20126763 1.8140001
-0.33170286 0.21422477 1.8140001
0.015894096 0.21353373 1.8140001
0.020731429 0.21422477 1.8140001
-0.32594416 0.22459048 1.8140001
0.014396825 0.2245905 1.8140001
0.022113523 0.22528152 1.8140001
-0.32479239 0.2349562 1.8140001
0.0069104764 0.2349562 1.8140001
0.013389047 0.2353881 1.8140001
0.023199456 0.23495622 1.8140001
-0.32479239 0.24532191 1.8140001
0.0055283811 0.24601297 1.8140001
0.013327347 0.24433471 1.8140001
0.024186667 0.24186668 1.8140001
-0.32479239 0.25568762 1.8140001
0.0069104764 0.25396001 1.8140001
0.013820953 0.25626349 1.8140001
0.027641905 0.25741524 1.8140001
-0.32392859 0.26605335 1.8140001
0.014808164 0.26605335 1.8140001
0.020731429 0.26605335 1.8140001
-0.32271925 0.27572802 1.8140001
0.0057587302 0.27872255 1.8140001
0.013820953 0.27584317 1.8140001
-0.32133716 0.28505716 1.8140001
-0.31788191 0.28678477 1.8140001
0.0034552382 0.28505716 1.8140001
0.010365714 0.28678477 1.8140001
-0.32133716 0.29024002 1.8140001
-0.31788191 0.29369524 1.8140001
0.0028793651 0.2925435 1.8140001
-0.31788191 0.30406097 1.8140001
-0.0034552382 0.30751619 1.8140001
0.0034552382 0.30406097 1.814
0.013129905 0.30544308 1.8140001
0.021883175 0.30521271 1.8140001
-0.32133716 0.31788191 1.8140001
-0.31788191 0.31442669 1.8140001
-0.010365714 0.31788191 1.8140001
-0.0043190476 0.31529048 1.8140001
0.0028793651 0.31327492 1.8140001
0.013820953 0.31442669 1.814
0.020731429 0.31097144 1.8140001
-0.32133716 0.32479239 1.8140001
-0.012093334 0.32306477 1.8140001
-0.0051828572 0.32479241 1.8140001
0.0051828572 0.32392859 1.8140001
0.013129905 0.32271925 1.8140001
-0.31701812 0.3360219 1.8140001
-0.010365714 0.33688572 1.8140001
-0.0055283811 0.33515805 1.8140001
-0.31356287 0.34638762 1.8140001
-0.0048373332 0.34552383 1.8140001
0 0.34552383 1.8140001
-0.31183526 0.35502571 1.8140001
-0.0048373332 0.35519847 1.8140001
0 0.35934478 1.8140001
-0.31097144 0.36625525 1.8140001
0 0.36625525 1.8140001
-0.31097144 0.37489337 1.8140001
-0.0046069841 0.37546921 1.8140001
0 0.37489337 1.8140001
-0.31097144 0.38353145 1.8140001
-0.0046069841 0.38237968 1.8140001
0 0.3800762 1.8140001
-0.31097144 0.39389718 1.8140001
-0.022113523 0.39458817 1.8140001
-0.014252857 0.39389715 1.8140001
-0.31097144 0.40253526 1.8140001
-0.022459047 0.40253526 1.8140001
-0.014252857 0.40469474 1.8140001
-0.0069104764 0.40771812 1.8140001
-0.30751619 0.4146286 1.8140001
-0.022113526 0.41531962 1.8140001
-0.014252857 0.4141967 1.8140001
-0.0057587302 0.41232511 1.8140001
0.0051828572 0.41117334 1.8140001
-0.30751619 0.42499429 1.8140001
-0.022459047 0.42499429 1.8140001
-0.013820953 0.42499429 1.814
-0.0046069841 0.42614603 1.8140001
0 0.42499429 1.8140001
-0.31097144 0.43536001 1.8140001
-0.031097144 0.43190476 1.8140001
-0.024186669 0.43190476 1.8140001
-0.015548572 0.43190476 1.8140001
-0.30751619 0.4439981 1.8140001
-0.031097144 0.44745335 1.8140001
-0.024186669 0.44572571 1.814
-0.015548572 0.44227049 1.8140001
-0.30406097 0.45436382 1.8140001
-0.031097144 0.45609143 1.8140001
-0.025568763 0.45540041 1.8140001
-0.30060571 0.46645716 1.8140001
-0.29715049 0.46818477 1.8140001
-0.031097144 0.46472955 1.8140001
-0.025050476 0.46904859 1.8140001
-0.30060571 0.47509527 1.8140001
-0.29715049 0.47509527 1.8140001
-0.024877716 0.4754408 1.8140001
-0.3014695 0.48459715 1.8140001
-0.022804569 0.48235124 1.8140001
-0.014684762 0.48632479 1.8140001
-0.0051828572 0.48718858 1.8140001
-0.30319715 0.49323526 1.8140001
-0.031097144 0.49582669 1.8140001
-0.024186667 0.49409908 1.814
-0.013820953 0.49453098 1.8140001
-0.0055283811 0.49340802 1.8140001
-0.30060571 0.50273716 1.8140001
-0.031097144 0.50100952 1.8140001
-0.022804569 0.50377375 1.8140001
-0.014808164 0.50397116 1.8140001
-0.0069104764 0.50100952 1.8140001
-0.29715049 0.51483053 1.8140001
-0.022459047 0.51483047 1.8140001
-0.015894096 0.51483047 1.8140001
-0.30060571 0.52865148 1.8140001
-0.29715049 0.52346861 1.8140001
-0.031097144 0.52865148 1.8140001
-0.024762541 0.52519625 1.8140001
-0.015548572 0.52519619 1.8140001
-0.29599872 0.53556198 1.8140001
-0.031097144 0.53383434 1.8140001
-0.023693064 0.53457475 1.8140001
-0.016412381 0.53469807 1.8140001
-0.29024002 0.54592764 1.8140001
-0.021595238 0.54506385 1.8140001
-0.01727619 0.54247242 1.8140001
-0.29024002 0.55629331 1.8140001
-0.022804571 0.55767548 1.8140001
-0.013820953 0.55859685 1.8140001
-0.29024002 0.56320381 1.8140001
-0.031097144 0.56493145 1.8140001
-0.025914287 0.56493145 1.8140001
-0.29024002 0.57356954 1.8140001
-0.031097144 0.57356954 1.8140001
-0.024186667 0.57011431 1.8140001
-0.29024002 0.58393526 1.8140001
-0.031097144 0.58048004 1.8140001
-0.29024002 0.59084576 1.8140001
-0.28678477 0.59602857 1.8140001
-0.28678477 0.60466671 1.8140001
-0.03455238 0.60121143 1.8140001
-0.28678477 0.61503237 1.8140001
-0.031097144 0.61676002 1.8140001
-0.29024002 0.62885338 1.8140001
-0.28678477 0.6253981 1.8140001
-0.031097144 0.6253981 1.8140001
-0.027641905 0.62885338 1.8140001
-0.29110384 0.63662761 1.8140001
-0.28678477 0.63403618 1.8140001
-0.031097144 0.63749146 1.8140001
-0.027641905 0.63576382 1.8140001
-0.29196763 0.64267433 1.8140001
-0.041462857 0.64958477 1.8140001
-0.34134856 0.10509714 1.8240001
-0.33584762 0.10307048 1.824
-0.31963429 0.10770286 1.8240001
-0.29184002 0.10770286 1.8240001
-0.20498288 0.10596572 1.8240001
-0.19629714 0.10770286 1.8240001
-0.045165718 0.10075429 1.824
0.022582859 0.10075429 1.8240001
0.035611428 0.10509715 1.8240001
0.045165718 0.10683429 1.8240001
-0.34603888 0.11395657 1.8240001
-0.28836572 0.11117715 1.8240001
-0.19456001 0.11117715 1.8240001
0.045165718 0.11465143 1.8240002
0.052114289 0.11117715 1.8240001
-0.35090286 0.1250743 1.8240001
-0.34742859 0.1250743 1.824
0.03705905 0.12739049 1.824
0.042849526 0.1227581 1.824
-0.34511241 0.13549715 1.824
0.036480002 0.13549715 1.8240002
0.044007618 0.13433905 1.824
-0.33700573 0.14765716 1.8240001
0.03682743 0.14522514 1.8240001
0.045165718 0.14939429 1.824
-0.33700573 0.15286858 1.8240001
0.045600001 0.15590858 1.8240002
0.052114289 0.15981714 1.8240001
-0.33700573 0.16676572 1.8240001
0.047481906 0.16444953 1.824
0.054893721 0.16468117 1.8240001
0.034742858 0.1737143 1.8240001
0.046902858 0.17024 1.8240001
0.053851429 0.17371428 1.8240002
-0.33700573 0.18066287 1.8240001
0.036480002 0.18413715 1.8240001
0.046902858 0.18587428 1.8240001
0.053851429 0.18413715 1.8240002
-0.33353147 0.19456001 1.824
0.034742858 0.19224381 1.824
0.043428574 0.19108573 1.8240001
0.052114289 0.19629714 1.8240001
0.026636191 0.20729905 1.824
0.031268574 0.20498286 1.8240001
0.026057145 0.21540572 1.8240002
-0.33121523 0.22582859 1.824
0.026925715 0.22496001 1.8240001
0.031268574 0.22582857 1.8240001
-0.33005714 0.23625143 1.824
