# .PCD v0.7 - Point Cloud Data file format
VERSION 0.7
FIELDS x y z
SIZE 4 4 4
TYPE F F F
COUNT 1 1 1
WIDTH 1487
HEIGHT 1
VIEWPOINT 0 0 0 1 0 0 0
POINTS 1487
DATA ascii
-0.24608891 0.25371113 1.715
-0.23193334 0.25479999 1.715
-0.22633335 0.25433335 1.715
-0.25153333 0.26460001 1.715
-0.245 0.26500836 1.715
-0.23479168 0.26500833 1.715
-0.22866668 0.26460001 1.715
-0.24453333 0.27346665 1.715
-0.2352 0.27276665 1.715
-0.22670667 0.27374667 1.7149999
-0.21625333 0.27636001 1.7149999
-0.24173334 0.28420001 1.715
-0.24173334 0.30706668 1.715
-0.23356667 0.30543333 1.715
-0.22866668 0.30543333 1.715
-0.23356667 0.31196666 1.715
-0.22757779 0.31142223 1.715
-0.23193334 0.34953335 1.715
-0.22866668 0.34953335 1.715
-0.24173334 0.35933334 1.715
-0.2352 0.35737333 1.7149999
-0.24173334 0.3626 1.715
-0.23628891 0.36368892 1.715
-0.21332382 0.10666191 1.7229999
-0.20347808 0.10666191 1.7229999
-0.19363241 0.10830286 1.723
-0.18706858 0.10830286 1.723
-0.2658343 0.11814857 1.723
-0.23629713 0.11486667 1.723
-0.22645144 0.1137727 1.723
-0.21988763 0.11158477 1.723
-0.18269271 0.11377271 1.7229999
-0.17347212 0.11580436 1.7229998
-0.16475162 0.11617943 1.7229999
-0.15424953 0.11486667 1.723
-0.14276287 0.11814857 1.723
-0.26747525 0.12471238 1.723
-0.17175303 0.12690032 1.723
-0.16327477 0.12717381 1.723
-0.15331183 0.12518123 1.7229998
-0.14604476 0.12307144 1.723
-0.26911619 0.1345581 1.723
-0.21266744 0.13652724 1.7229999
-0.2034781 0.13652724 1.7229999
-0.19363238 0.13674603 1.723
-0.18444306 0.13587086 1.7229999
-0.17476143 0.13209666 1.723
-0.16409524 0.13127619 1.723
-0.15424953 0.13127619 1.723
-0.2658343 0.14440382 1.723
-0.22563097 0.14686523 1.723
-0.21791847 0.14309105 1.7229999
-0.20676 0.14112191 1.723
-0.26419336 0.15424955 1.723
-0.25927049 0.15753144 1.723
-0.24286096 0.15589049 1.723
-0.23629715 0.15589049 1.7229999
-0.22686167 0.15383929 1.7229998
-0.21988763 0.15424953 1.723
-0.26255238 0.16245429 1.723
-0.2559886 0.16409524 1.7229998
-0.24559589 0.16464223 1.7229999
-0.23629713 0.16409524 1.7229998
-0.22645143 0.16409522 1.7229998
-0.21594934 0.16442344 1.7229998
-0.20511904 0.16737714 1.723
-0.26255238 0.17722286 1.723
-0.2563988 0.17353071 1.7229998
-0.23465618 0.17394096 1.723
-0.22481048 0.17230001 1.723
-0.21496478 0.17328458 1.7229998
-0.20511906 0.17394096 1.7229999
-0.26255238 0.18378668 1.723
-0.25927049 0.18542764 1.723
-0.23301524 0.18378668 1.723
-0.21004193 0.18378668 1.723
-0.20388834 0.18378669 1.7229998
-0.26255238 0.19363241 1.723
-0.25927049 0.19199145 1.723
-0.23629715 0.19527334 1.723
-0.22973335 0.19527334 1.723
-0.21004193 0.19363241 1.723
-0.2034781 0.19363241 1.7229998
-0.19609383 0.19445288 1.723
-0.25927049 0.2034781 1.723
-0.21168286 0.20347811 1.7229999
-0.2034781 0.2034781 1.7229998
-0.1969143 0.2034781 1.723
-0.2559886 0.21594934 1.7229999
-0.21168286 0.21496478 1.7229998
-0.20377646 0.21451722 1.7229997
-0.25380063 0.2242635 1.723
-0.2242635 0.22863938 1.723
-0.21368846 0.22718075 1.7229998
-0.20388834 0.22686169 1.7229998
-0.25270668 0.23465618 1.723
-0.22316954 0.23629715 1.723
-0.21496479 0.23629715 1.7229997
-0.2034781 0.23629716 1.7229998
-0.1969143 0.23301524 1.723
-0.25598857 0.24614286 1.723
-0.2242635 0.24395494 1.723
-0.21511394 0.24584451 1.7229997
-0.20347808 0.24614286 1.7229998
-0.19527334 0.24614286 1.7229999
-0.25598857 0.2559886 1.723
-0.22316954 0.25762951 1.723
-0.21496481 0.2559886 1.7229997
-0.2034781 0.25598857 1.7229998
-0.19457008 0.25598857 1.7229998
-0.18706858 0.25598857 1.723
-0.25598857 0.2658343 1.723
-0.2248105 0.2658343 1.7229999
-0.21496479 0.26583427 1.7229997
-0.20347811 0.26583427 1.7229998
-0.19527334 0.26255238 1.723
-0.25270668 0.27568004 1.723
-0.24778381 0.27896193 1.723
-0.23629715 0.27896193 1.723
-0.2248105 0.27650046 1.723
-0.21332382 0.27427348 1.7229998
-0.20511906 0.27568004 1.7229999
-0.24708055 0.28552577 1.7229998
-0.23629716 0.28552571 1.7229998
-0.22645146 0.28552571 1.7229998
-0.21496479 0.28552574 1.7229997
-0.20511906 0.28552574 1.7229999
-0.24614286 0.29537141 1.7229998
-0.23629716 0.29537141 1.7229998
-0.22645146 0.29537144 1.7229998
-0.21496479 0.29537144 1.7229997
-0.20388833 0.29578167 1.7229998
-0.1969143 0.29865333 1.723
-0.24655309 0.30480689 1.7229998
-0.23760991 0.30390438 1.7229999
-0.22551377 0.3047483 1.7229998
-0.21496479 0.30521718 1.7229997
-0.2034781 0.30521715 1.7229998
-0.19457008 0.305686 1.7229998
-0.24614286 0.31506288 1.7229998
-0.23760991 0.31637564 1.7229999
-0.22535747 0.31615683 1.7229999
-0.21566804 0.31318751 1.7229998
-0.20183715 0.31178096 1.723
-0.19527334 0.31178096 1.723
-0.24614286 0.32490858 1.7229998
-0.23629713 0.32490858 1.7229998
-0.2275454 0.3238146 1.7229999
-0.24520518 0.33428544 1.7229998
-0.23629716 0.33475432 1.7229998
-0.22973335 0.3314724 1.723
-0.2445019 0.34460005 1.7229999
-0.23629713 0.34459999 1.7229998
-0.22776422 0.34591275 1.7229999
-0.21988763 0.34788191 1.723
-0.2445019 0.35444573 1.7229999
-0.23684414 0.35444573 1.7229999
-0.2260412 0.35485595 1.7229998
-0.21988763 0.35116383 1.723
-0.24679926 0.36363506 1.7229999
-0.23520319 0.3664794 1.723
-0.22686167 0.36388117 1.7229998
-0.24286096 0.37413716 1.723
-0.23629716 0.37413713 1.7229998
-0.2280924 0.37085524 1.723
-0.24286096 0.38070098 1.723
-0.23383571 0.38316238 1.723
-0.22686169 0.3843931 1.7229998
-0.21379265 0.38492057 1.7229998
-0.20511906 0.3839829 1.7229999
-0.24286096 0.3938286 1.723
-0.23629716 0.3938286 1.7229998
-0.22645146 0.39382857 1.7229998
-0.21769969 0.39492258 1.7229999
-0.24286096 0.40367427 1.723
-0.23629713 0.40367427 1.7229998
-0.22645146 0.40367424 1.7229998
-0.21619548 0.40244356 1.7229998
-0.24417372 0.41286364 1.7229999
-0.23629713 0.41351998 1.7229998
-0.22645146 0.41352001 1.7229998
-0.24286096 0.4217248 1.723
-0.23629713 0.42336571 1.7229998
-0.22776422 0.42270938 1.7229999
-0.23465618 0.43485239 1.723
-0.22645146 0.43485236 1.7229999
-0.23629715 0.4693124 1.723
-0.2210362 0.10886858 1.7320001
-0.18309715 0.10886858 1.7320001
-0.17320001 0.10886858 1.7320001
-0.16825144 0.10886858 1.7320001
-0.27052191 0.1171162 1.7320001
-0.26722288 0.11546667 1.7320001
-0.2276343 0.11216763 1.7320001
-0.17649905 0.11216763 1.7320001
-0.1649524 0.11216763 1.732
-0.15505524 0.11546667 1.7320001
-0.1451581 0.11546668 1.732
-0.13460115 0.1174461 1.7320001
-0.12701333 0.11876572 1.7320001
-0.27052191 0.12371429 1.7320001
-0.14433335 0.12618858 1.7320001
-0.13526095 0.1237143 1.7320002
-0.12756316 0.12316445 1.732
-0.19134477 0.13856001 1.7320001
-0.18144763 0.13856001 1.7320001
-0.17484953 0.13636065 1.732
-0.1649524 0.13526095 1.732
-0.15505524 0.13443619 1.7320001
-0.14625777 0.1330616 1.732
-0.27052191 0.14515811 1.732
-0.21396682 0.14610069 1.7320002
-0.20454095 0.1451581 1.7320002
-0.19464381 0.14185905 1.732
-0.18144763 0.14185905 1.7320001
-0.27052191 0.1517562 1.7320001
-0.26722288 0.1583543 1.7320001
-0.22433525 0.1583543 1.7320001
-0.21663748 0.15395556 1.732
-0.26612321 0.1649524 1.732
-0.21113905 0.16330287 1.7320001
-0.20536572 0.16412763 1.7320001
-0.2650235 0.17484953 1.732
-0.20124191 0.17484953 1.732
-0.19464381 0.17649905 1.7320002
-0.1863962 0.17484953 1.7320001
-0.17594922 0.17374985 1.732
-0.26639813 0.18474668 1.7320001
-0.20124191 0.18474667 1.7320001
-0.19464381 0.18474667 1.7320002
-0.18672611 0.18408687 1.7320001
-0.26722288 0.1929943 1.7320001
-0.19266438 0.193984 1.7320001
-0.18672611 0.19530362 1.7320001
-0.26392382 0.20454097 1.732
-0.19299428 0.20454095 1.7320002
-0.18584637 0.20399112 1.7320002
-0.17155048 0.20784001 1.7320001
-0.16165334 0.20784001 1.7320001
-0.26062477 0.21608762 1.7320001
-0.1946438 0.21443811 1.7320002
-0.18529654 0.21498795 1.7320002
-0.17484953 0.21396683 1.7320002
-0.1649524 0.21443811 1.7320001
-0.1583543 0.21113905 1.7320001
-0.26062477 0.22433525 1.732
-0.25732571 0.2276343 1.7320001
-0.20124191 0.22268572 1.7320001
-0.19464381 0.22433525 1.7320002
-0.18639621 0.22351049 1.7320001
-0.17526191 0.22392286 1.7320002
-0.1649524 0.22433525 1.7320001
-0.26062477 0.23423238 1.732
-0.25732571 0.23423238 1.732
-0.19423142 0.2342324 1.7320002
-0.18722096 0.2342324 1.7320001
-0.17704891 0.23203301 1.732
-0.26062477 0.24412954 1.732
-0.25732571 0.24083048 1.7320001
-0.19332418 0.24280992 1.7320001
-0.1863962 0.24412952 1.7320002
-0.17814858 0.24083048 1.7320001
-0.26062477 0.25402668 1.732
-0.19134477 0.25237715 1.7320001
-0.18433429 0.25361431 1.7320002
-0.17814858 0.25402668 1.732
-0.26062477 0.26392382 1.732
-0.19332418 0.26524344 1.7320001
-0.18474665 0.26298124 1.7320002
-0.17814858 0.26062477 1.7320001
-0.26062477 0.27052191 1.7320001
-0.25732571 0.2754705 1.7320001
-0.20124191 0.2754705 1.7320001
-0.19596343 0.27250132 1.7320001
-0.1863962 0.27052191 1.7320001
-0.25600609 0.2843779 1.7320001
-0.20124191 0.28371811 1.732
-0.19794287 0.28371811 1.732
-0.2553463 0.29361528 1.7320001
-0.20124191 0.29196572 1.7320001
-0.19662324 0.29427508 1.7320001
-0.2553463 0.30285257 1.7320001
-0.19216952 0.30268764 1.7320001
-0.18474668 0.30681145 1.732
-0.17649905 0.30681145 1.7320001
-0.25402668 0.31340954 1.732
-0.21113905 0.31670859 1.7320001
-0.20536573 0.31588385 1.7320001
-0.19381905 0.31588385 1.7320001
-0.18584637 0.31230983 1.7320002
-0.25402668 0.32495618 1.7320001
-0.22323556 0.32605591 1.7320002
-0.2150979 0.32132727 1.7320001
-0.20619048 0.32000762 1.7320001
-0.19629334 0.32000762 1.7320001
-0.25270706 0.33716267 1.7320001
-0.23093334 0.33815241 1.7320001
-0.22680953 0.3356781 1.7320001
-0.25072762 0.34640002 1.732
-0.22433525 0.34475049 1.7320002
-0.21526286 0.3488743 1.7320001
-0.20344128 0.34859934 1.732
-0.19629334 0.34969905 1.7320001
-0.18804573 0.34969905 1.7320001
-0.25072762 0.35629714 1.732
-0.2210362 0.35794669 1.7320001
-0.21485049 0.35629719 1.7320002
-0.20454095 0.35629714 1.7320002
-0.19558641 0.35676846 1.7320002
-0.18804573 0.35629717 1.732
-0.25072762 0.36949334 1.7320001
-0.24742858 0.36949334 1.7320001
-0.22186096 0.36701906 1.7320001
-0.21443811 0.36619428 1.7320002
-0.20454094 0.36619428 1.7320002
-0.19794287 0.36289525 1.7320001
-0.25072762 0.37279239 1.7320001
-0.24742858 0.37609145 1.732
-0.23093334 0.37774098 1.7320001
-0.22392285 0.37650385 1.7320002
-0.21443811 0.37609142 1.7320002
-0.20454097 0.37609145 1.7320002
-0.19794287 0.37609145 1.732
-0.24165525 0.38598856 1.7320001
-0.23753144 0.38763809 1.7320001
-0.22268572 0.38268954 1.7320001
-0.21691239 0.38516378 1.7320001
-0.20124191 0.38598856 1.732
-0.19558641 0.38598862 1.7320002
-0.21333842 0.39478603 1.7320002
-0.20454097 0.39588571 1.7320002
-0.19629334 0.39258668 1.7320001
-0.25072762 0.40908191 1.7320001
-0.24742858 0.40743238 1.7320001
-0.21361333 0.40825716 1.7320001
-0.20495334 0.4053705 1.7320002
-0.25072762 0.41403049 1.7320001
-0.24742858 0.41897905 1.7320001
-0.2210362 0.41568002 1.732
-0.2148505 0.41526762 1.7320002
-0.20454095 0.41897905 1.7320001
-0.25072762 0.42227811 1.7320001
-0.24632891 0.42557716 1.732
-0.23093334 0.42887619 1.7320001
-0.22268574 0.42557716 1.7320002
-0.21641752 0.42557716 1.7320001
-0.20344126 0.42777649 1.732
-0.24215011 0.43481451 1.7320001
-0.23423238 0.43217525 1.732
-0.22301564 0.43415469 1.7320001
-0.21691239 0.43464953 1.7320001
-0.20619048 0.43547431 1.7320001
-0.24083048 0.44207239 1.7320001
-0.2342324 0.44537142 1.7320002
-0.22565487 0.44405183 1.7320001
-0.2342324 0.45526859 1.7320002
-0.2276343 0.45691812 1.7320001
-0.23423238 0.46475333 1.7320002
-0.22516 0.46681529 1.7320001
-0.2144381 0.46846476 1.732
-0.20619048 0.46846479 1.7320001
-0.2342324 0.47506288 1.7320002
-0.22433525 0.4746505 1.7320002
-0.21691239 0.47423813 1.7320001
-0.23588192 0.48496005 1.7320002
-0.2210362 0.48495999 1.732
-0.21691239 0.48578477 1.7320001
-0.23423238 0.49485716 1.732
-0.2210362 0.4915581 1.7320001
-0.21773715 0.4915581 1.7320001
-0.23313272 0.51465142 1.732
-0.22598478 0.51795048 1.7320001
-0.23258287 0.52454859 1.7320002
-0.22474764 0.52496099 1.7320002
-0.21641752 0.52520835 1.7320001
-0.23258287 0.53279626 1.7320001
-0.22543494 0.53334612 1.7320002
-0.21773715 0.53279626 1.7320001
-0.16330287 0.63671619 1.7320001
-0.17907429 0.10943429 1.7410001
-0.16415143 0.10943429 1.7410001
-0.26861143 0.11275048 1.7410001
-0.23379144 0.11275048 1.7410001
-0.15586096 0.11275048 1.7410001
-0.14591238 0.11275048 1.7410001
-0.13596381 0.11385588 1.7410001
-0.12601523 0.11606667 1.7409999
-0.11672992 0.11739315 1.7409999
-0.10694715 0.11689571 1.7410001
-0.097827621 0.11606667 1.7410001
-0.27524382 0.12601525 1.7410001
-0.1425962 0.12933144 1.7410001
-0.13596381 0.12933144 1.7410001
-0.12601525 0.12684429 1.7410001
-0.11772476 0.12269905 1.7410001
-0.27524382 0.13596381 1.7410001
-0.17410001 0.13928001 1.7410001
-0.16580953 0.13928001 1.7410001
-0.15586096 0.13928001 1.7410001
-0.14591238 0.13662705 1.7409999
-0.27524382 0.1425962 1.7410001
-0.20228763 0.14922857 1.7410001
-0.19631848 0.14723885 1.7409999
-0.18636993 0.14458591 1.7409999
-0.17907429 0.1425962 1.7410001
-0.27192762 0.15751906 1.7410001
-0.21444698 0.15641366 1.7410001
-0.20560381 0.15586096 1.7410001
-0.19897144 0.15917715 1.7410001
-0.27192762 0.16415143 1.7410001
-0.26861143 0.16912572 1.7410001
-0.20339303 0.16470413 1.7410001
-0.19565524 0.16912572 1.7410001
-0.18570668 0.16746761 1.7410001
-0.17575811 0.16675702 1.7410001
-0.16802032 0.16802032 1.7410001
-0.26861143 0.17410001 1.7410001
-0.19565524 0.17244191 1.7410001
-0.18523292 0.17575809 1.7410001
-0.17520541 0.17631079 1.7410001
-0.16580953 0.17575809 1.7410001
-0.15785067 0.17642134 1.7409999
-0.18321952 0.18653572 1.7410001
-0.1767056 0.18523291 1.7410001
-0.16746762 0.18239048 1.7410001
-0.15751906 0.18239048 1.7410001
-0.26861143 0.19897144 1.7410001
-0.18321952 0.1948262 1.7410001
-0.17617263 0.19606975 1.7410001
-0.16580953 0.19731332 1.7410001
-0.15917715 0.19565524 1.7410001
-0.26861143 0.20560382 1.7410001
-0.18349588 0.20670921 1.7410001
-0.17617263 0.2051893 1.7410001
-0.16622405 0.2051893 1.7410001
-0.15807176 0.20781462 1.7410001
-0.26529524 0.21555239 1.7410001
-0.18460126 0.21444698 1.7410001
-0.17575811 0.21721049 1.7410001
-0.16580953 0.21555237 1.7409999
-0.15807176 0.21555239 1.7410001
-0.26529524 0.22384286 1.7410001
-0.1843802 0.22616419 1.7409999
-0.17244191 0.22881715 1.7410001
-0.16580954 0.22550097 1.7409999
-0.15917715 0.22550096 1.7410001
-0.26529524 0.23213334 1.7410001
-0.18371697 0.23544952 1.7409999
-0.1746527 0.23655494 1.7410001
-0.16580954 0.235035 1.7410001
-0.15807176 0.23323874 1.7410001
-0.26529524 0.2470562 1.7410001
-0.1823905 0.2453981 1.7410001
-0.17534359 0.24581262 1.7410001
-0.16912572 0.2453981 1.7410001
-0.26529524 0.25368857 1.7410001
-0.17410003 0.25534669 1.7410001
-0.16912572 0.25866288 1.7410001
-0.26529524 0.26197904 1.7410001
-0.18570668 0.26861143 1.7410001
-0.17575811 0.265769 1.7410001
-0.167136 0.26662171 1.7409999
-0.26197904 0.2769019 1.7410001
-0.19399714 0.2769019 1.7410001
-0.18523292 0.27619132 1.7410001
-0.17575811 0.27524382 1.7410001
-0.16912572 0.27524385 1.7410001
-0.26197904 0.2851924 1.7410001
-0.19399714 0.2851924 1.7410001
-0.18570668 0.28519237 1.7410001
-0.17575809 0.28519237 1.7410001
-0.16912572 0.2851924 1.7410001
-0.26197904 0.29514095 1.7410001
-0.25866288 0.29514095 1.7410001
-0.1931681 0.29431191 1.7410001
-0.18570668 0.29514095 1.7410001
-0.17575811 0.29514095 1.7410001
-0.16912572 0.29514095 1.7410001
-0.26197904 0.3050895 1.7410001
-0.25866288 0.30840573 1.7410001
-0.18570668 0.30343142 1.7410001
-0.17642134 0.30442631 1.7409999
-0.16580953 0.30556327 1.7410001
-0.15917715 0.30840573 1.7410001
-0.25866288 0.31503811 1.7410001
-0.18349588 0.31724891 1.7410001
-0.1779689 0.31282732 1.7410001
-0.16580953 0.31172192 1.7410001
-0.25866288 0.32332858 1.7410001
-0.21472335 0.32747382 1.7410001
-0.20513009 0.32593417 1.7410001
-0.19565524 0.32553938 1.7410001
-0.18791747 0.32277587 1.7410001
-0.25866288 0.33493525 1.7410001
-0.22301382 0.33576432 1.7410001
-0.2159669 0.3345207 1.7410001
-0.20560382 0.33493522 1.7410001
-0.19897144 0.33161905 1.7410001
-0.25645208 0.34488383 1.7410001
-0.22384286 0.34156764 1.7410001
-0.2155524 0.34488377 1.7410001
-0.20560382 0.34446934 1.7410001
-0.19631848 0.34687352 1.7409999
-0.18570668 0.34819999 1.7410001
-0.25534669 0.35483241 1.7410001
-0.2122362 0.35814857 1.7410001
-0.20892 0.35151622 1.7410001
-0.19233905 0.35483241 1.7410001
-0.18487762 0.35400334 1.7410001
-0.17907429 0.35151622 1.7410001
-0.25534669 0.36478093 1.7410001
-0.19499201 0.36677065 1.7409999
-0.18703316 0.36544424 1.7409999
-0.25424129 0.37472954 1.7410001
-0.19470775 0.37425584 1.7410001
-0.18902287 0.37307143 1.7410001
-0.25203049 0.38302001 1.7410001
-0.2487143 0.38633621 1.7410001
-0.19344445 0.3824673 1.7410001
-0.18819383 0.38550717 1.7410001
-0.2470562 0.39462668 1.7410001
-0.19432877 0.39595312 1.7409999
-0.18769638 0.3952899 1.7409999
-0.25203049 0.40457526 1.7410001
-0.2487143 0.40291715 1.7410001
-0.19612899 0.40362772 1.7410001
-0.18902285 0.40457526 1.7410001
-0.25534669 0.41784 1.7410001
-0.20513009 0.41547132 1.7410001
-0.19897144 0.41452384 1.7410001
-0.18902287 0.41286573 1.7410001
-0.25203049 0.42447239 1.7410001
-0.21306524 0.42530143 1.7410001
-0.20560382 0.42447239 1.7410001
-0.19814238 0.42530146 1.7410001
-0.2487143 0.43276286 1.7410001
-0.21306524 0.43525001 1.7410001
-0.20615651 0.4355264 1.7410001
-0.19897144 0.43276286 1.7410001
-0.24429269 0.44436955 1.7410001
-0.22384286 0.44768572 1.7410001
-0.21513785 0.44478408 1.7410001
-0.2051893 0.44478408 1.7410001
-0.19565524 0.44768572 1.7410001
-0.24208193 0.45431814 1.7410001
-0.22455347 0.45431808 1.7410001
-0.21602614 0.4533706 1.7410001
-0.20670921 0.45210731 1.7410001
-0.24208191 0.46426669 1.7410001
-0.22455348 0.46474048 1.7410001
-0.21596691 0.46468121 1.7410001
-0.20759353 0.46492991 1.7409999
-0.24291095 0.47421527 1.7410001
-0.23544954 0.47089908 1.7410001
-0.21334159 0.47642604 1.7410001
-0.20513009 0.47516274 1.7410001
-0.19897144 0.47421527 1.7410001
-0.24208193 0.48416379 1.7410001
-0.23213334 0.48416385 1.7410001
-0.22682743 0.48482704 1.7409999
-0.21389429 0.48416379 1.7410001
-0.20560382 0.48416382 1.7410001
-0.19897144 0.48416385 1.7410001
-0.2347863 0.49477562 1.7409999
-0.22644843 0.4945862 1.7410001
-0.21444698 0.49521783 1.7410001
-0.2051893 0.49369788 1.7410001
-0.19897144 0.4941124 1.7410001
-0.2349758 0.50406098 1.7410001
-0.22550096 0.50364649 1.7410001
-0.21687886 0.50273454 1.7409999
-0.20477477 0.50157386 1.7410001
-0.19786604 0.50185019 1.7410001
-0.23489684 0.51400954 1.7410001
-0.22644843 0.51448333 1.7410001
-0.21886858 0.51732576 1.7410001
-0.24208191 0.52727431 1.7410001
-0.23793668 0.52312905 1.7410001
-0.22218478 0.5223 1.7410001
-0.21555239 0.52395809 1.7410001
-0.20892 0.52727431 1.7410001
-0.24208191 0.53059047 1.7410001
-0.23876572 0.5339067 1.7410001
-0.22218478 0.53722286 1.7410001
-0.21356268 0.53456992 1.7409999
-0.2065513 0.53438044 1.7410001
-0.19731334 0.53722286 1.7410001
-0.23345983 0.54319203 1.7409999
-0.22550096 0.54385525 1.7410001
-0.21776319 0.54164451 1.7410001
-0.19764496 0.54319203 1.7409999
-0.22218478 0.58696574 1.7410001
-0.22881715 0.60023052 1.7410001
-0.21389429 0.63670862 1.7410001
-0.21555239 0.64002478 1.7410001
-0.090462863 0.097163811 1.7590001
-0.083761908 0.097163819 1.7590002
-0.16360763 0.10684953 1.7530001
-0.15385905 0.10703238 1.756
-0.14407049 0.10721525 1.7590002
-0.13401906 0.10721525 1.7590002
-0.1273181 0.10721524 1.7590001
-0.11224096 0.10721524 1.7590001
-0.10386477 0.10721525 1.7590002
-0.093200006 0.10466532 1.7564286
-0.083712384 0.10380382 1.7579999
-0.073710479 0.10721524 1.7590001
-0.06365905 0.10721524 1.7590001
-0.053188812 0.10428358 1.7589999
-0.043975003 0.10386477 1.7589999
-0.035180002 0.10721524 1.7590001
-0.27666667 0.12 1.7500001
-0.24166667 0.11333334 1.7500001
-0.23285809 0.11056572 1.7590001
-0.22666667 0.11000001 1.7500001
-0.16000001 0.11000001 1.7500001
-0.15416667 0.11083334 1.7500001
-0.14333335 0.11133333 1.7500002
-0.13333334 0.11000001 1.7500001
-0.12438057 0.11167277 1.7554001
-0.11431453 0.1130581 1.7522501
-0.10333335 0.11444444 1.7500001
-0.093030311 0.11484849 1.7500001
-0.08383467 0.11422972 1.7536001
-0.07358858 0.1137181 1.756
-0.063552387 0.11372001 1.756
-0.053408142 0.11469974 1.7524546
-0.043430474 0.11358857 1.7540001
-0.034435101 0.11335429 1.7577143
-0.28144002 0.12564287 1.7590001
-0.12333333 0.12666667 1.7500001
-0.11388889 0.12555556 1.7500001
-0.10333333 0.125 1.7500001
-0.093573332 0.12532571 1.7545
-0.083761908 0.12340921 1.7589999
-0.073710479 0.12301034 1.7589999
-0.063240245 0.12354882 1.7589999
-0.05360762 0.12313001 1.7590001
-0.044393811 0.12145476 1.7590001
-0.28048 0.13355619 1.7530001
-0.14036 0.13535143 1.7545002
-0.13378762 0.13546573 1.756
-0.12438057 0.1337482 1.7554001
-0.11403929 0.13242833 1.7545
-0.10368478 0.13212095 1.756
-0.093813337 0.13066858 1.7590002
-0.28072 0.14203525 1.7545002
-0.27666667 0.14666668 1.7500001
-0.18000001 0.14666668 1.7500001
-0.17333335 0.145 1.7500001
-0.16333334 0.145 1.7500001
-0.15333332 0.145 1.7500001
-0.14364435 0.14364925 1.7538573
-0.28144002 0.15579715 1.7590001
-0.27666667 0.15333334 1.7500001
-0.2 0.155 1.7500001
-0.19291669 0.15374999 1.7500001
-0.18333334 0.15333332 1.7500001
-0.17372571 0.15368 1.7540001
-0.16388763 0.15385903 1.756
-0.15412191 0.15412191 1.7589999
-0.14630413 0.15300508 1.7590002
-0.28144002 0.16417335 1.7590002
-0.27666667 0.16333334 1.7500001
-0.2 0.16500001 1.7500001
-0.19375002 0.16291668 1.7500001
-0.18333334 0.16166668 1.7500001
-0.17266667 0.16133335 1.7500002
-0.16342476 0.16342476 1.751
-0.15376951 0.16379429 1.755
-0.14454912 0.16513062 1.7589999
-0.13401905 0.16618362 1.7590001
-0.12396763 0.16513062 1.7589999
-0.1139162 0.16417333 1.7589999
-0.10434341 0.16513063 1.7589999
-0.095488571 0.16417335 1.7589999
-0.083283268 0.16321604 1.7589999
-0.076223336 0.16417333 1.7590001
-0.28144002 0.17422478 1.7590002
-0.27500001 0.17333333 1.7500001
-0.16166668 0.17 1.7500001
-0.15291665 0.17291667 1.7500001
-0.14349334 0.17352955 1.7520001
-0.13394096 0.17412382 1.7579999
-0.12396762 0.17422475 1.7589999
-0.1139162 0.17422475 1.7589999
-0.10428358 0.17380595 1.7589999
-0.095488578 0.1708743 1.7590001
-0.077060953 0.1708743 1.7590001
-0.2752358 0.18304038 1.7536001
-0.17166668 0.18666667 1.7500001
-0.16333334 0.18583333 1.7500001
-0.15238094 0.18380952 1.7500001
-0.14333333 0.18333334 1.7500001
-0.13363238 0.1837505 1.7540001
-0.12396762 0.18427619 1.7589999
-0.1139162 0.18427621 1.7589999
-0.10482205 0.18427621 1.7589999
-0.27571142 0.19383048 1.7545
-0.17166668 0.19166668 1.7500001
-0.16333334 0.19166668 1.7500001
-0.15333332 0.19333336 1.7500001
-0.14333333 0.19333336 1.7500001
-0.13340762 0.19344193 1.751
-0.12382286 0.19410478 1.757
-0.1139162 0.19432762 1.7589999
-0.10428358 0.19432762 1.7589999
-0.095488578 0.1976781 1.7590001
-0.27333334 0.20333333 1.7500001
-0.16000001 0.20166668 1.7500001
-0.15333332 0.20333336 1.7500001
-0.14333333 0.20333336 1.7500001
-0.13333334 0.20333335 1.7500001
-0.12375048 0.2040305 1.756
-0.1139162 0.20437908 1.7589999
-0.10442317 0.20326222 1.7589999
-0.096046984 0.20214541 1.7590002
-0.27371776 0.21406192 1.756
-0.15238094 0.21380953 1.7500001
-0.14341334 0.21345335 1.751
-0.13333334 0.21333335 1.7500001
-0.12390429 0.21318883 1.7522501
-0.11452458 0.21465412 1.7580999
-0.10637762 0.21526811 1.7590001
-0.096046984 0.21331365 1.7590002
-0.27236953 0.22390763 1.7545
-0.15333332 0.22333333 1.7500001
-0.14333333 0.22333333 1.7500001
-0.13340762 0.22346288 1.751
-0.12414643 0.22447431 1.755625
-0.11452458 0.22403371 1.7580999
-0.10587505 0.22448191 1.7590001
-0.27138859 0.23453332 1.7590002
-0.26666668 0.23333335 1.7500001
-0.15291665 0.23333335 1.7500001
-0.14333333 0.23333335 1.7500001
-0.1334819 0.23360191 1.7520001
-0.12396762 0.23453334 1.7589999
-0.11433501 0.23411453 1.7589999
-0.27138859 0.24458475 1.7590002
-0.26666668 0.24166667 1.7500001
-0.17 0.24666667 1.7500001
-0.16333334 0.24375001 1.7500001
-0.15333332 0.24333334 1.7500001
-0.14333333 0.24333334 1.7500001
-0.13355619 0.2437505 1.753
-0.12396762 0.24458477 1.7589999
-0.11487348 0.24506342 1.7589999
-0.27046287 0.25377333 1.7530001
-0.17 0.255 1.7500001
-0.16333334 0.25333333 1.7500001
-0.15333332 0.25333333 1.7500001
-0.14333333 0.25333333 1.7500001
-0.13333334 0.25333333 1.7500001
-0.12389525 0.25448954 1.7579999
-0.11559144 0.2546362 1.7589999
-0.27138859 0.26468763 1.7590002
-0.26666668 0.26333335 1.7500001
-0.17333335 0.26666668 1.7500001
-0.16333334 0.26333335 1.7500001
-0.15333332 0.26333335 1.7500001
-0.14333333 0.26333335 1.7500001
-0.13333334 0.26333335 1.7500001
-0.1236819 0.26408949 1.755
-0.1139162 0.26468763 1.7589999
-0.27138859 0.27473906 1.7590002
-0.26666668 0.27333334 1.7500001
-0.16285716 0.2742857 1.7500001
-0.15341905 0.27349144 1.751
-0.14382477 0.27427617 1.756
-0.13386475 0.27443048 1.757
-0.12396763 0.27473906 1.7589999
-0.1139162 0.27473906 1.7589999
-0.27138859 0.28479049 1.7590002
-0.26666668 0.28333333 1.7500001
-0.16333334 0.28333333 1.7500001
-0.15412191 0.28479049 1.7589999
-0.14407048 0.28479049 1.7589999
-0.13401906 0.28479052 1.7589999
-0.12396762 0.28479049 1.7589999
-0.11592648 0.28479046 1.7590001
-0.27138859 0.29484192 1.7590002
-0.26666668 0.29333335 1.7500001
-0.16333334 0.29333332 1.7500001
-0.15412191 0.29484192 1.7589999
-0.14407049 0.29484192 1.7589999
-0.13401905 0.29484192 1.7589999
-0.12396762 0.29484192 1.7589999
-0.11439484 0.29388466 1.7589999
-0.27138859 0.30489334 1.7590002
-0.26666668 0.30333334 1.7500001
-0.17333335 0.30500001 1.7500001
-0.16333334 0.30285713 1.7500001
-0.15341903 0.30350474 1.751
-0.14398667 0.30471808 1.7579999
-0.13401905 0.30489334 1.7589999
-0.12301035 0.30441472 1.7589999
-0.11614984 0.30377653 1.7590002
-0.27138859 0.31494477 1.7590002
-0.26533335 0.31400001 1.7500002
-0.17333335 0.31583336 1.7500001
-0.16333334 0.31533337 1.7500002
-0.15350476 0.31369334 1.7520001
-0.14541067 0.31360459 1.7590001
-0.27138859 0.32164574 1.7590001
-0.26545715 0.32389051 1.7530001
-0.18222223 0.32444447 1.7500001
-0.17363048 0.32389337 1.753
-0.1638 0.32426286 1.755
-0.15433928 0.32416382 1.75675
-0.14742096 0.32164574 1.7590001
-0.26200002 0.3326667 1.7500002
-0.21000001 0.33333334 1.7500001
-0.2 0.33666667 1.7500001
-0.19291669 0.33375001 1.7500001
-0.18364194 0.33390474 1.753
-0.17422478 0.3350476 1.7589999
-0.16417335 0.33504763 1.7589999
-0.15412191 0.33504766 1.7589999
-0.14295365 0.33728126 1.7590002
-0.1273181 0.3383981 1.7590001
-0.26281258 0.34439275 1.7554001
-0.21333334 0.34166667 1.7500001
-0.20111112 0.34111109 1.7500001
-0.19291669 0.34291664 1.7500001
-0.18364763 0.34391621 1.753
-0.17402476 0.34470287 1.757
-0.16398478 0.34470287 1.757
-0.15412191 0.34509909 1.7589999
-0.14365168 0.34551787 1.7589999
-0.13401906 0.34509903 1.7589999
-0.12564287 0.34509906 1.7589999
-0.26234382 0.35424194 1.7545
-0.18111111 0.35444447 1.7500001
-0.17333333 0.35333335 1.7500001
-0.16379429 0.35434476 1.755
-0.15412191 0.35515049 1.7589999
-0.14407048 0.35515049 1.7589999
-0.13401905 0.35515049 1.7589999
-0.12564287 0.35515046 1.7589999
-0.26234382 0.36426762 1.7545
-0.18166667 0.36333334 1.7500001
-0.17333335 0.36333337 1.7500001
-0.16417335 0.36520195 1.7589999
-0.15412191 0.36520192 1.7589999
-0.14407048 0.36520195 1.7589999
-0.13401906 0.36520192 1.7589999
-0.12492491 0.36568055 1.7589999
-0.2615062 0.37345999 1.7545002
-0.18291667 0.37375003 1.7500001
-0.1734305 0.37354863 1.751
-0.16417333 0.37525335 1.7589999
-0.15412191 0.37525335 1.7589999
-0.14407049 0.37525335 1.7589999
-0.13468914 0.3745833 1.7590001
-0.12396763 0.37190285 1.7590002
-0.26133716 0.38362956 1.7590001
-0.25666669 0.38333336 1.7500001
-0.19000001 0.38000003 1.7500001
-0.18333334 0.38333338 1.7500001
-0.17352763 0.38376957 1.7520001
-0.16398478 0.3848629 1.757
-0.15412191 0.38530478 1.7589999
-0.14407048 0.38530478 1.7589999
-0.13443786 0.38572356 1.7589999
-0.12396763 0.38664499 1.7590001
-0.11726667 0.38530478 1.7590001
-0.25566 0.39434478 1.7545
-0.25 0.39500001 1.7500001
-0.18238094 0.39333338 1.7500001
-0.17333335 0.39333338 1.7500001
-0.16333334 0.39333338 1.7500001
-0.15359618 0.3940019 1.753
-0.14382477 0.39467621 1.756
-0.13394095 0.39512953 1.7579999
-0.1273181 0.39535621 1.7590001
-0.25649333 0.40353289 1.7545002
-0.18291667 0.40375003 1.7500001
-0.17333335 0.40333337 1.7500001
-0.16342667 0.40356576 1.751
-0.15341903 0.40356576 1.751
-0.14374286 0.40448955 1.755
-0.13394096 0.40517911 1.7579999
-0.1273181 0.40373242 1.7590001
-0.26133716 0.41378385 1.7590001
-0.25666669 0.41333333 1.7500001
-0.19500001 0.41333339 1.7500001
-0.18333334 0.41333339 1.7500001
-0.17333335 0.41333339 1.7500001
-0.16361333 0.41404194 1.753
-0.15333332 0.41333339 1.7500001
-0.14390287 0.41498479 1.757
-0.13443786 0.41587791 1.7589999
-0.25666669 0.42500001 1.7500001
-0.19333336 0.42333338 1.7500001
-0.18333334 0.42333338 1.7500001
-0.17333335 0.42333338 1.7500001
-0.16370286 0.42429721 1.7540001
-0.15377143 0.42454478 1.755
-0.14398667 0.42526862 1.7579999
-0.13443786 0.42509165 1.7589999
-0.25598571 0.43500477 1.7567501
-0.19291669 0.43375003 1.7500001
-0.18333334 0.43333337 1.7500001
-0.17333335 0.43333337 1.7500001
-0.16333334 0.43333337 1.7500001
-0.15376571 0.43457144 1.755
-0.14390285 0.43506861 1.757
-0.13497633 0.4355619 1.7589999
-0.12564287 0.43556193 1.7590001
-0.25420189 0.44485906 1.7560002
-0.25 0.44333336 1.7500001
-0.2 0.44333336 1.7500001
-0.19333336 0.44333336 1.7500001
-0.18333334 0.44333336 1.7500001
-0.17333333 0.44333336 1.7500001
-0.16333334 0.44333336 1.7500001
-0.15412191 0.44561338 1.7589999
-0.14407048 0.44561338 1.7589999
-0.13736953 0.44226289 1.7590001
-0.25262594 0.45499468 1.7590001
-0.24666667 0.45333335 1.7500001
-0.20333335 0.45533332 1.7500002
-0.19333336 0.45375001 1.7500001
-0.18333334 0.45333332 1.7500001
-0.17333333 0.45333332 1.7500001
-0.16342667 0.45359433 1.751
-0.15412191 0.45566478 1.7589999
-0.14502776 0.45518616 1.7589999
-0.25128573 0.46571621 1.7590002
-0.24583334 0.4641667 1.7500001
-0.21333334 0.46083334 1.7500001
-0.2029167 0.46291667 1.7500001
-0.19333336 0.46333334 1.7500001
-0.18333334 0.46333334 1.7500001
-0.17362478 0.46412766 1.753
-0.16407809 0.46545139 1.7579999
-0.15412191 0.46571621 1.7589999
-0.14658333 0.46655381 1.7590001
-0.25128573 0.47409239 1.7590001
-0.24777777 0.47333336 1.7500001
-0.20111112 0.47222224 1.7500001
-0.19333336 0.47333336 1.7500001
-0.18374857 0.47441906 1.7540001
-0.17372952 0.47441906 1.7540001
-0.16417335 0.47576767 1.7589999
-0.15613219 0.47576761 1.7590001
-0.25128573 0.48581907 1.7590002
-0.24666667 0.48333335 1.7500001
-0.19333336 0.48333338 1.7500001
-0.18395621 0.48499054 1.756
-0.17402668 0.48526859 1.757
-0.16417335 0.48581907 1.7589999
-0.15613219 0.48514897 1.7590001
-0.25128573 0.49587047 1.7590002
-0.24558707 0.49451089 1.7518002
-0.19333336 0.49333334 1.7500001
-0.18395621 0.4950248 1.756
-0.17422478 0.49587044 1.7589999
-0.16417335 0.49587047 1.7589999
-0.15507917 0.49634916 1.7589999
-0.24464239 0.50597072 1.7533751
-0.22666667 0.50999999 1.7500001
-0.21285716 0.50714284 1.7500001
-0.20416668 0.50916666 1.7500001
-0.19303034 0.50515151 1.7500001
-0.18388882 0.50525147 1.7524546
-0.17413564 0.50632972 1.7580999
-0.16417335 0.5059219 1.7589999
-0.15412191 0.50592196 1.7589999
-0.14574572 0.5092724 1.7590001
-0.24507873 0.5152089 1.7545
-0.22166668 0.51500005 1.7500001
-0.21333335 0.51500005 1.7500001
-0.20333336 0.51500005 1.7500001
-0.19333334 0.51500005 1.7500001
-0.18312164 0.51504004 1.7525715
-0.17399979 0.51573217 1.75675
-0.16417335 0.51597333 1.7589999
-0.15412191 0.51597333 1.7589999
-0.14658333 0.51513577 1.7590001
-0.24521144 0.52377909 1.7515001
-0.21291669 0.52291667 1.7500001
-0.20333335 0.52333331 1.7500001
-0.19333336 0.52333331 1.7500001
-0.18333334 0.52333337 1.7500001
-0.17372762 0.5245353 1.7540001
-0.16407999 0.52572763 1.7579999
-0.15412191 0.52602482 1.7589999
-0.25128573 0.53440094 1.7590001
-0.24583334 0.53416669 1.7500001
-0.20238099 0.53285712 1.7500001
-0.19365907 0.53424764 1.753
-0.18396193 0.53516757 1.756
-0.17422475 0.53607625 1.7589999
-0.16408001 0.53577149 1.7579999
-0.15412191 0.53607625 1.7589999
-0.24422574 0.54479784 1.7533751
-0.21266668 0.54533333 1.7500002
-0.20500001 0.54500002 1.7500001
-0.19182952 0.54379618 1.7515001
-0.18416955 0.54581714 1.7579999
-0.17422478 0.54612762 1.7589999
-0.16417335 0.54612762 1.7589999
-0.15412191 0.54612762 1.7589999
-0.24229239 0.55475616 1.7545
-0.23380955 0.55428571 1.7500001
-0.22291668 0.55374998 1.7500001
-0.21357526 0.55396956 1.7520001
-0.20375001 0.55374998 1.7500001
-0.19333336 0.55333334 1.7500001
-0.18406478 0.55554289 1.757
-0.17422475 0.55617911 1.7589999
-0.16501096 0.55366623 1.7590001
-0.15747239 0.55282861 1.7590001
-0.24317406 0.56712049 1.757875
-0.23333335 0.565 1.7500001
-0.22333334 0.565 1.7500001
-0.2139325 0.56533402 1.7524546
-0.2040343 0.56526858 1.756
-0.19366477 0.56430483 1.753
-0.18406285 0.56558859 1.757
-0.17422478 0.56623054 1.7589999
-0.24382065 0.57579046 1.7575001
-0.23333335 0.57500005 1.7500001
-0.22333334 0.57500005 1.7500001
-0.21316573 0.57512575 1.7525715
-0.20426098 0.57595241 1.7579999
-0.19432762 0.57628185 1.7589999
-0.18427621 0.57628185 1.7589999
-0.17422476 0.57628196 1.7589999
-0.16752382 0.57628191 1.7590001
-0.24207191 0.58633339 1.7590001
-0.23333335 0.58333331 1.7500001
-0.22333333 0.58333337 1.7500001
-0.21333335 0.58333331 1.7500001
-0.20402478 0.58533341 1.756
-0.19432762 0.58633339 1.7589999
-0.18427621 0.58633339 1.7589999
-0.17518206 0.58585471 1.7589999
-0.24123429 0.59638476 1.7590002
-0.23346859 0.59367055 1.751
-0.22333334 0.59375006 1.7500001
-0.21333335 0.59333342 1.7500001
-0.20390861 0.59502667 1.755
-0.19432762 0.59638476 1.7589999
-0.18427619 0.59638476 1.7589999
-0.17673762 0.5955472 1.7590001
-0.24123429 0.60643625 1.7590002
-0.23375002 0.60333335 1.7500001
-0.22333333 0.60333329 1.7500001
-0.21333335 0.60333329 1.7500001
-0.20344764 0.6036762 1.751
-0.19421524 0.60609138 1.7579999
-0.18475483 0.60547894 1.7589999
-0.17422478 0.604761 1.7589999
-0.24123429 0.61648762 1.7590002
-0.23400572 0.61508763 1.755
-0.22333333 0.6133334 1.7500001
-0.21333335 0.61333334 1.7500001
-0.20333336 0.6133334 1.7500001
-0.19410287 0.61578476 1.757
-0.18678905 0.61648762 1.7590001
-0.1708743 0.61313719 1.7590001
-0.24207191 0.62737668 1.7590001
-0.23358044 0.626001 1.7540909
-0.22333334 0.62499994 1.7500001
-0.21342336 0.62526715 1.7507502
-0.20333336 0.625 1.7500001
-0.19426753 0.62658858 1.7557274
-0.18762667 0.62486386 1.7590001
-0.24123429 0.63659048 1.7590002
-0.23433116 0.63568169 1.7538573
-0.22333334 0.63500005 1.7500001
-0.21333335 0.63500005 1.7500001
-0.20333336 0.63500005 1.7500001
-0.19327593 0.63568169 1.7538573
-0.18595146 0.63659048 1.7589999
-0.24458478 0.64329147 1.7590002
-0.23352095 0.64457101 1.7545
-0.22333333 0.64333338 1.7500001
-0.21222223 0.64444453 1.7500001
-0.20368193 0.6444419 1.753
-0.19424501 0.64457315 1.7545
-0.18469502 0.64706075 1.7589999
-0.17432138 0.64426672 1.7551429
-0.16584858 0.64329147 1.7590001
-0.23118286 0.6533429 1.7590001
-0.2235821 0.65401447 1.7572
-0.21388191 0.65334672 1.7545
-0.2060543 0.6533429 1.7590001
-0.19432762 0.6533429 1.7590001
-0.18595144 0.6533429 1.7590001
-0.095977142 0.097660959 1.7680001
-0.073414102 0.096313909 1.768
-0.067352384 0.097660959 1.7680001
-0.22731429 0.10776381 1.7680001
-0.17680001 0.10776381 1.7680001
-0.13470477 0.10439619 1.7680001
-0.1229181 0.10776381 1.7680001
-0.11449905 0.10551873 1.7680001
-0.10439619 0.10439619 1.7680001
-0.095977142 0.10102858 1.7680001
-0.07408762 0.10397524 1.7679999
-0.063423492 0.10383492 1.768
-0.057249527 0.10102858 1.7680001
-0.040411431 0.10439619 1.7680001
-0.034349717 0.10372267 1.768
-0.026940953 0.10776381 1.7680001
-0.27951241 0.11786667 1.7680001
-0.23910096 0.11113143 1.7680001
-0.030308573 0.11449905 1.7680001
-0.024415238 0.11197333 1.7680001
-0.016838096 0.11113143 1.7680001
-0.28624764 0.12796953 1.7680001
-0.08419048 0.12796953 1.7680001
-0.07408762 0.12796953 1.7680001
-0.067352384 0.12796953 1.7680001
-0.053881902 0.12796953 1.7680001
-0.04209524 0.12460191 1.7680001
-0.035360001 0.12123429 1.7680001
-0.28624764 0.13470477 1.7680001
-0.1229181 0.13807239 1.7680001
-0.11618286 0.13807239 1.7680001
-0.10439619 0.13807239 1.7680001
-0.095977142 0.13470477 1.7680001
-0.087558098 0.13133715 1.7680001
-0.075771429 0.13133715 1.7680001
-0.062300958 0.13133715 1.7680001
-0.28512511 0.14480762 1.7680001
-0.14144 0.14817524 1.7680001
-0.13582732 0.14368509 1.768
-0.12460191 0.14144 1.7680001
-0.11382552 0.14278705 1.768
-0.10523809 0.14228192 1.7680001
-0.28456384 0.15491048 1.7680001
-0.14413409 0.15558401 1.768
-0.13470477 0.15827811 1.7680001
-0.12460191 0.15827811 1.7680001
-0.11449904 0.15659428 1.768
-0.10523809 0.15659429 1.7680001
-0.094293334 0.15659429 1.768
-0.083348572 0.15743619 1.7680001
-0.07492952 0.15743619 1.7680001
-0.28624764 0.16501334 1.7680001
-0.14312381 0.16164573 1.7680001
-0.13470477 0.16248763 1.7680001
-0.12460192 0.16164573 1.7680001
-0.10271238 0.16164573 1.7680001
-0.090925716 0.16501336 1.7680001
-0.085874289 0.16838096 1.7680001
-0.072067045 0.16501334 1.768
-0.066229843 0.16725843 1.7680001
-0.28624764 0.17174858 1.7680001
-0.10102858 0.17848381 1.7680001
-0.093812242 0.17607835 1.7679999
-0.084611431 0.17469524 1.7679999
-0.073666662 0.17553715 1.7679999
-0.067352384 0.17343238 1.7680001
-0.28288001 0.18185143 1.7680001
-0.27951241 0.18858667 1.7680001
-0.10102858 0.18521905 1.7680001
-0.094293326 0.18521905 1.7679999
-0.087558098 0.18353525 1.7680001
-0.077455238 0.18353525 1.7680001
-0.10102858 0.19532192 1.7680001
-0.094293334 0.19419938 1.768
-0.087558098 0.19868954 1.7680001
-0.27951241 0.20542477 1.7680001
-0.10327365 0.20766985 1.7680001
-0.093170792 0.2065473 1.768
-0.08671619 0.20626667 1.7680001
-0.27951241 0.21721143 1.7680001
-0.10237561 0.21485409 1.768
-0.093170799 0.21608889 1.768
-0.084190488 0.21552761 1.7679999
-0.076332696 0.21777271 1.7680001
-0.27951241 0.22563048 1.7680001
-0.10187048 0.22563048 1.7680001
-0.094293334 0.22563049 1.7679999
-0.08419048 0.22563049 1.7679999
-0.076613337 0.22478858 1.7680001
-0.27698669 0.23489144 1.7680001
-0.11113143 0.23910096 1.7680001
-0.10439619 0.23573335 1.7679999
-0.094774425 0.23477116 1.7679999
-0.083228298 0.23525225 1.7679999
-0.077455238 0.23404953 1.7680001
-0.27698666 0.2458362 1.7680001
-0.11113143 0.2441524 1.7680001
-0.10439619 0.2458362 1.7679999
-0.094966859 0.24381563 1.768
-0.083067946 0.24359113 1.7680001
-0.27614477 0.25257143 1.7680001
-0.11113143 0.25593904 1.7680001
-0.10439619 0.25593904 1.7679999
-0.087558098 0.25930667 1.7680001
-0.10439619 0.2660419 1.7679999
-0.092048258 0.26379684 1.7680001
-0.087558098 0.2626743 1.7680001
-0.27614477 0.27951241 1.7680001
-0.10439619 0.27614474 1.7679999
-0.092609525 0.27277714 1.7680001
-0.084671564 0.27710694 1.7679999
-0.27614477 0.28793144 1.7680001
-0.11197333 0.28624764 1.7680001
-0.10551873 0.28680894 1.768
-0.085874289 0.28288001 1.7680001
-0.27614477 0.29635051 1.7680001
-0.11281524 0.29971811 1.7680001
-0.10439619 0.29635051 1.7679999
-0.27614477 0.30645335 1.7680001
-0.12796953 0.30813715 1.7680001
-0.11337651 0.30701458 1.768
-0.10439619 0.30645332 1.7679999
-0.095977142 0.30645335 1.7680001
-0.27614477 0.31487238 1.7680001
-0.14312381 0.31824002 1.7680001
-0.13470477 0.31318858 1.7680001
-0.1229181 0.31318858 1.7680001
-0.11113143 0.31318858 1.7680001
-0.10439619 0.31318858 1.7680001
-0.14413409 0.32531202 1.768
-0.27277714 0.33002669 1.7680001
-0.26940954 0.33507812 1.7680001
-0.15154286 0.33002669 1.7680001
-0.14480762 0.33297336 1.7679999
-0.13470477 0.33676192 1.7680001
-0.12628572 0.33676192 1.7680001
-0.26940954 0.34349713 1.7680001
-0.14817524 0.34181333 1.7680001
-0.13470477 0.34012952 1.7680001
-0.1220762 0.34265524 1.7680001
-0.11786667 0.34686476 1.7680001
-0.27277714 0.35360003 1.7680001
-0.26940954 0.35360003 1.7680001
-0.12123429 0.35360003 1.7680001
-0.11786667 0.35696763 1.7680001
-0.26940954 0.36201906 1.7680001
-0.12123429 0.36370286 1.7680001
-0.11786667 0.36370286 1.7680001
-0.13470477 0.37717333 1.7680001
-0.12460191 0.37717333 1.7680001
-0.11498015 0.37284356 1.7679999
-0.2660419 0.38054097 1.7680001
-0.13133715 0.3822248 1.7680001
-0.12460191 0.3822248 1.768
-0.11449905 0.38446987 1.768
-0.10776381 0.3839086 1.7680001
-0.2626743 0.39401147 1.7680001
-0.12404064 0.39513397 1.768
-0.11702476 0.39316955 1.7680001
-0.2626743 0.40411434 1.7680001
-0.12325486 0.40344077 1.768
-0.11786667 0.40243047 1.7680001
-0.26491937 0.41421714 1.7680001
-0.13133715 0.41421714 1.7680001
-0.12662247 0.41421714 1.768
-0.2626743 0.42263621 1.7680001
-0.12556408 0.42480108 1.7679999
-0.11618286 0.42768764 1.7680001
-0.10776381 0.42768764 1.7680001
-0.13133715 0.43273908 1.7680001
-0.12460192 0.43330035 1.768
-0.11618286 0.43105525 1.7680001
-0.1077638 0.43442285 1.7680001
-0.25930667 0.44620955 1.7680001
-0.13358222 0.44564828 1.768
-0.12712762 0.4436838 1.7680001
-0.14144 0.45799622 1.7680001
-0.13470477 0.45462862 1.7679999
-0.12796953 0.45294476 1.7680001
-0.25593907 0.46473145 1.7680001
-0.14278705 0.46540499 1.768
-0.13470477 0.46473143 1.7679999
-0.12684698 0.46585402 1.7680001
-0.15266539 0.47707939 1.7680001
-0.14480762 0.47595689 1.768
-0.13537829 0.47550783 1.768
-0.12544382 0.47651809 1.7680001
-0.15154286 0.48493716 1.7680001
-0.14817524 0.48493716 1.7680001
-0.13133715 0.48156953 1.7680001
-0.12404064 0.4838146 1.768
-0.11618286 0.48325336 1.7680001
-0.25593907 0.49504003 1.7680001
-0.15238476 0.49419811 1.7680001
-0.14548115 0.4970606 1.768
-0.25369397 0.50514287 1.7680001
-0.14480762 0.50514293 1.7679999
-0.25257143 0.51524574 1.7680001
-0.14228192 0.51608765 1.7680001
-0.13807239 0.51356196 1.7680001
-0.25257143 0.521981 1.7680001
-0.14536889 0.5253486 1.768
-0.13807239 0.521981 1.7680001
-0.25425524 0.53376764 1.7680001
-0.14733334 0.5346095 1.7680001
-0.13133715 0.53881907 1.7680001
-0.25257143 0.54555428 1.7680001
-0.14817524 0.54555434 1.7680001
-0.25257143 0.55228955 1.7680001
-0.24920382 0.55734098 1.7680001
-0.16332954 0.55902481 1.7680001
-0.15423696 0.55767775 1.768
-0.14817524 0.55228955 1.7680001
-0.25257143 0.56912762 1.7680001
-0.24920382 0.56576002 1.7680001
-0.16501336 0.56576002 1.7679999
-0.15558401 0.56373948 1.768
-0.25257143 0.57417905 1.7680001
-0.24920382 0.57923049 1.7680001
-0.16568688 0.57653642 1.768
-0.2458362 0.58596575 1.7680001
-0.17174858 0.58933336 1.7680001
-0.16459239 0.58638668 1.7679999
-0.2458362 0.59606862 1.7680001
-0.17259048 0.59691054 1.7680001
-0.16597554 0.59654969 1.7679999
-0.14649144 0.59943622 1.7680001
-0.13302097 0.59943622 1.7680001
-0.12796953 0.59943622 1.7680001
-0.2458362 0.60617143 1.7680001
-0.17343238 0.60280383 1.7680001
-0.16501336 0.60617143 1.7679999
-0.15266539 0.60504889 1.7680001
-0.14480762 0.6044876 1.768
-0.13428383 0.60575056 1.7679999
-0.2458362 0.6162743 1.7680001
-0.18319848 0.61560076 1.768
-0.17553715 0.6162743 1.7679999
-0.16501336 0.6162743 1.7679999
-0.15558401 0.61829484 1.768
-0.2458362 0.62637717 1.7680001
-0.18437715 0.62553525 1.7680001
-0.16164573 0.62300956 1.7680001
-0.25257143 0.63479626 1.7680001
-0.24785677 0.63715357 1.768
-0.18387201 0.63513303 1.768
-0.1742743 0.63900572 1.7680001
-0.16417143 0.63900572 1.7680001
-0.15827811 0.63984764 1.7680001
-0.2458362 0.64658284 1.7680001
-0.18185143 0.64489907 1.7680001
-0.1751162 0.64321524 1.7680001
-0.16417144 0.64405715 1.7680001
-0.15827811 0.64489907 1.7680001
-0.24246858 0.65331811 1.7680001
-0.23910096 0.65331811 1.7680001
-0.20205715 0.65668571 1.7680001
-0.19419938 0.65556318 1.7680001
-0.22563048 0.66229844 1.7680001
-0.21721143 0.66342098 1.7680001
-0.20879239 0.66005337 1.7680001
-0.19532192 0.66005337 1.7680001
-0.10492762 0.098158099 1.7770001
-0.2403181 0.10831238 1.7770001
-0.23524097 0.10831238 1.7770001
-0.13539048 0.10492762 1.7770001
-0.12692857 0.10492762 1.7770001
-0.10492762 0.10154286 1.7770001
-0.067695238 0.10154286 1.7770001
-0.030462857 0.10492762 1.7770001
-0.023693332 0.10718413 1.7770001
-0.016923809 0.10831238 1.7770001
-0.28093526 0.11508191 1.7770001
-0.27755049 0.11508191 1.7770001
-0.24539524 0.11169714 1.7770001
-0.030462857 0.11846667 1.7770001
-0.023016382 0.11711277 1.7770001
-0.013539047 0.11451778 1.7770001
-0.006769524 0.11338952 1.7770001
-0.28657651 0.12297968 1.7770001
-0.081234291 0.12862095 1.7770001
-0.044001907 0.12862095 1.7770001
-0.036104128 0.12636445 1.7770001
-0.09477333 0.13764699 1.7770001
-0.0839421 0.13403657 1.7770001
-0.073787816 0.13539048 1.7770001
-0.065156661 0.13454428 1.7770001
-0.054156195 0.13200572 1.7770001
-0.044001907 0.13200572 1.7770001
-0.28770477 0.14892954 1.7770001
-0.13313398 0.14780128 1.7770001
-0.1252362 0.14723715 1.7770001
-0.1159281 0.14808334 1.7770001
-0.10425067 0.14757563 1.7770001
-0.095740423 0.14506122 1.7770002
-0.28770477 0.15400667 1.7770001
-0.14216 0.15569906 1.7770001
-0.13539048 0.15400667 1.7770001
-0.12591316 0.15434515 1.7770001
-0.11508191 0.15231429 1.7770001
-0.10425067 0.15434515 1.7770001
-0.09477333 0.15231429 1.7770001
-0.084619053 0.1545708 1.7770001
-0.072772384 0.15400667 1.7770001
-0.067695238 0.15231429 1.7770001
-0.28770477 0.16585334 1.7770001
-0.064310476 0.16416095 1.7770001
-0.28770477 0.17770001 1.7770001
-0.081234291 0.17939238 1.7770001
-0.063746355 0.17657174 1.7770001
-0.056412697 0.17826414 1.7770001
-0.28432 0.18785429 1.7770001
-0.083651975 0.18664546 1.7770002
-0.07349769 0.18664546 1.7770002
-0.063887388 0.18573882 1.7770002
-0.056694761 0.18700811 1.7770001
-0.28432 0.1963162 1.7770001
-0.084195957 0.19589311 1.7770002
-0.077003337 0.19547001 1.7770001
-0.28432 0.20647049 1.7770001
-0.082588196 0.20579353 1.7770001
-0.075593024 0.20759873 1.7770001
-0.03554 0.20985524 1.7770001
-0.28432 0.21493238 1.7770001
-0.075593024 0.21436827 1.7770001
-0.067695238 0.21324001 1.7770001
-0.072772384 0.22677906 1.7770001
-0.065277554 0.22387783 1.7770002
-0.28093526 0.23693334 1.7770001
-0.088003814 0.23693334 1.7770001
-0.072772384 0.23354857 1.7770001
-0.066002861 0.23354857 1.7770001
-0.28093526 0.24201047 1.7770001
-0.092516832 0.24257462 1.7770001
-0.08631143 0.24454907 1.7770001
-0.074887857 0.24327978 1.7770002
-0.064310476 0.24167201 1.7770001
-0.28093526 0.25216478 1.7770001
-0.27755049 0.2572419 1.7770001
-0.094773337 0.25385717 1.7770002
-0.084619045 0.25385714 1.7770002
-0.076157153 0.25385717 1.7770001
-0.27755049 0.26401144 1.7770001
-0.095901586 0.26344731 1.7770001
-0.084619053 0.26655 1.7770001
-0.27755049 0.27416572 1.7770001
-0.095256872 0.27416572 1.7770002
-0.084619045 0.27247334 1.7770001
-0.074464768 0.2758581 1.7770001
-0.066566981 0.27642223 1.7770001
-0.10267112 0.28657651 1.7770001
-0.094773337 0.28432 1.7770002
-0.08377286 0.28685856 1.7770001
-0.074464768 0.28432 1.7770002
-0.066002861 0.28093526 1.7770001
-0.094773337 0.2944743 1.7770002
-0.084619053 0.29447433 1.7770002
-0.074948303 0.2944743 1.7770002
-0.064310476 0.29785907 1.7770001
-0.094289802 0.30366153 1.7770002
-0.085102595 0.30366153 1.7770002
-0.07514172 0.30259773 1.7770001
-0.064310476 0.30124381 1.7770001
-0.055848572 0.30124381 1.7770001
-0.13539048 0.31816763 1.7770001
-0.12608239 0.31732142 1.7770001
-0.11575886 0.31681371 1.7770001
-0.10492761 0.31681371 1.7770001
-0.095901601 0.31365463 1.7770001
-0.27642223 0.32493713 1.7770001
-0.13539048 0.32493716 1.7770002
-0.12523621 0.32493716 1.7770002
-0.11338952 0.32493713 1.7770001
-0.10492762 0.3215524 1.7770001
-0.27416572 0.33678383 1.7770001
-0.13539048 0.33339906 1.7770001
-0.12475266 0.33412439 1.7770002
-0.11411483 0.33557495 1.7770002
-0.27416572 0.34524572 1.7770001
-0.11465881 0.34482265 1.7770002
-0.10492762 0.3469381 1.7770001
-0.094096377 0.34727654 1.7770001
-0.086875558 0.34637395 1.7770001
-0.27416572 0.35540003 1.7770001
-0.11465881 0.35497695 1.7770002
-0.10746619 0.35455382 1.7770001
-0.091388576 0.3554 1.7770001
-0.08631143 0.35709241 1.7770001
-0.27416572 0.36216953 1.7770001
-0.11338952 0.36555433 1.7770001
-0.10746619 0.3655543 1.7770001
-0.091388576 0.3655543 1.7770001
-0.088003814 0.3655543 1.7770001
-0.27078095 0.3740162 1.7770001
