# .PCD v0.7 - Point Cloud Data file format
VERSION 0.7
FIELDS x y z
SIZE 4 4 4
TYPE F F F
COUNT 1 1 1
WIDTH 1477
HEIGHT 1
VIEWPOINT 0 0 0 1 0 0 0
POINTS 1477
DATA ascii
-0.053333338 0.45333332 1.7500001
-0.043451432 0.45462862 1.755
-0.035179999 0.45566478 1.7589999
-0.13333334 0.4666667 1.7500001
-0.11000001 0.46333337 1.7500001
-0.10339049 0.46359813 1.751
-0.093813337 0.46571621 1.7589999
-0.083716191 0.4654533 1.7579999
-0.073630482 0.46518856 1.757
-0.063369527 0.46360001 1.751
-0.053542856 0.46518856 1.757
-0.043556195 0.46571621 1.7589999
-0.035180002 0.46571621 1.7589999
-0.13333334 0.47000003 1.7500001
-0.11000001 0.47000003 1.7500001
-0.10339049 0.47360575 1.751
-0.09381333 0.47576767 1.7589999
-0.083343096 0.4753488 1.7589999
-0.07354477 0.47469145 1.755
-0.063512377 0.47469145 1.755
-0.05360762 0.47576761 1.7589999
-0.043556195 0.47576767 1.7589999
-0.035515048 0.47509757 1.7590001
-0.15000001 0.48666668 1.7500001
-0.10291668 0.48375002 1.7500001
-0.093813337 0.48581907 1.7589999
-0.082086667 0.48581907 1.7589999
-0.073291667 0.48581907 1.7589999
-0.063659042 0.48581907 1.7589999
-0.053188812 0.48581907 1.7589999
-0.043556195 0.48581907 1.7589999
-0.035179999 0.48581907 1.7589999
-0.18000001 0.49000001 1.7500001
-0.16666667 0.49000001 1.7500001
-0.15000001 0.49333334 1.7500001
-0.14285715 0.49428573 1.7500001
-0.13380952 0.49428573 1.7500001
-0.125 0.4966667 1.7500001
-0.112 0.49466667 1.7500002
-0.10339049 0.49361527 1.751
-0.09381333 0.49587047 1.7589999
-0.083343104 0.49587047 1.7589999
-0.074129291 0.49545172 1.7589999
-0.064329147 0.49386019 1.7590001
-0.052937526 0.4952004 1.7590001
-0.043556195 0.49587053 1.7589999
-0.035180002 0.4958705 1.7589999
-0.15000001 0.50166667 1.7500001
-0.14291666 0.50291669 1.7500001
-0.133 0.50400001 1.7500002
-0.125 0.505 1.7500001
-0.115 0.505 1.7500001
-0.10333335 0.50500005 1.7500001
-0.093600005 0.50477529 1.755
-0.083761908 0.50592196 1.7589999
-0.073710479 0.5059219 1.7589999
-0.064999238 0.5059219 1.7590001
-0.043556195 0.5059219 1.7589999
-0.035180002 0.5059219 1.7589999
-0.21333334 0.51333338 1.7500001
-0.13000001 0.51333338 1.7500001
-0.12333333 0.51500005 1.7500001
-0.11428571 0.51476192 1.7500001
-0.10341906 0.51544005 1.7515001
-0.093758099 0.51567811 1.7579999
-0.083761908 0.51597333 1.7589999
-0.074129291 0.51555455 1.7589999
-0.042718574 0.51346046 1.7590001
-0.034621589 0.51373971 1.7590002
-0.12333333 0.52000004 1.7500001
-0.11333333 0.52333331 1.7500001
-0.10356572 0.52453339 1.7540001
-0.093758106 0.52572769 1.7579999
-0.083761908 0.52602482 1.7589999
-0.073710471 0.52602476 1.7589999
-0.064999238 0.52669489 1.7590001
-0.030154286 0.52770001 1.7590001
-0.15000001 0.53666669 1.7500001
-0.14333335 0.53666669 1.7500001
-0.13083334 0.53416669 1.7500001
-0.125 0.53333336 1.7500001
-0.11504713 0.53356057 1.7507502
-0.10374287 0.53546482 1.757
-0.09381333 0.53607625 1.7589999
-0.083761908 0.53607625 1.7589999
-0.073710479 0.53607625 1.7589999
-0.064077854 0.53649503 1.7589999
-0.056120478 0.53691381 1.7590001
-0.046906669 0.53942668 1.7590001
-0.033504765 0.53942668 1.7590002
-0.02680381 0.53942668 1.7590001
-0.16000001 0.54333335 1.7500001
-0.15266666 0.54466665 1.7500002
-0.14333333 0.54333329 1.7500001
-0.13238095 0.54380953 1.7500001
-0.125 0.54333335 1.7500001
-0.11504715 0.54356474 1.7507501
-0.10368763 0.54519051 1.756
-0.093813337 0.54612762 1.7589999
-0.083761908 0.54612762 1.7589999
-0.073710479 0.54612756 1.7589999
-0.063659042 0.54612756 1.7589999
-0.05408626 0.54517037 1.7589999
-0.043137383 0.54570884 1.7589999
-0.033504765 0.54612762 1.7589999
-0.16222224 0.55388886 1.7500001
-0.15333332 0.55333334 1.7500001
-0.14333333 0.55333334 1.7500001
-0.13355809 0.55428576 1.753
-0.12382477 0.55555046 1.757
-0.1139162 0.55617905 1.7589999
-0.1033943 0.55365145 1.751
-0.093487628 0.55428195 1.753
-0.083761908 0.55617905 1.7589999
-0.073710479 0.55617905 1.7589999
-0.063659042 0.55617905 1.7589999
-0.054086264 0.55522174 1.7589999
-0.044226289 0.55416882 1.7590001
-0.03216457 0.55483884 1.7590001
-0.19000001 0.56666666 1.7500001
-0.18285714 0.56761903 1.7500001
-0.17416668 0.56666666 1.7500001
-0.1630303 0.56454545 1.7500001
-0.15333332 0.565 1.7500001
-0.14333333 0.565 1.7500001
-0.1338187 0.56533551 1.7524546
-0.12396762 0.56623054 1.7589999
-0.1139162 0.56623054 1.7589999
-0.10369143 0.56526858 1.756
-0.093758099 0.56591052 1.7579999
-0.08387582 0.56544685 1.7545
-0.073710479 0.56623054 1.7589999
-0.06533429 0.56623054 1.7589999
-0.19222224 0.57555562 1.7500001
-0.18333334 0.57500005 1.7500001
-0.17333335 0.57500005 1.7500001
-0.16000001 0.57333338 1.7500001
-0.15333332 0.57500005 1.7500001
-0.14381905 0.57697147 1.756
-0.13354041 0.57723916 1.7589999
-0.12396763 0.57628185 1.7589999
-0.1139162 0.57628185 1.7589999
-0.10386477 0.57628191 1.7589999
-0.09381333 0.57628185 1.7589999
-0.083343096 0.57670069 1.7589999
-0.074129291 0.57586312 1.7589999
-0.067009524 0.57460666 1.7590001
-0.19266668 0.58333337 1.7500002
-0.18354098 0.58400387 1.7520001
-0.17333335 0.58333331 1.7500001
-0.16222222 0.58555561 1.7500001
-0.15333332 0.58333331 1.7500001
-0.14373714 0.58500189 1.755
-0.1337162 0.58500582 1.755
-0.12414857 0.58520836 1.755625
-0.11452458 0.5860334 1.7580999
-0.10386476 0.58633345 1.7589999
-0.093813337 0.58633333 1.7589999
-0.083761908 0.58633345 1.7589999
-0.076223336 0.58717096 1.7590001
-0.2 0.59500003 1.7500001
-0.19333336 0.5938096 1.7500001
-0.18427619 0.59638476 1.7589999
-0.17402858 0.59571052 1.757
-0.16333334 0.59333342 1.7500001
-0.15333332 0.59333342 1.7500001
-0.14373714 0.59502673 1.755
-0.13387048 0.59570861 1.757
-0.12368192 0.59503245 1.755
-0.1139162 0.59638476 1.7589999
-0.10386477 0.59638476 1.7589999
-0.093813337 0.59638476 1.7589999
-0.083761908 0.59638476 1.7589999
-0.077060953 0.59470952 1.7590001
-0.21166667 0.60500002 1.7500001
-0.2 0.60333335 1.7500001
-0.19333336 0.60333329 1.7500001
-0.18364382 0.60436374 1.753
-0.1734305 0.60367811 1.751
-0.16333334 0.60333329 1.7500001
-0.15350856 0.6040228 1.7520001
-0.14381905 0.60540187 1.756
-0.13401905 0.60643619 1.7589999
-0.12396762 0.60643619 1.7589999
-0.1139162 0.60643619 1.7589999
-0.10386477 0.60643619 1.7589999
-0.093813337 0.60643619 1.7589999
-0.084719189 0.60595757 1.7589999
-0.23111112 0.61444443 1.7500001
-0.22266667 0.61400002 1.7500002
-0.21333335 0.6133334 1.7500001
-0.20333336 0.61291671 1.7500001
-0.19444446 0.61222225 1.7500001
-0.18238094 0.61285716 1.7500001
-0.17333335 0.61333334 1.7500001
-0.16333334 0.6133334 1.7500001
-0.15350476 0.61403626 1.7520001
-0.14390287 0.61578864 1.757
-0.13401905 0.61648768 1.7589999
-0.12396762 0.61648768 1.7589999
-0.1139162 0.61648768 1.7589999
-0.10386477 0.61648768 1.7589999
-0.093813337 0.61606884 1.7589999
-0.085437149 0.61648768 1.7589999
-0.072035238 0.61816287 1.7590001
-0.22208335 0.62374997 1.7500001
-0.21333335 0.62454545 1.7500001
-0.20380954 0.62238091 1.7500001
-0.19380954 0.62333333 1.7500001
-0.18303032 0.62545455 1.7500001
-0.17333333 0.625 1.7500001
-0.16347046 0.62553573 1.7515001
-0.15437636 0.62688518 1.7580999
-0.14407048 0.62653905 1.7589999
-0.13401905 0.62653899 1.7589999
-0.12396762 0.62653905 1.7589999
-0.1139162 0.62653905 1.7589999
-0.10274794 0.62765592 1.7590002
-0.097163811 0.62653911 1.7590001
-0.083385713 0.62688518 1.7580999
-0.073710479 0.62653899 1.7589999
-0.067009524 0.62653905 1.7590002
-0.22000001 0.63500005 1.7500001
-0.18333334 0.63500005 1.7500001
-0.17333335 0.63500005 1.7500001
-0.16333334 0.63500005 1.7500001
-0.15360238 0.63660216 1.757875
-0.14407048 0.63659054 1.7589999
-0.13401906 0.63659054 1.7589999
-0.12438644 0.6361717 1.7589999
-0.11525638 0.63659048 1.7590001
-0.10185448 0.63726056 1.7590001
-0.09381333 0.63659048 1.7589999
-0.084590167 0.63385779 1.7530001
-0.073494971 0.63376951 1.7538573
-0.064051747 0.6349591 1.7545
-0.22166668 0.64416671 1.7500001
-0.21666667 0.64500004 1.7500001
-0.18166667 0.64333338 1.7500001
-0.17343049 0.64370096 1.751
-0.16398287 0.64590859 1.757
-0.15454072 0.64622313 1.7589999
-0.14407048 0.64496672 1.7589999
-0.1337962 0.64386672 1.756
-0.1236419 0.64331245 1.7545002
-0.11279937 0.64440829 1.7590002
-0.10377906 0.64441526 1.7575001
-0.094526671 0.64330196 1.7567501
-0.24666667 0.65333337 1.7500001
-0.23111112 0.65444446 1.7500001
-0.22333334 0.65380955 1.7500001
-0.21666667 0.6566667 1.7500001
-0.18111111 0.65222222 1.7500001
-0.17435315 0.6526705 1.7536001
-0.16752382 0.6533429 1.7590001
-0.27138859 0.66674477 1.7590001
-0.26424193 0.66560763 1.7560002
-0.25565571 0.6633724 1.7545002
-0.2454693 0.66294599 1.7533751
-0.23506668 0.66338336 1.7567501
-0.22280668 0.66339433 1.7590001
-0.21778096 0.66339433 1.7590001
-0.25128573 0.67009526 1.7590001
-0.24458475 0.67009526 1.7590002
0.0067352382 0.097660959 1.7680001
0.055565715 0.095977142 1.7680001
0.063984767 0.095977142 1.7680001
0.075210162 0.096538417 1.7680001
0.083067946 0.096538417 1.7680001
0.093619809 0.096313909 1.768
0.10102858 0.097660959 1.7680001
0.12796953 0.095977142 1.7680001
0.13133715 0.097660959 1.7680001
0.14817524 0.097660959 1.7680001
0.15154286 0.097660959 1.7680001
0.16838096 0.094293341 1.7680001
0.17174858 0.094293341 1.7680001
0.18521905 0.09597715 1.768
0.19532192 0.09597715 1.768
0.20475125 0.096313909 1.768
-0.15827811 0.10439619 1.7680001
-0.13302097 0.10439619 1.7680001
-0.12796953 0.10439619 1.7680001
-0.11449905 0.10439619 1.7680001
-0.082506672 0.10439619 1.7680001
-0.062300958 0.10271238 1.7680001
-0.055565715 0.10102858 1.7680001
-0.035360001 0.10102858 1.7680001
-0.020205716 0.10776381 1.7680001
-0.010102858 0.10776381 1.7680001
-0.0050514285 0.10776381 1.7680001
0.0033676189 0.10439619 1.7680001
0.033676192 0.10327365 1.7680001
0.045462858 0.10439619 1.7680001
0.053881902 0.10102858 1.7680001
0.063984767 0.10102858 1.7680001
0.075771429 0.10102858 1.7680001
0.08419048 0.10102858 1.7680001
0.10439619 0.10102858 1.7680001
0.11449905 0.10102858 1.7680001
0.12460191 0.10102858 1.7680001
0.13422368 0.10343401 1.7679999
0.14522858 0.10397523 1.7679999
0.15491049 0.10439619 1.7679999
0.16501334 0.10439619 1.7679999
0.18774475 0.10355429 1.7680001
0.19435975 0.1039151 1.7679999
0.20374095 0.10102858 1.7680001
0.14480762 0.11449905 1.7680001
0.15558401 0.11315199 1.768
0.16501334 0.11449904 1.7679999
0.17174858 0.11786667 1.7680001
0.18690285 0.11281524 1.7680001
0.19330135 0.11382552 1.768
0.20542477 0.11449905 1.7680001
0.1441341 0.12662248 1.768
0.15575239 0.12712762 1.7680001
0.16501336 0.12460191 1.7679999
0.17174858 0.12460192 1.7680001
0.10439619 0.13133715 1.7680001
0.1468282 0.13403125 1.768
0.15533143 0.13470477 1.7679999
0.16501336 0.13470477 1.7679999
0.17511618 0.13358223 1.7680001
0.18185143 0.13133715 1.7680001
0.13470477 0.14817524 1.7680001
0.14424635 0.14368509 1.768
0.15547176 0.14368509 1.768
0.16549443 0.14480761 1.7679999
0.17174858 0.14649144 1.7680001
0.24920382 0.14817524 1.7680001
0.25257143 0.14817524 1.7680001
0.10439619 0.15322667 1.7680001
0.11449905 0.15322667 1.7680001
0.13537829 0.15625754 1.768
0.14649144 0.15491048 1.7680001
0.15491049 0.15322666 1.768
0.16543429 0.15448953 1.7679999
0.17174858 0.15322667 1.7680001
0.24920382 0.15154286 1.7680001
0.25425524 0.15154286 1.7680001
0.10551873 0.16725843 1.7680001
0.11506032 0.16613589 1.768
0.12460192 0.16703393 1.768
0.13512571 0.16543429 1.7679999
0.16669714 0.16164573 1.7680001
0.065668575 0.17848381 1.7680001
0.074648887 0.17623873 1.768
0.085032381 0.17764193 1.7680001
0.094293334 0.17680001 1.768
0.10495746 0.17567746 1.768
0.11449905 0.1751162 1.7679999
0.12460191 0.1751162 1.7679999
0.13470477 0.1751162 1.7679999
0.14368509 0.17399366 1.768
0.15491048 0.1751162 1.768
0.063022584 0.18570015 1.7679999
0.07408762 0.18521903 1.7679999
0.08419048 0.18521906 1.7679999
0.094293334 0.18521905 1.7679999
0.10343401 0.18473797 1.7679999
0.11281524 0.18185143 1.7680001
0.12684698 0.18634158 1.7680001
0.13470477 0.18521905 1.7679999
0.14368509 0.18634158 1.768
0.15491048 0.18690284 1.768
0.063984767 0.19397488 1.768
0.074648887 0.19419938 1.768
0.083067939 0.19532192 1.768
0.095640384 0.19397488 1.768
0.10343401 0.19532192 1.7679999
0.12628572 0.19363812 1.7680001
0.13428381 0.19490097 1.7679999
0.14396572 0.19279622 1.7680001
0.15575239 0.1927962 1.7680001
0.046024129 0.2065473 1.7680001
0.050514288 0.20879239 1.7680001
0.08376953 0.20584571 1.7679999
0.095255509 0.20542479 1.7679999
0.10271237 0.20542477 1.768
0.12594895 0.20475122 1.768
0.13470477 0.20374097 1.7680001
0.044741224 0.21600871 1.7679999
0.051861335 0.21620114 1.768
0.065668575 0.21889524 1.7680001
0.07408762 0.21889524 1.7680001
0.084671564 0.21552761 1.7679999
0.094293326 0.21552761 1.7679999
0.10439619 0.21552761 1.7679999
0.11337651 0.21665017 1.7680001
0.12235683 0.21665017 1.7680001
0.025257142 0.22731429 1.7680001
0.033676192 0.22563049 1.7679999
0.043779053 0.22563046 1.7679999
0.053881906 0.22563049 1.7679999
0.064405717 0.22605143 1.7679999
0.07450857 0.22605143 1.7679999
0.084190473 0.22563049 1.7679999
0.094293326 0.22563046 1.7679999
0.10439619 0.22520955 1.7679999
0.1158461 0.22428343 1.768
0.1229181 0.22226286 1.7680001
0.024535511 0.23573336 1.7679999
0.033676192 0.23573335 1.7679999
0.043779053 0.23573335 1.7679999
0.053881906 0.23573335 1.7679999
0.063984767 0.23573335 1.7679999
0.07408762 0.23573335 1.7679999
0.08419048 0.23573335 1.7679999
0.094293326 0.23573335 1.7679999
0.10271238 0.23573335 1.7680001
0.11786667 0.23741716 1.7680001
0.12460191 0.23573335 1.7680001
0.13428383 0.23615429 1.7679999
0.024920382 0.24583621 1.768
0.032329146 0.24448916 1.768
0.044620954 0.2433105 1.7680001
0.05430286 0.24541524 1.7679999
0.063984759 0.2458362 1.7679999
0.07408762 0.2458362 1.7679999
0.08419048 0.2458362 1.7679999
0.094293334 0.24583618 1.7679999
0.10102858 0.2441524 1.7680001
0.12460191 0.24246858 1.7680001
0.13358223 0.24359111 1.7680001
0.026940953 0.25257143 1.7680001
0.034349717 0.25391847 1.768
0.047146667 0.25593904 1.7680001
0.055004448 0.2553778 1.768
0.063984767 0.25593907 1.7679999
0.07408762 0.25593907 1.7679999
0.08376953 0.25551814 1.7679999
0.094714284 0.25551811 1.7679999
0.10187048 0.25593907 1.7680001
0.13470477 0.25257143 1.7680001
-0.010102858 0.26940954 1.7680001
-0.0067352382 0.26940954 1.7680001
0.026940953 0.26940954 1.7680001
0.033002667 0.26806247 1.768
0.046304762 0.26688382 1.7680001
0.053881906 0.2660419 1.7679999
0.062300961 0.2660419 1.768
0.077455238 0.2626743 1.7680001
0.080822863 0.2626743 1.7680001
0.097660959 0.2626743 1.7680001
0.10102858 0.2626743 1.7680001
-0.013470477 0.27518257 1.7679999
-0.0050514289 0.27614477 1.768
0.0016838096 0.27782857 1.7680001
0.026940953 0.27277714 1.7680001
0.033676192 0.27614477 1.7679999
0.043779053 0.27614474 1.7679999
0.053881902 0.27614474 1.7679999
0.063311242 0.27479774 1.768
0.094293334 0.27951241 1.7680001
0.10439619 0.27277714 1.7680001
-0.016838096 0.28624764 1.7680001
-0.0033676191 0.28624764 1.7680001
0.0025257142 0.28540573 1.7680001
0.013470476 0.28288001 1.7680001
0.020205716 0.28288001 1.7680001
0.03415728 0.28528547 1.7679999
0.043779053 0.28624764 1.7679999
0.053881906 0.28624764 1.7679999
0.062637724 0.28692117 1.768
0.035360001 0.29635048 1.768
0.043297958 0.29538828 1.7679999
0.052759364 0.29522794 1.768
0.063022591 0.29586938 1.7679999
0.070720002 0.29298288 1.7680001
-0.013470476 0.30645335 1.768
-0.0033676191 0.30982095 1.7680001
0.0067352382 0.30982095 1.7680001
0.026940953 0.30982095 1.7680001
0.034638368 0.30693442 1.7679999
0.043779049 0.30476952 1.768
0.051356189 0.30561143 1.7680001
0.063563816 0.30645332 1.7679999
0.070720002 0.30982095 1.7680001
-0.011786667 0.31655622 1.768
-0.0050514289 0.31655622 1.768
0.0028063494 0.31711748 1.768
0.024054423 0.31751838 1.7679999
0.032714017 0.31703731 1.7679999
0.060617145 0.31318858 1.7680001
0.070720002 0.31487238 1.7680001
-0.011786667 0.32497525 1.7680001
-0.0050514285 0.32497525 1.7680001
0.0016838096 0.32497525 1.7680001
0.023573333 0.32497525 1.768
0.033002667 0.32531199 1.768
0.050514288 0.32497525 1.7680001
0.067352384 0.32497525 1.7680001
0.070720002 0.32497525 1.7680001
-0.030308573 0.33339429 1.7680001
-0.021889525 0.33339429 1.7680001
-0.011225398 0.33227175 1.7680001
-0.0050514289 0.33339429 1.768
0.0033676191 0.33339432 1.7679999
0.013951565 0.33435649 1.7679999
0.023092246 0.33243209 1.7679999
0.033255238 0.33381525 1.7679999
0.043779049 0.33541489 1.768
0.051636826 0.33563939 1.7680001
-0.012347937 0.34461966 1.7680001
-0.0050514289 0.34349716 1.768
0.0029466669 0.3430762 1.7679999
0.01389143 0.34307617 1.7679999
0.033676192 0.34307617 1.7679999
0.043779053 0.34349716 1.7679999
0.051861335 0.34282359 1.768
-0.030308573 0.35360003 1.7680001
-0.024415238 0.35528383 1.7680001
-0.013470476 0.35191619 1.7680001
-0.0050514289 0.35360003 1.768
0.0033676194 0.35360003 1.7679999
0.014031746 0.35303876 1.768
0.026940953 0.35696763 1.7680001
0.034237463 0.35416126 1.768
0.043779053 0.35360003 1.7679999
0.050514288 0.35023239 1.7680001
-0.030308573 0.36370286 1.7680001
-0.024695873 0.36426413 1.768
-0.0033676189 0.36370286 1.7680001
0.0033676191 0.36370286 1.7679999
0.013891429 0.36412382 1.7679999
0.023573333 0.36201906 1.768
0.031992383 0.36201906 1.7680001
0.04209524 0.36033526 1.7680001
-0.030308573 0.37212193 1.7680001
-0.025818413 0.37156066 1.7680001
-0.004490159 0.37492824 1.7680001
0.0033676191 0.37380573 1.7679999
0.013049524 0.37338477 1.7679999
-0.030308573 0.3839086 1.7680001
-0.024054425 0.38390857 1.7679999
-0.013470478 0.38390857 1.7679999
-0.0050514289 0.3839086 1.768
0.0033676194 0.38390857 1.7679999
0.013470477 0.38390854 1.7679999
-0.040411431 0.39401144 1.7680001
-0.034237463 0.39401147 1.768
-0.023573335 0.39401147 1.7679999
-0.013470477 0.39401147 1.7679999
-0.0050514289 0.39401141 1.768
0.0038487075 0.39401147 1.7679999
0.013470477 0.39401147 1.7679999
0.021889525 0.39737907 1.7680001
-0.040411431 0.40074667 1.7680001
-0.033676192 0.40355301 1.768
-0.023573337 0.40411428 1.7679999
-0.014144001 0.40411434 1.768
-0.0033676189 0.40411428 1.7680001
0.0033676191 0.40411431 1.7679999
0.013470477 0.40411428 1.7679999
0.024054425 0.40315208 1.7679999
0.033676192 0.40074667 1.7680001
0.040411431 0.40748191 1.7680001
-0.030308573 0.41253334 1.7680001
-0.023573335 0.4142172 1.7679999
-0.013951564 0.41325501 1.7679999
-0.0050514289 0.41253334 1.7680001
0.0028865305 0.41325501 1.7679999
0.012628571 0.41169143 1.7680001
-0.030308573 0.42432001 1.7680001
-0.023573335 0.42431998 1.7679999
-0.016838096 0.42432001 1.7680001
-0.030308573 0.43442288 1.7680001
-0.023573335 0.43442285 1.7679999
-0.014817524 0.43307585 1.768
-0.030308573 0.44452572 1.7680001
-0.023573337 0.44452572 1.7679999
-0.014432654 0.44452572 1.7679999
-0.030308573 0.45462859 1.7680001
-0.024134604 0.45350608 1.768
-0.016838096 0.45126095 1.7680001
-0.030308573 0.46473145 1.7680001
-0.023573333 0.46809903 1.7680001
-0.030308573 0.47483429 1.7680001
-0.025818413 0.47258922 1.7680001
-0.013470476 0.47483429 1.7680001
-0.087558098 0.48493716 1.7680001
-0.077455238 0.48830479 1.7680001
-0.057249527 0.48830479 1.7680001
-0.031992383 0.48156953 1.7680001
-0.020205716 0.48662096 1.7680001
-0.013049524 0.48535815 1.7679999
-0.0050514285 0.48493716 1.768
0 0.48493716 1.7680001
-0.087558098 0.49504 1.7680001
-0.060617145 0.49840763 1.7680001
-0.05388191 0.49840763 1.7680001
-0.030308573 0.49504003 1.7680001
-0.012347937 0.49279496 1.7680001
-0.0047146669 0.4943665 1.768
0.0028865307 0.49600217 1.7679999
0.010102858 0.49504003 1.7680001
-0.070720002 0.50177526 1.7680001
-0.063423492 0.50458163 1.768
-0.054362994 0.50610507 1.7679999
-0.030308573 0.50514287 1.7680001
-0.026940953 0.50851047 1.7680001
0.0050514285 0.50177526 1.7680001
-0.063503675 0.51620787 1.7679999
-0.053881902 0.51524568 1.7679999
-0.045462858 0.51861334 1.7680001
-0.031992383 0.51608765 1.7680001
-0.026940951 0.51524574 1.7680001
-0.070720002 0.521981 1.7680001
-0.063423492 0.52422613 1.768
-0.054844085 0.52582967 1.7679999
-0.043779053 0.5253486 1.7679999
-0.034097143 0.52492762 1.7679999
-0.024134604 0.5259099 1.768
-0.015154285 0.52703243 1.7680001
-0.060617145 0.53376764 1.7680001
-0.052919727 0.53497034 1.7679999
-0.043779049 0.53545147 1.7679999
-0.034097143 0.5358724 1.7679999
-0.023573333 0.53545147 1.768
-0.015154286 0.53545141 1.768
-0.0056126988 0.53769654 1.7680001
0.0033676189 0.53881907 1.7680001
-0.050514288 0.54218668 1.7680001
-0.04209524 0.54218668 1.7680001
-0.023152383 0.54597527 1.7679999
-0.013470476 0.54507321 1.7679999
-0.0067352382 0.54555428 1.7680001
0.0020205714 0.54555434 1.768
-0.052198097 0.55228955 1.7680001
-0.043779049 0.55565715 1.7680001
-0.035360001 0.55902481 1.7680001
-0.026099049 0.55481523 1.7680001
-0.010102858 0.55228955 1.7680001
-0.060617145 0.56744385 1.7680001
-0.053460952 0.56618094 1.7679999
-0.043779053 0.56576008 1.7679999
-0.033676192 0.56624109 1.7679999
-0.026940953 0.56239241 1.7680001
-0.062300954 0.5767048 1.7680001
-0.054723814 0.57417905 1.7680001
-0.047146667 0.57249528 1.7680001
-0.031431112 0.57361776 1.7680001
-0.072067045 0.58663923 1.768
-0.065668575 0.58596569 1.768
-0.010102858 0.58933336 1.7680001
-0.0050514285 0.58933336 1.7680001
0.0025257142 0.58849144 1.7680001
-0.072067045 0.59674215 1.768
-0.065668575 0.59606862 1.768
-0.010102858 0.59438479 1.7680001
-0.0050514285 0.59438479 1.7680001
0.0029466667 0.59564769 1.7679999
-0.080822863 0.60953909 1.7680001
-0.07408762 0.60617143 1.7679999
-0.064946942 0.60617143 1.7679999
-0.055565719 0.60785526 1.7680001
-0.043779049 0.60617143 1.7680001
-0.080822863 0.6162743 1.7680001
-0.074568704 0.6153121 1.7679999
-0.064946942 0.61675543 1.7679999
-0.055565715 0.6162743 1.768
-0.04209524 0.61290669 1.7680001
-0.10439619 0.6283977 1.768
-0.093732059 0.6274997 1.768
-0.080822863 0.62300956 1.7680001
-0.077455238 0.62300956 1.7680001
-0.063022591 0.6258961 1.7679999
-0.057249527 0.62300956 1.7680001
-0.0033676191 0.62974477 1.7680001
0.0016838096 0.62974477 1.7680001
-0.11225396 0.6387251 1.7680001
-0.1069219 0.63648003 1.7680001
-0.092609525 0.63311243 1.7680001
-0.06145905 0.63563812 1.7680001
-0.057249527 0.63648003 1.7680001
-0.0050514285 0.63648003 1.7680001
0 0.63479626 1.7680001
-0.12123429 0.64658284 1.7680001
-0.11562159 0.64658284 1.7680001
-0.10776381 0.64321524 1.7680001
-0.16501334 0.65668571 1.7680001
-0.15154286 0.65331811 1.7680001
-0.22899811 0.66678858 1.7680001
-0.2660419 0.67352384 1.7680001
-0.23505983 0.67217684 1.768
0.20647049 0.088003814 1.7770001
0.0033847622 0.097029842 1.7770001
0.010154286 0.094773337 1.7770001
0.074464768 0.09477333 1.7770001
0.084619045 0.094773337 1.7770001
0.11508191 0.098158099 1.7770001
0.13539048 0.095450297 1.7770001
0.14486781 0.096127234 1.7770001
0.15739143 0.098158099 1.7770001
0.16585335 0.096465714 1.7770001
0.17770001 0.096465722 1.7770001
0.20647049 0.092516832 1.7770001
-0.072772384 0.10492762 1.7770001
-0.067695238 0.10492762 1.7770001
-0.013539049 0.10492762 1.7770001
-0.0050771432 0.10492762 1.7770001
0.001692381 0.10323524 1.7770001
0.03554 0.10154286 1.7770001
0.042309526 0.10323524 1.7770001
0.17600764 0.10492762 1.7770002
0.18413106 0.10560457 1.7770001
0.19970097 0.10662 1.7770001
0.20695402 0.10589469 1.7770002
0.22677906 0.10831238 1.7770001
0.23524097 0.10831238 1.7770001
0.24201047 0.10831238 1.7770001
0.17643072 0.11465881 1.7770002
0.18480802 0.11643581 1.7770001
0.19885477 0.1159281 1.7770001
0.20598695 0.11459837 1.7770002
0.23439477 0.11423571 1.7770001
0.2403181 0.11169714 1.7770001
0.1769747 0.1252362 1.7770002
0.18616192 0.1252362 1.7770002
0.19534911 0.12571974 1.7770002
0.20393191 0.12439001 1.7770001
0.23439477 0.12608239 1.7770001
0.17600763 0.1359546 1.7770001
0.18658501 0.13581358 1.7770002
0.1963162 0.13369809 1.7770001
0.20308572 0.13369811 1.7770001
0.23354858 0.13200572 1.7770001
0.25216478 0.13877524 1.7770001
0.14667302 0.14780128 1.7770001
0.1545708 0.14780128 1.7770001
0.16416097 0.14554477 1.7770001
0.17668459 0.1435139 1.7770001
0.18446952 0.14216 1.7770001
0.14506122 0.15569904 1.7770002
0.15569906 0.15908381 1.7770001
0.16246858 0.15908381 1.7770001
0.17516144 0.15654525 1.7770001
0.14554477 0.16585334 1.7770002
0.15569907 0.16585334 1.7770002
0.16585334 0.16641746 1.7770001
0.17262286 0.16585334 1.7770001
0.14780128 0.17826414 1.7770001
0.15569906 0.17600763 1.7770001
0.16585334 0.17600761 1.7770002
0.17600761 0.17600763 1.7770002
0.18616191 0.17600763 1.7770001
0.10831238 0.18785429 1.7770001
0.11556544 0.18712901 1.7770002
0.12410793 0.18559778 1.7770001
0.14780128 0.18390541 1.7770001
0.15569906 0.18277715 1.7770001
0.16585334 0.18616192 1.7770002
0.17397676 0.18548496 1.7770001
0.10831238 0.1963162 1.7770001
0.11508191 0.1963162 1.7770002
0.12388229 0.1976701 1.7770001
0.13877524 0.19970097 1.7770001
0.14622173 0.19834706 1.7770001
0.15502211 0.19834706 1.7770001
0.16585334 0.1963162 1.7770002
0.17262286 0.1963162 1.7770001
0.1963162 0.19970097 1.7770001
0.20308572 0.19800858 1.7770001
0.10831239 0.20647049 1.7770001
0.11508191 0.20647049 1.7770002
0.12354381 0.20731668 1.7770001
0.13539049 0.20782439 1.7770001
0.14602831 0.20550342 1.7770002
0.15569906 0.20647047 1.7770002
0.16585334 0.20604739 1.7770002
0.17262286 0.20647049 1.7770001
0.20393191 0.20647049 1.7770001
0.11575886 0.21527088 1.7770001
0.12591314 0.21527085 1.7770001
0.13471353 0.21459392 1.7770001
0.15908381 0.21324001 1.7770001
0.16923811 0.21324001 1.7770001
0.11395365 0.22452255 1.7770001
0.1265901 0.22474821 1.7770001
0.13539048 0.22339429 1.7770002
0.14667302 0.22452255 1.7770001
0.15231429 0.22508667 1.7770001
0.10577381 0.23354858 1.7770001
0.11411483 0.23354857 1.7770002
0.12475266 0.23354857 1.7770002
0.13623667 0.23101 1.7770001
0.14651184 0.23354861 1.7770002
0.15231429 0.2318562 1.7770001
0.10661999 0.24370287 1.7770001
0.11465881 0.24412593 1.7770002
0.1252362 0.24370286 1.7770002
0.13651873 0.24595936 1.7770001
0.14441651 0.24257462 1.7770001
0.10605588 0.25272891 1.7770001
0.11508191 0.25385717 1.7770002
0.12481309 0.25343406 1.7770002
0.13490693 0.25337362 1.7770002
0.067695238 0.26570383 1.7770001
0.073787816 0.26604229 1.7770001
0.085747302 0.2651397 1.7770001
0.093645088 0.26513967 1.7770001
0.10549175 0.26401144 1.7770001
0.13708286 0.26739621 1.7770001
0.067695238 0.27247334 1.7770001
0.074464768 0.27416575 1.7770002
0.084619053 0.27416572 1.7770002
0.094773337 0.27416569 1.7770002
0.10289676 0.27416572 1.7770001
0.064874597 0.28319177 1.7770001
0.074464768 0.28093526 1.7770001
0.082926676 0.28093526 1.7770001
0.094773337 0.28093526 1.7770001
0.10267112 0.28206351 1.7770001
0.17939238 0.28432 1.7770001
0.057540953 0.29785907 1.7770001
0.067695238 0.2944743 1.7770001
0.071079999 0.29785907 1.7770001
0.10154286 0.29108953 1.7770001
0.045694288 0.30124381 1.7770001
0.056187045 0.30462858 1.7770001
0.067695238 0.30462858 1.7770001
0.073981225 0.30559564 1.7770002
0.037232384 0.31647524 1.7770001
0.044001907 0.31478283 1.7770002
0.054579288 0.31520596 1.7770002
0.064987436 0.31681371 1.7770001
0.076157153 0.31478286 1.7770001
0.084619045 0.31591114 1.7770001
0.091388576 0.31816763 1.7770001
0.037232384 0.32493716 1.7770001
0.044001907 0.32493716 1.7770002
0.055123262 0.32445362 1.7770002
0.063343398 0.32445362 1.7770002
0.075431839 0.32445362 1.7770002
0.084619045 0.32380891 1.7770001
0.091388576 0.3215524 1.7770001
0.025385715 0.33847621 1.7770001
0.037232384 0.33170667 1.7770001
0.044001907 0.33255288 1.7770001
0.055284444 0.33396319 1.7770001
0.064310476 0.33509147 1.7770002
0.074464761 0.33509147 1.7770002
0.083490796 0.33565557 1.7770001
0.006769524 0.34863049 1.7770001
0.010154286 0.34863049 1.7770001
0.023693332 0.34524572 1.7770002
0.033847619 0.34863049 1.7770001
0.056694761 0.34609193 1.7770001
0.064310476 0.34524572 1.7770002
0.074464768 0.34524572 1.7770002
0.084619053 0.34524572 1.7770002
0.092516832 0.34750223 1.7770001
0.012410794 0.35652828 1.7770001
0.023270238 0.35497692 1.7770002
0.03271937 0.35427177 1.7770001
0.051899683 0.3554 1.7770001
0.076157153 0.35540006 1.7770001
0.084619053 0.35540003 1.7770002
0.09274248 0.3547231 1.7770001
0.010154286 0.36216953 1.7770001
0.023693332 0.36893907 1.7770001
0.033847619 0.3655543 1.7770001
0.044001907 0.36611843 1.7770001
0.077003345 0.3647081 1.7770001
0.0839421 0.36352342 1.7770001
0.091388576 0.36386192 1.7770001
0.016923809 0.37909335 1.7770001
0.023693332 0.37570861 1.7770002
0.032719366 0.37514445 1.7770001
0.042309526 0.37232381 1.7770001
0.023693332 0.38586286 1.7770002
0.032493714 0.38721678 1.7770001
-0.040617146 0.39940193 1.7770001
-0.030462857 0.39940193 1.7770001
0.001692381 0.39601716 1.7770001
0.024176871 0.39505005 1.7770002
0.033847623 0.39601716 1.7770002
0.044001907 0.39770955 1.7770001
0.26739621 0.3926324 1.7770001
0.27078095 0.3926324 1.7770001
-0.030462857 0.40278667 1.7770001
-0.012692858 0.40617144 1.7770001
-0.0067695244 0.40617144 1.7770001
0.022000954 0.40955621 1.7770001
0.033847619 0.40786377 1.7770001
0.044425003 0.40574831 1.7770002
0.054156192 0.40617144 1.7770002
0.062053967 0.40842795 1.7770001
-0.011846667 0.41971049 1.7770001
-0.0050771432 0.41971049 1.7770001
0.0050771432 0.41971049 1.7770001
0.013539048 0.4180181 1.7770001
0.023693332 0.41294098 1.7770001
0.03554 0.41294098 1.7770001
0.044001907 0.41632575 1.7770002
0.054156192 0.41632572 1.7770002
0.060925715 0.41463333 1.7770001
-0.011846666 0.42648003 1.7770001
-0.0050771427 0.42648003 1.7770001
0.003384762 0.42648003 1.7770002
0.010154286 0.42648003 1.7770001
0.044968985 0.42599648 1.7770002
0.054156192 0.42648003 1.7770002
0.060925715 0.42309526 1.7770001
-0.011846667 0.4366343 1.7770001
-0.0050771432 0.43494189 1.7770001
0.0033847622 0.43494192 1.7770001
0.011846667 0.43494192 1.7770001
0.046258416 0.43437779 1.7770001
0.051899683 0.43437779 1.7770001
-0.011282541 0.44114733 1.7770001
-0.0050771427 0.44340384 1.7770001
0.003384762 0.44340384 1.7770002
0.013539047 0.44340384 1.7770002
-0.023693334 0.45694289 1.7770001
-0.012410793 0.45468637 1.7770001
-0.0050771427 0.45355812 1.7770001
0.003384762 0.45355812 1.7770002
0.014022584 0.45259103 1.7770002
-0.023270238 0.4641355 1.7770002
-0.015569905 0.46371239 1.7770001
-0.003384762 0.46540478 1.7770001
0 0.46540478 1.7770001
-0.021436825 0.47612318 1.7770001
-0.014022584 0.47386667 1.7770002
-0.0050771427 0.4738667 1.7770001
0.0020308574 0.47522059 1.7770001
0.013539049 0.4738667 1.7770001
-0.030462857 0.48740572 1.7770001
-0.024116429 0.48359787 1.7770002
-0.014385238 0.48148242 1.7770001
-0.0050771432 0.48063621 1.7770001
0.0043518366 0.48353747 1.7770002
0.013539047 0.48402098 1.7770002
0.024116429 0.48444402 1.7770002
0.030462857 0.48402098 1.7770001
-0.030462857 0.49248287 1.7770001
-0.024116429 0.49459833 1.7770002
-0.014667302 0.49643174 1.7770001
0.0050771432 0.49248287 1.7770001
0.013962142 0.49375212 1.7770002
0.023693332 0.49417523 1.7770002
0.030462857 0.49417526 1.7770001
-0.030462857 0.50094479 1.7770001
-0.023693332 0.50432956 1.7770002
-0.013539047 0.50432956 1.7770002
-0.0054156194 0.50500649 1.7770001
0.0025385716 0.50686812 1.7770001
0.013539047 0.50432956 1.7770002
0.023693332 0.50432956 1.7770002
-0.022000954 0.51448387 1.7770001
-0.013962142 0.51406074 1.7770002
-0.0050771432 0.5127914 1.7770001
0.0038078572 0.51406074 1.7770002
0.013539047 0.51351672 1.7770002
0.024821589 0.51335555 1.7770001
-0.05077143 0.52633047 1.7770001
-0.022000954 0.52294576 1.7770001
-0.01305551 0.52367109 1.7770002
-0.0059233336 0.52548432 1.7770001
-0.023693332 0.53479242 1.7770001
-0.010154286 0.53479242 1.7770001
-0.004738667 0.53411543 1.7770001
0.0024176871 0.535276 1.7770002
0.010154286 0.53479242 1.7770001
-0.023693334 0.5415619 1.7770001
-0.011846667 0.54494667 1.7770001
-0.004513016 0.54720318 1.7770001
0.004513016 0.54720318 1.7770001
0.011000477 0.54494667 1.7770001
-0.021436825 0.55735749 1.7770001
-0.014103174 0.55622923 1.7770001
-0.004738667 0.55577791 1.7770001
0.0033847622 0.55566508 1.7770001
-0.037232384 0.56863999 1.7770001
-0.023129208 0.56525522 1.7770001
-0.013539047 0.56356293 1.7770001
-0.0050771432 0.56187052 1.7770001
0 0.56187052 1.7770001
-0.060925715 0.5787943 1.7770001
-0.054156195 0.5787943 1.7770001
-0.043324955 0.57744038 1.7770001
-0.036104128 0.57766604 1.7770001
-0.024821587 0.57428128 1.7770001
-0.013539048 0.57540953 1.7770001
-0.060925715 0.58725619 1.7770001
-0.054156192 0.58556384 1.7770002
-0.044001907 0.58387148 1.7770001
-0.032719366 0.58443564 1.7770001
-0.027078096 0.58894861 1.7770001
-0.010154286 0.58894861 1.7770001
-0.0050771432 0.58894861 1.7770001
0.0040617147 0.58691776 1.7770001
0.010154286 0.58556384 1.7770001
-0.060925711 0.59571815 1.7770001
-0.054156192 0.59571815 1.7770002
-0.044001907 0.59571815 1.7770002
-0.034270715 0.59614122 1.7770002
-0.020308573 0.59571815 1.7770001
-0.015231428 0.59571809 1.7770001
0.013115952 0.59614122 1.7770002
-0.060925715 0.60417998 1.7770001
-0.053672653 0.60490525 1.7770002
-0.044001907 0.60544932 1.7770002
-0.033847615 0.60587239 1.7770002
-0.01305551 0.60587245 1.7770002
-0.0050771427 0.60587239 1.7770001
0.0033847622 0.60643655 1.7770001
0.016923809 0.60587239 1.7770001
0.020308573 0.60756481 1.7770001
-0.060925711 0.6160267 1.7770001
-0.05077143 0.6160267 1.7770001
-0.044485446 0.6160267 1.7770002
-0.033847619 0.61602664 1.7770002
-0.010154286 0.61264193 1.7770001
0.003384762 0.61264193 1.7770001
0.020308573 0.61941147 1.7770001
-0.053027939 0.6273092 1.7770001
-0.043578811 0.62575787 1.7770002
-0.033847623 0.62415016 1.7770001
-0.003384762 0.62956572 1.7770001
0.003384762 0.62956572 1.7770001
-0.054156192 0.63585174 1.7770002
-0.040617146 0.63972002 1.7770001
-0.030462857 0.63633525 1.7770001
-0.027078096 0.63633525 1.7770001
-0.011846666 0.63633519 1.7770001
-0.0056412704 0.635207 1.7770001
0.0050771432 0.63464284 1.7770001
0.011846667 0.63295048 1.7770001
-0.055848572 0.64310479 1.7770001
-0.11508191 0.6532591 1.7770001
0.26704955 0.08844953 1.7860001
0.27215239 0.08844953 1.7860001
-0.005102857 0.098655239 1.7860001
0.051028572 0.098655239 1.7860001
0.10716 0.098655239 1.7860001
0.11226286 0.098655239 1.7860001
0.12416953 0.098655239 1.7860001
0.1360762 0.095253333 1.7860001
0.15308572 0.095253333 1.7860001
0.17349716 0.095253333 1.7860001
0.21602096 0.096954286 1.7860001
0.22452573 0.098655246 1.7860001
0.23473144 0.098655246 1.7860001
0.24493714 0.098655246 1.7860001
0.25174096 0.098655239 1.7860001
0.26875049 0.095253333 1.7860001
0.27215239 0.095253333 1.7860001
-0.15818858 0.10205714 1.7860001
-0.12416953 0.10545905 1.7860001
-0.078243814 0.10545905 1.7860001
-0.02041143 0.10545905 1.7860001
-0.005102857 0.10205714 1.7860001
0 0.10205714 1.7860001
0.044224761 0.10205714 1.7860001
0.21602094 0.10545904 1.7860001
0.22452572 0.10545904 1.7860001
0.23424543 0.10448707 1.7860001
0.24542315 0.10448708 1.7860001
0.25174096 0.10545904 1.7860001
0.26534858 0.10681981 1.786
0.27215239 0.1037581 1.7860001
0.21568076 0.11566476 1.786
0.22452572 0.11566476 1.7860001
0.23405106 0.11634514 1.786
0.24493717 0.11566477 1.7860001
0.25174096 0.11396381 1.7860001
0.20298032 0.12587048 1.7860001
0.21261904 0.12502001 1.7860001
0.22588649 0.12450973 1.786
0.2330305 0.12502001 1.7860001
0.24493714 0.12700446 1.7860001
0.19560952 0.1394781 1.7860001
0.20547505 0.13743696 1.786
0.21334803 0.13559021 1.7860001
0.23132953 0.13267429 1.7860001
0.24833906 0.1394781 1.7860001
0.17689906 0.14968382 1.7860001
0.18438324 0.14832306 1.786
0.19390857 0.1462819 1.7860001
0.20411427 0.14628191 1.7860001
0.21432 0.14628191 1.7860001
0.22112381 0.14798287 1.7860001
0.2466381 0.14628191 1.7860001
0.25599334 0.14713238 1.7860001
0.18370287 0.15648763 1.7860001
0.19390857 0.15648763 1.7860001
0.20411429 0.15648761 1.7860001
0.21432 0.15648763 1.7860001
0.22112381 0.15308572 1.7860001
0.25514287 0.15818858 1.7860001
0.17689906 0.16499239 1.7860001
0.18370287 0.16499239 1.7860001
0.19390857 0.16669334 1.7860001
0.20638223 0.16555937 1.7860001
0.21261904 0.16499239 1.7860001
0.24833906 0.16329144 1.7860001
0.25514284 0.16329144 1.7860001
0.16329144 0.17009525 1.7860001
0.17689906 0.17009525 1.7860001
0.18426985 0.17236318 1.7860001
0.19390857 0.17349714 1.7860001
0.20411429 0.1721364 1.786
0.21295924 0.1721364 1.786
0.18412809 0.18412811 1.7860001
0.19390857 0.18370284 1.7860001
0.20368904 0.18412809 1.7860001
0.21261905 0.18710476 1.7860001
0.17689906 0.19390857 1.7860001
0.18370286 0.19390857 1.7860001
0.19390857 0.19390857 1.7860001
0.20411429 0.19348332 1.7860001
0.21389475 0.19433381 1.7860001
0.17689906 0.20411427 1.7860001
0.18370286 0.2041143 1.7860001
0.19348334 0.20453954 1.7860001
0.2034339 0.20343392 1.786
0.21432 0.2041143 1.7860001
0.25854477 0.20751619 1.7860001
0.26364762 0.20751619 1.7860001
0.1394781 0.21772191 1.7860001
0.14585668 0.21474522 1.7860001
0.15580724 0.21636117 1.786
0.16533259 0.21500039 1.786
0.17463112 0.21545398 1.7860001
0.18370286 0.21389477 1.7860001
0.19390857 0.21432 1.7860001
0.20411429 0.21474524 1.7860001
0.21295924 0.21363962 1.786
0.25854477 0.21261905 1.7860001
0.26308063 0.21205206 1.7860001
0.14401399 0.22225778 1.7860001
0.1574596 0.22403972 1.7860001
0.16499239 0.22452573 1.7860001
0.17307192 0.2241005 1.7860001
0.19277461 0.22339176 1.7860001
0.20411429 0.22282477 1.7860001
0.24493715 0.22452572 1.7860001
0.12927239 0.23132953 1.7860001
0.14288001 0.23473144 1.7860001
0.15648763 0.23359747 1.7860001
0.19731049 0.23473144 1.7860001
0.1468489 0.24550414 1.7860001
0.15444648 0.24561754 1.786
0.26364762 0.24493715 1.7860001
0.12927239 0.25854477 1.7860001
0.1394781 0.25854477 1.7860001
0.14424077 0.25446248 1.786
0.17009525 0.25854477 1.7860001
0.10886095 0.26875049 1.7860001
0.11566476 0.26534858 1.7860001
0.12587048 0.26534855 1.7860001
0.13559021 0.26437661 1.7860001
0.14424077 0.26602894 1.786
0.17293018 0.26648256 1.7860001
0.10886095 0.2755543 1.7860001
0.1146928 0.27604029 1.7860001
0.1360762 0.2755543 1.7860001
0.14585668 0.27597955 1.7860001
0.15648763 0.27652627 1.7860001
0.16329144 0.27725524 1.7860001
0.17349716 0.2755543 1.7860001
0.18256891 0.27668825 1.7860001
0.074841909 0.28746095 1.7860001
0.085533611 0.28673199 1.7860001
0.095253341 0.28746095 1.7860001
0.10659301 0.28689399 1.7860001
0.11566476 0.28576005 1.7860001
0.12538449 0.28673199 1.7860001
0.1360762 0.28576005 1.7860001
0.14628191 0.28576002 1.7860001
0.15648763 0.28405908 1.7860001
0.1646522 0.28644043 1.786
0.17349716 0.28576005 1.7860001
0.18370287 0.28462604 1.7860001
0.075813882 0.29547974 1.7860001
0.084561639 0.29499373 1.7860001
0.095253326 0.29596573 1.7860001
0.10588429 0.29639095 1.7860001
0.11396381 0.29256383 1.7860001
0.12757143 0.29426479 1.7860001
0.13664317 0.29483175 1.7860001
0.14424077 0.29596573 1.786
0.16499239 0.29596573 1.7860001
0.17349717 0.2959657 1.7860001
0.18030097 0.29426479 1.7860001
0.076542862 0.30276954 1.7860001
0.084075645 0.30665746 1.7860001
0.093552381 0.30617145 1.7860001
0.10594504 0.30617145 1.7860001
0.11481428 0.30872288 1.7860001
0.14798287 0.30957335 1.7860001
0.15648763 0.30957335 1.7860001
0.16442542 0.30390349 1.7860001
0.17349716 0.30276954 1.7860001
0.085047625 0.31581017 1.7860001
0.095253341 0.31637716 1.7860001
0.10588428 0.31680241 1.7860001
0.11566476 0.31637716 1.7860001
0.12331906 0.31722763 1.7860001
0.15478668 0.31297526 1.7860001
0.085047625 0.32885084 1.7860001
0.095253341 0.32706887 1.7860001
0.10681981 0.3252221 1.786
0.11481428 0.32403144 1.7860001
0.12587048 0.32318097 1.7860001
0.087315559 0.33565465 1.7860001
0.093552388 0.33508763 1.7860001
0.25854477 0.33678859 1.7860001
0.26364762 0.33678859 1.7860001
0.095253341 0.34310642 1.7860001
0.1037581 0.34699431 1.7860001
0.11226286 0.34699431 1.7860001
0.056698412 0.35606608 1.7860001
0.064636193 0.35549912 1.7860001
0.071440004 0.35549909 1.7860001
0.098655246 0.35379812 1.7860001
0.10497306 0.35477009 1.7860001
0.11396381 0.35549909 1.7860001
0.054855719 0.36442909 1.7860001
0.064636201 0.36400384 1.7860001
0.07229048 0.36485431 1.7860001
0.08844953 0.36740574 1.7860001
0.096954286 0.36400387 1.7860001
0.10545905 0.36400381 1.7860001
0.1145308 0.36286986 1.7860001
0.036286984 0.37534347 1.7860001
0.045585524 0.37557027 1.786
0.053750098 0.37216839 1.786
0.062368255 0.3719416 1.7860001
0.075692385 0.37335905 1.7860001
0.085047625 0.37250856 1.7860001
0.094402857 0.37165812 1.7860001
0.1037581 0.37080762 1.7860001
0.023813333 0.38781714 1.7860001
0.036060192 0.38509566 1.786
0.044224765 0.38441527 1.7860001
0.078243814 0.38781714 1.7860001
0.044224765 0.39419571 1.7860001
0.054430481 0.39510694 1.7860001
0.064069211 0.39575493 1.7860001
0.26875049 0.39802286 1.7860001
0.27215239 0.39802286 1.7860001
0.044224761 0.40142477 1.7860001
0.054430474 0.40142477 1.7860001
0.065061435 0.40440145 1.7860001
0.073140956 0.40482673 1.7860001
0.08164572 0.40482667 1.7860001
0.26875049 0.40142477 1.7860001
0.27215239 0.40142477 1.7860001
0.023813331 0.41843429 1.7860001
0.033168573 0.41758379 1.7860001
0.066677339 0.41571274 1.786
0.07229048 0.41418192 1.7860001
0.015648764 0.42591849 1.786
0.023813335 0.42523807 1.7860001
0.034019049 0.4252381 1.7860001
0.04082286 0.42864001 1.7860001
0.065061435 0.4252381 1.7860001
0.071440004 0.4252381 1.7860001
0.016159048 0.43459332 1.7860001
0.023813335 0.43544379 1.7860001
0.034019049 0.4350186 1.7860001
0.041673336 0.43629432 1.7860001
0.056698412 0.43771175 1.7860001
0.064636201 0.43544379 1.7860001
0.07280077 0.43476343 1.786
0.023813335 0.4456495 1.7860001
0.034019049 0.4456495 1.7860001
0.044224765 0.44564956 1.7860001
0.054430481 0.44564953 1.7860001
0.064636193 0.44224763 1.7860001
0.071440004 0.44564953 1.7860001
0.011906667 0.45925716 1.7860001
0.023813335 0.45585525 1.7860001
0.033593811 0.45628047 1.7860001
0.044224765 0.45358732 1.7860001
-0.011056191 0.46606097 1.7860001
-0.0059533333 0.4652105 1.7860001
0.0043738778 0.46557495 1.7860001
0.01360762 0.466061 1.7860001
0.023813335 0.46606097 1.7860001
0.03333867 0.46674138 1.786
0.047626667 0.46946287 1.7860001
0.064636193 0.46606097 1.786
-0.010205715 0.47286478 1.7860001
0.005102857 0.47456574 1.7860001
0.01360762 0.47626671 1.7860001
0.023813335 0.47626665 1.7860001
0.033533063 0.47529477 1.7860001
0.02041143 0.48307049 1.7860001
0.034444287 0.48647243 1.7860001
0.042523813 0.4898743 1.7860001
0.034699433 0.49531737 1.786
0.044224765 0.49497715 1.7860001
0.057832383 0.49667811 1.7860001
0.066337146 0.49667811 1.7860001
0.074841909 0.49667811 1.7860001
0.034444287 0.50390714 1.7860001
0.044224765 0.50348186 1.7860001
0.057832379 0.50348186 1.7860001
0.06366422 0.50299597 1.7860001
0.074841909 0.50212115 1.786
0.022962859 0.51623905 1.7860001
0.03146762 0.51283717 1.7860001
0.045925718 0.51368761 1.7860001
0.057832379 0.51368767 1.7860001
0.061234284 0.51368761 1.7860001
-0.010205715 0.52049142 1.7860001
-0.0042523812 0.5230428 1.7860001
0.0029159184 0.52486533 1.7860001
0.01360762 0.52431852 1.7860001
0.023813335 0.52431858 1.7860001
0.03146762 0.52304286 1.7860001
0.045585524 0.52457368 1.786
0.053863496 0.5238933 1.7860001
0.061234288 0.52049142 1.7860001
0.0047626668 0.53273833 1.786
0.014579593 0.53361309 1.7860001
0.023813331 0.53069717 1.7860001
0.030617144 0.53069717 1.7860001
0.045585524 0.53341866 1.786
0.054430474 0.53409904 1.7860001
0.073140956 0.53750098 1.7860001
0.015308572 0.54430479 1.7860001
0.02041143 0.54770666 1.7860001
0.045075241 0.54345429 1.7860001
0.054430477 0.54226363 1.786
0.012927239 0.55451047 1.786
-0.005102857 0.5681181 1.7860001
0.004535873 0.5658502 1.7860001
0.013182382 0.56514144 1.7860001
0.02041143 0.5681181 1.7860001
-0.02041143 0.57492197 1.7860001
-0.01360762 0.57449669 1.7860001
-0.0051028575 0.57492191 1.7860001
0.0034019048 0.57492191 1.7860001
0.01360762 0.57492191 1.7860001
0.02041143 0.57152003 1.7860001
-0.037420955 0.58852953 1.7860001
-0.023388097 0.58555287 1.7860001
-0.01360762 0.58512759 1.7860001
-0.0051028575 0.58512765 1.7860001
0.0034019046 0.58342665 1.7860001
0.014032858 0.58470237 1.7860001
0.02324635 0.58512759 1.7860001
0.064636193 0.58682859 1.7860001
-0.051028572 0.59193146 1.7860001
-0.044224765 0.59193146 1.7860001
-0.034019049 0.59306544 1.7860001
-0.023813335 0.5953334 1.7860001
-0.015308572 0.59193146 1.7860001
0.014458096 0.5927819 1.7860001
0.022679366 0.59476632 1.7860001
-0.023813335 0.60553908 1.7860001
-0.015308572 0.60894096 1.7860001
0.011906667 0.60724002 1.7860001
0.023813333 0.60621941 1.786
0.030617144 0.60894096 1.7860001
-0.023388097 0.61531961 1.7860001
-0.014288001 0.61778593 1.786
-0.005102857 0.61744571 1.7860001
0.0039688889 0.61687875 1.7860001
0.013182382 0.61616999 1.7860001
0.024299322 0.61623085 1.7860001
0.032318097 0.61234289 1.7860001
-0.034019049 0.62935239 1.7860001
-0.023132954 0.62527007 1.786
-0.013182382 0.62595052 1.7860001
-0.0051028575 0.62595052 1.7860001
0.0034019048 0.62595052 1.7860001
0.01360762 0.62595057 1.7860001
0.024238573 0.62637568 1.7860001
0.031751111 0.62821841 1.7860001
-0.051028572 0.63955814 1.7860001
-0.044710752 0.63712823 1.7860001
-0.034444287 0.63573098 1.7860001
-0.022112383 0.6361562 1.7860001
-0.014968382 0.63479543 1.786
-0.0068038097 0.63275433 1.7860001
0.004535873 0.63502222 1.7860001
0.013607619 0.63479549 1.786
0.022679366 0.63502222 1.7860001
0.034019049 0.63275433 1.7860001
0.047626667 0.63955814 1.7860001
-0.053580001 0.64891338 1.7860001
-0.043374289 0.64551145 1.7860001
-0.033593811 0.64593667 1.7860001
-0.023813335 0.64296001 1.7860001
-0.017009525 0.64296001 1.7860001
0.02041143 0.64296001 1.7860001
0.2564286 0.087185718 1.7950001
0.26326668 0.087185718 1.7950001
-0.013676192 0.099152386 1.7950001
-0.0068380954 0.095733337 1.7950001
0.0017095238 0.095733337 1.7950001
0.037609525 0.097442865 1.7950001
0.043080002 0.097100958 1.7950001
0.11966667 0.099152386 1.7950001
0.1282143 0.094023809 1.7950001
0.14189048 0.092314288 1.7950001
0.1641143 0.095733337 1.7950001
0.22565715 0.095733337 1.7950001
0.23523049 0.094365716 1.7950001
0.24617143 0.095733337 1.7950001
0.25685596 0.095305957 1.7950001
0.2649762 0.095733345 1.7950001
0.27181429 0.095733337 1.7950001
-0.12308572 0.10257144 1.7950001
-0.11795714 0.10257144 1.7950001
-0.076928571 0.10257144 1.7950001
-0.013676192 0.10257145 1.7950001
0.22223811 0.10257144 1.7950001
0.25813812 0.10599048 1.7950001
0.26554605 0.10371113 1.7950001
0.27010477 0.10599048 1.7950001
0.21540001 0.11795714 1.7950001
0.24959049 0.11966667 1.7950001
0.25740546 0.11673605 1.7950001
0.2653181 0.11624763 1.7950001
0.27010477 0.11624762 1.7950001
0.20856191 0.12650476 1.7950001
0.21676762 0.12718859 1.7950001
0.22394763 0.1282143 1.7950001
0.23933335 0.12650476 1.7950001
0.24446191 0.12650476 1.7950001
0.25471905 0.12992382 1.7950001
0.2649762 0.12308572 1.7950001
0.21881905 0.1367619 1.7950001
0.22565715 0.13505238 1.7950001
0.23676905 0.13590714 1.7950001
0.24617146 0.13505238 1.7950001
0.25471905 0.13505238 1.7950001
0.21881905 0.14018096 1.7950001
0.22608452 0.14317262 1.7950001
0.23591429 0.1436 1.7950001
0.24503177 0.14303015 1.7950001
0.2564286 0.1436 1.7950001
0.19488572 0.1572762 1.7950001
0.22663401 0.15434559 1.7950001
0.2359143 0.15385713 1.7950001
0.24617144 0.15385713 1.7950001
0.25300953 0.1572762 1.7950001
0.19488573 0.16548191 1.7950001
0.2028635 0.16525398 1.7950001
0.21881905 0.16582382 1.7950001
0.22565715 0.1641143 1.7950001
0.2359143 0.1641143 1.7950001
0.24574406 0.1641143 1.7950001
0.25728336 0.16582382 1.7950001
0.26326668 0.1641143 1.7950001
0.20514286 0.17608096 1.7950001
0.21710953 0.17608096 1.7950001
0.22565715 0.17437145 1.7950001
0.2359143 0.17437145 1.7950001
0.24617144 0.17437145 1.7950001
0.2564286 0.17437145 1.7950001
0.26326668 0.17437144 1.7950001
0.20856191 0.18120953 1.7950001
0.21588843 0.18365172 1.7950001
0.22565715 0.18462859 1.7950001
0.23454666 0.18326096 1.7950001
0.24685526 0.18257716 1.7950001
0.2564286 0.18291907 1.7950001
0.26326668 0.18462856 1.7950001
0.21881905 0.19146667 1.7950001
0.22522976 0.19445834 1.7950001
0.23542587 0.1943973 1.7950001
0.24275239 0.19830477 1.7950001
0.2649762 0.19659525 1.7950001
0.18462858 0.20514287 1.7950001
0.22565715 0.20514286 1.7950001
0.2359143 0.20514286 1.7950001
0.24480383 0.20651047 1.7950001
0.25471905 0.20856191 1.7950001
