# .PCD v0.7 - Point Cloud Data file format
VERSION 0.7
FIELDS x y z
SIZE 4 4 4
TYPE F F F
COUNT 1 1 1
WIDTH 1474
HEIGHT 1
VIEWPOINT 0 0 0 1 0 0 0
POINTS 1474
DATA ascii
0.04506667 0.25430477 1.6900003
0.054813545 0.25470436 1.6926668
0.064685717 0.25550857 1.6980001
0.074388571 0.25550857 1.6980001
0.084091432 0.25550857 1.6980001
0.095217146 0.25500825 1.6946667
0.10673144 0.25550857 1.6980001
0.11643428 0.25550854 1.6980001
0.12580191 0.25484151 1.6935556
0.1352728 0.25443685 1.6908891
0.14516191 0.25483471 1.6935556
0.15459387 0.25443685 1.6908891
0.16417143 0.25430477 1.6900003
0.17419937 0.25483811 1.6935556
0.18435431 0.25550857 1.6980001
0.19405715 0.25550857 1.6980001
0.20376001 0.25550854 1.6980001
0.21465206 0.25500444 1.6946667
0.22533335 0.25430477 1.6900003
0.23177144 0.2575238 1.6900001
-0.34363332 0.26476666 1.6900001
-0.33437857 0.2643643 1.6900003
-0.32512382 0.26396191 1.6900003
-0.31546667 0.26396191 1.6900003
-0.30580953 0.26396191 1.6900003
-0.29578593 0.26388684 1.6916002
-0.284933 0.26470613 1.6929092
-0.27448428 0.26479495 1.6953335
-0.26479495 0.26480001 1.6953332
-0.25444022 0.2641024 1.6908891
-0.24464761 0.26396191 1.6900003
-0.23499046 0.26396191 1.6900003
-0.22533332 0.26396191 1.6900003
-0.21567619 0.26396191 1.6900003
-0.20642143 0.26436427 1.6900003
-0.19590203 0.26488164 1.6900003
-0.18509525 0.26396191 1.6900004
-0.17400804 0.26423961 1.6917779
-0.16494858 0.26521146 1.6980001
-0.15653943 0.26391774 1.6980002
-0.14635143 0.26278573 1.6980001
-0.13442133 0.26367086 1.6964
-0.12574434 0.2643818 1.6926668
-0.1158857 0.26396191 1.6900003
-0.10628615 0.26409906 1.6908891
-0.095076196 0.2642743 1.6920003
-0.083827294 0.26437843 1.6926668
-0.074038096 0.26396191 1.6900003
-0.064380951 0.26396191 1.6900003
-0.05472381 0.26396191 1.6900003
-0.04506667 0.26396191 1.6900003
-0.035409525 0.26396191 1.6900003
-0.025787938 0.26437843 1.6926668
-0.01709551 0.26474944 1.6980001
-0.0040428573 0.26440287 1.6980001
0.0048438101 0.26500317 1.6966667
0.016164657 0.26507092 1.6971111
0.025874287 0.26521146 1.6980001
0.035577144 0.26521143 1.6980001
0.045205504 0.26479831 1.6953332
0.054928679 0.26493546 1.6962222
0.064685717 0.26521143 1.6980001
0.074388571 0.26521146 1.6980001
0.084091425 0.26521146 1.6980001
0.095182858 0.26458666 1.6940002
0.1065672 0.26479664 1.6953335
0.11643428 0.26521146 1.6980001
0.12600338 0.26493037 1.6962223
0.13540825 0.26437843 1.6926668
0.14516193 0.26452065 1.6935556
0.15475471 0.2643818 1.6926668
0.16417141 0.26396191 1.6900003
0.17382856 0.26396191 1.6900003
0.18447849 0.26477906 1.6932001
0.19529942 0.26470858 1.6948
0.20464952 0.26427236 1.6920002
0.21524262 0.26457247 1.6958183
0.2255687 0.26423961 1.6917779
0.23482732 0.26438352 1.6926666
0.24257144 0.26844573 1.6980001
-0.34250668 0.27297527 1.6900002
-0.33478096 0.27361906 1.6900003
-0.32512379 0.27361906 1.6900003
-0.31546667 0.27361906 1.6900003
-0.30580956 0.27361906 1.6900003
-0.29655477 0.27321666 1.6900003
-0.28327623 0.27200952 1.6900002
-0.27361906 0.27361906 1.6900003
-0.26451725 0.27418962 1.6935556
-0.25430477 0.27361906 1.6900003
-0.24477799 0.27376467 1.6908891
-0.23535787 0.27405417 1.6926668
-0.22533335 0.27361906 1.6900003
-0.21567619 0.27361906 1.6900003
-0.20601904 0.27361906 1.6900003
-0.19636191 0.27361906 1.6900003
-0.18509525 0.27361906 1.6900004
-0.17391831 0.27376127 1.6908891
-0.16468953 0.27447745 1.6953335
-0.15767144 0.27572286 1.6980001
-0.13260572 0.27491429 1.6980001
-0.12613715 0.27451 1.6980001
-0.11600932 0.27391028 1.6917779
-0.10532537 0.27462375 1.6943637
-0.094131805 0.27368879 1.6924002
-0.083695233 0.27361906 1.6900003
-0.074038103 0.27361906 1.6900003
-0.064380951 0.27361906 1.6900003
-0.05472381 0.27361906 1.6900003
-0.04506667 0.27361906 1.6900003
-0.035409525 0.27361906 1.6900003
-0.02578794 0.27405083 1.6926668
-0.016818287 0.27556115 1.6980002
-0.0048514288 0.27491429 1.6980001
0.0048514288 0.27491426 1.6980001
0.016171429 0.27491426 1.6980001
0.025874287 0.27491429 1.6980001
0.035558518 0.27477208 1.6971111
0.045279998 0.27491429 1.6980001
0.05498286 0.27491429 1.6980001
0.064685717 0.27491429 1.6980001
0.074388579 0.27491429 1.6980001
0.084091432 0.27491429 1.6980001
0.093794286 0.27491426 1.6980001
0.1051143 0.27491429 1.6980001
0.1164343 0.27491429 1.6980001
0.12613714 0.27491429 1.6980001
0.13562328 0.27448595 1.6953335
0.14539216 0.27462816 1.6962223
0.15499853 0.27447912 1.6953332
0.16417143 0.27361906 1.6900003
0.17410456 0.2740525 1.6926668
0.18513006 0.27403709 1.6943637
0.19599085 0.27433258 1.6924002
0.20561668 0.27321666 1.6900003
0.21574554 0.27485222 1.6955999
0.2264 0.27491429 1.6980001
0.23597758 0.27477208 1.6971111
0.24219048 0.27448764 1.6953334
-0.34363335 0.28448334 1.6900003
-0.33478093 0.28488573 1.6900004
-0.32512382 0.28488573 1.6900004
-0.31546667 0.28488573 1.6900004
-0.30580953 0.2848857 1.6900004
-0.29615241 0.28488573 1.6900004
-0.28442588 0.28557548 1.6900004
-0.27361906 0.28488573 1.6900004
-0.26396191 0.28488567 1.6900004
-0.2543048 0.28488567 1.6900004
-0.24555176 0.28432089 1.6962223
-0.23572867 0.28417355 1.6953335
-0.22592762 0.28402627 1.6944447
-0.21557055 0.28469333 1.6914548
-0.20601906 0.28444675 1.6900004
-0.1963619 0.28488573 1.6900004
-0.18509524 0.2848857 1.6900004
-0.17382859 0.28488573 1.6900004
-0.16423492 0.28499746 1.690667
-0.15618047 0.28653049 1.6950001
-0.13260572 0.28461716 1.6980001
-0.12613715 0.28461713 1.6980001
-0.11574685 0.28481248 1.6921821
-0.10584588 0.28482023 1.6918466
-0.094758861 0.28556421 1.6921335
-0.08369524 0.28488573 1.6900004
-0.074038096 0.2848857 1.6900004
-0.064380951 0.28488573 1.6900004
-0.054723814 0.28488573 1.6900004
-0.045066666 0.28488573 1.6900004
-0.035409525 0.28488573 1.6900004
-0.026075499 0.28481111 1.6921821
-0.016171429 0.28502142 1.6980001
-0.006006531 0.28554124 1.6980001
0.0048514288 0.28461716 1.6980001
0.016156191 0.28499126 1.6964
0.025874287 0.28461716 1.6980001
0.035577144 0.28461716 1.6980001
0.045280002 0.28369308 1.6980001
0.05498286 0.28461716 1.6980001
0.064685717 0.28461716 1.6980001
0.074617498 0.28554389 1.6965455
0.083691813 0.28499123 1.6964
0.093794286 0.28461716 1.6980001
0.10385652 0.28389841 1.6980001
0.11697333 0.28353906 1.6980001
0.12613714 0.28461716 1.6980001
0.13584 0.28461716 1.6980001
0.14546497 0.28446987 1.6971111
0.15493715 0.28469199 1.6914548
0.16400649 0.28419128 1.6916002
0.17465143 0.28461716 1.6980001
0.18435431 0.28461716 1.6980001
0.19506146 0.28525126 1.6965455
0.20416431 0.28421289 1.6980001
0.21508001 0.28461716 1.6980001
0.22640002 0.28502142 1.6980001
0.23610288 0.28461716 1.6980001
-0.34363335 0.29695717 1.6900001
-0.33437854 0.29655477 1.6900003
-0.32512385 0.29615241 1.6900003
-0.3154667 0.29615238 1.6900003
-0.30580956 0.29615241 1.6900003
-0.29615238 0.29615244 1.6900003
-0.28488573 0.29615241 1.6900004
-0.27361906 0.29615241 1.6900003
-0.26396191 0.29615241 1.6900003
-0.25430477 0.29615238 1.6900003
-0.24566288 0.29440612 1.6948001
-0.23573333 0.29546604 1.6953335
-0.22595303 0.29535049 1.6946669
-0.21630438 0.29592612 1.6924002
-0.20634413 0.29554161 1.6926668
-0.19636191 0.29615241 1.6900003
-0.18509525 0.29615238 1.6900004
-0.17382857 0.29615238 1.6900003
-0.16417144 0.29615244 1.6900003
-0.154264 0.29564574 1.6908003
-0.14539777 0.294604 1.6929094
-0.13576719 0.29416424 1.6971111
-0.12613715 0.29431999 1.6980001
-0.11623428 0.29541144 1.6950002
-0.10622858 0.29615241 1.6900003
-0.094961919 0.29615241 1.6900004
-0.083695248 0.29615241 1.6900003
-0.074595921 0.29563317 1.6922858
-0.064380951 0.29615241 1.6900003
-0.05472381 0.29615244 1.6900003
-0.04506667 0.29615238 1.6900003
-0.035409525 0.29615241 1.6900003
-0.02578794 0.29554158 1.6926668
-0.016575715 0.29391572 1.6980001
-0.007546667 0.29324189 1.6980001
0.0054982859 0.29367316 1.6980002
0.016154286 0.29437762 1.6960001
0.025874287 0.29431999 1.6980001
0.034499049 0.29324189 1.6980001
0.046573717 0.29496688 1.6980002
0.054896511 0.29385778 1.6953334
0.064685717 0.29431999 1.6980001
0.073674016 0.29424927 1.6922858
0.084398575 0.29437572 1.6960001
0.093794294 0.29432002 1.6980001
0.10155658 0.29496685 1.6980002
0.11805143 0.29593715 1.6980001
0.12613715 0.29391572 1.6980001
0.13584 0.29431999 1.6980001
0.14554286 0.29431999 1.6980001
0.15475301 0.29554161 1.6926668
0.16469461 0.29493079 1.6953332
0.17465143 0.29431999 1.6980001
0.18435429 0.29432002 1.6980001
0.19506146 0.29494581 1.6965455
0.20472907 0.2947762 1.696
0.21496764 0.29449293 1.6961539
0.22649871 0.29523847 1.6965455
0.2356697 0.29482514 1.6972001
-0.3431505 0.30645335 1.6900002
-0.33478099 0.30580956 1.6900003
-0.32512382 0.30540714 1.6900003
-0.31546667 0.30580953 1.6900003
-0.30580956 0.30580956 1.6900003
-0.29615238 0.30580956 1.6900003
-0.28488573 0.30580953 1.6900004
-0.27361906 0.3058095 1.6900003
-0.26396191 0.30580956 1.6900003
-0.25579646 0.30612412 1.6968572
-0.24540146 0.30442718 1.6980001
-0.23487 0.30576718 1.6920002
-0.22594342 0.30509442 1.691143
-0.21495049 0.30546099 1.697
-0.20570059 0.30466971 1.6980002
-0.1963619 0.30580956 1.6900003
-0.18509525 0.30580953 1.6900004
-0.17382857 0.30580953 1.6900003
-0.16417143 0.30580953 1.6900003
-0.1545143 0.30488983 1.6900003
-0.14510858 0.30473715 1.6930001
-0.1362443 0.30361861 1.6980001
-0.12573287 0.30361861 1.6980001
-0.11625651 0.30461842 1.6953335
-0.10622857 0.30580956 1.6900003
-0.094961911 0.3058095 1.6900004
-0.08369524 0.30580956 1.6900003
-0.073870137 0.30515707 1.6929092
-0.064416505 0.30596867 1.6908891
-0.054723814 0.3058095 1.6900003
-0.04506667 0.30580956 1.6900003
-0.035409525 0.30580956 1.6900003
-0.02578794 0.30521399 1.6926668
-0.017788572 0.30402288 1.6980001
-0.0064685717 0.30725715 1.6980001
0.0086247623 0.30186668 1.6980001
0.016171429 0.30402288 1.6980001
0.025874287 0.30402285 1.6980001
0.0351151 0.30494696 1.6980001
0.045684289 0.30442718 1.6980001
0.05498286 0.30402288 1.6980001
0.064685717 0.30402285 1.6980001
0.074388571 0.30402291 1.6980001
0.084091425 0.30402288 1.6980001
0.093794286 0.30402291 1.6980001
0.10303511 0.3044849 1.6980001
0.11643429 0.30078858 1.6980001
0.12937143 0.30402288 1.6980001
0.13584 0.30402291 1.6980001
0.14554286 0.30402291 1.6980001
0.15467702 0.30474234 1.6968572
0.16505058 0.30462015 1.6953332
0.17424724 0.30452344 1.6972001
0.18435429 0.30402285 1.6980001
0.19526154 0.30482021 1.6955384
0.20588915 0.30545068 1.6916002
0.21501371 0.30365938 1.6924002
0.22511658 0.30530745 1.6908003
0.23285429 0.30455428 1.692
-0.34121907 0.31224763 1.6900001
-0.33508191 0.31442818 1.6948
-0.32561439 0.31485885 1.6944447
-0.31506428 0.31546667 1.6900003
-0.30580956 0.31546667 1.6900003
-0.29559964 0.31526935 1.6924002
-0.28418335 0.31562239 1.6930001
-0.27402145 0.31506428 1.6900003
-0.26396191 0.31546667 1.6900003
-0.25537312 0.31463623 1.6971111
-0.24580571 0.31372571 1.6980001
-0.23567477 0.31422669 1.6920002
-0.2268604 0.31447187 1.6945716
-0.21552105 0.3140198 1.6980001
-0.20537716 0.31372574 1.6980001
-0.19636191 0.31546673 1.6900003
-0.18509524 0.31546667 1.6900004
-0.17382857 0.31546667 1.6900003
-0.16476619 0.31543761 1.6920002
-0.15524572 0.31413001 1.6980001
-0.14513858 0.31413001 1.6980001
-0.13676408 0.31326368 1.6980001
-0.12535407 0.31391752 1.6971111
-0.11643188 0.31496659 1.6936364
-0.10563201 0.31529257 1.6908003
-0.094522953 0.31575936 1.6900004
-0.084266119 0.31497362 1.6922858
-0.074595921 0.31497362 1.6922858
-0.064431749 0.31410602 1.6913334
-0.054807622 0.31435493 1.6926666
-0.045173336 0.31460381 1.6939999
-0.035409525 0.3154667 1.6900003
-0.02578794 0.31488636 1.6926668
-0.017095512 0.31326368 1.6980001
-0.0080857147 0.31372574 1.6980001
0.016171429 0.31372571 1.6980001
0.026278572 0.31332144 1.6980001
0.033151433 0.31291714 1.6980001
0.042045716 0.31210858 1.6980001
0.05498286 0.31372574 1.6980001
0.065090001 0.31332144 1.6980001
0.074388571 0.31372577 1.6980001
0.084091432 0.31372574 1.6980001
0.092870213 0.31372574 1.6980001
0.10479087 0.31243199 1.6980002
0.11562572 0.31291714 1.6980001
0.12613717 0.31372574 1.6980002
0.13503143 0.31130001 1.6980001
0.14635143 0.31130001 1.6980001
0.15524572 0.31372571 1.6980001
0.16494858 0.31413001 1.6980001
0.17424306 0.31459621 1.694
0.18536693 0.31374967 1.6965455
0.19458939 0.31400982 1.6945714
0.20536931 0.31505397 1.6935556
0.21527383 0.31586906 1.6900003
0.22533335 0.3154667 1.6900003
0.23177144 0.31224763 1.6900001
-0.33474857 0.32181144 1.6980001
-0.32541892 0.32541892 1.6980001
-0.31454697 0.32558367 1.6900003
-0.30580956 0.32512379 1.6900003
-0.29527083 0.32536858 1.6926669
-0.28441748 0.32416096 1.6920003
-0.27453879 0.32466394 1.6900003
-0.26396191 0.32190478 1.6900001
-0.2544471 0.32450458 1.6929092
-0.24645257 0.3250457 1.6980002
-0.23610288 0.32548678 1.6980001
-0.22720858 0.32625857 1.6980001
-0.21438695 0.32504568 1.6980001
-0.20513716 0.32465905 1.6960001
-0.19636191 0.32512379 1.6900003
-0.18509525 0.32512382 1.6900004
-0.17419089 0.32580447 1.6935556
-0.16438897 0.32555127 1.6956002
-0.15524574 0.3250457 1.6980001
-0.14554286 0.32504573 1.6980001
-0.13584 0.32504573 1.6980001
-0.12621921 0.32492572 1.6950909
-0.11588572 0.32512385 1.6900003
-0.10622858 0.32512379 1.6900003
-0.094961911 0.32512379 1.6900004
-0.083722599 0.32520694 1.6965455
-0.074094549 0.32548675 1.6980001
-0.06468571 0.3250457 1.6980001
-0.054982856 0.3250457 1.6980001
-0.044633143 0.32472229 1.6980002
-0.035577144 0.3266629 1.6980001
-0.025462478 0.3249402 1.6924002
-0.017384287 0.32423714 1.6980001
-0.0080857147 0.32666287 1.6980001
0.016171429 0.3201943 1.6980001
0.025874287 0.3201943 1.6980001
0.036295872 0.32450664 1.6980001
0.045926858 0.32439885 1.6980002
0.054264132 0.32630351 1.6980001
0.064281434 0.32706714 1.6980001
0.074850619 0.32573882 1.6980001
0.082474291 0.32504573 1.6980001
0.093794294 0.32435268 1.6980001
0.10592286 0.3261238 1.6980001
0.11603001 0.32706717 1.6980001
0.12549028 0.32472232 1.6980002
0.13368382 0.327741 1.6980001
0.15484142 0.3230243 1.6980001
0.16530794 0.32378796 1.6980001
0.17497486 0.32601601 1.6980002
0.18435431 0.32504568 1.6980001
0.19405714 0.32548678 1.6980001
0.20408344 0.3240754 1.6980002
0.21499495 0.32653591 1.6973335
0.22533098 0.32610905 1.6930001
0.23232001 0.32751048 1.694
-0.32601601 0.3363657 1.6980002
-0.31506428 0.33478096 1.6900003
-0.30502823 0.33491915 1.6921821
-0.29454631 0.33620915 1.6956002
-0.28372657 0.33530584 1.6926668
-0.27361906 0.33478102 1.6900003
-0.26331812 0.33478096 1.6900002
-0.25470263 0.33531263 1.6926668
-0.24580574 0.33313143 1.6980001
-0.23480916 0.33507201 1.6980002
-0.22640003 0.3363657 1.6980001
-0.21508002 0.33636573 1.6980001
-0.20416431 0.33677 1.6980001
-0.19442363 0.33556992 1.6956002
-0.18416297 0.33601698 1.6962223
-0.17410795 0.33530918 1.6926668
-0.16417143 0.33478096 1.6900003
-0.15451428 0.33478099 1.6900003
-0.14493333 0.33495533 1.6908891
-0.1356944 0.33601186 1.6962223
-0.12594414 0.33583748 1.6953335
-0.1158857 0.33478099 1.6900003
-0.10568382 0.33542284 1.6916002
-0.094842941 0.33564231 1.6958183
-0.085169524 0.33744383 1.6980001
-0.07331048 0.33744383 1.6980001
-0.064685717 0.33636576 1.6980001
-0.054578576 0.33636573 1.6980001
-0.043662861 0.33636573 1.6980001
-0.035577144 0.33636576 1.6980001
-0.026780954 0.33567947 1.6968572
-0.017788572 0.33313143 1.6980001
-0.0064685717 0.33313143 1.6980001
0.037194289 0.33636576 1.6980001
0.045279998 0.33636573 1.6980001
0.05498286 0.33636576 1.6980001
0.064685717 0.33636573 1.6980001
0.074388579 0.3363657 1.6980001
0.083552383 0.33582667 1.6980001
0.094198585 0.33596146 1.6980001
0.10511429 0.33636573 1.6980001
0.1164343 0.3363657 1.6980001
0.12613715 0.3363657 1.6980001
0.13519315 0.33701259 1.6980002
0.14230858 0.33960003 1.6980001
0.16818286 0.33313143 1.6980001
0.17465143 0.3363657 1.6980001
0.18435429 0.33636576 1.6980001
0.19297905 0.33528766 1.6980001
0.20537715 0.3371743 1.6980001
0.21507998 0.3363657 1.6980001
0.22640003 0.3363657 1.6980001
0.23286858 0.33474857 1.6980001
-0.32250449 0.34560654 1.6980001
-0.31338525 0.34565952 1.694
-0.30461845 0.34553015 1.6953335
-0.29482517 0.34558362 1.6972001
-0.28446987 0.34588572 1.6971111
-0.27361906 0.34443808 1.6900003
-0.26396191 0.34443808 1.6900003
-0.25523767 0.34570625 1.6962223
-0.24580573 0.34768572 1.6980001
-0.2328686 0.34606859 1.6980001
-0.2268043 0.34566426 1.6980001
-0.21508002 0.34606853 1.6980001
-0.20376001 0.34560654 1.6980001
-0.19648287 0.34526002 1.6980001
-0.18435431 0.34606856 1.6980001
-0.1739217 0.34461758 1.6908891
-0.16417143 0.34443808 1.6900003
-0.1545143 0.34443808 1.6900003
-0.14516023 0.34516779 1.6935558
-0.13576719 0.34588909 1.6971111
-0.12607281 0.34588909 1.6971111
-0.11594836 0.34462091 1.6908891
-0.10494541 0.34552634 1.6953334
-0.094198577 0.34606856 1.6980001
-0.084091425 0.34606856 1.6980001
-0.074388579 0.34606853 1.6980001
-0.064685717 0.34606853 1.6980001
-0.054578576 0.34606856 1.6980001
-0.045279998 0.34606853 1.6980001
-0.035981432 0.34566426 1.6980001
-0.02695238 0.34391236 1.6980001
0.0032342859 0.34606859 1.6980001
0.03881143 0.34283429 1.6980001
0.045280002 0.34364283 1.6980001
0.05498286 0.34566429 1.6980001
0.064685717 0.34606853 1.6980001
0.074388571 0.34606859 1.6980001
0.083687142 0.34647289 1.6980001
0.095411435 0.34283429 1.6980001
0.10555533 0.34577453 1.6980001
0.11643428 0.34606859 1.6980001
0.12613715 0.34606856 1.6980001
0.13584 0.34606859 1.6980001
0.14311714 0.34525999 1.6980001
0.17557551 0.34560651 1.6980001
0.18435431 0.34606859 1.6980001
0.19405715 0.34552953 1.6980001
0.20537715 0.34526002 1.6980001
0.21508002 0.34606853 1.6980001
0.2264 0.34606853 1.6980001
-0.32396764 0.35577142 1.6980001
-0.31459469 0.35492879 1.694
-0.30423543 0.35558745 1.6956002
-0.29432002 0.35577145 1.6980001
-0.28387725 0.35484192 1.6935556
-0.27701241 0.35454762 1.696
-0.26521143 0.35577142 1.6980001
-0.24688381 0.35684952 1.6980001
-0.2115223 0.35512459 1.6980002
-0.20376001 0.35617572 1.6980001
-0.19451918 0.3566955 1.6980001
-0.18435431 0.35577142 1.6980001
-0.17465143 0.35577145 1.6980001
-0.16486055 0.35558352 1.6971111
-0.15508318 0.35540068 1.6962223
-0.14554286 0.35577142 1.6980001
-0.13584 0.35577142 1.6980001
-0.12607281 0.35558692 1.6971111
-0.11601101 0.35446942 1.6917779
-0.10485905 0.35493335 1.6940002
-0.093697779 0.35539559 1.6962223
-0.084091425 0.35577145 1.6980001
-0.074237876 0.35502478 1.6944447
-0.064580746 0.35521099 1.6953335
-0.055387147 0.35617572 1.6980001
-0.045279998 0.35577148 1.6980001
-0.037194289 0.35577142 1.6980001
0.067919999 0.35253716 1.6980001
0.074388571 0.35253716 1.6980001
0.084091432 0.35253716 1.6980001
0.11643429 0.35253716 1.6980001
0.12613715 0.35253716 1.6980001
0.1390743 0.35577142 1.6980001
0.14683656 0.35641828 1.6980002
0.18597144 0.35415429 1.6980001
0.19486573 0.35415429 1.6980001
0.20376001 0.35577142 1.6980001
0.21552105 0.35577145 1.6980001
0.22510628 0.35447773 1.6980002
-0.32181144 0.36547431 1.6980001
-0.3135598 0.36528128 1.6971111
-0.30510098 0.36493528 1.6980001
-0.29351142 0.36304858 1.6980001
-0.28377634 0.36406043 1.6957144
-0.27814859 0.36547431 1.6980001
-0.24796192 0.36331812 1.6980001
-0.21103714 0.36547431 1.6980001
-0.2041643 0.36507004 1.6980001
-0.19442515 0.3652766 1.6955999
-0.18435431 0.36547434 1.6980001
-0.17465144 0.36547434 1.6980001
-0.16486055 0.36528465 1.6971111
-0.15524571 0.36547431 1.6980001
-0.14646694 0.36501226 1.6980001
-0.13584 0.36385715 1.6980001
-0.12573285 0.36507002 1.6980001
-0.11631238 0.36509335 1.6962222
-0.10490349 0.36475554 1.6946669
-0.093697786 0.36509502 1.6962223
-0.084045716 0.36528465 1.6971111
-0.074271746 0.36490375 1.6953332
-0.065090001 0.36507002 1.6980001
-0.053689145 0.36418062 1.6980002
-0.045280002 0.36593631 1.6980001
-0.035556827 0.36528125 1.6971111
-0.028300002 0.36628288 1.6980001
0.10673144 0.36547431 1.6980001
0.1390743 0.36547431 1.6980001
0.14554286 0.36547434 1.6980001
0.15478368 0.36639839 1.6980001
0.16171429 0.36870858 1.6980001
0.21669716 0.36547434 1.6980001
0.22640002 0.36709145 1.6980001
-0.32148799 0.37453029 1.6980002
-0.31501943 0.37388343 1.6980002
-0.30725715 0.37194288 1.6980001
-0.28138286 0.37356001 1.6980001
-0.27814859 0.37356001 1.6980001
-0.20486173 0.37547049 1.6964
-0.19563206 0.37489942 1.690667
-0.18520762 0.37424457 1.6950911
-0.17465141 0.37517717 1.6980001
-0.16494858 0.37517715 1.6980001
-0.15570776 0.37425309 1.6980001
-0.14715999 0.37356001 1.6980001
-0.13503143 0.37275144 1.6980001
-0.12654144 0.37477291 1.6980001
-0.11631407 0.37478769 1.6962223
-0.10511429 0.37517715 1.6980001
-0.093794286 0.37517717 1.6980001
-0.084091425 0.37517715 1.6980001
-0.075312659 0.37471512 1.6980001
-0.067919999 0.37194288 1.6980001
-0.043662861 0.37194288 1.6980001
-0.035914764 0.37411383 1.6950002
-0.028300002 0.37436858 1.6980001
0.0097028576 0.37517715 1.6980001
0.015767144 0.37517715 1.6980001
0.025874287 0.37841144 1.6980001
0.032342859 0.37841144 1.6980001
0.097028576 0.37679428 1.6980001
0.10349715 0.37679431 1.6980001
0.11643429 0.37841144 1.6980001
0.14513858 0.37477291 1.6980001
0.15524572 0.37356004 1.6980001
0.16171429 0.37194288 1.6980001
0.21552104 0.3754712 1.6980001
0.2254366 0.3747558 1.6932001
-0.24418858 0.38649714 1.6980001
-0.23674972 0.38617373 1.6980002
-0.20283593 0.38441798 1.6980001
-0.19320109 0.38502476 1.6945714
-0.18475859 0.3852843 1.6980001
-0.17303427 0.38488004 1.6980001
-0.16535287 0.38488001 1.6980001
-0.15524572 0.38488004 1.6980001
-0.14554286 0.38488001 1.6980001
-0.13539164 0.38515964 1.6964
-0.12678815 0.38539389 1.6971111
-0.11689632 0.38395596 1.6980001
-0.10834858 0.38164574 1.6980001
-0.092177145 0.38164574 1.6980001
-0.083629392 0.38395596 1.6980001
-0.075682282 0.38423315 1.6980002
-0.035577144 0.38407141 1.6980001
-0.02749143 0.38326287 1.6980001
0.0097028576 0.38326287 1.6980001
0.016171429 0.3832629 1.6980001
0.026278574 0.38447574 1.6980001
0.035115104 0.38580412 1.6980001
0.042045716 0.3881143 1.6980001
0.094441153 0.38293943 1.6980002
0.10268857 0.38245434 1.6980001
0.21540344 0.38358626 1.6980002
-0.3369762 0.39555955 1.697
-0.3201943 0.3962 1.6980001
-0.31372574 0.39458287 1.6980001
-0.30402288 0.39458287 1.6980001
-0.29472429 0.39498711 1.6980001
-0.28461716 0.39458287 1.6980001
-0.2738362 0.39512193 1.6980001
-0.25550857 0.39781716 1.6980001
-0.24418859 0.39458287 1.6980001
-0.23852858 0.39458287 1.6980001
-0.20133428 0.39458287 1.6980001
-0.19405715 0.39458287 1.6980001
-0.18597144 0.39458287 1.6980001
-0.16171429 0.3913486 1.6980001
-0.15470667 0.39404383 1.6980001
-0.14473429 0.39296573 1.6980001
-0.1362443 0.39498717 1.6980001
-0.12573287 0.39498711 1.6980001
-0.11966857 0.39458287 1.6980001
-0.082797721 0.39458287 1.6980002
-0.076329142 0.39393601 1.6980002
-0.025874287 0.3913486 1.6980001
0.029108573 0.3913486 1.6980001
0.036385715 0.39215717 1.6980001
0.042045716 0.3913486 1.6980001
0.14877714 0.39458287 1.6980001
0.18475859 0.39498717 1.6980001
0.19405715 0.39781716 1.6980001
0.20214286 0.3913486 1.6980001
0.21216914 0.39393601 1.6980002
0.22801715 0.3913486 1.6980001
-0.33477601 0.4043684 1.6916002
-0.32536915 0.40428576 1.6980002
-0.31501943 0.40299201 1.6980002
-0.30402288 0.40186 1.6980001
-0.29367313 0.40234512 1.6980002
-0.28421289 0.40388143 1.6980001
-0.27491429 0.40428573 1.6980001
-0.26561573 0.40469003 1.6980001
-0.25504652 0.40520981 1.6980001
-0.24525669 0.40445003 1.697
-0.23718099 0.40536383 1.6980001
-0.20181945 0.40493259 1.6980002
-0.19405715 0.40428573 1.6980001
-0.18629487 0.4036389 1.6980002
-0.15470667 0.40320763 1.6980001
-0.14554286 0.40428573 1.6980001
-0.13584 0.40428576 1.6980001
-0.12613715 0.40428576 1.6980001
-0.11886 0.40428573 1.6980001
-0.080857143 0.4026686 1.6980001
-0.076544762 0.40212953 1.6980001
-0.045280002 0.40428573 1.6980001
-0.034768574 0.40347716 1.6980001
-0.029108573 0.4026686 1.6980001
0.048514288 0.40752003 1.6980001
0.05498286 0.40752003 1.6980001
0.11643429 0.40752003 1.6980001
0.14608191 0.40320763 1.6980001
0.15282001 0.40347713 1.6980001
0.18435429 0.40428576 1.6980001
0.19244 0.4026686 1.6980001
0.21629286 0.40469003 1.6980001
0.22478285 0.40752003 1.6980001
-0.33474857 0.41398859 1.6980001
-0.3266629 0.41156289 1.6980001
-0.28299999 0.41075429 1.6980001
-0.27491429 0.41156286 1.6980001
-0.26428738 0.41352656 1.6980001
-0.25488508 0.41462818 1.6962223
-0.24567705 0.41377014 1.6971111
-0.23739657 0.41269487 1.6980002
-0.2264 0.41398859 1.6980001
-0.20181942 0.4133417 1.6980002
-0.19498122 0.41352656 1.6980001
-0.14877714 0.41722289 1.6980001
-0.13826573 0.41318002 1.6980001
-0.12452 0.41075429 1.6980001
-0.11966857 0.41075429 1.6980001
-0.083282858 0.41318002 1.6980001
-0.053365715 0.41722289 1.6980001
-0.045742039 0.4149127 1.6980001
-0.036224 0.41592917 1.6980002
-0.029108573 0.41398859 1.6980001
0.046897143 0.41398856 1.6980001
0.054174289 0.41156289 1.6980001
0.11643429 0.41237146 1.6980001
0.13691811 0.41614476 1.6980001
0.15416764 0.41291049 1.6980001
0.17788573 0.41075429 1.6980001
0.18112001 0.41722289 1.6980001
0.21831429 0.41318002 1.6980001
0.22478285 0.41075429 1.6980001
-0.2635943 0.42369142 1.6980001
-0.25576431 0.42384431 1.697
-0.24567874 0.42346966 1.6971111
-0.23852858 0.42369145 1.6980001
-0.18758857 0.42045715 1.6980001
-0.15524572 0.42369142 1.6980001
-0.14877714 0.42207432 1.6980001
-0.045279998 0.42369142 1.6980001
-0.035577144 0.42207432 1.6980001
-0.029108573 0.42045715 1.6980001
0.048514288 0.42045715 1.6980001
0.12613715 0.42207432 1.6980001
0.13476191 0.42261338 1.6980001
0.14554286 0.42692572 1.6980001
0.1547837 0.42369142 1.6980001
0.16430172 0.42369145 1.6980002
0.1956743 0.42045715 1.6980001
0.20376001 0.42369142 1.6980001
0.21490031 0.42297271 1.6980001
0.22769372 0.4223977 1.6980002
0.2328686 0.42369142 1.6980001
-0.25521457 0.43457043 1.6980001
-0.24580574 0.4345704 1.6980001
-0.23933715 0.43501145 1.6980001
-0.18435431 0.43339431 1.6980001
-0.12290286 0.43501145 1.6980001
-0.093794286 0.43177718 1.6980001
-0.061451431 0.43501145 1.6980001
-0.054336004 0.43533486 1.6980002
-0.045280002 0.4340412 1.6980002
0.19729143 0.43339431 1.6980001
0.20311315 0.43210059 1.6980002
0.21669716 0.43016002 1.6980001
-0.25470001 0.44714004 1.6980001
-0.2453437 0.44725552 1.6980001
-0.23933715 0.44471431 1.6980001
-0.19405715 0.44679347 1.6980001
-0.18516286 0.44471431 1.6980001
-0.12290286 0.44309714 1.6980001
-0.1132 0.44956574 1.6980001
-0.10996572 0.44956574 1.6980001
-0.05498286 0.44503769 1.6980002
0.22801715 0.44956574 1.6980001
-0.25550857 0.4560343 1.6980001
-0.24626777 0.45511022 1.6980001
-0.21346286 0.4560343 1.6980001
-0.1956743 0.4560343 1.6980001
-0.11689632 0.45511022 1.6980001
-0.10996572 0.4560343 1.6980001
-0.05498286 0.45280001 1.6980001
0.21993144 0.4592686 1.6980001
0.22478285 0.45765147 1.6980001
-0.26197717 0.46897143 1.6980001
-0.25550857 0.46573719 1.6980001
-0.21346286 0.46250287 1.6980001
-0.15201144 0.46573716 1.6980001
-0.1132 0.46573716 1.6980001
-0.10915715 0.46573716 1.6980001
0.18435431 0.46573716 1.6980002
-0.15201144 0.47705716 1.6980001
-0.32989717 0.48514289 1.6980001
0.22855239 0.49573335 1.6900001
0.23177144 0.49573335 1.6900001
0.22726095 0.50424159 1.6948001
0.23338096 0.50539047 1.6900001
0.22801715 0.51425147 1.6980001
0.23416229 0.51360458 1.6980002
0.21993144 0.5271886 1.6980001
0.22653572 0.52374148 1.6960001
0.23286858 0.5223372 1.6980001
0.22575314 0.53171659 1.6980002
0.22801715 0.54659432 1.6980001
0.2285562 0.55521911 1.6980001
0.23286858 0.55953145 1.6980001
0.22837587 0.59571433 1.6966667
0.23250286 0.5973981 1.6953335
0.2296343 0.60481143 1.6980001
0.23286858 0.60481143 1.6980001
0.18522286 0.097485721 1.7060001
0.21609335 0.095860958 1.7060001
-0.25183812 0.10723429 1.7060001
-0.17872381 0.10723429 1.7060001
-0.048742861 0.10723429 1.7060001
-0.026646096 0.10268496 1.7060001
0.025996193 0.10528459 1.7060001
0.033578414 0.10615113 1.706
0.051992383 0.10073524 1.7060001
0.068240002 0.10073524 1.7060001
0.071489528 0.10073524 1.7060001
0.087737143 0.10073524 1.7060001
0.1153581 0.10073524 1.7060001
0.12185715 0.10236001 1.7060001
0.17547429 0.10073524 1.7060001
-0.26321143 0.11373334 1.7060001
-0.25671238 0.11210857 1.7060001
-0.22421713 0.11698285 1.706
-0.21446858 0.1153581 1.7060001
-0.20796953 0.11373334 1.7060001
-0.17547429 0.1104838 1.706
-0.16572572 0.1104838 1.706
-0.13323048 0.11373334 1.7060001
-0.12510666 0.11373334 1.7060001
-0.11048381 0.11048381 1.7060001
-0.10723429 0.11048381 1.7060001
-0.097485721 0.11048381 1.7060001
-0.35744762 0.19172192 1.7060001
-0.35203174 0.20472001 1.706
-0.34769905 0.21284382 1.7060001
-0.35094857 0.22259238 1.7060001
-0.3541981 0.23721525 1.7060001
-0.35311493 0.24263112 1.706
-0.29245716 0.25346288 1.706
-0.28631917 0.25454605 1.7060002
-0.15435238 0.26808572 1.7060001
-0.14557867 0.26841068 1.7060001
-0.13810477 0.26808572 1.7060001
-0.012998096 0.26808572 1.7060001
-0.0084487619 0.26711088 1.7060001
-0.15402743 0.2755596 1.7060001
-0.14622857 0.27620953 1.7060002
-0.13810475 0.2762095 1.7060002
-0.12673144 0.27945906 1.7060001
-0.015435238 0.27539715 1.7060001
-0.0097485716 0.27620953 1.706
-0.1538108 0.28379175 1.706
-0.14622857 0.28595814 1.7060002
-0.13810475 0.28595814 1.7060002
-0.016247619 0.28270859 1.7060001
-0.0081238095 0.28270859 1.7060001
0.045493335 0.28920764 1.7060001
0.10723429 0.28920764 1.7060001
0.11373334 0.28790784 1.7060001
0.22746667 0.28270859 1.7060001
-0.012998096 0.29895622 1.7060001
-0.0059574605 0.29624829 1.7060002
0.001624762 0.29895622 1.7060001
0.037911113 0.29787305 1.706
0.043868575 0.29489431 1.7060001
0.10642192 0.29489431 1.7060001
0.1128049 0.29524249 1.7060002
0.12348191 0.29570669 1.7060001
-0.13323048 0.30870476 1.7060001
-0.12998095 0.30870476 1.7060001
-0.012998096 0.30545524 1.706
-0.0064990474 0.30504906 1.7060002
0.0036105821 0.30617735 1.7060002
0.037369527 0.30220571 1.7060001
0.042243812 0.30220571 1.7060001
0.10723429 0.30545524 1.706
0.11373334 0.30545524 1.7060002
0.12348191 0.30545527 1.7060002
-0.22421715 0.31520382 1.7060001
-0.21121906 0.31195429 1.7060001
-0.13323048 0.31682858 1.7060001
-0.12998095 0.31845334 1.7060001
-0.012998096 0.31682858 1.7060001
-0.0032495239 0.31520382 1.706
0.0046421769 0.31473961 1.7060002
0.022746667 0.31845334 1.7060001
0.037694477 0.31585371 1.7060001
0.04642177 0.31566805 1.7060002
0.061740953 0.31845334 1.7060001
0.097485721 0.31520382 1.7060001
0.10506795 0.31574538 1.7060002
0.11454572 0.31682858 1.7060001
0.12456509 0.31520382 1.7060002
0.1371299 0.31715351 1.7060001
0.14557867 0.31715351 1.7060001
-0.33632573 0.32820192 1.7060001
-0.24371429 0.32657716 1.7060001
-0.22291735 0.32560229 1.7060001
-0.048742861 0.32495239 1.7060001
-0.012998096 0.32495239 1.7060001
-0.0051992382 0.32365257 1.7060001
0.0046421769 0.32495239 1.7060002
0.016247619 0.32657716 1.7060002
0.025996193 0.32657716 1.7060002
0.032495238 0.32170287 1.7060001
0.042243812 0.32820192 1.7060001
0.057408255 0.32278606 1.706
0.065802857 0.32251525 1.7060001
0.073926672 0.32414001 1.7060001
0.08611238 0.32414001 1.7060001
0.095048577 0.32657716 1.7060001
0.10317239 0.32332763 1.7060001
0.1153581 0.32170287 1.7060001
0.12348191 0.32386923 1.706
0.1369442 0.32402396 1.7060002
0.14622857 0.32495242 1.7060002
0.15922667 0.32820192 1.7060001
0.16572572 0.32820192 1.7060001
-0.33600077 0.33405107 1.7060001
-0.25021335 0.3379505 1.7060001
-0.24371429 0.3379505 1.706
-0.23721525 0.3379505 1.7060001
-0.082321279 0.33578417 1.706
-0.0769054 0.33578417 1.706
-0.058491431 0.3379505 1.7060001
-0.046034921 0.33578417 1.7060002
-0.022746667 0.3379505 1.7060001
-0.015164445 0.33524254 1.7060002
-0.0056866668 0.33632573 1.7060001
0.0048742858 0.33470097 1.706
0.014297905 0.33405107 1.7060001
0.026402382 0.3342948 1.7060002
0.034444951 0.33405107 1.7060001
0.042243812 0.33145145 1.7060001
0.074739054 0.33145145 1.7060001
0.08557079 0.33253464 1.706
0.090986669 0.33145145 1.7060001
0.12998095 0.33145145 1.7060001
0.1377798 0.33405107 1.7060001
0.14622857 0.33470094 1.7060002
0.15597714 0.33470097 1.7060002
0.16479729 0.3351652 1.7060002
0.19578382 0.33713812 1.7060001
0.20309524 0.33470097 1.7060002
-0.33470097 0.34553269 1.7060002
-0.32820192 0.34769905 1.7060001
-0.25021335 0.34282479 1.7060001
-0.24325009 0.34352112 1.7060002
-0.23721524 0.34444952 1.706
-0.20472001 0.34769905 1.7060001
-0.1928051 0.34661588 1.706
-0.090986669 0.34769905 1.7060001
-0.058491431 0.34769905 1.7060001
-0.047118098 0.34120002 1.7060001
-0.024913019 0.34444952 1.706
-0.016247619 0.34444952 1.7060002
-0.0064990469 0.34444955 1.7060002
0.0050219912 0.34415412 1.7060001
0.016789207 0.34553269 1.7060002
0.025996193 0.34444958 1.7060002
0.034816325 0.34491375 1.7060002
0.045493335 0.34769905 1.7060001
0.08665397 0.34228322 1.706
0.092936382 0.34574932 1.7060001
0.13648 0.34444952 1.706
0.14817829 0.34444955 1.7060001
0.15597714 0.34444958 1.7060002
0.16572572 0.34444952 1.7060002
0.17222477 0.34769905 1.7060001
0.19578382 0.34444952 1.7060001
0.20390762 0.3452619 1.7060001
-0.33470097 0.3541981 1.7060002
-0.32820192 0.35257334 1.7060001
-0.27404317 0.35636446 1.706
-0.26646096 0.35582286 1.7060001
-0.25671241 0.35582289 1.7060002
-0.24263114 0.35473967 1.7060002
-0.23442996 0.35512653 1.7060002
-0.22421716 0.35512653 1.7060002
-0.21771811 0.35582286 1.7060001
-0.20472001 0.35257334 1.7060001
-0.19334668 0.35257334 1.7060001
-0.051992383 0.3541981 1.7060001
-0.032495238 0.3541981 1.706
-0.027620954 0.3541981 1.7060002
-0.012998096 0.3541981 1.706
-0.0064990474 0.3541981 1.7060002
0.0038994285 0.35419807 1.7060001
0.036673196 0.35373387 1.7060002
0.045493335 0.3541981 1.7060002
0.055241909 0.35512653 1.7060002
0.064340577 0.35614783 1.7060001
0.074739046 0.35744762 1.706
0.084487617 0.35744762 1.706
0.094236195 0.35257331 1.7060002
0.10352056 0.35512653 1.7060002
0.11373334 0.35614783 1.7060001
0.12543163 0.35679772 1.7060001
0.13518019 0.354848 1.7060001
0.14622858 0.3535482 1.7060001
0.15597714 0.3541981 1.7060002
0.16442591 0.3528983 1.7060001
0.17547429 0.3541981 1.7060001
0.18197334 0.35582286 1.7060001
0.19415906 0.35582286 1.7060001
0.20309524 0.35094857 1.7060001
0.21121906 0.35744762 1.7060001
-0.34120002 0.36069715 1.7060001
-0.33377251 0.36348248 1.7060002
-0.32820192 0.36557144 1.7060001
-0.30383047 0.3671962 1.7060001
-0.29733145 0.3671962 1.7060001
-0.27490973 0.36394668 1.7060001
-0.26646096 0.36435282 1.7060002
-0.25671238 0.36394668 1.7060002
-0.24263114 0.36502984 1.7060002
-0.23288256 0.36286351 1.7060002
-0.22313398 0.36340508 1.7060002
-0.2164183 0.36329678 1.7060001
-0.14297906 0.3671962 1.7060001
-0.13648 0.36557144 1.7060001
-0.056866668 0.3671962 1.7060001
-0.045493335 0.36557144 1.7060001
-0.032495238 0.36069715 1.7060001
-0.025454605 0.36394668 1.7060002
-0.014297905 0.36459658 1.7060001
-0.0064990474 0.36394671 1.7060002
0.0048742858 0.36427164 1.7060001
0.017547429 0.36524647 1.7060001
0.022746667 0.36069715 1.7060001
0.037911113 0.36178032 1.706
0.04642177 0.36348245 1.7060002
0.051992383 0.36069715 1.7060001
0.077176191 0.36313429 1.7060001
0.084487617 0.36394668 1.7060002
0.094236195 0.36557144 1.7060001
0.10305633 0.36348248 1.7060002
0.11373334 0.36394668 1.7060002
0.12510668 0.36394668 1.706
0.13485523 0.36394668 1.7060002
0.14297906 0.36069715 1.7060001
0.15662704 0.36199695 1.7060001
0.16572572 0.36394665 1.7060002
0.17222477 0.36557144 1.7060001
0.18630604 0.36286351 1.706
0.19713779 0.36394668 1.706
0.20472001 0.36557141 1.7060002
0.21121906 0.36557144 1.7060001
0.22584191 0.36394668 1.7060001
0.2307162 0.36394668 1.7060001
-0.34228322 0.37586161 1.706
-0.33470094 0.37369525 1.7060002
-0.32820192 0.37369525 1.706
-0.31357905 0.37694478 1.7060001
-0.30437204 0.37477842 1.7060002
-0.29570666 0.37369525 1.7060002
-0.28758287 0.37369525 1.7060002
-0.27458477 0.37369525 1.7060002
-0.26738939 0.37323108 1.7060002
-0.25508764 0.37044573 1.7060001
-0.24306437 0.37369525 1.7060001
-0.23396572 0.3761324 1.7060001
-0.22421715 0.37450764 1.7060001
-0.21487477 0.37410146 1.7060002
-0.20796953 0.37369525 1.7060001
-0.14297906 0.37369525 1.706
-0.1371299 0.37304536 1.7060001
-0.12998095 0.37044573 1.7060001
-0.071489528 0.37694478 1.7060001
-0.063907295 0.37477842 1.7060002
-0.0556481 0.37410146 1.7060002
-0.046305716 0.3761324 1.7060001
-0.023559049 0.37450764 1.7060001
-0.016247619 0.37369522 1.7060002
-0.0060348297 0.37276682 1.7060002
0.0038994285 0.37337032 1.7060001
0.01706 0.37207049 1.7060001
0.026460409 0.37462369 1.7060002
0.035280544 0.37462369 1.7060002
0.044843428 0.37564498 1.7060001
0.087737143 0.37369525 1.706
0.094236195 0.37369525 1.7060001
0.10333487 0.37239546 1.7060001
0.11373334 0.37369525 1.7060002
0.12510666 0.37369522 1.706
0.1360738 0.37410143 1.7060002
0.16665415 0.37415949 1.7060002
0.17222477 0.37369525 1.706
0.2051262 0.37369525 1.7060002
0.21121906 0.37207049 1.7060001
-0.34282479 0.3850686 1.7060001
-0.33388859 0.38669336 1.7060002
-0.32524782 0.38551176 1.7060001
-0.31490842 0.3855117 1.7060001
-0.30545524 0.38506857 1.706
-0.29570669 0.38506857 1.706
-0.28595814 0.38506857 1.706
-0.2762095 0.38506857 1.706
-0.26678592 0.38539353 1.7060001
-0.25582615 0.38639796 1.7060001
-0.24371429 0.3818191 1.7060002
-0.23315336 0.38466239 1.7060002
-0.22607403 0.38437229 1.7060002
-0.21374647 0.38380492 1.7060002
-0.20796953 0.38831812 1.7060001
-0.18197334 0.38344383 1.7060001
-0.17872381 0.38669336 1.706
-0.1624762 0.38669336 1.7060001
-0.15435238 0.38019431 1.7060001
-0.14622858 0.38019431 1.706
-0.13648 0.38019431 1.706
-0.12348191 0.38344383 1.7060001
-0.11292095 0.3891305 1.7060001
-0.10357857 0.38709956 1.7060002
-0.094700411 0.38762179 1.7060002
-0.08611238 0.38994288 1.7060001
-0.072789334 0.38604346 1.7060001
-0.068240002 0.38181907 1.7060001
-0.051992383 0.38019431 1.7060001
-0.045493335 0.38506857 1.706
-0.035203174 0.38615179 1.7060002
-0.02460354 0.38576493 1.7060002
-0.016897524 0.3850686 1.7060001
-0.0064990474 0.38571852 1.7060001
0.0037494504 0.38544354 1.706
0.016247621 0.38994288 1.706
0.022746667 0.38994288 1.7060001
0.037369527 0.38181907 1.7060001
0.045493335 0.38441867 1.7060001
0.051992383 0.38994288 1.7060001
0.068240002 0.38831812 1.7060001
0.074739046 0.38669336 1.7060002
0.084487617 0.3850686 1.7060001
0.093153022 0.38615179 1.7060002
0.10463468 0.38864309 1.7060001
0.11343792 0.38551176 1.7060001
0.12614061 0.38403466 1.7060001
0.13647999 0.38506857 1.706
0.14655352 0.38604346 1.7060001
0.15532723 0.38474363 1.7060001
0.16572572 0.38344383 1.7060002
0.17628667 0.38750574 1.7060001
0.18522286 0.38669336 1.7060002
0.19497144 0.38669336 1.7060002
0.20472001 0.38506857 1.706
0.21381867 0.38734326 1.7060001
0.22421716 0.38831815 1.7060002
0.2307162 0.38831812 1.7060001
-0.33275124 0.39579201 1.7060001
-0.32588083 0.39597771 1.7060002
-0.29245716 0.39319238 1.7060001
-0.27837589 0.39535871 1.706
-0.26646096 0.39644191 1.7060002
-0.25454605 0.39535871 1.7060002
-0.23355955 0.39644191 1.7060002
-0.22746666 0.39644191 1.706
-0.21121906 0.39806667 1.7060001
-0.20666972 0.39644191 1.7060001
-0.18197334 0.39644191 1.706
-0.17547429 0.39644191 1.7060002
-0.16613191 0.39684808 1.7060002
-0.15706033 0.39752507 1.706
-0.14687848 0.39774173 1.7060001
-0.11535811 0.39644191 1.7060002
-0.092286482 0.39579201 1.7060001
-0.08611238 0.39644191 1.7060001
-0.072301909 0.39725429 1.7060001
-0.068240002 0.39969143 1.7060001
-0.044564899 0.39690611 1.7060002
-0.03574476 0.39644188 1.7060002
-0.027945906 0.39709181 1.7060001
-0.019497143 0.39481714 1.7060001
0.0064990479 0.39481714 1.7060002
0.015783401 0.39551347 1.7060002
0.025346288 0.39514211 1.7060001
0.03574476 0.39752507 1.706
0.045899525 0.39684808 1.7060002
0.054835718 0.39684808 1.7060002
0.064990483 0.39644188 1.7060002
0.073810615 0.39597771 1.7060002
0.084487617 0.39319238 1.7060001
0.094236195 0.39481714 1.7060002
0.10398477 0.39644188 1.7060002
0.11373334 0.39644188 1.7060002
0.12510666 0.39644191 1.7060001
0.13688618 0.3960357 1.7060002
0.14582238 0.39644191 1.7060002
0.15402743 0.39709181 1.7060001
0.17655747 0.39752507 1.7060002
0.18197334 0.39319238 1.7060001
0.19497144 0.39481714 1.7060002
0.20518422 0.39737034 1.7060002
0.21609335 0.39725429 1.7060001
0.22356725 0.39514211 1.7060001
0.2307162 0.39806667 1.7060001
-0.32495239 0.40619048 1.7060001
-0.31357905 0.40781525 1.7060001
-0.30545524 0.40814018 1.7060001
-0.29651907 0.40862763 1.7060001
-0.28920764 0.40944001 1.7060001
-0.26321143 0.40294096 1.7060001
-0.25562921 0.40294096 1.706
-0.23288256 0.40510729 1.7060002
-0.22421716 0.40659663 1.7060002
-0.21406239 0.40659669 1.7060002
-0.20715715 0.4053781 1.7060001
-0.18278572 0.40700287 1.7060001
-0.17547429 0.40489069 1.7060001
-0.16464254 0.40510729 1.7060002
-0.15706033 0.40835682 1.706
-0.11503315 0.40619048 1.7060001
-0.085416056 0.40665469 1.7060002
-0.073655874 0.40727365 1.7060002
-0.065396659 0.40659669 1.7060002
-0.055241909 0.40781522 1.7060002
-0.045493335 0.40619048 1.7060002
-0.036394667 0.40684038 1.7060001
-0.02599619 0.40619048 1.7060001
0.0073114289 0.4053781 1.7060001
0.046793144 0.40554056 1.7060001
0.055241909 0.40526205 1.7060002
0.064990476 0.40619048 1.7060002
0.072301909 0.4053781 1.7060001
0.10491321 0.40665469 1.7060002
0.11332715 0.40578425 1.7060002
0.12388811 0.40740904 1.7060002
0.13688618 0.40659666 1.7060002
0.1451454 0.40835682 1.706
0.15792686 0.40684038 1.7060001
0.16618994 0.40711889 1.7060002
0.17547429 0.40619048 1.7060002
0.19627126 0.40749031 1.7060001
0.20472001 0.40619048 1.7060002
0.21121906 0.40619048 1.706
0.22486706 0.40424076 1.7060001
-0.33470097 0.41918859 1.706
-0.32495239 0.41648063 1.7060002
-0.31613225 0.41547486 1.7060002
-0.30437204 0.41485587 1.7060002
-0.29570669 0.41547486 1.7060002
-0.28595814 0.41648063 1.7060002
-0.27620953 0.41788879 1.7060001
-0.26971048 0.41756383 1.7060001
-0.25671238 0.41268954 1.7060001
-0.23350152 0.41686746 1.7060002
-0.22381097 0.41593903 1.7060002
-0.21446858 0.41593903 1.7060002
-0.20715715 0.41675144 1.7060001
-0.19172192 0.41756383 1.7060001
-0.18522286 0.41593903 1.7060002
-0.17547429 0.41723886 1.7060001
-0.16464254 0.41648063 1.7060002
-0.15597714 0.41593903 1.7060002
-0.14582238 0.41553286 1.7060002
-0.13453028 0.41658896 1.7060001
-0.12632523 0.41675144 1.7060002
-0.11419756 0.4150106 1.7060002
-0.10268496 0.41593903 1.7060001
-0.094236195 0.4175638 1.7060002
-0.085137524 0.41658896 1.7060001
-0.074739046 0.41593903 1.7060002
-0.064990483 0.41593903 1.7060002
-0.055706125 0.4150106 1.7060002
-0.043868572 0.41268954 1.7060001
-0.034932382 0.41350192 1.7060001
-0.027296001 0.41593903 1.7060001
0.0048742858 0.41593906 1.706
0.012998096 0.41593906 1.706
0.038994286 0.41268954 1.7060001
0.042243812 0.41593906 1.706
0.055891812 0.41788879 1.7060001
0.063907303 0.41485587 1.7060002
0.076363809 0.41512668 1.7060001
0.087737143 0.41593906 1.706
0.094236195 0.41837621 1.7060001
0.10439096 0.41634527 1.7060002
0.1128049 0.41640329 1.7060002
0.12510666 0.41593906 1.706
0.13593841 0.41485587 1.7060002
0.14622857 0.41593903 1.7060002
0.15651873 0.41648066 1.7060002
0.16572572 0.41593906 1.7060002
0.1750681 0.41634524 1.7060002
0.18562905 0.41553283 1.7060002
0.19497144 0.41593903 1.7060002
0.20472001 0.415939 1.7060002
0.21354015 0.41593903 1.7060002
0.22486706 0.41788879 1.7060001
-0.34120002 0.42406288 1.7060001
-0.33470097 0.42406288 1.7060002
-0.32170287 0.42406288 1.7060001
-0.31845334 0.42243811 1.7060001
-0.30220571 0.42243811 1.7060001
-0.27580333 0.42528147 1.7060002
-0.26971048 0.42568764 1.706
-0.23355955 0.42568764 1.7060002
-0.22486706 0.42373791 1.7060001
-0.21354015 0.42522341 1.7060002
-0.20472001 0.42568761 1.7060002
-0.19497144 0.42568761 1.7060002
-0.18481667 0.42609385 1.7060002
-0.17547429 0.42568764 1.7060002
-0.16572572 0.42568764 1.7060002
-0.15597714 0.42568764 1.7060002
-0.14530014 0.42615184 1.7060002
-0.13647999 0.42568764 1.7060002
-0.12554978 0.42568767 1.7060001
-0.11617048 0.42487526 1.7060001
-0.10357858 0.42568764 1.7060002
-0.094236195 0.42568767 1.7060002
-0.084487617 0.42568764 1.7060002
-0.074739046 0.42568767 1.7060002
-0.064990476 0.42568761 1.7060002
-0.055241909 0.42568764 1.7060002
-0.035744764 0.42893717 1.706
-0.027296001 0.42633754 1.7060001
0.0059574605 0.42677081 1.7060002
0.015164445 0.42785397 1.706
0.038994286 0.42568764 1.706
0.045087144 0.42609382 1.7060002
0.053617142 0.42243811 1.7060001
0.077988572 0.42568764 1.7060001
0.08611238 0.42650002 1.7060001
0.094236195 0.42568764 1.7060002
0.10398477 0.42528147 1.7060002
0.11373334 0.42568764 1.7060002
0.12348191 0.4273124 1.7060002
0.13702159 0.42622921 1.7060002
0.14622857 0.42528147 1.7060002
0.15760191 0.42568764 1.7060001
0.1665381 0.42568764 1.7060001
0.17547429 0.42568767 1.7060002
0.18522286 0.42568764 1.7060002
0.19450723 0.42661604 1.7060002
0.21446858 0.4273124 1.7060001
0.22486706 0.42763734 1.7060001
-0.30220571 0.43218669 1.7060001
-0.27377239 0.43462384 1.7060001
-0.26646098 0.43543616 1.7060002
-0.23559049 0.43543622 1.7060001
-0.22584191 0.43218669 1.7060001
-0.21284382 0.43543622 1.7060002
-0.20431381 0.43543619 1.7060002
-0.19497144 0.43543619 1.7060002
-0.17547429 0.43543619 1.7060002
-0.16572572 0.43543622 1.7060002
-0.15597714 0.43543619 1.7060002
-0.14622857 0.43543616 1.7060002
-0.13647999 0.43543619 1.7060002
-0.12543161 0.43511122 1.7060001
-0.11332715 0.43584237 1.7060002
-0.10398477 0.43543616 1.7060002
-0.094236195 0.43590042 1.7060002
-0.084487617 0.43543619 1.7060002
-0.074739046 0.43543622 1.7060002
-0.065918915 0.43497199 1.7060002
-0.056054287 0.43299907 1.7060001
-0.03574476 0.43543616 1.7060002
-0.029245714 0.43543622 1.706
0.0086653968 0.43326986 1.706
0.019497143 0.43706098 1.7060001
0.025996191 0.43868575 1.7060001
0.087737143 0.43218669 1.7060001
0.094236195 0.43218669 1.7060001
0.10723429 0.43381146 1.7060001
0.11048381 0.43218669 1.7060001
0.13972953 0.43381146 1.7060001
0.14576435 0.43450776 1.7060002
0.15467733 0.43478632 1.7060001
0.16637562 0.43348652 1.7060001
0.17547429 0.43381146 1.7060002
0.18522286 0.43381143 1.7060002
0.19497144 0.43497199 1.7060002
0.20796953 0.43218669 1.7060001
0.21446858 0.43489459 1.7060002
0.22421716 0.43543622 1.7060002
0.23234098 0.43543622 1.7060002
-0.34607428 0.44680953 1.7060001
-0.28704128 0.44735113 1.706
-0.27512637 0.44626793 1.7060002
-0.26646096 0.4458347 1.7060001
-0.25606248 0.44453484 1.7060001
-0.24696381 0.44356 1.7060001
-0.23396574 0.44518477 1.7060002
-0.22421716 0.4461132 1.7060002
-0.21354015 0.4451848 1.7060002
-0.20472001 0.44518477 1.7060002
-0.19497144 0.443885 1.7060001
-0.18522286 0.4451848 1.7060002
-0.17547429 0.44518477 1.7060002
-0.16572572 0.44518477 1.7060002
-0.15690558 0.44472054 1.7060002
-0.14492877 0.443885 1.7060001
-0.13323048 0.44680953 1.7060001
-0.12478171 0.44485983 1.7060001
-0.11373334 0.44518477 1.7060002
-0.10491321 0.445649 1.7060002
-0.094236195 0.44680953 1.7060001
-0.083404444 0.44464317 1.7060002
-0.074739046 0.44518477 1.7060002
-0.064990476 0.44518477 1.7060002
-0.055241905 0.44453487 1.7060001
-0.045493335 0.44559094 1.7060002
-0.03574476 0.44193521 1.706
0.0097485716 0.4451848 1.706
0.019497143 0.4451848 1.706
0.02437143 0.44193524 1.7060001
0.14297906 0.44843429 1.7060001
0.15597714 0.4451848 1.706
0.1624762 0.44680953 1.7060001
0.22746667 0.44518477 1.7060001
0.23234096 0.44356 1.7060001
-0.34444955 0.45168382 1.7060001
-0.29245716 0.45168382 1.7060001
-0.28812447 0.45276698 1.706
-0.2752811 0.45539755 1.7060002
-0.26591936 0.45547488 1.7060002
-0.25725397 0.45493332 1.7060002
-0.24046476 0.45493332 1.706
-0.23396574 0.45493338 1.7060002
-0.22421715 0.45493332 1.7060002
-0.21446858 0.45493335 1.7060002
-0.20472001 0.45493332 1.7060002
-0.19497144 0.45688304 1.7060001
-0.18481667 0.45533952 1.7060002
-0.17628667 0.45330858 1.7060001
-0.16572572 0.45168382 1.7060001
-0.14297906 0.45168382 1.7060001
-0.13648 0.45168382 1.7060001
-0.1240235 0.45385015 1.7060002
-0.11698286 0.45168382 1.7060001
-0.10398477 0.45493332 1.7060002
-0.074739046 0.45493332 1.7060002
-0.064990476 0.45493332 1.7060002
-0.055241909 0.45539755 1.7060002
-0.04642177 0.45446911 1.7060002
-0.038181905 0.45412093 1.7060001
0.058491431 0.45655811 1.7060001
0.064990476 0.45818287 1.7060001
0.097485721 0.45493335 1.7060001
0.10479715 0.45574576 1.7060001
0.16572572 0.45655811 1.7060001
