# .PCD v0.7 - Point Cloud Data file format
VERSION 0.7
FIELDS x y z
SIZE 4 4 4
TYPE F F F
COUNT 1 1 1
WIDTH 1532
HEIGHT 1
VIEWPOINT 0 0 0 1 0 0 0
POINTS 1532
DATA ascii
-0.86416006 0.13186857 1.473
-0.86544764 0.13249524 1.48
-0.86262858 0.13249524 1.48
-0.86329526 0.13303238 1.4860001
-0.86046481 0.13303238 1.4860001
-0.86109716 0.13356952 1.4920001
-0.86228192 0.13419619 1.4990001
-0.86344004 0.13482286 1.506
-0.86400002 0.13536 1.5120001
-0.86112005 0.13536 1.5120001
-0.85824001 0.13536 1.5120001
-0.85932004 0.13598667 1.5190001
-0.85642672 0.13598667 1.5190001
-0.86083812 0.13715048 1.5320001
-0.86184001 0.13777715 1.539
-0.86281526 0.13840382 1.5460001
-0.86765718 0.13965715 1.5600001
-0.86468577 0.13965715 1.5600001
-0.8617143 0.13965715 1.5600001
-0.85874289 0.13965715 1.5600001
-0.86546862 0.13357715 1.4610001
-0.86268574 0.13357715 1.4610001
-0.86343431 0.13412572 1.4670001
-0.86416006 0.1346743 1.473
-0.86544764 0.13531429 1.48
-0.86262858 0.13531429 1.48
-0.86329526 0.13586286 1.4860001
-0.86046481 0.13586286 1.4860001
-0.86513716 0.13705143 1.4990001
-0.86228192 0.13705143 1.4990001
-0.86344004 0.13769144 1.506
-0.86400002 0.13824001 1.5120001
-0.86112005 0.13824001 1.5120001
-0.85824001 0.13824001 1.5120001
-0.85536003 0.13824001 1.5120001
-0.85642672 0.13888 1.5190001
-0.85353339 0.13888 1.5190001
-0.85792005 0.14006858 1.5320001
-0.85890859 0.14070858 1.539
-0.86376387 0.14198858 1.5530001
-0.86080575 0.14198858 1.5530001
-0.85784763 0.14198858 1.5530001
-0.85874289 0.14262858 1.5600001
-0.86546862 0.13636 1.4610001
-0.86268574 0.13636 1.4610001
-0.86343431 0.13692001 1.4670001
-0.86416006 0.13748001 1.473
-0.86544764 0.13813333 1.48
-0.86262858 0.13813333 1.48
-0.86329526 0.13869333 1.4860001
-0.86393911 0.13925333 1.4920001
-0.86513716 0.13990667 1.4990001
-0.86228192 0.13990667 1.4990001
-0.86344004 0.14056 1.506
-0.86400002 0.14112 1.5120001
-0.86112005 0.14112 1.5120001
-0.85824001 0.14112 1.5120001
-0.85932004 0.14177334 1.5190001
-0.85642672 0.14177334 1.5190001
-0.8569048 0.14233334 1.5250001
-0.85792005 0.14298667 1.5320001
-0.85890859 0.14364001 1.539
-0.86376387 0.14494666 1.5530001
-0.86080575 0.14494666 1.5530001
-0.85784763 0.14494666 1.5530001
-0.85488957 0.14494666 1.5530001
-0.86546862 0.13914286 1.4610001
-0.86268574 0.13914286 1.4610001
-0.86343431 0.13971429 1.4670001
-0.86416006 0.14028572 1.473
-0.86544764 0.14095239 1.48
-0.86262858 0.14095239 1.48
-0.86329526 0.14152381 1.4860001
-0.86046481 0.14152381 1.4860001
-0.86109716 0.14209524 1.4920001
-0.86228192 0.14276192 1.4990001
-0.86344004 0.14342858 1.506
-0.86400002 0.14400001 1.5120001
-0.8651067 0.14466667 1.5190001
-0.86221337 0.14466667 1.5190001
-0.86271429 0.1452381 1.5250001
-0.85980958 0.1452381 1.5250001
-0.86083812 0.14590476 1.5320001
-0.86184001 0.14657143 1.539
-0.86281526 0.14723811 1.5460001
-0.86376387 0.14790477 1.5530001
-0.86080575 0.14790477 1.5530001
-0.85784763 0.14790477 1.5530001
-0.85488957 0.14790477 1.5530001
-0.86546862 0.14192572 1.4610001
-0.86622858 0.14250858 1.4670001
-0.86696577 0.14309144 1.473
-0.8682667 0.14377144 1.48
-0.86544764 0.14377144 1.48
-0.86612576 0.14435428 1.4860001
-0.86329526 0.14435428 1.4860001
-0.86046481 0.14435428 1.4860001
-0.86109716 0.14493714 1.4920001
-0.86228192 0.14561714 1.4990001
-0.86344004 0.14629714 1.506
-0.86400002 0.14688 1.5120001
-0.8651067 0.14756 1.5190001
-0.86221337 0.14756 1.5190001
-0.86271429 0.14814286 1.5250001
-0.85980958 0.14814286 1.5250001
-0.86083812 0.14882286 1.5320001
-0.86184001 0.14950286 1.539
-0.85890859 0.14950286 1.539
-0.86376387 0.15086286 1.5530001
-0.86080575 0.15086286 1.5530001
-0.85398096 0.15018286 1.5460001
-0.85103625 0.15018286 1.5460001
-0.86546862 0.14470857 1.4610001
-0.86622858 0.14530286 1.4670001
-0.86696577 0.14589715 1.473
-0.8682667 0.14659049 1.48
-0.86544764 0.14659049 1.48
-0.86612576 0.14718477 1.4860001
-0.86329526 0.14718477 1.4860001
-0.86046481 0.14718477 1.4860001
-0.86109716 0.14777905 1.4920001
-0.86228192 0.14847238 1.4990001
-0.86344004 0.14916572 1.506
-0.86400002 0.14976001 1.5120001
-0.8651067 0.15045334 1.5190001
-0.86221337 0.15045334 1.5190001
-0.86271429 0.15104762 1.5250001
-0.86375624 0.15174095 1.5320001
-0.86477149 0.15243429 1.539
-0.86184001 0.15243429 1.539
-0.85890859 0.15243429 1.539
-0.85987049 0.15312763 1.5460001
-0.85692573 0.15312763 1.5460001
-0.85398096 0.15312763 1.5460001
-0.85103625 0.15312763 1.5460001
-0.86191434 0.14688572 1.455
-0.86268574 0.14749144 1.4610001
-0.86343431 0.14809714 1.4670001
-0.8682667 0.14940953 1.48
-0.86544764 0.14940953 1.48
-0.86612576 0.15001525 1.4860001
-0.86329526 0.15001525 1.4860001
-0.86393911 0.15062095 1.4920001
-0.86513716 0.15132762 1.4990001
-0.86228192 0.15132762 1.4990001
-0.86344004 0.1520343 1.506
-0.86400002 0.15264 1.5120001
-0.86112005 0.15264 1.5120001
-0.86221337 0.15334667 1.5190001
-0.86271429 0.15395239 1.5250001
-0.86375624 0.15465905 1.5320001
-0.86477149 0.15536572 1.539
-0.86184001 0.15536572 1.539
-0.86281526 0.15607239 1.5460001
-0.85987049 0.15607239 1.5460001
-0.85692573 0.15607239 1.5460001
-0.85398096 0.15607239 1.5460001
-0.85103625 0.15607239 1.5460001
-0.86191434 0.14965715 1.455
-0.86268574 0.15027429 1.4610001
-0.86696577 0.15150857 1.473
-0.8682667 0.15222858 1.48
-0.86544764 0.15222858 1.48
-0.86612576 0.15284573 1.4860001
-0.86329526 0.15284573 1.4860001
-0.86046481 0.15284573 1.4860001
-0.86109716 0.15346286 1.4920001
-0.86228192 0.15418287 1.4990001
-0.85942668 0.15418287 1.4990001
-0.86400002 0.15552001 1.5120001
-0.8651067 0.15624 1.5190001
-0.86221337 0.15624 1.5190001
-0.86271429 0.15685715 1.5250001
-0.86375624 0.15757714 1.5320001
-0.86477149 0.15829715 1.539
-0.86184001 0.15829715 1.539
-0.86281526 0.15901715 1.5460001
-0.86765718 0.16045715 1.5600001
-0.86468577 0.16045715 1.5600001
-0.88160002 0.16416001 1.5960001
-0.87856001 0.16416001 1.5960001
-0.87552005 0.16416001 1.5960001
-0.86191434 0.15242858 1.455
-0.86622858 0.15368572 1.4670001
-0.86696577 0.15431429 1.473
-0.8682667 0.15504763 1.48
-0.86544764 0.15504763 1.48
-0.86612576 0.1556762 1.4860001
-0.86329526 0.1556762 1.4860001
-0.86393911 0.15630476 1.4920001
-0.86109716 0.15630476 1.4920001
-0.86228192 0.15703811 1.4990001
-0.86344004 0.15777144 1.506
-0.86400002 0.1584 1.5120001
-0.8651067 0.15913334 1.5190001
-0.86221337 0.15913334 1.5190001
-0.86271429 0.15976191 1.5250001
-0.86375624 0.16049525 1.5320001
-0.86477149 0.16122858 1.539
-0.86576003 0.16196191 1.5460001
-0.86672193 0.16269524 1.5530001
-0.86765718 0.16342857 1.5600001
-0.87244576 0.16489525 1.5740001
-0.86944765 0.16489525 1.5740001
-0.87470669 0.16646667 1.5890001
-0.87168002 0.16646667 1.5890001
-0.86546862 0.15584001 1.4610001
-0.86622858 0.15648 1.4670001
-0.86696577 0.15712 1.473
-0.8682667 0.15786667 1.48
-0.86544764 0.15786667 1.48
-0.86612576 0.15850668 1.4860001
-0.86329526 0.15850668 1.4860001
-0.86046481 0.15850668 1.4860001
-0.86109716 0.15914667 1.4920001
-0.86228192 0.15989333 1.4990001
-0.85942668 0.15989333 1.4990001
-0.86057144 0.16064 1.506
-0.86112005 0.16128001 1.5120001
-0.86221337 0.16202667 1.5190001
-0.86271429 0.16266668 1.5250001
-0.86375624 0.16341335 1.5320001
-0.8687048 0.16490667 1.5460001
-0.86576003 0.16490667 1.5460001
-0.86672193 0.16565333 1.5530001
-0.86765718 0.1664 1.5600001
-0.87244576 0.16789334 1.5740001
-0.87331432 0.16864 1.5810001
-0.87470669 0.16949333 1.5890001
-0.87168002 0.16949333 1.5890001
-0.86546862 0.15862286 1.4610001
-0.86622858 0.15927429 1.4670001
-0.86343431 0.15927429 1.4670001
-0.86416006 0.15992571 1.473
-0.86544764 0.16068572 1.48
-0.86262858 0.16068572 1.48
-0.86329526 0.16133715 1.4860001
-0.86046481 0.16133715 1.4860001
-0.86109716 0.16198857 1.4920001
-0.86228192 0.16274858 1.4990001
-0.85942668 0.16274858 1.4990001
-0.86057144 0.16350858 1.506
-0.8651067 0.16492 1.5190001
-0.86561906 0.16557144 1.5250001
-0.8666743 0.16633144 1.5320001
-0.86375624 0.16633144 1.5320001
-0.8687048 0.16785143 1.5460001
-0.86576003 0.16785143 1.5460001
-0.86672193 0.16861144 1.5530001
-0.86765718 0.16937144 1.5600001
-0.87244576 0.17089143 1.5740001
-0.87331432 0.17165144 1.5810001
-0.87030292 0.17165144 1.5810001
-0.87168002 0.17252001 1.5890001
-0.86865336 0.17252001 1.5890001
-0.86546862 0.16140573 1.4610001
-0.86622858 0.16206858 1.4670001
-0.86343431 0.16206858 1.4670001
-0.86416006 0.16273144 1.473
-0.86544764 0.16350476 1.48
-0.86262858 0.16350476 1.48
-0.86329526 0.16416763 1.4860001
-0.86046481 0.16416763 1.4860001
-0.86109716 0.16483048 1.4920001
-0.86228192 0.16560382 1.4990001
-0.85942668 0.16560382 1.4990001
-0.86057144 0.16637714 1.506
-0.8651067 0.16781335 1.5190001
-0.86221337 0.16781335 1.5190001
-0.86271429 0.16847619 1.5250001
-0.86375624 0.16924953 1.5320001
-0.86477149 0.17002286 1.539
-0.86184001 0.17002286 1.539
-0.86281526 0.1707962 1.5460001
-0.86376387 0.17156953 1.5530001
-0.86080575 0.17156953 1.5530001
-0.86944765 0.17388953 1.5740001
-0.87470669 0.17554668 1.5890001
-0.87552005 0.17632 1.5960001
-0.87248003 0.17632 1.5960001
-0.86546862 0.16418858 1.4610001
-0.86268574 0.16418858 1.4610001
-0.86343431 0.16486286 1.4670001
-0.86416006 0.16553715 1.473
-0.86135429 0.16553715 1.473
-0.85854858 0.16553715 1.473
-0.85980958 0.16632381 1.48
-0.85699052 0.16632381 1.48
-0.85763431 0.1669981 1.4860001
-0.85825527 0.16767238 1.4920001
-0.85541338 0.16767238 1.4920001
-0.85257149 0.16767238 1.4920001
-0.8651067 0.17070667 1.5190001
-0.86561906 0.17138095 1.5250001
-0.8666743 0.17216763 1.5320001
-0.86375624 0.17216763 1.5320001
-0.86477149 0.17295429 1.539
-0.86576003 0.17374095 1.5460001
-0.86281526 0.17374095 1.5460001
-0.86765718 0.17531429 1.5600001
-0.86856574 0.17610095 1.567
-0.86944765 0.17688763 1.5740001
-0.86644953 0.17688763 1.5740001
-0.86345148 0.17688763 1.5740001
-0.87248003 0.17936 1.5960001
-0.86546862 0.16697143 1.4610001
-0.86268574 0.16697143 1.4610001
-0.86343431 0.16765715 1.4670001
-0.86064005 0.16765715 1.4670001
-0.86135429 0.16834286 1.473
-0.86262858 0.16914286 1.48
-0.85980958 0.16914286 1.48
-0.85699052 0.16914286 1.48
-0.85763431 0.16982858 1.4860001
-0.85480386 0.16982858 1.4860001
-0.85942668 0.1713143 1.4990001
-0.86057144 0.1721143 1.506
-0.8651067 0.1736 1.5190001
-0.86561906 0.17428572 1.5250001
-0.8666743 0.17508572 1.5320001
-0.86375624 0.17508572 1.5320001
-0.86477149 0.17588572 1.539
-0.86576003 0.17668572 1.5460001
-0.86281526 0.17668572 1.5460001
-0.86376387 0.17748572 1.5530001
-0.86468577 0.17828572 1.5600001
-0.86558098 0.17908572 1.567
-0.86259621 0.17908572 1.567
-0.85961145 0.17908572 1.567
-0.86546862 0.1697543 1.4610001
-0.86622858 0.17045143 1.4670001
-0.86343431 0.17045143 1.4670001
-0.86064005 0.17045143 1.4670001
-0.86135429 0.17114858 1.473
-0.85854858 0.17114858 1.473
-0.85980958 0.17196192 1.48
-0.85699052 0.17196192 1.48
-0.85763431 0.17265905 1.4860001
-0.85480386 0.17265905 1.4860001
-0.85942668 0.17416953 1.4990001
-0.86057144 0.17498286 1.506
-0.8651067 0.17649335 1.5190001
-0.86561906 0.17719048 1.5250001
-0.86271429 0.17719048 1.5250001
-0.86375624 0.17800382 1.5320001
-0.86477149 0.17881715 1.539
-0.86184001 0.17881715 1.539
-0.86281526 0.17963049 1.5460001
-0.86376387 0.18044382 1.5530001
-0.86468577 0.18125714 1.5600001
-0.86558098 0.18207048 1.567
-0.86259621 0.18207048 1.567
-0.85961145 0.18207048 1.567
-0.86546862 0.17253715 1.4610001
-0.86268574 0.17253715 1.4610001
-0.85990292 0.17253715 1.4610001
-0.86064005 0.17324573 1.4670001
-0.85784572 0.17324573 1.4670001
-0.85854858 0.17395429 1.473
-0.85574287 0.17395429 1.473
-0.85699052 0.17478096 1.48
-0.85763431 0.17548953 1.4860001
-0.85480386 0.17548953 1.4860001
-0.85541338 0.1761981 1.4920001
-0.86057144 0.17785144 1.506
-0.86112005 0.17856 1.5120001
-0.86221337 0.17938668 1.5190001
-0.86271429 0.18009524 1.5250001
-0.86375624 0.18092191 1.5320001
-0.86477149 0.18174858 1.539
-0.86184001 0.18174858 1.539
-0.86281526 0.18257524 1.5460001
-0.86376387 0.18340191 1.5530001
-0.86468577 0.18422858 1.5600001
-0.86558098 0.18505524 1.567
-0.86259621 0.18505524 1.567
-0.85961145 0.18505524 1.567
-0.86546862 0.17532 1.4610001
-0.86268574 0.17532 1.4610001
-0.85990292 0.17532 1.4610001
-0.86064005 0.17604001 1.4670001
-0.86135429 0.17676 1.473
-0.85854858 0.17676 1.473
-0.85980958 0.17760001 1.48
-0.85699052 0.17760001 1.48
-0.85763431 0.17832001 1.4860001
-0.85825527 0.17904 1.4920001
-0.85942668 0.17988001 1.4990001
-0.86057144 0.18072 1.506
-0.86112005 0.18144001 1.5120001
-0.86221337 0.18228 1.5190001
-0.86271429 0.18300001 1.5250001
-0.86375624 0.18384001 1.5320001
-0.86477149 0.18468 1.539
-0.86184001 0.18468 1.539
-0.86281526 0.18552001 1.5460001
-0.86376387 0.18636 1.5530001
-0.86856574 0.18804 1.567
-0.86558098 0.18804 1.567
-0.86259621 0.18804 1.567
-0.85961145 0.18804 1.567
-0.86546862 0.17810287 1.4610001
-0.86268574 0.17810287 1.4610001
-0.85990292 0.17810287 1.4610001
-0.86064005 0.17883429 1.4670001
-0.86135429 0.17956573 1.473
-0.85854858 0.17956573 1.473
-0.85980958 0.18041906 1.48
-0.85699052 0.18041906 1.48
-0.86109716 0.1818819 1.4920001
-0.85825527 0.1818819 1.4920001
-0.85942668 0.18273525 1.4990001
-0.86057144 0.18358858 1.506
-0.86112005 0.18432 1.5120001
-0.86221337 0.18517335 1.5190001
-0.86271429 0.18590477 1.5250001
-0.86375624 0.1867581 1.5320001
-0.86083812 0.1867581 1.5320001
-0.86184001 0.18761143 1.539
-0.86281526 0.18846478 1.5460001
-0.86376387 0.18931811 1.5530001
-0.86856574 0.19102477 1.567
-0.86558098 0.19102477 1.567
-0.86259621 0.19102477 1.567
-0.85961145 0.19102477 1.567
-0.86546862 0.18088572 1.4610001
-0.86268574 0.18088572 1.4610001
-0.85990292 0.18088572 1.4610001
-0.86064005 0.18162858 1.4670001
-0.86135429 0.18237144 1.473
-0.85854858 0.18237144 1.473
-0.85980958 0.1832381 1.48
-0.86046481 0.18398096 1.4860001
-0.86109716 0.18472381 1.4920001
-0.85825527 0.18472381 1.4920001
-0.85942668 0.18559048 1.4990001
-0.86057144 0.18645716 1.506
-0.86112005 0.18720001 1.5120001
-0.86221337 0.18806668 1.5190001
-0.86271429 0.18880953 1.5250001
-0.86375624 0.1896762 1.5320001
-0.86083812 0.1896762 1.5320001
-0.86184001 0.19054286 1.539
-0.86281526 0.19140953 1.5460001
-0.86376387 0.19227619 1.5530001
-0.86856574 0.19400953 1.567
-0.86558098 0.19400953 1.567
-0.86259621 0.19400953 1.567
-0.85961145 0.19400953 1.567
-0.86546862 0.18366858 1.4610001
-0.86268574 0.18366858 1.4610001
-0.85990292 0.18366858 1.4610001
-0.86064005 0.18442287 1.4670001
-0.86135429 0.18517715 1.473
-0.85854858 0.18517715 1.473
-0.85980958 0.18605715 1.48
-0.86046481 0.18681143 1.4860001
-0.86109716 0.18756571 1.4920001
-0.85825527 0.18756571 1.4920001
-0.85942668 0.18844572 1.4990001
-0.86057144 0.18932572 1.506
-0.86112005 0.19008 1.5120001
-0.85824001 0.19008 1.5120001
-0.85932004 0.19096 1.5190001
-0.85980958 0.19171429 1.5250001
-0.86083812 0.19259429 1.5320001
-0.86184001 0.19347429 1.539
-0.86281526 0.1943543 1.5460001
-0.86376387 0.1952343 1.5530001
-0.86856574 0.19699429 1.567
-0.86558098 0.19699429 1.567
-0.86259621 0.19699429 1.567
-0.85961145 0.19699429 1.567
-0.86191434 0.18568572 1.455
-0.86268574 0.18645144 1.4610001
-0.85990292 0.18645144 1.4610001
-0.86064005 0.18721715 1.4670001
-0.86135429 0.18798286 1.473
-0.86262858 0.1888762 1.48
-0.85980958 0.1888762 1.48
-0.86046481 0.18964191 1.4860001
-0.86109716 0.19040762 1.4920001
-0.86228192 0.19130096 1.4990001
-0.86344004 0.1921943 1.506
-0.86057144 0.1921943 1.506
-0.85770291 0.1921943 1.506
-0.85824001 0.19296001 1.5120001
-0.85932004 0.19385333 1.5190001
-0.85980958 0.19461906 1.5250001
-0.86083812 0.19551238 1.5320001
-0.85792005 0.19551238 1.5320001
-0.85890859 0.19640572 1.539
-0.86376387 0.19819239 1.5530001
-0.86856574 0.19997905 1.567
-0.86558098 0.19997905 1.567
-0.86644953 0.20087239 1.5740001
-0.86345148 0.20087239 1.5740001
-0.86045337 0.20087239 1.5740001
-0.86191434 0.18845715 1.455
-0.86268574 0.18923429 1.4610001
-0.85990292 0.18923429 1.4610001
-0.86064005 0.19001144 1.4670001
-0.86135429 0.19078858 1.473
-0.86262858 0.19169524 1.48
-0.85980958 0.19169524 1.48
-0.86046481 0.19247238 1.4860001
-0.86109716 0.19324952 1.4920001
-0.86228192 0.1941562 1.4990001
-0.86344004 0.19506286 1.506
-0.86057144 0.19506286 1.506
-0.85770291 0.19506286 1.506
-0.85824001 0.19584 1.5120001
-0.85932004 0.19674668 1.5190001
-0.85980958 0.19752382 1.5250001
-0.86083812 0.19843048 1.5320001
-0.85792005 0.19843048 1.5320001
-0.85890859 0.19933715 1.539
-0.85987049 0.20024382 1.5460001
-0.86856574 0.20296381 1.567
-0.86944765 0.20387049 1.5740001
-0.86644953 0.20387049 1.5740001
-0.86345148 0.20387049 1.5740001
-0.86045337 0.20387049 1.5740001
-0.86191434 0.19122858 1.455
-0.86268574 0.19201715 1.4610001
-0.85990292 0.19201715 1.4610001
-0.86064005 0.19280572 1.4670001
-0.86135429 0.19359429 1.473
-0.86262858 0.19451429 1.48
-0.85980958 0.19451429 1.48
-0.86046481 0.19530286 1.4860001
-0.86109716 0.19609143 1.4920001
-0.86228192 0.19701144 1.4990001
-0.86344004 0.19793144 1.506
-0.86057144 0.19793144 1.506
-0.86112005 0.19872001 1.5120001
-0.85824001 0.19872001 1.5120001
-0.85932004 0.19964001 1.5190001
-0.85980958 0.20042858 1.5250001
-0.86083812 0.20134857 1.5320001
-0.85792005 0.20134857 1.5320001
-0.85890859 0.20226859 1.539
-0.85987049 0.20318858 1.5460001
-0.86468577 0.20502858 1.5600001
-0.86558098 0.20594858 1.567
-0.86644953 0.20686857 1.5740001
-0.86345148 0.20686857 1.5740001
-0.86045337 0.20686857 1.5740001
-0.86191434 0.19400001 1.455
-0.86268574 0.1948 1.4610001
-0.85990292 0.1948 1.4610001
-0.86064005 0.1956 1.4670001
-0.86544764 0.19733334 1.48
-0.86262858 0.19733334 1.48
-0.85980958 0.19733334 1.48
-0.86046481 0.19813333 1.4860001
-0.85763431 0.19813333 1.4860001
-0.85825527 0.19893335 1.4920001
-0.85942668 0.19986667 1.4990001
-0.86057144 0.2008 1.506
-0.86112005 0.2016 1.5120001
-0.86221337 0.20253333 1.5190001
-0.86271429 0.20333335 1.5250001
-0.86375624 0.20426667 1.5320001
-0.86083812 0.20426667 1.5320001
-0.85792005 0.20426667 1.5320001
-0.85890859 0.2052 1.539
-0.85987049 0.20613334 1.5460001
-0.86080575 0.20706667 1.5530001
-0.86558098 0.20893334 1.567
-0.86259621 0.20893334 1.567
-0.85961145 0.20893334 1.567
-0.85662669 0.20893334 1.567
-0.86191434 0.19677144 1.455
-0.86268574 0.19758287 1.4610001
-0.86343431 0.1983943 1.4670001
-0.86064005 0.1983943 1.4670001
-0.86544764 0.20015238 1.48
-0.86262858 0.20015238 1.48
-0.85980958 0.20015238 1.48
-0.86046481 0.20096381 1.4860001
-0.85763431 0.20096381 1.4860001
-0.85825527 0.20177525 1.4920001
-0.85942668 0.20272191 1.4990001
-0.86057144 0.20366858 1.506
-0.86112005 0.20448001 1.5120001
-0.86221337 0.20542668 1.5190001
-0.86271429 0.20623811 1.5250001
-0.86375624 0.20718478 1.5320001
-0.86083812 0.20718478 1.5320001
-0.85792005 0.20718478 1.5320001
-0.85890859 0.20813143 1.539
-0.85987049 0.2090781 1.5460001
-0.85692573 0.2090781 1.5460001
-0.8617143 0.21097143 1.5600001
-0.85874289 0.21097143 1.5600001
-0.85577148 0.21097143 1.5600001
-0.85662669 0.2119181 1.567
-0.86191434 0.19954287 1.455
-0.86268574 0.20036572 1.4610001
-0.86343431 0.20118858 1.4670001
-0.86064005 0.20118858 1.4670001
-0.86135429 0.20201144 1.473
-0.86262858 0.20297143 1.48
-0.85980958 0.20297143 1.48
-0.85699052 0.20297143 1.48
-0.85763431 0.2037943 1.4860001
-0.85480386 0.2037943 1.4860001
-0.85942668 0.20557715 1.4990001
-0.86057144 0.20653716 1.506
-0.86112005 0.20736001 1.5120001
-0.86221337 0.20832001 1.5190001
-0.86271429 0.20914286 1.5250001
-0.86375624 0.21010287 1.5320001
-0.86083812 0.21010287 1.5320001
-0.85792005 0.21010287 1.5320001
-0.85890859 0.21106286 1.539
-0.85987049 0.21202287 1.5460001
-0.85692573 0.21202287 1.5460001
-0.85784763 0.21298286 1.5530001
-0.85874289 0.21394287 1.5600001
-0.85961145 0.21490286 1.567
-0.85662669 0.21490286 1.567
-0.86191434 0.20231429 1.455
-0.8591429 0.20231429 1.455
-0.86343431 0.20398286 1.4670001
-0.86064005 0.20398286 1.4670001
-0.86135429 0.20481715 1.473
-0.86262858 0.20579049 1.48
-0.85980958 0.20579049 1.48
-0.85699052 0.20579049 1.48
-0.85763431 0.20662478 1.4860001
-0.85480386 0.20662478 1.4860001
-0.85541338 0.20745906 1.4920001
-0.86057144 0.20940572 1.506
-0.86112005 0.21024001 1.5120001
-0.86221337 0.21121334 1.5190001
-0.85932004 0.21121334 1.5190001
-0.86375624 0.21302097 1.5320001
-0.86083812 0.21302097 1.5320001
-0.86184001 0.21399429 1.539
-0.86281526 0.21496762 1.5460001
-0.85987049 0.21496762 1.5460001
-0.86080575 0.21594097 1.5530001
-0.8617143 0.2169143 1.5600001
-0.86259621 0.21788763 1.567
-0.85961145 0.21788763 1.567
-0.85662669 0.21788763 1.567
-0.8591429 0.20508572 1.455
-0.85637146 0.20508572 1.455
-0.86064005 0.20677716 1.4670001
-0.86135429 0.20762287 1.473
-0.85854858 0.20762287 1.473
-0.85574287 0.20762287 1.473
-0.85699052 0.20860954 1.48
-0.85763431 0.20945525 1.4860001
-0.85480386 0.20945525 1.4860001
-0.85541338 0.21030097 1.4920001
-0.86057144 0.2122743 1.506
-0.86112005 0.21312001 1.5120001
-0.86221337 0.21410668 1.5190001
-0.86271429 0.21495239 1.5250001
-0.86375624 0.21593906 1.5320001
-0.86083812 0.21593906 1.5320001
-0.86184001 0.21692573 1.539
-0.85890859 0.21692573 1.539
-0.85987049 0.21791239 1.5460001
-0.86468577 0.21988572 1.5600001
-0.8617143 0.21988572 1.5600001
-0.86259621 0.22087239 1.567
-0.85961145 0.22087239 1.567
-0.85662669 0.22087239 1.567
-0.85364193 0.22087239 1.567
-0.8591429 0.20785715 1.455
-0.85637146 0.20785715 1.455
-0.86064005 0.20957144 1.4670001
-0.85784572 0.20957144 1.4670001
-0.85854858 0.21042858 1.473
-0.85980958 0.21142858 1.48
-0.85699052 0.21142858 1.48
-0.85763431 0.21228573 1.4860001
-0.85480386 0.21228573 1.4860001
-0.85541338 0.21314287 1.4920001
-0.86057144 0.21514286 1.506
-0.8651067 0.21700001 1.5190001
-0.86221337 0.21700001 1.5190001
-0.86271429 0.21785715 1.5250001
-0.86375624 0.21885715 1.5320001
-0.86477149 0.21985716 1.539
-0.86184001 0.21985716 1.539
-0.86281526 0.22085716 1.5460001
-0.86376387 0.22185715 1.5530001
-0.86468577 0.22285715 1.5600001
-0.8617143 0.22285715 1.5600001
-0.86644953 0.22485715 1.5740001
-0.85961145 0.22385715 1.567
-0.86428005 0.22585715 1.5810001
-0.86126858 0.22585715 1.5810001
-0.8591429 0.21062858 1.455
-0.85637146 0.21062858 1.455
-0.86064005 0.21236572 1.4670001
-0.86135429 0.21323429 1.473
-0.85854858 0.21323429 1.473
-0.85980958 0.21424763 1.48
-0.85699052 0.21424763 1.48
-0.85763431 0.2151162 1.4860001
-0.85480386 0.2151162 1.4860001
-0.85541338 0.21598478 1.4920001
-0.86057144 0.21801144 1.506
-0.8651067 0.21989334 1.5190001
-0.86221337 0.21989334 1.5190001
-0.86271429 0.22076191 1.5250001
-0.86375624 0.22177525 1.5320001
-0.86083812 0.22177525 1.5320001
-0.86184001 0.22278857 1.539
-0.86281526 0.22380191 1.5460001
-0.86376387 0.22481525 1.5530001
-0.86468577 0.22582857 1.5600001
-0.8617143 0.22582857 1.5600001
-0.87030292 0.22886857 1.5810001
-0.86729145 0.22886857 1.5810001
-0.86865336 0.23002668 1.5890001
-0.86562669 0.23002668 1.5890001
-0.8591429 0.21340001 1.455
-0.85990292 0.21428001 1.4610001
-0.86064005 0.21516001 1.4670001
-0.85784572 0.21516001 1.4670001
-0.85854858 0.21604002 1.473
-0.85980958 0.21706668 1.48
-0.85699052 0.21706668 1.48
-0.85763431 0.21794668 1.4860001
-0.85480386 0.21794668 1.4860001
-0.85942668 0.21985334 1.4990001
-0.85657144 0.21985334 1.4990001
-0.86112005 0.22176 1.5120001
-0.86221337 0.22278668 1.5190001
-0.86271429 0.22366667 1.5250001
-0.86375624 0.22469334 1.5320001
-0.86083812 0.22469334 1.5320001
-0.86184001 0.22572 1.539
-0.86281526 0.22674668 1.5460001
-0.86376387 0.22777334 1.5530001
-0.86468577 0.22880001 1.5600001
-0.86558098 0.22982667 1.567
-0.86259621 0.22982667 1.567
-0.87168002 0.23305334 1.5890001
-0.86865336 0.23305334 1.5890001
-0.86562669 0.23305334 1.5890001
-0.8591429 0.21617144 1.455
-0.85990292 0.21706286 1.4610001
-0.86064005 0.21795429 1.4670001
-0.85784572 0.21795429 1.4670001
-0.85854858 0.21884573 1.473
-0.85980958 0.21988572 1.48
-0.85699052 0.21988572 1.48
-0.85763431 0.22077715 1.4860001
-0.85480386 0.22077715 1.4860001
-0.85942668 0.22270858 1.4990001
-0.85657144 0.22270858 1.4990001
-0.86112005 0.22464001 1.5120001
-0.85824001 0.22464001 1.5120001
-0.86271429 0.22657144 1.5250001
-0.86375624 0.22761144 1.5320001
-0.86083812 0.22761144 1.5320001
-0.86184001 0.22865143 1.539
-0.86281526 0.22969143 1.5460001
-0.86376387 0.23073144 1.5530001
-0.86468577 0.23177144 1.5600001
-0.86558098 0.23281144 1.567
-0.86644953 0.23385143 1.5740001
-0.86729145 0.23489144 1.5810001
-0.87248003 0.23712 1.5960001
-0.85745525 0.23385143 1.5740001
-0.8544572 0.23385143 1.5740001
-0.8591429 0.21894287 1.455
-0.85990292 0.21984573 1.4610001
-0.86064005 0.22074857 1.4670001
-0.85784572 0.22074857 1.4670001
-0.85854858 0.22165143 1.473
-0.85980958 0.22270477 1.48
-0.85699052 0.22270477 1.48
-0.85763431 0.22360763 1.4860001
-0.85480386 0.22360763 1.4860001
-0.86344004 0.22661716 1.506
-0.86057144 0.22661716 1.506
-0.86112005 0.22752 1.5120001
-0.85824001 0.22752 1.5120001
-0.86271429 0.2294762 1.5250001
-0.86375624 0.23052953 1.5320001
-0.86083812 0.23052953 1.5320001
-0.85792005 0.23052953 1.5320001
-0.85890859 0.23158287 1.539
-0.85987049 0.2326362 1.5460001
-0.86468577 0.23474286 1.5600001
-0.86558098 0.2357962 1.567
-0.87030292 0.23790286 1.5810001
-0.86729145 0.23790286 1.5810001
-0.87248003 0.24016 1.5960001
-0.86126858 0.23790286 1.5810001
-0.85825717 0.23790286 1.5810001
-0.8591429 0.22171429 1.455
-0.85990292 0.22262858 1.4610001
-0.86064005 0.22354287 1.4670001
-0.85784572 0.22354287 1.4670001
-0.85854858 0.22445714 1.473
-0.85980958 0.22552381 1.48
-0.85699052 0.22552381 1.48
-0.85763431 0.22643811 1.4860001
-0.85480386 0.22643811 1.4860001
-0.85942668 0.22841905 1.4990001
-0.85657144 0.22841905 1.4990001
-0.86112005 0.23040001 1.5120001
-0.85824001 0.23040001 1.5120001
-0.86271429 0.23238096 1.5250001
-0.85980958 0.23238096 1.5250001
-0.8569048 0.23238096 1.5250001
-0.85792005 0.23344763 1.5320001
-0.85500193 0.23344763 1.5320001
-0.85987049 0.23558097 1.5460001
-0.86468577 0.23771429 1.5600001
-0.8617143 0.23771429 1.5600001
-0.87856001 0.2432 1.5960001
-0.87552005 0.2432 1.5960001
-0.87248003 0.2432 1.5960001
-0.86944002 0.2432 1.5960001
-0.8664 0.2432 1.5960001
-0.86268574 0.22541143 1.4610001
-0.85990292 0.22541143 1.4610001
-0.86064005 0.22633715 1.4670001
-0.85784572 0.22633715 1.4670001
-0.85854858 0.22726287 1.473
-0.85980958 0.22834286 1.48
-0.85699052 0.22834286 1.48
-0.85763431 0.22926858 1.4860001
-0.85480386 0.22926858 1.4860001
-0.85942668 0.23127429 1.4990001
-0.86057144 0.2323543 1.506
-0.86112005 0.23328 1.5120001
-0.86221337 0.23436001 1.5190001
-0.86271429 0.23528573 1.5250001
-0.86375624 0.23636572 1.5320001
-0.8569048 0.23528573 1.5250001
-0.86184001 0.23744573 1.539
-0.85890859 0.23744573 1.539
-0.86376387 0.23960572 1.5530001
-0.86468577 0.24068572 1.5600001
-0.8617143 0.24068572 1.5600001
-0.87856001 0.24624 1.5960001
-0.87936002 0.24732001 1.603
-0.87630671 0.24732001 1.603
-0.87325335 0.24732001 1.603
-0.87020004 0.24732001 1.603
-0.86714667 0.24732001 1.603
-0.86268574 0.2281943 1.4610001
-0.85990292 0.2281943 1.4610001
-0.86064005 0.22913143 1.4670001
-0.85784572 0.22913143 1.4670001
-0.85854858 0.23006858 1.473
-0.85980958 0.23116191 1.48
-0.85699052 0.23116191 1.48
-0.85417145 0.23116191 1.48
-0.85480386 0.23209906 1.4860001
-0.85541338 0.23303621 1.4920001
-0.85257149 0.23303621 1.4920001
-0.86112005 0.23616001 1.5120001
-0.85824001 0.23616001 1.5120001
-0.86271429 0.23819049 1.5250001
-0.86375624 0.23928382 1.5320001
-0.86083812 0.23928382 1.5320001
-0.86184001 0.24037716 1.539
-0.85890859 0.24037716 1.539
-0.85987049 0.24147049 1.5460001
-0.86468577 0.24365716 1.5600001
-0.8617143 0.24365716 1.5600001
-0.87856001 0.24928001 1.5960001
-0.87936002 0.25037333 1.603
-0.88068002 0.25162286 1.6110001
-0.87761146 0.25162286 1.6110001
-0.87454289 0.25162286 1.6110001
-0.87147433 0.25162286 1.6110001
-0.86840576 0.25162286 1.6110001
-0.86268574 0.23097715 1.4610001
-0.85990292 0.23097715 1.4610001
-0.86064005 0.23192573 1.4670001
-0.85784572 0.23192573 1.4670001
-0.85854858 0.23287429 1.473
-0.85980958 0.23398095 1.48
-0.85699052 0.23398095 1.48
-0.85763431 0.23492953 1.4860001
-0.85480386 0.23492953 1.4860001
-0.85541338 0.23587811 1.4920001
-0.86057144 0.23809144 1.506
-0.86112005 0.23904 1.5120001
-0.85824001 0.23904 1.5120001
-0.86271429 0.24109524 1.5250001
-0.86375624 0.24220191 1.5320001
-0.86083812 0.24220191 1.5320001
-0.86184001 0.24330857 1.539
-0.85890859 0.24330857 1.539
-0.86376387 0.24552192 1.5530001
-0.86468577 0.24662858 1.5600001
-0.8617143 0.24662858 1.5600001
-0.87856001 0.25232002 1.5960001
-0.88374859 0.25469145 1.6110001
-0.88068002 0.25469145 1.6110001
-0.87761146 0.25469145 1.6110001
-0.87834287 0.2557981 1.618
-0.87526101 0.2557981 1.618
-0.87217909 0.2557981 1.618
-0.86268574 0.23376001 1.4610001
-0.86343431 0.23472001 1.4670001
-0.86064005 0.23472001 1.4670001
-0.85784572 0.23472001 1.4670001
-0.86262858 0.23680001 1.48
-0.85980958 0.23680001 1.48
-0.85699052 0.23680001 1.48
-0.85417145 0.23680001 1.48
-0.85825527 0.23872001 1.4920001
-0.85541338 0.23872001 1.4920001
-0.85257149 0.23872001 1.4920001
-0.85371619 0.23984002 1.4990001
-0.85483432 0.24096 1.506
-0.86271429 0.244 1.5250001
-0.86375624 0.24512 1.5320001
-0.86477149 0.24624 1.539
-0.86184001 0.24624 1.539
-0.86281526 0.24736001 1.5460001
-0.86376387 0.24848001 1.5530001
-0.86080575 0.24848001 1.5530001
-0.86558098 0.25072002 1.567
-0.87470669 0.25424001 1.5890001
-0.87936002 0.25648001 1.603
-0.88068002 0.25776002 1.6110001
-0.87761146 0.25776002 1.6110001
-0.87834287 0.25888002 1.618
-0.8839162 0.26144001 1.6340001
-0.88080382 0.26144001 1.6340001
-0.87769145 0.26144001 1.6340001
-0.86268574 0.23654287 1.4610001
-0.86343431 0.23751429 1.4670001
-0.86064005 0.23751429 1.4670001
-0.85784572 0.23751429 1.4670001
-0.85854858 0.23848572 1.473
-0.85980958 0.23961906 1.48
-0.85699052 0.23961906 1.48
-0.85417145 0.23961906 1.48
-0.85480386 0.24059048 1.4860001
-0.85197335 0.24059048 1.4860001
-0.85657144 0.24269524 1.4990001
-0.85371619 0.24269524 1.4990001
-0.85483432 0.24382858 1.506
-0.86271429 0.24690478 1.5250001
-0.86375624 0.2480381 1.5320001
-0.86477149 0.24917144 1.539
-0.86184001 0.24917144 1.539
-0.86672193 0.25143811 1.5530001
-0.86376387 0.25143811 1.5530001
-0.86856574 0.25370476 1.567
-0.86558098 0.25370476 1.567
-0.86259621 0.25370476 1.567
-0.87552005 0.25840002 1.5960001
-0.88068002 0.26082858 1.6110001
-0.88142478 0.26196191 1.618
-0.88268572 0.26325715 1.626
-0.8795886 0.26325715 1.626
-0.88080382 0.26455238 1.6340001
-0.87769145 0.26455238 1.6340001
-0.86268574 0.23932572 1.4610001
-0.86343431 0.24030858 1.4670001
-0.86064005 0.24030858 1.4670001
-0.85784572 0.24030858 1.4670001
-0.85854858 0.24129143 1.473
-0.85980958 0.24243811 1.48
-0.85699052 0.24243811 1.48
-0.85763431 0.24342096 1.4860001
-0.85480386 0.24342096 1.4860001
-0.85197335 0.24342096 1.4860001
-0.85657144 0.24555048 1.4990001
-0.85770291 0.24669716 1.506
-0.85483432 0.24669716 1.506
-0.85536003 0.24768001 1.5120001
-0.86375624 0.25095621 1.5320001
-0.86477149 0.25210285 1.539
-0.86184001 0.25210285 1.539
-0.86281526 0.25324953 1.5460001
-0.86376387 0.2543962 1.5530001
-0.86468577 0.25554287 1.5600001
-0.8617143 0.25554287 1.5600001
-0.85874289 0.25554287 1.5600001
-0.87552005 0.26144001 1.5960001
-0.87248003 0.26144001 1.5960001
-0.8857829 0.26635429 1.626
-0.88268572 0.26635429 1.626
-0.8839162 0.26766476 1.6340001
-0.88080382 0.26766476 1.6340001
-0.87769145 0.26766476 1.6340001
-0.86622858 0.24310286 1.4670001
-0.86696577 0.24409716 1.473
-0.86416006 0.24409716 1.473
-0.86135429 0.24409716 1.473
-0.86262858 0.24525715 1.48
-0.85980958 0.24525715 1.48
-0.86046481 0.24625143 1.4860001
-0.85763431 0.24625143 1.4860001
-0.85480386 0.24625143 1.4860001
-0.85197335 0.24625143 1.4860001
-0.85257149 0.24724573 1.4920001
-0.84972954 0.24724573 1.4920001
-0.84688765 0.24724573 1.4920001
-0.85536003 0.25056002 1.5120001
-0.85980958 0.25271431 1.5250001
-0.8569048 0.25271431 1.5250001
-0.86184001 0.2550343 1.539
-0.86281526 0.25619429 1.5460001
-0.85987049 0.25619429 1.5460001
-0.86468577 0.25851429 1.5600001
-0.8617143 0.25851429 1.5600001
-0.85874289 0.25851429 1.5600001
-0.87552005 0.26448002 1.5960001
-0.87248003 0.26448002 1.5960001
-0.8857829 0.26945144 1.626
-0.88702857 0.27077717 1.6340001
-0.89203054 0.27326286 1.649
-0.88888955 0.27326286 1.649
-0.86622858 0.24589716 1.4670001
-0.87108576 0.2480762 1.48
-0.86416006 0.24690287 1.473
-0.86135429 0.24690287 1.473
-0.86262858 0.2480762 1.48
-0.85980958 0.2480762 1.48
-0.85699052 0.2480762 1.48
-0.85763431 0.24908191 1.4860001
-0.85480386 0.24908191 1.4860001
-0.85197335 0.24908191 1.4860001
-0.84914291 0.24908191 1.4860001
-0.84972954 0.25008762 1.4920001
-0.85824001 0.25344002 1.5120001
-0.85536003 0.25344002 1.5120001
-0.85980958 0.25561905 1.5250001
-0.86083812 0.2567924 1.5320001
-0.86184001 0.25796571 1.539
-0.86672193 0.26031238 1.5530001
-0.86376387 0.26031238 1.5530001
-0.86468577 0.26148573 1.5600001
-0.86558098 0.26265904 1.567
-0.86259621 0.26265904 1.567
-0.86729145 0.26500574 1.5810001
-0.86428005 0.26500574 1.5810001
-0.88702857 0.27388954 1.6340001
-0.89635813 0.27774477 1.6570001
-0.89320195 0.27774477 1.6570001
-0.86622858 0.24869144 1.4670001
-0.86343431 0.24869144 1.4670001
-0.86064005 0.24869144 1.4670001
-0.86135429 0.24970858 1.473
-0.85854858 0.24970858 1.473
-0.85980958 0.25089526 1.48
-0.86046481 0.25191239 1.4860001
-0.85763431 0.25191239 1.4860001
-0.85480386 0.25191239 1.4860001
-0.85541338 0.25292954 1.4920001
-0.86057144 0.25530288 1.506
-0.85770291 0.25530288 1.506
-0.85824001 0.25632 1.5120001
-0.85932004 0.25750667 1.5190001
-0.86375624 0.25971049 1.5320001
-0.86083812 0.25971049 1.5320001
-0.86184001 0.26089716 1.539
-0.85890859 0.26089716 1.539
-0.85987049 0.26208383 1.5460001
-0.86468577 0.26445717 1.5600001
-0.86558098 0.26564381 1.567
-0.86259621 0.26564381 1.567
-0.86729145 0.26801714 1.5810001
-0.87248003 0.27056 1.5960001
-0.88142478 0.27428955 1.618
-0.88268572 0.27564573 1.626
-0.8795886 0.27564573 1.626
-0.89320195 0.28090096 1.6570001
-0.86977148 0.2525143 1.473
-0.86696577 0.2525143 1.473
-0.86416006 0.2525143 1.473
-0.86135429 0.2525143 1.473
-0.86262858 0.25371429 1.48
-0.85980958 0.25371429 1.48
-0.86046481 0.25474286 1.4860001
-0.85763431 0.25474286 1.4860001
-0.85480386 0.25474286 1.4860001
-0.85541338 0.25577143 1.4920001
-0.86057144 0.25817144 1.506
-0.85770291 0.25817144 1.506
-0.85824001 0.25920001 1.5120001
-0.85536003 0.25920001 1.5120001
-0.85980958 0.26142859 1.5250001
-0.86083812 0.26262859 1.5320001
-0.86184001 0.26382858 1.539
-0.85890859 0.26382858 1.539
-0.85987049 0.2650286 1.5460001
-0.86080575 0.26622859 1.5530001
-0.86558098 0.26862857 1.567
-0.86259621 0.26862857 1.567
-0.86729145 0.27102858 1.5810001
-0.87248003 0.27360001 1.5960001
-0.87761146 0.27617145 1.6110001
-0.87834287 0.27737144 1.618
-0.87526101 0.27737144 1.618
-0.86977148 0.25532001 1.473
-0.86696577 0.25532001 1.473
-0.86416006 0.25532001 1.473
-0.86135429 0.25532001 1.473
-0.85854858 0.25532001 1.473
-0.86329526 0.25757334 1.4860001
-0.86046481 0.25757334 1.4860001
-0.85763431 0.25757334 1.4860001
-0.85825527 0.25861335 1.4920001
-0.85942668 0.25982669 1.4990001
-0.86057144 0.26104 1.506
-0.85770291 0.26104 1.506
-0.86221337 0.26329336 1.5190001
-0.85932004 0.26329336 1.5190001
-0.85980958 0.26433334 1.5250001
-0.86083812 0.26554668 1.5320001
-0.85792005 0.26554668 1.5320001
-0.85890859 0.26676002 1.539
-0.85987049 0.26797333 1.5460001
-0.85692573 0.26797333 1.5460001
-0.8617143 0.27040002 1.5600001
-0.85874289 0.27040002 1.5600001
-0.86729145 0.27404001 1.5810001
-0.87248003 0.27664 1.5960001
-0.86562669 0.27542669 1.5890001
-0.87454289 0.27924001 1.6110001
-0.87147433 0.27924001 1.6110001
-0.86977148 0.25812572 1.473
-0.86696577 0.25812572 1.473
-0.86416006 0.25812572 1.473
-0.86135429 0.25812572 1.473
-0.85854858 0.25812572 1.473
-0.86329526 0.26040381 1.4860001
-0.86046481 0.26040381 1.4860001
-0.85763431 0.26040381 1.4860001
-0.85825527 0.26145524 1.4920001
-0.85942668 0.2626819 1.4990001
-0.86057144 0.26390859 1.506
-0.85770291 0.26390859 1.506
-0.85824001 0.26496002 1.5120001
-0.85536003 0.26496002 1.5120001
-0.86375624 0.26846477 1.5320001
-0.86083812 0.26846477 1.5320001
-0.86184001 0.26969144 1.539
-0.86281526 0.2709181 1.5460001
-0.85987049 0.2709181 1.5460001
-0.86080575 0.27214476 1.5530001
-0.85784763 0.27214476 1.5530001
-0.86259621 0.27459809 1.567
-0.86729145 0.27705145 1.5810001
-0.87248003 0.27968001 1.5960001
-0.87325335 0.28090668 1.603
-0.87454289 0.28230858 1.6110001
-0.87147433 0.28230858 1.6110001
-0.86840576 0.28230858 1.6110001
-0.87390476 0.26217145 1.48
-0.86696577 0.26093143 1.473
-0.8682667 0.26217145 1.48
-0.86135429 0.26093143 1.473
-0.86262858 0.26217145 1.48
-0.86329526 0.26323429 1.4860001
-0.86046481 0.26323429 1.4860001
-0.85763431 0.26323429 1.4860001
-0.85825527 0.26429716 1.4920001
-0.85942668 0.26553714 1.4990001
-0.86057144 0.26677716 1.506
-0.85770291 0.26677716 1.506
-0.85824001 0.26784 1.5120001
-0.85536003 0.26784 1.5120001
-0.86375624 0.27138287 1.5320001
-0.86083812 0.27138287 1.5320001
-0.86184001 0.27262285 1.539
-0.86281526 0.27386287 1.5460001
-0.85987049 0.27386287 1.5460001
-0.86080575 0.27510285 1.5530001
-0.85784763 0.27510285 1.5530001
-0.86259621 0.27758285 1.567
-0.87168002 0.28148001 1.5890001
-0.87630671 0.28396001 1.603
-0.87761146 0.28537714 1.6110001
-0.87454289 0.28537714 1.6110001
-0.87147433 0.28537714 1.6110001
-0.86840576 0.28537714 1.6110001
-0.87390476 0.26499048 1.48
-0.86696577 0.26373714 1.473
-0.86416006 0.26373714 1.473
-0.86135429 0.26373714 1.473
-0.85854858 0.26373714 1.473
-0.85980958 0.26499048 1.48
-0.86046481 0.26606476 1.4860001
-0.85763431 0.26606476 1.4860001
-0.85825527 0.26713905 1.4920001
-0.85942668 0.26839238 1.4990001
-0.86057144 0.26964572 1.506
-0.85770291 0.26964572 1.506
-0.85824001 0.27072001 1.5120001
-0.85536003 0.27072001 1.5120001
-0.86375624 0.27430096 1.5320001
-0.86083812 0.27430096 1.5320001
-0.86184001 0.2755543 1.539
-0.85890859 0.2755543 1.539
-0.85987049 0.27680764 1.5460001
-0.86468577 0.27931431 1.5600001
-0.8617143 0.27931431 1.5600001
-0.86259621 0.28056762 1.567
-0.86729145 0.28307429 1.5810001
-0.87248003 0.28576002 1.5960001
-0.87325335 0.28701335 1.603
-0.87020004 0.28701335 1.603
-0.86714667 0.28701335 1.603
-0.86977148 0.26654288 1.473
-0.86696577 0.26654288 1.473
-0.86416006 0.26654288 1.473
-0.86135429 0.26654288 1.473
-0.85854858 0.26654288 1.473
-0.85980958 0.26780954 1.48
-0.85699052 0.26780954 1.48
-0.85417145 0.26780954 1.48
-0.85480386 0.26889524 1.4860001
-0.85197335 0.26889524 1.4860001
-0.86057144 0.27251428 1.506
-0.85770291 0.27251428 1.506
-0.85824001 0.27360001 1.5120001
-0.85536003 0.27360001 1.5120001
-0.8677029 0.27848572 1.539
-0.86477149 0.27848572 1.539
-0.86184001 0.27848572 1.539
-0.86281526 0.2797524 1.5460001
-0.86376387 0.28101906 1.5530001
-0.86468577 0.28228572 1.5600001
-0.8617143 0.28228572 1.5600001
-0.86259621 0.28355238 1.567
-0.86729145 0.28608572 1.5810001
-0.87248003 0.2888 1.5960001
-0.86944002 0.2888 1.5960001
-0.87020004 0.29006669 1.603
-0.86714667 0.29006669 1.603
-0.87390476 0.27062857 1.48
-0.86696577 0.26934859 1.473
-0.86416006 0.26934859 1.473
-0.86135429 0.26934859 1.473
-0.86262858 0.27062857 1.48
-0.85980958 0.27062857 1.48
-0.85699052 0.27062857 1.48
-0.85763431 0.27172571 1.4860001
-0.85825527 0.27282286 1.4920001
-0.85942668 0.27410287 1.4990001
-0.85657144 0.27410287 1.4990001
-0.85770291 0.27538288 1.506
-0.85824001 0.27648002 1.5120001
-0.85536003 0.27648002 1.5120001
-0.86375624 0.28013715 1.5320001
-0.86477149 0.28141716 1.539
-0.86184001 0.28141716 1.539
-0.85890859 0.28141716 1.539
-0.86376387 0.28397715 1.5530001
-0.86468577 0.28525716 1.5600001
-0.8617143 0.28525716 1.5600001
-0.86259621 0.28653714 1.567
-0.86729145 0.28909716 1.5810001
-0.87248003 0.29184002 1.5960001
-0.86944002 0.29184002 1.5960001
-0.8664 0.29184002 1.5960001
-0.86336005 0.29184002 1.5960001
-0.86977148 0.2721543 1.473
-0.86696577 0.2721543 1.473
-0.86416006 0.2721543 1.473
-0.86544764 0.27344763 1.48
-0.86262858 0.27344763 1.48
-0.85980958 0.27344763 1.48
-0.85699052 0.27344763 1.48
-0.85763431 0.27455619 1.4860001
-0.85480386 0.27455619 1.4860001
-0.85541338 0.27566478 1.4920001
-0.85657144 0.27695811 1.4990001
-0.85770291 0.27825144 1.506
-0.85824001 0.27936 1.5120001
-0.85536003 0.27936 1.5120001
-0.86375624 0.28305525 1.5320001
-0.86477149 0.28434858 1.539
-0.86184001 0.28434858 1.539
-0.85890859 0.28434858 1.539
-0.86376387 0.28693524 1.5530001
-0.86468577 0.28822857 1.5600001
-0.8617143 0.28822857 1.5600001
-0.86259621 0.2895219 1.567
-0.85961145 0.2895219 1.567
-0.86865336 0.29358667 1.5890001
-0.86562669 0.29358667 1.5890001
-0.86260003 0.29358667 1.5890001
-0.86336005 0.29488 1.5960001
-0.86977148 0.27496001 1.473
-0.86696577 0.27496001 1.473
-0.86416006 0.27496001 1.473
-0.86544764 0.27626666 1.48
-0.86262858 0.27626666 1.48
-0.85980958 0.27626666 1.48
-0.85699052 0.27626666 1.48
-0.85763431 0.27738667 1.4860001
-0.85480386 0.27738667 1.4860001
-0.85541338 0.27850667 1.4920001
-0.85257149 0.27850667 1.4920001
-0.85770291 0.28112 1.506
-0.85824001 0.28224 1.5120001
-0.85536003 0.28224 1.5120001
-0.86375624 0.28597334 1.5320001
-0.86083812 0.28597334 1.5320001
-0.86184001 0.28728002 1.539
-0.85890859 0.28728002 1.539
-0.85987049 0.28858668 1.5460001
-0.86468577 0.29120001 1.5600001
-0.8617143 0.29120001 1.5600001
-0.86259621 0.29250666 1.567
-0.86345148 0.29381335 1.5740001
-0.86428005 0.29512 1.5810001
-0.86126858 0.29512 1.5810001
-0.86260003 0.29661334 1.5890001
-0.76187432 0.24174859 1.2820001
-0.75943244 0.24174859 1.2820001
-0.86977148 0.27776572 1.473
-0.86696577 0.27776572 1.473
-0.86416006 0.27776572 1.473
-0.86544764 0.27908573 1.48
-0.86262858 0.27908573 1.48
-0.85980958 0.27908573 1.48
-0.85699052 0.27908573 1.48
-0.85763431 0.28021714 1.4860001
-0.85480386 0.28021714 1.4860001
-0.85541338 0.28134859 1.4920001
-0.85257149 0.28134859 1.4920001
-0.85371619 0.28266859 1.4990001
-0.85483432 0.2839886 1.506
-0.85196573 0.2839886 1.506
-0.85980958 0.28757143 1.5250001
-0.86083812 0.28889143 1.5320001
-0.85792005 0.28889143 1.5320001
-0.85890859 0.29021144 1.539
-0.85987049 0.29153144 1.5460001
-0.86468577 0.29417145 1.5600001
-0.8617143 0.29417145 1.5600001
-0.85874289 0.29417145 1.5600001
-0.85961145 0.29549143 1.567
-0.86045337 0.29681143 1.5740001
-0.85745525 0.29681143 1.5740001
-0.76187432 0.24419048 1.2820001
-0.75943244 0.24419048 1.2820001
-0.86696577 0.28057143 1.473
-0.86416006 0.28057143 1.473
-0.86544764 0.28190479 1.48
-0.86262858 0.28190479 1.48
-0.85980958 0.28190479 1.48
-0.86046481 0.28304762 1.4860001
-0.85763431 0.28304762 1.4860001
-0.85480386 0.28304762 1.4860001
-0.85541338 0.28419048 1.4920001
-0.85257149 0.28419048 1.4920001
-0.84972954 0.28419048 1.4920001
-0.85824001 0.28800002 1.5120001
-0.85536003 0.28800002 1.5120001
-0.85980958 0.2904762 1.5250001
-0.86083812 0.29180953 1.5320001
-0.85792005 0.29180953 1.5320001
-0.85890859 0.29314286 1.539
-0.85987049 0.29447621 1.5460001
-0.86468577 0.29714286 1.5600001
-0.8617143 0.29714286 1.5600001
-0.85874289 0.29714286 1.5600001
-0.85577148 0.29714286 1.5600001
-0.85280001 0.29714286 1.5600001
-0.8498286 0.29714286 1.5600001
-0.76187432 0.2466324 1.2820001
-0.75943244 0.2466324 1.2820001
-0.75699049 0.2466324 1.2820001
-0.86696577 0.28337714 1.473
-0.86064005 0.28222287 1.4670001
-0.86135429 0.28337714 1.473
-0.86262858 0.28472382 1.48
-0.85980958 0.28472382 1.48
-0.86046481 0.28587809 1.4860001
-0.85763431 0.28587809 1.4860001
-0.85825527 0.2870324 1.4920001
-0.85541338 0.2870324 1.4920001
-0.85257149 0.2870324 1.4920001
-0.84972954 0.2870324 1.4920001
-0.85483432 0.28972572 1.506
-0.85536003 0.29088002 1.5120001
-0.86375624 0.29472762 1.5320001
-0.86083812 0.29472762 1.5320001
-0.85792005 0.29472762 1.5320001
-0.85890859 0.2960743 1.539
-0.85987049 0.29742095 1.5460001
-0.85692573 0.29742095 1.5460001
-0.8617143 0.3001143 1.5600001
-0.85874289 0.3001143 1.5600001
-0.85577148 0.3001143 1.5600001
-0.85662669 0.30146095 1.567
-0.85364193 0.30146095 1.567
-0.76187432 0.2490743 1.2820001
-0.75943244 0.2490743 1.2820001
-0.7540381 0.24810287 1.2770001
-0.75160575 0.24810287 1.2770001
-0.86064005 0.28501716 1.4670001
-0.86544764 0.28754288 1.48
-0.86262858 0.28754288 1.48
-0.86329526 0.28870857 1.4860001
-0.86046481 0.28870857 1.4860001
-0.85763431 0.28870857 1.4860001
-0.85825527 0.28987429 1.4920001
-0.85541338 0.28987429 1.4920001
-0.85257149 0.28987429 1.4920001
-0.85371619 0.29123428 1.4990001
-0.85483432 0.29259428 1.506
-0.85536003 0.29376 1.5120001
-0.85248005 0.29376 1.5120001
-0.86083812 0.29764572 1.5320001
-0.86184001 0.29900572 1.539
-0.85890859 0.29900572 1.539
-0.85987049 0.30036572 1.5460001
-0.86080575 0.30172572 1.5530001
-0.8617143 0.30308571 1.5600001
-0.85874289 0.30308571 1.5600001
-0.85577148 0.30308571 1.5600001
-0.85280001 0.30308571 1.5600001
-0.8498286 0.30308571 1.5600001
-0.76187432 0.25151619 1.2820001
-0.75943244 0.25151619 1.2820001
-0.75699049 0.25151619 1.2820001
-0.75749147 0.25249717 1.2870001
-0.75504005 0.25249717 1.2870001
-0.86544764 0.29036191 1.48
-0.86262858 0.29036191 1.48
-0.85980958 0.29036191 1.48
-0.86046481 0.29153907 1.4860001
-0.85763431 0.29153907 1.4860001
-0.85480386 0.29153907 1.4860001
-0.85197335 0.29153907 1.4860001
-0.85657144 0.29408953 1.4990001
-0.85371619 0.29408953 1.4990001
-0.85483432 0.29546288 1.506
-0.85536003 0.29664001 1.5120001
-0.85980958 0.29919049 1.5250001
-0.86083812 0.30056381 1.5320001
-0.85792005 0.30056381 1.5320001
-0.85890859 0.30193716 1.539
-0.85987049 0.30331048 1.5460001
-0.86468577 0.30605716 1.5600001
-0.8617143 0.30605716 1.5600001
-0.85874289 0.30605716 1.5600001
-0.85961145 0.30743048 1.567
-0.85280001 0.30605716 1.5600001
-0.8498286 0.30605716 1.5600001
-0.76187432 0.25395811 1.2820001
-0.75943244 0.25395811 1.2820001
-0.75699049 0.25395811 1.2820001
-0.75749147 0.25494859 1.2870001
-0.75738668 0.25574097 1.291
-0.75492764 0.25574097 1.291
-0.86262858 0.29318097 1.48
-0.85980958 0.29318097 1.48
-0.86046481 0.29436955 1.4860001
-0.86109716 0.29555809 1.4920001
-0.85825527 0.29555809 1.4920001
-0.85541338 0.29555809 1.4920001
-0.85657144 0.29694477 1.4990001
-0.85770291 0.29833144 1.506
-0.85483432 0.29833144 1.506
-0.85536003 0.29952002 1.5120001
-0.85980958 0.30209523 1.5250001
-0.86083812 0.30348191 1.5320001
-0.86184001 0.30486858 1.539
-0.85890859 0.30486858 1.539
-0.85987049 0.30625525 1.5460001
-0.86080575 0.30764192 1.5530001
-0.8617143 0.3090286 1.5600001
-0.86259621 0.31041524 1.567
-0.85961145 0.31041524 1.567
-0.85662669 0.31041524 1.567
-0.85364193 0.31041524 1.567
-0.8544572 0.31180191 1.5740001
-0.85145909 0.31180191 1.5740001
-0.76187432 0.25640002 1.2820001
-0.75943244 0.25640002 1.2820001
-0.75994289 0.25740001 1.2870001
-0.75984573 0.25820002 1.291
-0.75738668 0.25820002 1.291
-0.75492764 0.25820002 1.291
-0.86262858 0.296 1.48
-0.85980958 0.296 1.48
-0.86046481 0.29720002 1.4860001
-0.86109716 0.29840001 1.4920001
-0.85825527 0.29840001 1.4920001
-0.85541338 0.29840001 1.4920001
-0.85657144 0.29980001 1.4990001
-0.85770291 0.3012 1.506
-0.85483432 0.3012 1.506
-0.85932004 0.30380002 1.5190001
-0.85980958 0.30500001 1.5250001
-0.86083812 0.3064 1.5320001
-0.86184001 0.30780002 1.539
-0.85890859 0.30780002 1.539
-0.85987049 0.30920002 1.5460001
-0.86080575 0.31060001 1.5530001
-0.8617143 0.31200001 1.5600001
-0.85874289 0.31200001 1.5600001
-0.85961145 0.3134 1.567
-0.85662669 0.3134 1.567
-0.86126858 0.31620002 1.5810001
-0.86260003 0.31780002 1.5890001
-0.86336005 0.31920001 1.5960001
-0.86032003 0.31920001 1.5960001
-0.76187432 0.2588419 1.2820001
-0.75943244 0.2588419 1.2820001
-0.75994289 0.25985143 1.2870001
-0.75984573 0.26065907 1.291
-0.76032001 0.26166859 1.296
-0.75785148 0.26166859 1.296
-0.7553829 0.26166859 1.296
-0.85980958 0.29881907 1.48
-0.86046481 0.3000305 1.4860001
-0.86109716 0.3012419 1.4920001
-0.85825527 0.3012419 1.4920001
-0.85541338 0.3012419 1.4920001
-0.85657144 0.30265525 1.4990001
-0.85371619 0.30265525 1.4990001
-0.85483432 0.3040686 1.506
-0.85536003 0.30528 1.5120001
