# .PCD v0.7 - Point Cloud Data file format
VERSION 0.7
FIELDS x y z
SIZE 4 4 4
TYPE F F F
COUNT 1 1 1
WIDTH 1514
HEIGHT 1
VIEWPOINT 0 0 0 1 0 0 0
POINTS 1514
DATA ascii
-0.83549148 0.41355431 1.4670001
-0.83269715 0.41355431 1.4670001
-0.82990289 0.41355431 1.4670001
-0.83049148 0.41524574 1.473
-0.83161908 0.41721907 1.48
-0.82880002 0.41721907 1.48
-0.83267814 0.42060193 1.4920001
-0.83372957 0.42257527 1.4990001
-0.83087432 0.42257527 1.4990001
-0.83188576 0.4245486 1.506
-0.82901716 0.4245486 1.506
-0.82944006 0.42624003 1.5120001
-0.8303867 0.42821336 1.5190001
-0.82749337 0.42821336 1.5190001
-0.8278572 0.42990479 1.5250001
-0.82495242 0.42990479 1.5250001
-0.82582098 0.43187812 1.5320001
-0.8266629 0.43385145 1.539
-0.83497149 0.43977144 1.5600001
-0.83946669 0.44371811 1.5740001
-0.84018862 0.44569144 1.5810001
-0.83717716 0.44569144 1.5810001
-0.83416575 0.44569144 1.5810001
-0.83115429 0.44569144 1.5810001
-0.82814288 0.44569144 1.5810001
-0.84058863 0.40272573 1.419
-0.84142858 0.40442857 1.4250001
-0.8387143 0.40442857 1.4250001
-0.83952004 0.40613145 1.4310001
-0.84030288 0.40783429 1.437
-0.83756572 0.40783429 1.437
-0.83831429 0.40953717 1.4430001
-0.83556575 0.40953717 1.4430001
-0.83628005 0.41124001 1.4490001
-0.83352005 0.41124001 1.4490001
-0.83764005 0.41464573 1.4610001
-0.83485717 0.41464573 1.4610001
-0.83549148 0.41634858 1.4670001
-0.83269715 0.41634858 1.4670001
-0.82990289 0.41634858 1.4670001
-0.83049148 0.41805145 1.473
-0.83161908 0.4200381 1.48
-0.83216006 0.42174098 1.4860001
-0.83267814 0.42344382 1.4920001
-0.83372957 0.42543051 1.4990001
-0.83087432 0.42543051 1.4990001
-0.82801908 0.42543051 1.4990001
-0.82901716 0.42741716 1.506
-0.82944006 0.42912 1.5120001
-0.8303867 0.43110669 1.5190001
-0.82749337 0.43110669 1.5190001
-0.8278572 0.43280953 1.5250001
-0.82495242 0.43280953 1.5250001
-0.82582098 0.43479621 1.5320001
-0.8266629 0.43678287 1.539
-0.8312248 0.4407562 1.5530001
-0.83946669 0.44671622 1.5740001
-0.84018862 0.44870287 1.5810001
-0.83717716 0.44870287 1.5810001
-0.83838671 0.45097336 1.5890001
-0.83536005 0.45097336 1.5890001
-0.83233339 0.45097336 1.5890001
-0.84414291 0.40714288 1.4250001
-0.84142858 0.40714288 1.4250001
-0.84224576 0.40885717 1.4310001
-0.84304005 0.41057146 1.437
-0.84030288 0.41057146 1.437
-0.8410629 0.41228572 1.4430001
-0.83831429 0.41228572 1.4430001
-0.83904004 0.414 1.4490001
-0.83628005 0.414 1.4490001
-0.83697146 0.41571429 1.455
-0.83420002 0.41571429 1.455
-0.83485717 0.41742858 1.4610001
-0.83549148 0.41914287 1.4670001
-0.83269715 0.41914287 1.4670001
-0.83329719 0.42085716 1.473
-0.83049148 0.42085716 1.473
-0.83161908 0.42285717 1.48
-0.83216006 0.42457145 1.4860001
-0.83267814 0.42628574 1.4920001
-0.83372957 0.42828572 1.4990001
-0.83087432 0.42828572 1.4990001
-0.82801908 0.42828572 1.4990001
-0.82901716 0.43028572 1.506
-0.82944006 0.43200001 1.5120001
-0.8303867 0.43400002 1.5190001
-0.82749337 0.43400002 1.5190001
-0.8278572 0.4357143 1.5250001
-0.82495242 0.4357143 1.5250001
-0.82582098 0.43771431 1.5320001
-0.8266629 0.43971431 1.539
-0.8312248 0.44371429 1.5530001
-0.83573335 0.4477143 1.567
-0.84018862 0.45171431 1.5810001
-0.83717716 0.45171431 1.5810001
-0.83416575 0.45171431 1.5810001
-0.83536005 0.45400003 1.5890001
-0.83600003 0.45600003 1.5960001
-0.83296001 0.45600003 1.5960001
-0.84414291 0.40985715 1.4250001
-0.84142858 0.40985715 1.4250001
-0.84224576 0.41158289 1.4310001
-0.84304005 0.41330859 1.437
-0.84030288 0.41330859 1.437
-0.8410629 0.41503429 1.4430001
-0.83831429 0.41503429 1.4430001
-0.83556575 0.41503429 1.4430001
-0.83628005 0.41676003 1.4490001
-0.83352005 0.41676003 1.4490001
-0.83764005 0.42021143 1.4610001
-0.83485717 0.42021143 1.4610001
-0.83549148 0.42193717 1.4670001
-0.83269715 0.42193717 1.4670001
-0.83329719 0.42366287 1.473
-0.83049148 0.42366287 1.473
-0.83161908 0.4256762 1.48
-0.83216006 0.42740193 1.4860001
-0.83267814 0.42912763 1.4920001
-0.82983625 0.42912763 1.4920001
-0.83087432 0.43114096 1.4990001
-0.82801908 0.43114096 1.4990001
-0.82516384 0.43114096 1.4990001
-0.82614863 0.43315431 1.506
-0.82656002 0.43488002 1.5120001
-0.82749337 0.43689334 1.5190001
-0.8278572 0.43861908 1.5250001
-0.82495242 0.43861908 1.5250001
-0.82582098 0.4406324 1.5320001
-0.8266629 0.44264573 1.539
-0.8312248 0.44667241 1.5530001
-0.83573335 0.45069906 1.567
-0.83646858 0.45271239 1.5740001
-0.83347052 0.45271239 1.5740001
-0.83416575 0.45472574 1.5810001
-0.83115429 0.45472574 1.5810001
-0.83233339 0.45702669 1.5890001
-0.82930672 0.45702669 1.5890001
-0.84414291 0.41257143 1.4250001
-0.84142858 0.41257143 1.4250001
-0.8387143 0.41257143 1.4250001
-0.83952004 0.41430858 1.4310001
-0.84030288 0.41604573 1.437
-0.83756572 0.41604573 1.437
-0.83831429 0.41778287 1.4430001
-0.83556575 0.41778287 1.4430001
-0.83628005 0.41952002 1.4490001
-0.83352005 0.41952002 1.4490001
-0.83420002 0.42125717 1.455
-0.83485717 0.42299432 1.4610001
-0.83207434 0.42299432 1.4610001
-0.83269715 0.42473143 1.4670001
-0.83329719 0.42646858 1.473
-0.83049148 0.42646858 1.473
-0.8349905 0.43023241 1.4860001
-0.83216006 0.43023241 1.4860001
-0.83267814 0.43196955 1.4920001
-0.82983625 0.43196955 1.4920001
-0.83087432 0.4339962 1.4990001
-0.82801908 0.4339962 1.4990001
-0.82516384 0.4339962 1.4990001
-0.82614863 0.43602288 1.506
-0.82656002 0.43776003 1.5120001
-0.82749337 0.43978667 1.5190001
-0.8278572 0.44152382 1.5250001
-0.82873911 0.4435505 1.5320001
-0.82959431 0.44557714 1.539
-0.83042288 0.44760382 1.5460001
-0.8312248 0.4496305 1.5530001
-0.83200002 0.45165715 1.5600001
-0.83274859 0.45368382 1.567
-0.83347052 0.4557105 1.5740001
-0.83047241 0.4557105 1.5740001
-0.83115429 0.45773715 1.5810001
-0.83233339 0.46005335 1.5890001
-0.82930672 0.46005335 1.5890001
-0.84058863 0.41353714 1.419
-0.84142858 0.41528574 1.4250001
-0.8387143 0.41528574 1.4250001
-0.83952004 0.4170343 1.4310001
-0.83679432 0.4170343 1.4310001
-0.83756572 0.41878286 1.437
-0.83831429 0.42053145 1.4430001
-0.83556575 0.42053145 1.4430001
-0.83628005 0.42228001 1.4490001
-0.83352005 0.42228001 1.4490001
-0.83420002 0.42402858 1.455
-0.83485717 0.42577717 1.4610001
-0.83549148 0.42752573 1.4670001
-0.83269715 0.42752573 1.4670001
-0.83329719 0.42927429 1.473
-0.83049148 0.42927429 1.473
-0.8349905 0.43306288 1.4860001
-0.83216006 0.43306288 1.4860001
-0.83267814 0.43481144 1.4920001
-0.82983625 0.43481144 1.4920001
-0.83087432 0.43685144 1.4990001
-0.82801908 0.43685144 1.4990001
-0.82516384 0.43685144 1.4990001
-0.82614863 0.43889144 1.506
-0.82656002 0.44064 1.5120001
-0.82749337 0.44268003 1.5190001
-0.8278572 0.44442859 1.5250001
-0.82873911 0.44646859 1.5320001
-0.82959431 0.44850859 1.539
-0.8266629 0.44850859 1.539
-0.82747811 0.45054859 1.5460001
-0.82826668 0.45258859 1.5530001
-0.83274859 0.45666859 1.567
-0.83347052 0.45870858 1.5740001
-0.83047241 0.45870858 1.5740001
-0.83115429 0.46074858 1.5810001
-0.83233339 0.46308002 1.5890001
-0.82513148 0.46074858 1.5810001
-0.82212001 0.46074858 1.5810001
-0.84414291 0.41800001 1.4250001
-0.84142858 0.41800001 1.4250001
-0.8387143 0.41800001 1.4250001
-0.83952004 0.41976002 1.4310001
-0.83679432 0.41976002 1.4310001
-0.8340686 0.41976002 1.4310001
-0.83482862 0.42152002 1.437
-0.83556575 0.42328 1.4430001
-0.8328172 0.42328 1.4430001
-0.83352005 0.42504001 1.4490001
-0.83420002 0.42680001 1.455
-0.83142859 0.42680001 1.455
-0.83207434 0.42856002 1.4610001
-0.83269715 0.43032002 1.4670001
-0.83329719 0.43208003 1.473
-0.83443815 0.43413335 1.48
-0.8349905 0.43589336 1.4860001
-0.83552003 0.43765336 1.4920001
-0.83267814 0.43765336 1.4920001
-0.82983625 0.43765336 1.4920001
-0.83087432 0.43970668 1.4990001
-0.82801908 0.43970668 1.4990001
-0.82516384 0.43970668 1.4990001
-0.82614863 0.44176 1.506
-0.82656002 0.44352001 1.5120001
-0.82749337 0.44557336 1.5190001
-0.83165717 0.44938669 1.5320001
-0.82873911 0.44938669 1.5320001
-0.82959431 0.45144001 1.539
-0.83042288 0.45349336 1.5460001
-0.82747811 0.45349336 1.5460001
-0.82826668 0.45554668 1.5530001
-0.83274859 0.45965335 1.567
-0.83347052 0.4617067 1.5740001
-0.83047241 0.4617067 1.5740001
-0.83115429 0.46376002 1.5810001
-0.83233339 0.46610668 1.5890001
-0.82930672 0.46610668 1.5890001
-0.82212001 0.46376002 1.5810001
-0.84414291 0.42071429 1.4250001
-0.84142858 0.42071429 1.4250001
-0.8387143 0.42071429 1.4250001
-0.83952004 0.42248574 1.4310001
-0.83679432 0.42248574 1.4310001
-0.83756572 0.42425716 1.437
-0.83831429 0.42602858 1.4430001
-0.83556575 0.42602858 1.4430001
-0.8328172 0.42602858 1.4430001
-0.83352005 0.42780003 1.4490001
-0.83420002 0.42957145 1.455
-0.83485717 0.43134287 1.4610001
-0.83549148 0.43311429 1.4670001
-0.83269715 0.43311429 1.4670001
-0.83329719 0.43488574 1.473
-0.83049148 0.43488574 1.473
-0.83161908 0.43695238 1.48
-0.83216006 0.43872383 1.4860001
-0.82932955 0.43872383 1.4860001
-0.82983625 0.44049525 1.4920001
-0.8269943 0.44049525 1.4920001
-0.82801908 0.44256192 1.4990001
-0.82516384 0.44256192 1.4990001
-0.82614863 0.4446286 1.506
-0.82656002 0.44640002 1.5120001
-0.82749337 0.44846669 1.5190001
-0.8278572 0.45023811 1.5250001
-0.82873911 0.45230478 1.5320001
-0.82959431 0.45437145 1.539
-0.83042288 0.45643812 1.5460001
-0.82747811 0.45643812 1.5460001
-0.82826668 0.45850477 1.5530001
-0.83274859 0.46263811 1.567
-0.83347052 0.46470478 1.5740001
-0.83047241 0.46470478 1.5740001
-0.83115429 0.46677145 1.5810001
-0.83233339 0.46913335 1.5890001
-0.82930672 0.46913335 1.5890001
-0.84414291 0.4234286 1.4250001
-0.84142858 0.4234286 1.4250001
-0.84224576 0.42521143 1.4310001
-0.83952004 0.42521143 1.4310001
-0.84030288 0.42699429 1.437
-0.83756572 0.42699429 1.437
-0.83831429 0.42877716 1.4430001
-0.83904004 0.43056002 1.4490001
-0.83628005 0.43056002 1.4490001
-0.83352005 0.43056002 1.4490001
-0.83420002 0.43234289 1.455
-0.83485717 0.43412572 1.4610001
-0.83549148 0.43590859 1.4670001
-0.8361029 0.43769145 1.473
-0.83329719 0.43769145 1.473
-0.83049148 0.43769145 1.473
-0.8349905 0.44155431 1.4860001
-0.83216006 0.44155431 1.4860001
-0.82932955 0.44155431 1.4860001
-0.82983625 0.44333717 1.4920001
-0.8269943 0.44333717 1.4920001
-0.82801908 0.44541717 1.4990001
-0.82516384 0.44541717 1.4990001
-0.82614863 0.44749716 1.506
-0.82656002 0.44928002 1.5120001
-0.82749337 0.45136002 1.5190001
-0.8278572 0.45314288 1.5250001
-0.82873911 0.45522287 1.5320001
-0.82959431 0.45730287 1.539
-0.83042288 0.45938286 1.5460001
-0.8312248 0.46146289 1.5530001
-0.83200002 0.46354288 1.5600001
-0.83274859 0.46562287 1.567
-0.83347052 0.46770287 1.5740001
-0.83416575 0.46978289 1.5810001
-0.83536005 0.47216001 1.5890001
-0.83600003 0.47424001 1.5960001
-0.82930672 0.47216001 1.5890001
-0.82628006 0.47216001 1.5890001
-0.84414291 0.42614287 1.4250001
-0.84142858 0.42614287 1.4250001
-0.8387143 0.42614287 1.4250001
-0.83600003 0.42614287 1.4250001
-0.83679432 0.42793715 1.4310001
-0.83756572 0.42973146 1.437
-0.83831429 0.43152574 1.4430001
-0.83904004 0.43332002 1.4490001
-0.83628005 0.43332002 1.4490001
-0.83352005 0.43332002 1.4490001
-0.83420002 0.43511429 1.455
-0.83485717 0.43690857 1.4610001
-0.83207434 0.43690857 1.4610001
-0.8361029 0.44049716 1.473
-0.83329719 0.44049716 1.473
-0.83049148 0.44049716 1.473
-0.83161908 0.4425905 1.48
-0.83216006 0.44438478 1.4860001
-0.82932955 0.44438478 1.4860001
-0.82983625 0.44617906 1.4920001
-0.8269943 0.44617906 1.4920001
-0.82801908 0.44827241 1.4990001
-0.82516384 0.44827241 1.4990001
-0.82944006 0.45216003 1.5120001
-0.82656002 0.45216003 1.5120001
-0.82749337 0.45425335 1.5190001
-0.8278572 0.45604762 1.5250001
-0.82873911 0.45814097 1.5320001
-0.83336765 0.46232763 1.5460001
-0.83042288 0.46232763 1.5460001
-0.8312248 0.46442097 1.5530001
-0.83200002 0.46651429 1.5600001
-0.83274859 0.46860763 1.567
-0.83347052 0.47070098 1.5740001
-0.83416575 0.47279429 1.5810001
-0.83536005 0.47518668 1.5890001
-0.83600003 0.47728002 1.5960001
-0.83296001 0.47728002 1.5960001
-0.82628006 0.47518668 1.5890001
-0.84414291 0.42885715 1.4250001
-0.84142858 0.42885715 1.4250001
-0.84224576 0.43066287 1.4310001
-0.83952004 0.43066287 1.4310001
-0.84030288 0.43246859 1.437
-0.83756572 0.43246859 1.437
-0.83831429 0.43427432 1.4430001
-0.83904004 0.43608001 1.4490001
-0.83628005 0.43608001 1.4490001
-0.83352005 0.43608001 1.4490001
-0.83420002 0.43788573 1.455
-0.83485717 0.43969145 1.4610001
-0.83207434 0.43969145 1.4610001
-0.83269715 0.44149715 1.4670001
-0.83329719 0.44330287 1.473
-0.83049148 0.44330287 1.473
-0.83161908 0.44540954 1.48
-0.83216006 0.44721526 1.4860001
-0.83267814 0.44902098 1.4920001
-0.82983625 0.44902098 1.4920001
-0.83087432 0.45112765 1.4990001
-0.82801908 0.45112765 1.4990001
-0.82901716 0.45323431 1.506
-0.82944006 0.45504001 1.5120001
-0.82656002 0.45504001 1.5120001
-0.82749337 0.45714667 1.5190001
-0.8278572 0.4589524 1.5250001
-0.82873911 0.46105906 1.5320001
-0.82959431 0.46316573 1.539
-0.83042288 0.4652724 1.5460001
-0.8312248 0.46737906 1.5530001
-0.83200002 0.46948573 1.5600001
-0.83274859 0.4715924 1.567
-0.83347052 0.47369906 1.5740001
-0.83416575 0.47580573 1.5810001
-0.83536005 0.47821334 1.5890001
-0.83600003 0.48032001 1.5960001
-0.83661336 0.48242667 1.603
-0.83356005 0.48242667 1.603
-0.84414291 0.43157145 1.4250001
-0.84142858 0.43157145 1.4250001
-0.84224576 0.43338859 1.4310001
-0.83952004 0.43338859 1.4310001
-0.83679432 0.43338859 1.4310001
-0.83756572 0.43520573 1.437
-0.83831429 0.43702286 1.4430001
-0.83904004 0.43884 1.4490001
-0.83628005 0.43884 1.4490001
-0.83697146 0.44065717 1.455
-0.83420002 0.44065717 1.455
-0.83485717 0.44247431 1.4610001
-0.83207434 0.44247431 1.4610001
-0.83269715 0.44429144 1.4670001
-0.83329719 0.44610858 1.473
-0.83049148 0.44610858 1.473
-0.83161908 0.4482286 1.48
-0.83216006 0.45004573 1.4860001
-0.83267814 0.45186287 1.4920001
-0.83372957 0.45398286 1.4990001
-0.83087432 0.45398286 1.4990001
-0.83188576 0.45610288 1.506
-0.83232003 0.45792001 1.5120001
-0.82944006 0.45792001 1.5120001
-0.8303867 0.46004 1.5190001
-0.82749337 0.46004 1.5190001
-0.8278572 0.46185717 1.5250001
-0.82873911 0.46397716 1.5320001
-0.82959431 0.46609715 1.539
-0.83042288 0.46821716 1.5460001
-0.8312248 0.47033715 1.5530001
-0.83200002 0.47245717 1.5600001
-0.83274859 0.47457716 1.567
-0.83717716 0.47881716 1.5810001
-0.83838671 0.48124 1.5890001
-0.83536005 0.48124 1.5890001
-0.83966672 0.48548001 1.603
-0.8407886 0.48790288 1.6110001
-0.83772004 0.48790288 1.6110001
-0.84414291 0.43428573 1.4250001
-0.84497148 0.43611431 1.4310001
-0.84224576 0.43611431 1.4310001
-0.83952004 0.43611431 1.4310001
-0.84030288 0.43794286 1.437
-0.83756572 0.43794286 1.437
-0.83831429 0.43977144 1.4430001
-0.83904004 0.44160002 1.4490001
-0.83628005 0.44160002 1.4490001
-0.83697146 0.44342858 1.455
-0.83420002 0.44342858 1.455
-0.83485717 0.44525716 1.4610001
-0.83207434 0.44525716 1.4610001
-0.83269715 0.44708574 1.4670001
-0.82990289 0.44708574 1.4670001
-0.83049148 0.44891429 1.473
-0.82768577 0.44891429 1.473
-0.83216006 0.45287621 1.4860001
-0.83267814 0.45470479 1.4920001
-0.83372957 0.4568381 1.4990001
-0.83087432 0.4568381 1.4990001
-0.83188576 0.45897144 1.506
-0.83232003 0.46080002 1.5120001
-0.82944006 0.46080002 1.5120001
-0.82656002 0.46080002 1.5120001
-0.82749337 0.46293336 1.5190001
-0.8278572 0.46476191 1.5250001
-0.82873911 0.46689525 1.5320001
-0.83336765 0.47116193 1.5460001
-0.83042288 0.47116193 1.5460001
-0.83497149 0.47542858 1.5600001
-0.83573335 0.47756192 1.567
-0.83274859 0.47756192 1.567
-0.83717716 0.4818286 1.5810001
-0.84208006 0.48640001 1.5960001
-0.84272003 0.48853335 1.603
-0.84385717 0.49097145 1.6110001
-0.84444195 0.49310479 1.618
-0.84136003 0.49310479 1.618
-0.84414291 0.43700001 1.4250001
-0.84497148 0.43884 1.4310001
-0.84224576 0.43884 1.4310001
-0.83952004 0.43884 1.4310001
-0.84030288 0.44068003 1.437
-0.83756572 0.44068003 1.437
-0.83831429 0.44252002 1.4430001
-0.83904004 0.44436002 1.4490001
-0.83628005 0.44436002 1.4490001
-0.83697146 0.44620001 1.455
-0.83420002 0.44620001 1.455
-0.83485717 0.44804001 1.4610001
-0.82865715 0.44620001 1.455
-0.83269715 0.44988 1.4670001
-0.82990289 0.44988 1.4670001
-0.82710862 0.44988 1.4670001
-0.82768577 0.45172003 1.473
-0.83216006 0.45570669 1.4860001
-0.83267814 0.45754668 1.4920001
-0.83372957 0.45969334 1.4990001
-0.83087432 0.45969334 1.4990001
-0.83188576 0.46184 1.506
-0.83232003 0.46368003 1.5120001
-0.82944006 0.46368003 1.5120001
-0.82656002 0.46368003 1.5120001
-0.82749337 0.46582669 1.5190001
-0.8278572 0.46766669 1.5250001
-0.82873911 0.46981335 1.5320001
-0.82959431 0.47196001 1.539
-0.83042288 0.47410667 1.5460001
-0.83497149 0.47840002 1.5600001
-0.83573335 0.48054668 1.567
-0.83274859 0.48054668 1.567
-0.83717716 0.48484001 1.5810001
-0.84208006 0.48944002 1.5960001
-0.84272003 0.49158669 1.603
-0.84385717 0.49404001 1.6110001
-0.84444195 0.49618667 1.618
-0.84136003 0.49618667 1.618
-0.84414291 0.43971431 1.4250001
-0.84497148 0.44156572 1.4310001
-0.84224576 0.44156572 1.4310001
-0.83952004 0.44156572 1.4310001
-0.84030288 0.44341716 1.437
-0.83756572 0.44341716 1.437
-0.83831429 0.4452686 1.4430001
-0.83904004 0.44712001 1.4490001
-0.83628005 0.44712001 1.4490001
-0.83697146 0.44897145 1.455
-0.83420002 0.44897145 1.455
-0.83485717 0.45082286 1.4610001
-0.82865715 0.44897145 1.455
-0.83269715 0.4526743 1.4670001
-0.82990289 0.4526743 1.4670001
-0.83049148 0.45452574 1.473
-0.82768577 0.45452574 1.473
-0.83216006 0.45853716 1.4860001
-0.83267814 0.4603886 1.4920001
-0.83372957 0.46254858 1.4990001
-0.83087432 0.46254858 1.4990001
-0.83188576 0.4647086 1.506
-0.82901716 0.4647086 1.506
-0.82944006 0.46656001 1.5120001
-0.82656002 0.46656001 1.5120001
-0.82749337 0.46872002 1.5190001
-0.83165717 0.47273144 1.5320001
-0.82873911 0.47273144 1.5320001
-0.82959431 0.47489145 1.539
-0.83042288 0.47705144 1.5460001
-0.83497149 0.48137143 1.5600001
-0.83573335 0.48353145 1.567
-0.83646858 0.48569146 1.5740001
-0.84141338 0.49032003 1.5890001
-0.84208006 0.49248001 1.5960001
-0.84272003 0.49464002 1.603
-0.84385717 0.49710858 1.6110001
-0.84444195 0.49926859 1.618
-0.84136003 0.49926859 1.618
-0.84414291 0.44242859 1.4250001
-0.84142858 0.44242859 1.4250001
-0.84224576 0.44429144 1.4310001
-0.83952004 0.44429144 1.4310001
-0.83679432 0.44429144 1.4310001
-0.83756572 0.4461543 1.437
-0.83831429 0.44801715 1.4430001
-0.83904004 0.44988 1.4490001
-0.8397429 0.45174289 1.455
-0.83697146 0.45174289 1.455
-0.83764005 0.45360574 1.4610001
-0.83485717 0.45360574 1.4610001
-0.82865715 0.45174289 1.455
-0.82929146 0.45360574 1.4610001
-0.82990289 0.4554686 1.4670001
-0.83049148 0.45733145 1.473
-0.83161908 0.45950478 1.48
-0.83216006 0.46136764 1.4860001
-0.83267814 0.46323049 1.4920001
-0.83372957 0.46540383 1.4990001
-0.83087432 0.46540383 1.4990001
-0.83188576 0.46757716 1.506
-0.82901716 0.46757716 1.506
-0.82944006 0.46944001 1.5120001
-0.8303867 0.47161335 1.5190001
-0.83076191 0.4734762 1.5250001
-0.8278572 0.4734762 1.5250001
-0.82873911 0.47564954 1.5320001
-0.82959431 0.47782287 1.539
-0.83042288 0.4799962 1.5460001
-0.8312248 0.48216954 1.5530001
-0.83200002 0.48434287 1.5600001
-0.83274859 0.48651621 1.567
-0.84141338 0.49334669 1.5890001
-0.84577334 0.49769336 1.603
-0.84272003 0.49769336 1.603
-0.84385717 0.50017715 1.6110001
-0.84444195 0.50235051 1.618
-0.84136003 0.50235051 1.618
-0.84414291 0.44514287 1.4250001
-0.84142858 0.44514287 1.4250001
-0.84224576 0.44701716 1.4310001
-0.83952004 0.44701716 1.4310001
-0.84030288 0.44889143 1.437
-0.8410629 0.45076573 1.4430001
-0.83831429 0.45076573 1.4430001
-0.83904004 0.45264003 1.4490001
-0.83628005 0.45264003 1.4490001
-0.83697146 0.45451429 1.455
-0.83420002 0.45451429 1.455
-0.83142859 0.45451429 1.455
-0.82865715 0.45451429 1.455
-0.82929146 0.45638859 1.4610001
-0.82650858 0.45638859 1.4610001
-0.82710862 0.45826286 1.4670001
-0.82768577 0.46013716 1.473
-0.83216006 0.46419811 1.4860001
-0.83267814 0.46607241 1.4920001
-0.82983625 0.46607241 1.4920001
-0.83087432 0.46825907 1.4990001
-0.83188576 0.47044572 1.506
-0.83232003 0.47232002 1.5120001
-0.82944006 0.47232002 1.5120001
-0.8303867 0.47450668 1.5190001
-0.83076191 0.47638097 1.5250001
-0.8278572 0.47638097 1.5250001
-0.82873911 0.47856763 1.5320001
-0.82582098 0.47856763 1.5320001
-0.8266629 0.48075432 1.539
-0.8312248 0.48512763 1.5530001
-0.83200002 0.48731431 1.5600001
-0.83646858 0.49168763 1.5740001
-0.84141338 0.49637336 1.5890001
-0.84577334 0.50074667 1.603
-0.84272003 0.50074667 1.603
-0.83966672 0.50074667 1.603
-0.8486172 0.50793147 1.626
-0.84552002 0.50793147 1.626
-0.84414291 0.44785717 1.4250001
-0.84142858 0.44785717 1.4250001
-0.84224576 0.44974288 1.4310001
-0.83952004 0.44974288 1.4310001
-0.84030288 0.4516286 1.437
-0.8410629 0.45351431 1.4430001
-0.83831429 0.45351431 1.4430001
-0.83556575 0.45351431 1.4430001
-0.83628005 0.45540002 1.4490001
-0.83697146 0.45728573 1.455
-0.83420002 0.45728573 1.455
-0.83142859 0.45728573 1.455
-0.82865715 0.45728573 1.455
-0.82929146 0.45917144 1.4610001
-0.82990289 0.46105716 1.4670001
-0.83049148 0.46294287 1.473
-0.83161908 0.46514288 1.48
-0.82880002 0.46514288 1.48
-0.83267814 0.4689143 1.4920001
-0.82983625 0.4689143 1.4920001
-0.83087432 0.47111431 1.4990001
-0.82801908 0.47111431 1.4990001
-0.82901716 0.47331432 1.506
-0.82944006 0.47520003 1.5120001
-0.8303867 0.4774 1.5190001
-0.83076191 0.47928575 1.5250001
-0.8278572 0.47928575 1.5250001
-0.82873911 0.48148572 1.5320001
-0.82582098 0.48148572 1.5320001
-0.8266629 0.48368573 1.539
-0.8312248 0.48808575 1.5530001
-0.83200002 0.49028572 1.5600001
-0.83646858 0.49468574 1.5740001
-0.84141338 0.49940002 1.5890001
-0.84208006 0.50160003 1.5960001
-0.83904004 0.50160003 1.5960001
-0.83600003 0.50160003 1.5960001
-0.83296001 0.50160003 1.5960001
-0.84552002 0.51102859 1.626
-0.84414291 0.45057145 1.4250001
-0.84142858 0.45057145 1.4250001
-0.84224576 0.45246857 1.4310001
-0.83952004 0.45246857 1.4310001
-0.84030288 0.45436573 1.437
-0.8410629 0.45626289 1.4430001
-0.83831429 0.45626289 1.4430001
-0.83556575 0.45626289 1.4430001
-0.83628005 0.45816001 1.4490001
-0.83697146 0.46005717 1.455
-0.83764005 0.4619543 1.4610001
-0.83142859 0.46005717 1.455
-0.82865715 0.46005717 1.455
-0.83269715 0.46385145 1.4670001
-0.82990289 0.46385145 1.4670001
-0.83443815 0.46796191 1.48
-0.8349905 0.46985906 1.4860001
-0.83216006 0.46985906 1.4860001
-0.83267814 0.47175622 1.4920001
-0.82983625 0.47175622 1.4920001
-0.83087432 0.47396955 1.4990001
-0.82801908 0.47396955 1.4990001
-0.82901716 0.47618288 1.506
-0.82614863 0.47618288 1.506
-0.8303867 0.48029336 1.5190001
-0.83076191 0.48219049 1.5250001
-0.8278572 0.48219049 1.5250001
-0.82495242 0.48219049 1.5250001
-0.82582098 0.48440382 1.5320001
-0.8266629 0.48661715 1.539
-0.8312248 0.49104384 1.5530001
-0.83573335 0.49547049 1.567
-0.83646858 0.49768382 1.5740001
-0.84141338 0.50242668 1.5890001
-0.83838671 0.50242668 1.5890001
-0.83904004 0.50464004 1.5960001
-0.83233339 0.50242668 1.5890001
-0.82930672 0.50242668 1.5890001
-0.84414291 0.45328572 1.4250001
-0.84142858 0.45328572 1.4250001
-0.8387143 0.45328572 1.4250001
-0.83952004 0.45519429 1.4310001
-0.84030288 0.45710286 1.437
-0.8410629 0.45901144 1.4430001
-0.83831429 0.45901144 1.4430001
-0.83556575 0.45901144 1.4430001
-0.83628005 0.46092001 1.4490001
-0.83352005 0.46092001 1.4490001
-0.83076 0.46092001 1.4490001
-0.83142859 0.46282858 1.455
-0.82865715 0.46282858 1.455
-0.83269715 0.46664572 1.4670001
-0.83329719 0.46855429 1.473
-0.83443815 0.47078097 1.48
-0.8349905 0.47268954 1.4860001
-0.83552003 0.47459811 1.4920001
-0.83267814 0.47459811 1.4920001
-0.82983625 0.47459811 1.4920001
-0.83087432 0.47682479 1.4990001
-0.82801908 0.47682479 1.4990001
-0.82901716 0.47905144 1.506
-0.82614863 0.47905144 1.506
-0.8303867 0.48318669 1.5190001
-0.82749337 0.48318669 1.5190001
-0.8278572 0.48509526 1.5250001
-0.82495242 0.48509526 1.5250001
-0.82582098 0.48732191 1.5320001
-0.8266629 0.48954859 1.539
-0.8312248 0.49400192 1.5530001
-0.83200002 0.49622858 1.5600001
-0.83646858 0.50068194 1.5740001
-0.83717716 0.50290859 1.5810001
-0.83838671 0.50545335 1.5890001
-0.83536005 0.50545335 1.5890001
-0.83600003 0.50768 1.5960001
-0.83296001 0.50768 1.5960001
-0.84414291 0.45600003 1.4250001
-0.84142858 0.45600003 1.4250001
-0.84224576 0.45792001 1.4310001
-0.83952004 0.45792001 1.4310001
-0.84030288 0.45984003 1.437
-0.8410629 0.46176001 1.4430001
-0.83831429 0.46176001 1.4430001
-0.83556575 0.46176001 1.4430001
-0.8328172 0.46176001 1.4430001
-0.83352005 0.46368003 1.4490001
-0.83420002 0.46560001 1.455
-0.83142859 0.46560001 1.455
-0.82865715 0.46560001 1.455
-0.83269715 0.46944001 1.4670001
-0.83329719 0.47136003 1.473
-0.83443815 0.47360003 1.48
-0.8349905 0.47552001 1.4860001
-0.83552003 0.47744003 1.4920001
-0.83267814 0.47744003 1.4920001
-0.83372957 0.47968003 1.4990001
-0.83087432 0.47968003 1.4990001
-0.82801908 0.47968003 1.4990001
-0.82901716 0.48192 1.506
-0.82944006 0.48384002 1.5120001
-0.8303867 0.48608002 1.5190001
-0.83076191 0.48800001 1.5250001
-0.8278572 0.48800001 1.5250001
-0.82495242 0.48800001 1.5250001
-0.82959431 0.49248001 1.539
-0.83042288 0.49472001 1.5460001
-0.8312248 0.49696001 1.5530001
-0.83200002 0.49920002 1.5600001
-0.83646858 0.50367999 1.5740001
-0.83717716 0.50591999 1.5810001
-0.83416575 0.50591999 1.5810001
-0.83536005 0.50848001 1.5890001
-0.83233339 0.50848001 1.5890001
-0.82930672 0.50848001 1.5890001
-0.84414291 0.45871431 1.4250001
-0.84142858 0.45871431 1.4250001
-0.84224576 0.46064574 1.4310001
-0.83952004 0.46064574 1.4310001
-0.84030288 0.46257716 1.437
-0.83756572 0.46257716 1.437
-0.83831429 0.46450859 1.4430001
-0.83556575 0.46450859 1.4430001
-0.8328172 0.46450859 1.4430001
-0.83352005 0.46644002 1.4490001
-0.83076 0.46644002 1.4490001
-0.83142859 0.46837145 1.455
-0.82865715 0.46837145 1.455
-0.83269715 0.47223431 1.4670001
-0.83329719 0.47416574 1.473
-0.83443815 0.47641906 1.48
-0.83836192 0.48028192 1.4920001
-0.83552003 0.48028192 1.4920001
-0.83267814 0.48028192 1.4920001
-0.83372957 0.48253524 1.4990001
-0.83087432 0.48253524 1.4990001
-0.82801908 0.48253524 1.4990001
-0.82901716 0.4847886 1.506
-0.82944006 0.48672003 1.5120001
-0.8303867 0.48897335 1.5190001
-0.83076191 0.49090478 1.5250001
-0.8278572 0.49090478 1.5250001
-0.82495242 0.49090478 1.5250001
-0.82582098 0.4931581 1.5320001
-0.8266629 0.49541146 1.539
-0.82747811 0.49766478 1.5460001
-0.83200002 0.50217146 1.5600001
-0.83274859 0.50442475 1.567
-0.83347052 0.5066781 1.5740001
-0.83047241 0.5066781 1.5740001
-0.8274743 0.5066781 1.5740001
-0.82447624 0.5066781 1.5740001
-0.82147813 0.5066781 1.5740001
-0.84058863 0.45948574 1.419
-0.84142858 0.46142858 1.4250001
-0.8387143 0.46142858 1.4250001
-0.83952004 0.46337146 1.4310001
-0.84030288 0.4653143 1.437
-0.8410629 0.46725717 1.4430001
-0.83831429 0.46725717 1.4430001
-0.83556575 0.46725717 1.4430001
-0.8328172 0.46725717 1.4430001
-0.83352005 0.46920002 1.4490001
-0.83420002 0.47114289 1.455
-0.83485717 0.47308573 1.4610001
-0.83207434 0.47308573 1.4610001
-0.83269715 0.47502857 1.4670001
-0.83329719 0.47697145 1.473
-0.83443815 0.47923812 1.48
-0.8349905 0.48118097 1.4860001
-0.83552003 0.48312384 1.4920001
-0.83267814 0.48312384 1.4920001
-0.83372957 0.48539048 1.4990001
-0.83087432 0.48539048 1.4990001
-0.83188576 0.48765716 1.506
-0.82901716 0.48765716 1.506
-0.82944006 0.48960003 1.5120001
-0.8303867 0.49186668 1.5190001
-0.83076191 0.49380955 1.5250001
-0.8278572 0.49380955 1.5250001
-0.82495242 0.49380955 1.5250001
-0.82959431 0.49834287 1.539
-0.83042288 0.50060952 1.5460001
-0.8312248 0.50287622 1.5530001
-0.83200002 0.50514287 1.5600001
-0.83274859 0.50740951 1.567
-0.83347052 0.50967622 1.5740001
-0.83047241 0.50967622 1.5740001
-0.8274743 0.50967622 1.5740001
-0.82080954 0.50740951 1.567
-0.81782478 0.50740951 1.567
-0.84414291 0.46414289 1.4250001
-0.84142858 0.46414289 1.4250001
-0.8387143 0.46414289 1.4250001
-0.83952004 0.46609715 1.4310001
-0.84030288 0.46805143 1.437
-0.8410629 0.47000572 1.4430001
-0.83482862 0.46805143 1.437
-0.83556575 0.47000572 1.4430001
-0.8328172 0.47000572 1.4430001
-0.83697146 0.4739143 1.455
-0.83420002 0.4739143 1.455
-0.83485717 0.47586858 1.4610001
-0.83549148 0.47782287 1.4670001
-0.83269715 0.47782287 1.4670001
-0.83329719 0.47977716 1.473
-0.83443815 0.48205715 1.48
-0.8349905 0.48401144 1.4860001
-0.83552003 0.48596573 1.4920001
-0.83267814 0.48596573 1.4920001
-0.83372957 0.48824573 1.4990001
-0.83087432 0.48824573 1.4990001
-0.82801908 0.48824573 1.4990001
-0.82901716 0.49052572 1.506
-0.82944006 0.49248001 1.5120001
-0.8303867 0.49476001 1.5190001
-0.83076191 0.49671429 1.5250001
-0.8278572 0.49671429 1.5250001
-0.82873911 0.49899429 1.5320001
-0.82959431 0.50127429 1.539
-0.83042288 0.50355428 1.5460001
-0.82747811 0.50355428 1.5460001
-0.83200002 0.50811428 1.5600001
-0.83274859 0.51039428 1.567
-0.82976383 0.51039428 1.567
-0.82677907 0.51039428 1.567
-0.82011431 0.50811428 1.5600001
-0.8134762 0.50583428 1.5530001
-0.81051815 0.50583428 1.5530001
-0.84058863 0.46489143 1.419
-0.84142858 0.46685717 1.4250001
-0.8387143 0.46685717 1.4250001
-0.83952004 0.46882287 1.4310001
-0.83679432 0.46882287 1.4310001
-0.83756572 0.4707886 1.437
-0.83482862 0.4707886 1.437
-0.83556575 0.4727543 1.4430001
-0.83628005 0.47472003 1.4490001
-0.83697146 0.47668573 1.455
-0.83420002 0.47668573 1.455
-0.83485717 0.47865143 1.4610001
-0.83549148 0.48061717 1.4670001
-0.83269715 0.48061717 1.4670001
-0.83329719 0.48258287 1.473
-0.83049148 0.48258287 1.473
-0.8349905 0.48684192 1.4860001
-0.83216006 0.48684192 1.4860001
-0.83267814 0.48880765 1.4920001
-0.82983625 0.48880765 1.4920001
-0.83087432 0.49110097 1.4990001
-0.82801908 0.49110097 1.4990001
-0.82901716 0.49339432 1.506
-0.82944006 0.49536002 1.5120001
-0.8303867 0.49765337 1.5190001
-0.83076191 0.49961907 1.5250001
-0.8278572 0.49961907 1.5250001
-0.82873911 0.50191242 1.5320001
-0.82959431 0.5042057 1.539
-0.8266629 0.5042057 1.539
-0.82747811 0.50649905 1.5460001
-0.82826668 0.5087924 1.5530001
-0.82902861 0.51108575 1.5600001
-0.82976383 0.51337904 1.567
-0.82677907 0.51337904 1.567
-0.82011431 0.51108575 1.5600001
-0.8134762 0.5087924 1.5530001
-0.81051815 0.5087924 1.5530001
-0.84058863 0.4675943 1.419
-0.84142858 0.46957144 1.4250001
-0.8387143 0.46957144 1.4250001
-0.83600003 0.46957144 1.4250001
-0.83679432 0.47154859 1.4310001
-0.83756572 0.47352573 1.437
-0.83482862 0.47352573 1.437
-0.83556575 0.47550288 1.4430001
-0.83628005 0.47748002 1.4490001
-0.83697146 0.47945717 1.455
-0.83076 0.47748002 1.4490001
-0.83142859 0.47945717 1.455
-0.83207434 0.48143432 1.4610001
-0.82929146 0.48143432 1.4610001
-0.82990289 0.48341146 1.4670001
-0.83049148 0.48538858 1.473
-0.8349905 0.48967239 1.4860001
-0.83216006 0.48967239 1.4860001
-0.83267814 0.49164954 1.4920001
-0.82983625 0.49164954 1.4920001
-0.8269943 0.49164954 1.4920001
-0.82801908 0.49395621 1.4990001
-0.82901716 0.49626288 1.506
-0.82944006 0.49824002 1.5120001
-0.8303867 0.50054669 1.5190001
-0.83076191 0.50252384 1.5250001
-0.8278572 0.50252384 1.5250001
-0.82873911 0.50483048 1.5320001
-0.82959431 0.50713718 1.539
-0.83042288 0.50944382 1.5460001
-0.82747811 0.50944382 1.5460001
-0.82826668 0.51175052 1.5530001
-0.82902861 0.51405716 1.5600001
-0.82976383 0.5163638 1.567
-0.82677907 0.5163638 1.567
-0.82011431 0.51405716 1.5600001
-0.8171429 0.51405716 1.5600001
-0.81051815 0.51175052 1.5530001
-0.84058863 0.47029716 1.419
-0.84142858 0.47228572 1.4250001
-0.8387143 0.47228572 1.4250001
-0.83600003 0.47228572 1.4250001
-0.83679432 0.47427431 1.4310001
-0.83756572 0.47626287 1.437
-0.83831429 0.47825146 1.4430001
-0.83556575 0.47825146 1.4430001
-0.83628005 0.48024002 1.4490001
-0.83697146 0.48222858 1.455
-0.83420002 0.48222858 1.455
-0.83142859 0.48222858 1.455
-0.83207434 0.48421717 1.4610001
-0.82929146 0.48421717 1.4610001
-0.82990289 0.48620573 1.4670001
-0.82710862 0.48620573 1.4670001
-0.83161908 0.49051431 1.48
-0.83216006 0.49250287 1.4860001
-0.82932955 0.49250287 1.4860001
-0.82983625 0.49449146 1.4920001
-0.83087432 0.49681145 1.4990001
-0.82801908 0.49681145 1.4990001
-0.83232003 0.50112003 1.5120001
-0.83328003 0.50344002 1.5190001
-0.83366668 0.50542861 1.5250001
-0.83076191 0.50542861 1.5250001
-0.8278572 0.50542861 1.5250001
-0.82873911 0.5077486 1.5320001
-0.82959431 0.5100686 1.539
-0.83042288 0.51238859 1.5460001
-0.82747811 0.51238859 1.5460001
-0.83200002 0.51702857 1.5600001
-0.82902861 0.51702857 1.5600001
-0.82976383 0.51934856 1.567
-0.82677907 0.51934856 1.567
-0.82011431 0.51702857 1.5600001
-0.8171429 0.51702857 1.5600001
-0.84058863 0.47300002 1.419
-0.83788574 0.47300002 1.419
-0.83518291 0.47300002 1.419
-0.83600003 0.47500002 1.4250001
-0.83679432 0.47700003 1.4310001
-0.8340686 0.47700003 1.4310001
-0.83482862 0.47900003 1.437
-0.83556575 0.48100001 1.4430001
-0.8397429 0.48500001 1.455
-0.83697146 0.48500001 1.455
-0.83420002 0.48500001 1.455
-0.83142859 0.48500001 1.455
-0.83207434 0.48700002 1.4610001
-0.82929146 0.48700002 1.4610001
-0.82990289 0.48900002 1.4670001
-0.82710862 0.48900002 1.4670001
-0.82768577 0.49100003 1.473
-0.82880002 0.49333334 1.48
-0.82598096 0.49333334 1.48
-0.82983625 0.49733335 1.4920001
-0.8269943 0.49733335 1.4920001
-0.82801908 0.49966669 1.4990001
-0.83232003 0.50400001 1.5120001
-0.83328003 0.50633335 1.5190001
-0.83366668 0.50833333 1.5250001
-0.83076191 0.50833333 1.5250001
-0.83165717 0.51066667 1.5320001
-0.82873911 0.51066667 1.5320001
-0.82959431 0.51300001 1.539
-0.83042288 0.51533335 1.5460001
-0.82747811 0.51533335 1.5460001
-0.83200002 0.52000004 1.5600001
-0.83274859 0.52233332 1.567
-0.82976383 0.52233332 1.567
-0.82677907 0.52233332 1.567
-0.82379431 0.52233332 1.567
-0.82080954 0.52233332 1.567
-0.84058863 0.47570288 1.419
-0.83788574 0.47570288 1.419
-0.8387143 0.4777143 1.4250001
-0.83600003 0.4777143 1.4250001
-0.83679432 0.47972572 1.4310001
-0.8340686 0.47972572 1.4310001
-0.83482862 0.48173717 1.437
-0.83556575 0.48374858 1.4430001
-0.83628005 0.48576 1.4490001
-0.83697146 0.48777145 1.455
-0.83420002 0.48777145 1.455
-0.83142859 0.48777145 1.455
-0.83207434 0.48978287 1.4610001
-0.82929146 0.48978287 1.4610001
-0.82990289 0.49179432 1.4670001
-0.82710862 0.49179432 1.4670001
-0.82768577 0.49380574 1.473
-0.82880002 0.4961524 1.48
-0.82598096 0.4961524 1.48
-0.8264991 0.49816382 1.4860001
-0.8269943 0.50017524 1.4920001
-0.82801908 0.50252193 1.4990001
-0.83232003 0.50688004 1.5120001
-0.83328003 0.50922668 1.5190001
-0.83366668 0.5112381 1.5250001
-0.83076191 0.5112381 1.5250001
-0.8278572 0.5112381 1.5250001
-0.82873911 0.51358479 1.5320001
-0.82582098 0.51358479 1.5320001
-0.83042288 0.51827812 1.5460001
-0.8312248 0.52062476 1.5530001
-0.83573335 0.52531809 1.567
-0.83274859 0.52531809 1.567
-0.82976383 0.52531809 1.567
-0.82677907 0.52531809 1.567
-0.8274743 0.52766478 1.5740001
-0.82447624 0.52766478 1.5740001
-0.84058863 0.47840574 1.419
-0.84142858 0.48042858 1.4250001
-0.8387143 0.48042858 1.4250001
-0.83952004 0.48245144 1.4310001
-0.84030288 0.4844743 1.437
-0.83756572 0.4844743 1.437
-0.83482862 0.4844743 1.437
-0.83904004 0.48852003 1.4490001
-0.83628005 0.48852003 1.4490001
-0.83697146 0.49054289 1.455
-0.83420002 0.49054289 1.455
-0.83142859 0.49054289 1.455
-0.83207434 0.49256572 1.4610001
-0.82929146 0.49256572 1.4610001
-0.82990289 0.49458858 1.4670001
-0.82710862 0.49458858 1.4670001
-0.82768577 0.49661145 1.473
-0.82488 0.49661145 1.473
-0.82207429 0.49661145 1.473
-0.82316196 0.49897143 1.48
-0.8269943 0.50301719 1.4920001
-0.82801908 0.50537717 1.4990001
-0.83232003 0.50976002 1.5120001
-0.83328003 0.51212001 1.5190001
-0.83366668 0.51414287 1.5250001
-0.8345753 0.51650286 1.5320001
-0.83165717 0.51650286 1.5320001
-0.82873911 0.51650286 1.5320001
-0.82959431 0.5188629 1.539
-0.83042288 0.52122289 1.5460001
-0.8312248 0.52358288 1.5530001
-0.83200002 0.52594286 1.5600001
-0.82902861 0.52594286 1.5600001
-0.83347052 0.53066289 1.5740001
-0.83047241 0.53066289 1.5740001
-0.8274743 0.53066289 1.5740001
-0.82447624 0.53066289 1.5740001
-0.84414291 0.48314288 1.4250001
-0.84142858 0.48314288 1.4250001
-0.84224576 0.48517716 1.4310001
-0.84304005 0.48721144 1.437
-0.84030288 0.48721144 1.437
-0.83756572 0.48721144 1.437
-0.83482862 0.48721144 1.437
-0.83556575 0.48924574 1.4430001
-0.8328172 0.48924574 1.4430001
-0.83352005 0.49128002 1.4490001
-0.83076 0.49128002 1.4490001
-0.83142859 0.4933143 1.455
-0.83207434 0.4953486 1.4610001
-0.82929146 0.4953486 1.4610001
-0.82990289 0.49738288 1.4670001
-0.82710862 0.49738288 1.4670001
-0.82768577 0.49941716 1.473
-0.82488 0.49941716 1.473
-0.82598096 0.50179052 1.48
-0.8264991 0.50382477 1.4860001
-0.8269943 0.50585908 1.4920001
-0.82415241 0.50585908 1.4920001
-0.82901716 0.51060575 1.506
-0.83328003 0.51501334 1.5190001
-0.8303867 0.51501334 1.5190001
-0.83076191 0.51704764 1.5250001
-0.83165717 0.51942098 1.5320001
-0.83252573 0.52179432 1.539
-0.82959431 0.52179432 1.539
-0.8266629 0.52179432 1.539
-0.8312248 0.52654099 1.5530001
-0.83200002 0.52891433 1.5600001
-0.83274859 0.53128761 1.567
-0.83347052 0.53366095 1.5740001
-0.83416575 0.53603429 1.5810001
-0.83115429 0.53603429 1.5810001
-0.82447624 0.53366095 1.5740001
-0.84414291 0.48585716 1.4250001
-0.84497148 0.48790288 1.4310001
-0.84577715 0.4899486 1.437
-0.84304005 0.4899486 1.437
-0.84030288 0.4899486 1.437
-0.83756572 0.4899486 1.437
-0.83482862 0.4899486 1.437
-0.83556575 0.49199429 1.4430001
-0.8328172 0.49199429 1.4430001
-0.83006859 0.49199429 1.4430001
-0.83076 0.49404001 1.4490001
-0.83142859 0.49608573 1.455
-0.83207434 0.49813145 1.4610001
-0.82929146 0.49813145 1.4610001
-0.82990289 0.50017715 1.4670001
-0.82710862 0.50017715 1.4670001
-0.82768577 0.5022229 1.473
-0.82880002 0.50460953 1.48
-0.82598096 0.50460953 1.48
-0.8264991 0.50665528 1.4860001
-0.8269943 0.50870097 1.4920001
-0.82415241 0.50870097 1.4920001
-0.82901716 0.51347429 1.506
-0.82944006 0.51552004 1.5120001
-0.8303867 0.51790667 1.5190001
-0.83076191 0.51995242 1.5250001
-0.83165717 0.52233905 1.5320001
-0.83252573 0.52472574 1.539
-0.83336765 0.52711242 1.5460001
-0.83418286 0.52949905 1.5530001
-0.8312248 0.52949905 1.5530001
-0.83200002 0.53188574 1.5600001
-0.83274859 0.53427237 1.567
-0.82976383 0.53427237 1.567
-0.82677907 0.53427237 1.567
-0.83115429 0.53904575 1.5810001
-0.84414291 0.48857144 1.4250001
-0.84851432 0.49268574 1.437
-0.84930861 0.49474287 1.4430001
-0.84656 0.49474287 1.4430001
-0.84381145 0.49474287 1.4430001
-0.8410629 0.49474287 1.4430001
-0.83831429 0.49474287 1.4430001
-0.83556575 0.49474287 1.4430001
-0.8328172 0.49474287 1.4430001
-0.83352005 0.49680001 1.4490001
-0.83076 0.49680001 1.4490001
-0.83142859 0.49885717 1.455
-0.83207434 0.50091428 1.4610001
-0.82929146 0.50091428 1.4610001
-0.82990289 0.50297147 1.4670001
-0.83049148 0.50502861 1.473
-0.82768577 0.50502861 1.473
-0.82880002 0.50742859 1.48
-0.82932955 0.50948572 1.4860001
-0.82983625 0.51154286 1.4920001
-0.8269943 0.51154286 1.4920001
-0.82801908 0.5139429 1.4990001
-0.82901716 0.51634288 1.506
-0.82614863 0.51634288 1.506
-0.8303867 0.52079999 1.5190001
-0.83076191 0.52285719 1.5250001
-0.83165717 0.52525717 1.5320001
-0.83252573 0.52765715 1.539
-0.83336765 0.53005719 1.5460001
-0.83042288 0.53005719 1.5460001
-0.8312248 0.53245717 1.5530001
-0.83573335 0.53725713 1.567
-0.83646858 0.53965718 1.5740001
-0.83347052 0.53965718 1.5740001
-0.82677907 0.53725713 1.567
-0.84414291 0.49128574 1.4250001
-0.84851432 0.49542287 1.437
-0.84930861 0.49749145 1.4430001
-0.84656 0.49749145 1.4430001
-0.84381145 0.49749145 1.4430001
-0.8410629 0.49749145 1.4430001
-0.83831429 0.49749145 1.4430001
-0.83556575 0.49749145 1.4430001
-0.8328172 0.49749145 1.4430001
-0.83352005 0.49956003 1.4490001
-0.83076 0.49956003 1.4490001
-0.83142859 0.50162858 1.455
-0.83207434 0.50369716 1.4610001
-0.83269715 0.50576574 1.4670001
-0.82990289 0.50576574 1.4670001
-0.83049148 0.50783432 1.473
-0.82768577 0.50783432 1.473
-0.82880002 0.51024765 1.48
-0.82932955 0.51231623 1.4860001
-0.82983625 0.51438481 1.4920001
-0.83087432 0.51679814 1.4990001
-0.82415241 0.51438481 1.4920001
-0.82516384 0.51679814 1.4990001
-0.82944006 0.52127999 1.5120001
-0.8303867 0.52369332 1.5190001
-0.83076191 0.5257619 1.5250001
-0.83545715 0.53058857 1.539
-0.83252573 0.53058857 1.539
-0.83336765 0.5330019 1.5460001
-0.83042288 0.5330019 1.5460001
-0.8312248 0.53541523 1.5530001
-0.83200002 0.53782856 1.5600001
-0.82902861 0.53782856 1.5600001
-0.83347052 0.54265523 1.5740001
-0.8476972 0.49608001 1.4310001
-0.84851432 0.49816 1.437
-0.84930861 0.50024003 1.4430001
-0.84656 0.50024003 1.4430001
-0.84381145 0.50024003 1.4430001
-0.8410629 0.50024003 1.4430001
-0.83831429 0.50024003 1.4430001
-0.83556575 0.50024003 1.4430001
-0.8328172 0.50024003 1.4430001
-0.83352005 0.50231999 1.4490001
-0.83076 0.50231999 1.4490001
-0.83142859 0.50440001 1.455
-0.83207434 0.50648004 1.4610001
-0.83269715 0.50856 1.4670001
-0.82990289 0.50856 1.4670001
-0.83049148 0.51064003 1.473
-0.83161908 0.51306671 1.48
-0.82880002 0.51306671 1.48
-0.82932955 0.51514667 1.4860001
-0.8264991 0.51514667 1.4860001
-0.83087432 0.51965338 1.4990001
-0.82415241 0.5172267 1.4920001
-0.82516384 0.51965338 1.4990001
-0.82614863 0.52208 1.506
-0.82656002 0.52416003 1.5120001
-0.83076191 0.52866668 1.5250001
-0.83545715 0.53352004 1.539
-0.83252573 0.53352004 1.539
-0.83336765 0.53594667 1.5460001
-0.83042288 0.53594667 1.5460001
-0.8312248 0.53837335 1.5530001
-0.82826668 0.53837335 1.5530001
-0.8476972 0.49880573 1.4310001
-0.85560006 0.50508004 1.4490001
-0.85284001 0.50508004 1.4490001
-0.84656 0.50298858 1.4430001
-0.84732002 0.50508004 1.4490001
-0.8410629 0.50298858 1.4430001
-0.83831429 0.50298858 1.4430001
-0.83556575 0.50298858 1.4430001
-0.83628005 0.50508004 1.4490001
-0.83352005 0.50508004 1.4490001
-0.83076 0.50508004 1.4490001
-0.83142859 0.50717145 1.455
-0.83207434 0.50926286 1.4610001
-0.83269715 0.51135433 1.4670001
-0.83329719 0.51344573 1.473
-0.83049148 0.51344573 1.473
-0.82768577 0.51344573 1.473
-0.83216006 0.51797718 1.4860001
-0.82932955 0.51797718 1.4860001
-0.82983625 0.52006859 1.4920001
-0.8269943 0.52006859 1.4920001
-0.82415241 0.52006859 1.4920001
-0.82516384 0.52250856 1.4990001
-0.82614863 0.5249486 1.506
-0.82656002 0.52704 1.5120001
-0.83076191 0.53157145 1.5250001
-0.83165717 0.53401142 1.5320001
-0.83252573 0.53645146 1.539
-0.83336765 0.53889143 1.5460001
-0.83042288 0.53889143 1.5460001
-0.82747811 0.53889143 1.5460001
-0.82453334 0.53889143 1.5460001
-0.8476972 0.50153142 1.4310001
-0.85205716 0.50573719 1.4430001
-0.84930861 0.50573719 1.4430001
-0.84656 0.50573719 1.4430001
-0.84381145 0.50573719 1.4430001
-0.8410629 0.50573719 1.4430001
-0.83831429 0.50573719 1.4430001
-0.83556575 0.50573719 1.4430001
-0.83628005 0.50784004 1.4490001
-0.83352005 0.50784004 1.4490001
-0.83076 0.50784004 1.4490001
-0.83142859 0.50994289 1.455
-0.83207434 0.51204574 1.4610001
-0.83269715 0.51414859 1.4670001
-0.82990289 0.51414859 1.4670001
-0.83049148 0.51625144 1.473
-0.83161908 0.51870477 1.48
-0.83216006 0.52080762 1.4860001
-0.83267814 0.52291048 1.4920001
-0.82983625 0.52291048 1.4920001
-0.8269943 0.52291048 1.4920001
-0.82415241 0.52291048 1.4920001
-0.82516384 0.5253638 1.4990001
-0.82614863 0.52781719 1.506
-0.82656002 0.52992004 1.5120001
-0.82749337 0.53237337 1.5190001
-0.8278572 0.53447622 1.5250001
-0.82873911 0.53692955 1.5320001
-0.82959431 0.53938287 1.539
-0.8266629 0.53938287 1.539
-0.82373148 0.53938287 1.539
-0.82453334 0.5418362 1.5460001
-0.84414291 0.50214285 1.4250001
-0.84497148 0.50425714 1.4310001
-0.84930861 0.50848573 1.4430001
-0.84656 0.50848573 1.4430001
-0.84381145 0.50848573 1.4430001
-0.8410629 0.50848573 1.4430001
-0.83831429 0.50848573 1.4430001
-0.83556575 0.50848573 1.4430001
-0.83628005 0.51060003 1.4490001
-0.83352005 0.51060003 1.4490001
-0.83420002 0.51271433 1.455
-0.83142859 0.51271433 1.455
-0.83207434 0.51482856 1.4610001
-0.83269715 0.51694286 1.4670001
-0.83329719 0.51905715 1.473
-0.83049148 0.51905715 1.473
-0.83161908 0.52152383 1.48
-0.83216006 0.52363813 1.4860001
-0.82932955 0.52363813 1.4860001
-0.82983625 0.52575243 1.4920001
-0.8269943 0.52575243 1.4920001
-0.82415241 0.52575243 1.4920001
-0.82131052 0.52575243 1.4920001
-0.8223086 0.52821904 1.4990001
-0.82656002 0.53280002 1.5120001
-0.82749337 0.5352667 1.5190001
-0.8278572 0.53738099 1.5250001
-0.82873911 0.53984761 1.5320001
-0.82582098 0.53984761 1.5320001
-0.82290286 0.53984761 1.5320001
-0.81998479 0.53984761 1.5320001
-0.84414291 0.50485718 1.4250001
-0.84142858 0.50485718 1.4250001
-0.84577715 0.5091086 1.437
-0.84656 0.51123428 1.4430001
-0.84381145 0.51123428 1.4430001
-0.83756572 0.5091086 1.437
-0.83831429 0.51123428 1.4430001
-0.83904004 0.51336002 1.4490001
-0.83628005 0.51336002 1.4490001
-0.83352005 0.51336002 1.4490001
-0.83420002 0.5154857 1.455
-0.83485717 0.51761144 1.4610001
-0.83207434 0.51761144 1.4610001
-0.83269715 0.51973718 1.4670001
-0.83329719 0.52186286 1.473
-0.83049148 0.52186286 1.473
-0.83161908 0.52434289 1.48
-0.82880002 0.52434289 1.48
-0.82932955 0.52646858 1.4860001
-0.8264991 0.52646858 1.4860001
-0.8269943 0.52859432 1.4920001
-0.82415241 0.52859432 1.4920001
-0.82131052 0.52859432 1.4920001
-0.8223086 0.53107429 1.4990001
-0.82656002 0.53568 1.5120001
-0.82368004 0.53568 1.5120001
-0.82460004 0.53816003 1.5190001
-0.82170671 0.53816003 1.5190001
-0.82204765 0.54028571 1.5250001
-0.82290286 0.54276574 1.5320001
-0.81998479 0.54276574 1.5320001
-0.84414291 0.50757146 1.4250001
-0.84142858 0.50757146 1.4250001
-0.84577715 0.51184571 1.437
-0.84656 0.51398289 1.4430001
-0.84381145 0.51398289 1.4430001
-0.8410629 0.51398289 1.4430001
-0.83831429 0.51398289 1.4430001
-0.83556575 0.51398289 1.4430001
-0.8397429 0.51825714 1.455
-0.83697146 0.51825714 1.455
-0.83764005 0.52039433 1.4610001
-0.83485717 0.52039433 1.4610001
-0.83207434 0.52039433 1.4610001
-0.83269715 0.52253145 1.4670001
-0.83329719 0.52466857 1.473
-0.83049148 0.52466857 1.473
-0.82768577 0.52466857 1.473
-0.82880002 0.5271619 1.48
-0.82598096 0.5271619 1.48
-0.8264991 0.52929908 1.4860001
-0.8269943 0.5314362 1.4920001
-0.82415241 0.5314362 1.4920001
-0.82131052 0.5314362 1.4920001
-0.8223086 0.53392953 1.4990001
-0.82328004 0.53642285 1.506
-0.82368004 0.53856003 1.5120001
-0.81754291 0.53642285 1.506
-0.82170671 0.54105335 1.5190001
-0.82204765 0.54319048 1.5250001
-0.81914288 0.54319048 1.5250001
-0.81998479 0.5456838 1.5320001
-0.84058863 0.50813717 1.419
-0.83788574 0.50813717 1.419
-0.84224576 0.5124343 1.4310001
-0.84304005 0.51458287 1.437
-0.84030288 0.51458287 1.437
-0.83756572 0.51458287 1.437
-0.83831429 0.51673144 1.4430001
-0.83904004 0.51888001 1.4490001
-0.8397429 0.52102858 1.455
-0.83697146 0.52102858 1.455
-0.83764005 0.52317715 1.4610001
-0.83485717 0.52317715 1.4610001
-0.83549148 0.52532572 1.4670001
-0.83269715 0.52532572 1.4670001
-0.83329719 0.52747428 1.473
-0.83049148 0.52747428 1.473
-0.82768577 0.52747428 1.473
-0.82880002 0.52998096 1.48
-0.82598096 0.52998096 1.48
-0.8264991 0.53212953 1.4860001
-0.8269943 0.53427809 1.4920001
-0.82415241 0.53427809 1.4920001
-0.82131052 0.53427809 1.4920001
-0.8223086 0.53678477 1.4990001
-0.82656002 0.54144001 1.5120001
-0.82368004 0.54144001 1.5120001
-0.81754291 0.53929144 1.506
-0.82170671 0.54394668 1.5190001
-0.81881338 0.54394668 1.5190001
-0.81592005 0.54394668 1.5190001
-0.84414291 0.51300001 1.4250001
-0.84142858 0.51300001 1.4250001
-0.84224576 0.51516002 1.4310001
-0.83952004 0.51516002 1.4310001
-0.84030288 0.51732004 1.437
-0.83756572 0.51732004 1.437
-0.83831429 0.51947999 1.4430001
-0.83904004 0.52164 1.4490001
-0.8397429 0.52380002 1.455
-0.83697146 0.52380002 1.455
-0.83764005 0.52596003 1.4610001
-0.83828574 0.52812004 1.4670001
-0.83549148 0.52812004 1.4670001
-0.83269715 0.52812004 1.4670001
-0.82990289 0.52812004 1.4670001
-0.83049148 0.53027999 1.473
-0.82768577 0.53027999 1.473
-0.82880002 0.53280002 1.48
-0.82598096 0.53280002 1.48
