# .PCD v0.7 - Point Cloud Data file format
VERSION 0.7
FIELDS x y z
SIZE 4 4 4
TYPE F F F
COUNT 1 1 1
WIDTH 1531
HEIGHT 1
VIEWPOINT 0 0 0 1 0 0 0
POINTS 1531
DATA ascii
-0.83661336 0.43052003 1.603
-0.83356005 0.43052003 1.603
-0.8476972 0.38705143 1.4310001
-0.84497148 0.38705143 1.4310001
-0.84224576 0.38705143 1.4310001
-0.84304005 0.38867429 1.437
-0.84030288 0.38867429 1.437
-0.8410629 0.39029714 1.4430001
-0.83831429 0.39029714 1.4430001
-0.83904004 0.39192 1.4490001
-0.8397429 0.39354289 1.455
-0.84042287 0.39516574 1.4610001
-0.83764005 0.39516574 1.4610001
-0.84171432 0.39841145 1.473
-0.84289527 0.40030476 1.48
-0.84007621 0.40030476 1.48
-0.83725715 0.40030476 1.48
-0.83782101 0.40192762 1.4860001
-0.8349905 0.40192762 1.4860001
-0.83216006 0.40192762 1.4860001
-0.83267814 0.40355051 1.4920001
-0.82983625 0.40355051 1.4920001
-0.83087432 0.40544382 1.4990001
-0.83520001 0.40896001 1.5120001
-0.83232003 0.40896001 1.5120001
-0.83657146 0.41247621 1.5250001
-0.83366668 0.41247621 1.5250001
-0.8345753 0.41436955 1.5320001
-0.83545715 0.41626287 1.539
-0.83252573 0.41626287 1.539
-0.83336765 0.41815621 1.5460001
-0.83042288 0.41815621 1.5460001
-0.85424006 0.43168002 1.5960001
-0.85120004 0.43168002 1.5960001
-0.84816003 0.43168002 1.5960001
-0.84882671 0.43357334 1.603
-0.84208006 0.43168002 1.5960001
-0.83904004 0.43168002 1.5960001
-0.83966672 0.43357334 1.603
-0.83661336 0.43357334 1.603
-0.83356005 0.43357334 1.603
-0.8476972 0.38977715 1.4310001
-0.84497148 0.38977715 1.4310001
-0.84224576 0.38977715 1.4310001
-0.84304005 0.39141145 1.437
-0.84030288 0.39141145 1.437
-0.83756572 0.39141145 1.437
-0.83831429 0.39304572 1.4430001
-0.83904004 0.39468002 1.4490001
-0.8397429 0.39631429 1.455
-0.84042287 0.39794859 1.4610001
-0.83764005 0.39794859 1.4610001
-0.84171432 0.40121716 1.473
-0.84289527 0.40312383 1.48
-0.84007621 0.40312383 1.48
-0.83725715 0.40312383 1.48
-0.83782101 0.4047581 1.4860001
-0.8349905 0.4047581 1.4860001
-0.83216006 0.4047581 1.4860001
-0.83267814 0.4063924 1.4920001
-0.82983625 0.4063924 1.4920001
-0.83087432 0.40829906 1.4990001
-0.83188576 0.41020572 1.506
-0.82901716 0.41020572 1.506
-0.83657146 0.41538095 1.5250001
-0.83366668 0.41538095 1.5250001
-0.83076191 0.41538095 1.5250001
-0.83545715 0.41919431 1.539
-0.83252573 0.41919431 1.539
-0.83336765 0.42110097 1.5460001
-0.83042288 0.42110097 1.5460001
-0.83871812 0.42682096 1.567
-0.85493338 0.43662667 1.603
-0.85188001 0.43662667 1.603
-0.84882671 0.43662667 1.603
-0.84208006 0.43472001 1.5960001
-0.83904004 0.43472001 1.5960001
-0.84385717 0.43880573 1.6110001
-0.8407886 0.43880573 1.6110001
-0.83772004 0.43880573 1.6110001
-0.8476972 0.39250287 1.4310001
-0.84497148 0.39250287 1.4310001
-0.84224576 0.39250287 1.4310001
-0.84304005 0.39414859 1.437
-0.84030288 0.39414859 1.437
-0.83756572 0.39414859 1.437
-0.83831429 0.3957943 1.4430001
-0.84251434 0.39908573 1.455
-0.8397429 0.39908573 1.455
-0.83697146 0.39908573 1.455
-0.83764005 0.40073144 1.4610001
-0.83828574 0.40237716 1.4670001
-0.84289527 0.40594286 1.48
-0.84007621 0.40594286 1.48
-0.83725715 0.40594286 1.48
-0.83443815 0.40594286 1.48
-0.8349905 0.4075886 1.4860001
-0.83216006 0.4075886 1.4860001
-0.83267814 0.40923432 1.4920001
-0.82983625 0.40923432 1.4920001
-0.83087432 0.4111543 1.4990001
-0.83188576 0.41307431 1.506
-0.83232003 0.41472003 1.5120001
-0.83657146 0.41828573 1.5250001
-0.83366668 0.41828573 1.5250001
-0.8345753 0.42020574 1.5320001
-0.83545715 0.42212573 1.539
-0.83252573 0.42212573 1.539
-0.83336765 0.42404574 1.5460001
-0.83418286 0.42596573 1.5530001
-0.8424648 0.43172574 1.5740001
-0.83946669 0.43172574 1.5740001
-0.85188001 0.43968001 1.603
-0.84882671 0.43968001 1.603
-0.84208006 0.43776003 1.5960001
-0.84272003 0.43968001 1.603
-0.83966672 0.43968001 1.603
-0.83661336 0.43968001 1.603
-0.83356005 0.43968001 1.603
-0.8476972 0.39522859 1.4310001
-0.84497148 0.39522859 1.4310001
-0.84577715 0.39688572 1.437
-0.84304005 0.39688572 1.437
-0.84030288 0.39688572 1.437
-0.8410629 0.39854288 1.4430001
-0.83831429 0.39854288 1.4430001
-0.84251434 0.40185717 1.455
-0.84320575 0.4035143 1.4610001
-0.84042287 0.4035143 1.4610001
-0.84108001 0.40517145 1.4670001
-0.84171432 0.40682858 1.473
-0.84289527 0.40876192 1.48
-0.84007621 0.40876192 1.48
-0.83725715 0.40876192 1.48
-0.83782101 0.41041908 1.4860001
-0.8349905 0.41041908 1.4860001
-0.83552003 0.41207621 1.4920001
-0.83267814 0.41207621 1.4920001
-0.83372957 0.41400954 1.4990001
-0.83087432 0.41400954 1.4990001
-0.83520001 0.41760001 1.5120001
-0.83232003 0.41760001 1.5120001
-0.83657146 0.4211905 1.5250001
-0.83366668 0.4211905 1.5250001
-0.83076191 0.4211905 1.5250001
-0.83165717 0.42312384 1.5320001
-0.82873911 0.42312384 1.5320001
-0.83336765 0.42699048 1.5460001
-0.83418286 0.42892382 1.5530001
-0.8424648 0.43472382 1.5740001
-0.85920006 0.44494286 1.6110001
-0.85613143 0.44494286 1.6110001
-0.85306287 0.44494286 1.6110001
-0.84577334 0.44273335 1.603
-0.84272003 0.44273335 1.603
-0.83966672 0.44273335 1.603
-0.83661336 0.44273335 1.603
-0.83356005 0.44273335 1.603
-0.8476972 0.39795431 1.4310001
-0.84851432 0.39962286 1.437
-0.84577715 0.39962286 1.437
-0.84304005 0.39962286 1.437
-0.84381145 0.40129143 1.4430001
-0.84456003 0.40296 1.4490001
-0.84180003 0.40296 1.4490001
-0.84251434 0.40462857 1.455
-0.84320575 0.40629715 1.4610001
-0.84042287 0.40629715 1.4610001
-0.84108001 0.40796572 1.4670001
-0.84171432 0.40963429 1.473
-0.84289527 0.41158098 1.48
-0.84007621 0.41158098 1.48
-0.83725715 0.41158098 1.48
-0.83782101 0.41324955 1.4860001
-0.8349905 0.41324955 1.4860001
-0.83216006 0.41324955 1.4860001
-0.83267814 0.41491812 1.4920001
-0.83372957 0.41686478 1.4990001
-0.83475429 0.41881144 1.506
-0.83520001 0.42048001 1.5120001
-0.83232003 0.42048001 1.5120001
-0.82944006 0.42048001 1.5120001
-0.83366668 0.42409524 1.5250001
-0.83076191 0.42409524 1.5250001
-0.83165717 0.42604193 1.5320001
-0.83252573 0.42798859 1.539
-0.83714098 0.43188193 1.5530001
-0.84170288 0.43577525 1.567
-0.84621143 0.4396686 1.5810001
-0.85120004 0.44384003 1.5960001
-0.85613143 0.44801146 1.6110001
-0.85306287 0.44801146 1.6110001
-0.84577334 0.44578668 1.603
-0.84272003 0.44578668 1.603
-0.84385717 0.44801146 1.6110001
-0.8407886 0.44801146 1.6110001
-0.83772004 0.44801146 1.6110001
-0.8476972 0.40068001 1.4310001
-0.84497148 0.40068001 1.4310001
-0.84577715 0.40236002 1.437
-0.84304005 0.40236002 1.437
-0.84381145 0.40404001 1.4430001
-0.8410629 0.40404001 1.4430001
-0.83831429 0.40404001 1.4430001
-0.84251434 0.40740001 1.455
-0.84320575 0.40908003 1.4610001
-0.84042287 0.40908003 1.4610001
-0.84452003 0.41244 1.473
-0.84171432 0.41244 1.473
-0.84289527 0.41440001 1.48
-0.84007621 0.41440001 1.48
-0.83725715 0.41440001 1.48
-0.83443815 0.41440001 1.48
-0.8349905 0.41608003 1.4860001
-0.83552003 0.41776001 1.4920001
-0.83658481 0.41972002 1.4990001
-0.83762288 0.42168 1.506
-0.83475429 0.42168 1.506
-0.83520001 0.42336002 1.5120001
-0.83617336 0.42532003 1.5190001
-0.83657146 0.42700002 1.5250001
-0.83366668 0.42700002 1.5250001
-0.83076191 0.42700002 1.5250001
-0.83165717 0.42896003 1.5320001
-0.83252573 0.43092 1.539
-0.84091431 0.4368 1.5600001
-0.84170288 0.43876001 1.567
-0.8424648 0.44072002 1.5740001
-0.85120004 0.44688001 1.5960001
-0.85613143 0.45108002 1.6110001
-0.85306287 0.45108002 1.6110001
-0.84577334 0.44884002 1.603
-0.84272003 0.44884002 1.603
-0.84385717 0.45108002 1.6110001
-0.8407886 0.45108002 1.6110001
-0.83772004 0.45108002 1.6110001
-0.8476972 0.40340573 1.4310001
-0.84851432 0.40509716 1.437
-0.84577715 0.40509716 1.437
-0.84304005 0.40509716 1.437
-0.84381145 0.40678859 1.4430001
-0.8410629 0.40678859 1.4430001
-0.83831429 0.40678859 1.4430001
-0.83904004 0.40848002 1.4490001
-0.8397429 0.41017145 1.455
-0.84042287 0.41186288 1.4610001
-0.84108001 0.41355431 1.4670001
-0.84171432 0.41524574 1.473
-0.84289527 0.41721907 1.48
-0.84007621 0.41721907 1.48
-0.83725715 0.41721907 1.48
-0.83443815 0.41721907 1.48
-0.8349905 0.4189105 1.4860001
-0.83216006 0.4189105 1.4860001
-0.84049147 0.4245486 1.506
-0.84096003 0.42624003 1.5120001
-0.83808005 0.42624003 1.5120001
-0.83520001 0.42624003 1.5120001
-0.83617336 0.42821336 1.5190001
-0.83657146 0.42990479 1.5250001
-0.83366668 0.42990479 1.5250001
-0.8345753 0.43187812 1.5320001
-0.83545715 0.43385145 1.539
-0.83252573 0.43385145 1.539
-0.84091431 0.43977144 1.5600001
-0.8379429 0.43977144 1.5600001
-0.8424648 0.44371811 1.5740001
-0.84746671 0.4479467 1.5890001
-0.85188001 0.45189336 1.603
-0.84882671 0.45189336 1.603
-0.84577334 0.45189336 1.603
-0.84272003 0.45189336 1.603
-0.84385717 0.45414859 1.6110001
-0.8407886 0.45414859 1.6110001
-0.8476972 0.40613145 1.4310001
-0.84851432 0.40783429 1.437
-0.84577715 0.40783429 1.437
-0.84304005 0.40783429 1.437
-0.84381145 0.40953717 1.4430001
-0.8410629 0.40953717 1.4430001
-0.83831429 0.40953717 1.4430001
-0.84251434 0.41294289 1.455
-0.8397429 0.41294289 1.455
-0.84042287 0.41464573 1.4610001
-0.84108001 0.41634858 1.4670001
-0.84171432 0.41805145 1.473
-0.84289527 0.4200381 1.48
-0.84007621 0.4200381 1.48
-0.83725715 0.4200381 1.48
-0.83782101 0.42174098 1.4860001
-0.83836192 0.42344382 1.4920001
-0.83944005 0.42543051 1.4990001
-0.84049147 0.42741716 1.506
-0.84096003 0.42912 1.5120001
-0.83808005 0.42912 1.5120001
-0.83520001 0.42912 1.5120001
-0.83617336 0.43110669 1.5190001
-0.83657146 0.43280953 1.5250001
-0.83749336 0.43479621 1.5320001
-0.8345753 0.43479621 1.5320001
-0.83545715 0.43678287 1.539
-0.83252573 0.43678287 1.539
-0.84091431 0.44274288 1.5600001
-0.8379429 0.44274288 1.5600001
-0.83871812 0.44472954 1.567
-0.84746671 0.45097336 1.5890001
-0.85613143 0.45721716 1.6110001
-0.84882671 0.4549467 1.603
-0.84577334 0.4549467 1.603
-0.84272003 0.4549467 1.603
-0.84385717 0.45721716 1.6110001
-0.8407886 0.45721716 1.6110001
-0.85125148 0.41057146 1.437
-0.84851432 0.41057146 1.437
-0.84577715 0.41057146 1.437
-0.84656 0.41228572 1.4430001
-0.84381145 0.41228572 1.4430001
-0.84456003 0.414 1.4490001
-0.83831429 0.41228572 1.4430001
-0.83904004 0.414 1.4490001
-0.83628005 0.414 1.4490001
-0.84042287 0.41742858 1.4610001
-0.84108001 0.41914287 1.4670001
-0.83828574 0.41914287 1.4670001
-0.83890861 0.42085716 1.473
-0.84007621 0.42285717 1.48
-0.84065145 0.42457145 1.4860001
-0.83782101 0.42457145 1.4860001
-0.83836192 0.42628574 1.4920001
-0.83944005 0.42828572 1.4990001
-0.84049147 0.43028572 1.506
-0.84096003 0.43200001 1.5120001
-0.83808005 0.43200001 1.5120001
-0.83906668 0.43400002 1.5190001
-0.83617336 0.43400002 1.5190001
-0.83657146 0.4357143 1.5250001
-0.83749336 0.43771431 1.5320001
-0.8345753 0.43771431 1.5320001
-0.83545715 0.43971431 1.539
-0.83252573 0.43971431 1.539
-0.83714098 0.44371429 1.5530001
-0.8379429 0.44571429 1.5600001
-0.83871812 0.4477143 1.567
-0.84746671 0.45400003 1.5890001
-0.84816003 0.45600003 1.5960001
-0.84512001 0.45600003 1.5960001
-0.83838671 0.45400003 1.5890001
-0.84692574 0.46028572 1.6110001
-0.84385717 0.46028572 1.6110001
-0.8407886 0.46028572 1.6110001
-0.85125148 0.41330859 1.437
-0.84851432 0.41330859 1.437
-0.84577715 0.41330859 1.437
-0.84656 0.41503429 1.4430001
-0.84381145 0.41503429 1.4430001
-0.84456003 0.41676003 1.4490001
-0.83831429 0.41503429 1.4430001
-0.83556575 0.41503429 1.4430001
-0.83628005 0.41676003 1.4490001
-0.83697146 0.41848573 1.455
-0.84108001 0.42193717 1.4670001
-0.84171432 0.42366287 1.473
-0.84289527 0.4256762 1.48
-0.84007621 0.4256762 1.48
-0.84065145 0.42740193 1.4860001
-0.83782101 0.42740193 1.4860001
-0.83836192 0.42912763 1.4920001
-0.84336001 0.43315431 1.506
-0.84049147 0.43315431 1.506
-0.84096003 0.43488002 1.5120001
-0.83808005 0.43488002 1.5120001
-0.83520001 0.43488002 1.5120001
-0.83617336 0.43689334 1.5190001
-0.83657146 0.43861908 1.5250001
-0.83749336 0.4406324 1.5320001
-0.8345753 0.4406324 1.5320001
-0.83545715 0.44264573 1.539
-0.83631241 0.44465905 1.5460001
-0.84091431 0.44868574 1.5600001
-0.8379429 0.44868574 1.5600001
-0.83871812 0.45069906 1.567
-0.84320003 0.45472574 1.5810001
-0.84444004 0.45702669 1.5890001
-0.84512001 0.45904002 1.5960001
-0.83838671 0.45702669 1.5890001
-0.83536005 0.45702669 1.5890001
-0.84385717 0.46335429 1.6110001
-0.8407886 0.46335429 1.6110001
-0.85125148 0.41604573 1.437
-0.84851432 0.41604573 1.437
-0.84577715 0.41604573 1.437
-0.84656 0.41778287 1.4430001
-0.84381145 0.41778287 1.4430001
-0.8410629 0.41778287 1.4430001
-0.83831429 0.41778287 1.4430001
-0.83904004 0.41952002 1.4490001
-0.83628005 0.41952002 1.4490001
-0.83697146 0.42125717 1.455
-0.83764005 0.42299432 1.4610001
-0.83828574 0.42473143 1.4670001
-0.83890861 0.42646858 1.473
-0.84007621 0.42849526 1.48
-0.84065145 0.43023241 1.4860001
-0.83782101 0.43023241 1.4860001
-0.84229529 0.4339962 1.4990001
-0.84336001 0.43602288 1.506
-0.84049147 0.43602288 1.506
-0.84096003 0.43776003 1.5120001
-0.83808005 0.43776003 1.5120001
-0.83520001 0.43776003 1.5120001
-0.83617336 0.43978667 1.5190001
-0.83657146 0.44152382 1.5250001
-0.83749336 0.4435505 1.5320001
-0.83838862 0.44557714 1.539
-0.83925718 0.44760382 1.5460001
-0.83631241 0.44760382 1.5460001
-0.84091431 0.45165715 1.5600001
-0.8379429 0.45165715 1.5600001
-0.83871812 0.45368382 1.567
-0.83946669 0.4557105 1.5740001
-0.84444004 0.46005335 1.5890001
-0.84141338 0.46005335 1.5890001
-0.83838671 0.46005335 1.5890001
-0.83536005 0.46005335 1.5890001
-0.83233339 0.46005335 1.5890001
-0.82930672 0.46005335 1.5890001
-0.85125148 0.41878286 1.437
-0.84851432 0.41878286 1.437
-0.84577715 0.41878286 1.437
-0.84656 0.42053145 1.4430001
-0.84381145 0.42053145 1.4430001
-0.8410629 0.42053145 1.4430001
-0.83831429 0.42053145 1.4430001
-0.83904004 0.42228001 1.4490001
-0.83628005 0.42228001 1.4490001
-0.83697146 0.42402858 1.455
-0.83764005 0.42577717 1.4610001
-0.83828574 0.42752573 1.4670001
-0.83890861 0.42927429 1.473
-0.84007621 0.43131429 1.48
-0.84065145 0.43306288 1.4860001
-0.83782101 0.43306288 1.4860001
-0.84229529 0.43685144 1.4990001
-0.84336001 0.43889144 1.506
-0.84049147 0.43889144 1.506
-0.84096003 0.44064 1.5120001
-0.83808005 0.44064 1.5120001
-0.83520001 0.44064 1.5120001
-0.83232003 0.44064 1.5120001
-0.83657146 0.44442859 1.5250001
-0.83749336 0.44646859 1.5320001
-0.8345753 0.44646859 1.5320001
-0.83925718 0.45054859 1.5460001
-0.83631241 0.45054859 1.5460001
-0.84091431 0.45462859 1.5600001
-0.8379429 0.45462859 1.5600001
-0.83871812 0.45666859 1.567
-0.83946669 0.45870858 1.5740001
-0.84018862 0.46074858 1.5810001
-0.84141338 0.46308002 1.5890001
-0.83416575 0.46074858 1.5810001
-0.83536005 0.46308002 1.5890001
-0.84385717 0.46949145 1.6110001
-0.8407886 0.46949145 1.6110001
-0.85125148 0.42152002 1.437
-0.84851432 0.42152002 1.437
-0.84577715 0.42152002 1.437
-0.84656 0.42328 1.4430001
-0.84381145 0.42328 1.4430001
-0.8410629 0.42328 1.4430001
-0.83831429 0.42328 1.4430001
-0.83904004 0.42504001 1.4490001
-0.8328172 0.42328 1.4430001
-0.83697146 0.42680001 1.455
-0.83764005 0.42856002 1.4610001
-0.84171432 0.43208003 1.473
-0.83890861 0.43208003 1.473
-0.84007621 0.43413335 1.48
-0.84065145 0.43589336 1.4860001
-0.84120387 0.43765336 1.4920001
-0.84229529 0.43970668 1.4990001
-0.84336001 0.44176 1.506
-0.84049147 0.44176 1.506
-0.84096003 0.44352001 1.5120001
-0.83808005 0.44352001 1.5120001
-0.83520001 0.44352001 1.5120001
-0.83232003 0.44352001 1.5120001
-0.83328003 0.44557336 1.5190001
-0.83366668 0.44733334 1.5250001
-0.8345753 0.44938669 1.5320001
-0.83545715 0.45144001 1.539
-0.8400991 0.45554668 1.5530001
-0.84091431 0.45760003 1.5600001
-0.8379429 0.45760003 1.5600001
-0.83871812 0.45965335 1.567
-0.83946669 0.4617067 1.5740001
-0.84018862 0.46376002 1.5810001
-0.84141338 0.46610668 1.5890001
-0.83416575 0.46376002 1.5810001
-0.83904004 0.46816 1.5960001
-0.83966672 0.47021335 1.603
-0.83661336 0.47021335 1.603
-0.85125148 0.42425716 1.437
-0.84851432 0.42425716 1.437
-0.84577715 0.42425716 1.437
-0.84656 0.42602858 1.4430001
-0.84381145 0.42602858 1.4430001
-0.84456003 0.42780003 1.4490001
-0.84180003 0.42780003 1.4490001
-0.83904004 0.42780003 1.4490001
-0.83628005 0.42780003 1.4490001
-0.84042287 0.43134287 1.4610001
-0.83764005 0.43134287 1.4610001
-0.84171432 0.43488574 1.473
-0.83890861 0.43488574 1.473
-0.84348196 0.43872383 1.4860001
-0.84065145 0.43872383 1.4860001
-0.83782101 0.43872383 1.4860001
-0.84229529 0.44256192 1.4990001
-0.84336001 0.4446286 1.506
-0.84049147 0.4446286 1.506
-0.83762288 0.4446286 1.506
-0.83808005 0.44640002 1.5120001
-0.83520001 0.44640002 1.5120001
-0.83232003 0.44640002 1.5120001
-0.83328003 0.44846669 1.5190001
-0.83366668 0.45023811 1.5250001
-0.8345753 0.45230478 1.5320001
-0.83925718 0.45643812 1.5460001
-0.8400991 0.45850477 1.5530001
-0.84091431 0.46057144 1.5600001
-0.8379429 0.46057144 1.5600001
-0.83871812 0.46263811 1.567
-0.83573335 0.46263811 1.567
-0.83646858 0.46470478 1.5740001
-0.83717716 0.46677145 1.5810001
-0.83838671 0.46913335 1.5890001
-0.84272003 0.47326669 1.603
-0.83966672 0.47326669 1.603
-0.83661336 0.47326669 1.603
-0.85125148 0.42699429 1.437
-0.84851432 0.42699429 1.437
-0.84577715 0.42699429 1.437
-0.84656 0.42877716 1.4430001
-0.84381145 0.42877716 1.4430001
-0.84456003 0.43056002 1.4490001
-0.84180003 0.43056002 1.4490001
-0.84251434 0.43234289 1.455
-0.83628005 0.43056002 1.4490001
-0.84042287 0.43412572 1.4610001
-0.83764005 0.43412572 1.4610001
-0.84571433 0.43977144 1.48
-0.83890861 0.43769145 1.473
-0.84348196 0.44155431 1.4860001
-0.84404576 0.44333717 1.4920001
-0.84120387 0.44333717 1.4920001
-0.84229529 0.44541717 1.4990001
-0.84336001 0.44749716 1.506
-0.84049147 0.44749716 1.506
-0.83762288 0.44749716 1.506
-0.83808005 0.44928002 1.5120001
-0.83520001 0.44928002 1.5120001
-0.83232003 0.44928002 1.5120001
-0.83328003 0.45136002 1.5190001
-0.83366668 0.45314288 1.5250001
-0.8345753 0.45522287 1.5320001
-0.83545715 0.45730287 1.539
-0.8400991 0.46146289 1.5530001
-0.84091431 0.46354288 1.5600001
-0.8379429 0.46354288 1.5600001
-0.83871812 0.46562287 1.567
-0.83946669 0.46770287 1.5740001
-0.84018862 0.46978289 1.5810001
-0.84512001 0.47424001 1.5960001
-0.84208006 0.47424001 1.5960001
-0.84272003 0.47632003 1.603
-0.83966672 0.47632003 1.603
-0.83661336 0.47632003 1.603
-0.85125148 0.42973146 1.437
-0.84851432 0.42973146 1.437
-0.84577715 0.42973146 1.437
-0.84304005 0.42973146 1.437
-0.84381145 0.43152574 1.4430001
-0.84456003 0.43332002 1.4490001
-0.84180003 0.43332002 1.4490001
-0.84251434 0.43511429 1.455
-0.8397429 0.43511429 1.455
-0.84042287 0.43690857 1.4610001
-0.83764005 0.43690857 1.4610001
-0.84171432 0.44049716 1.473
-0.84289527 0.4425905 1.48
-0.84348196 0.44438478 1.4860001
-0.84404576 0.44617906 1.4920001
-0.84120387 0.44617906 1.4920001
-0.84229529 0.44827241 1.4990001
-0.83944005 0.44827241 1.4990001
-0.84049147 0.45036572 1.506
-0.83762288 0.45036572 1.506
-0.83475429 0.45036572 1.506
-0.83520001 0.45216003 1.5120001
-0.83232003 0.45216003 1.5120001
-0.83328003 0.45425335 1.5190001
-0.8303867 0.45425335 1.5190001
-0.83076191 0.45604762 1.5250001
-0.83545715 0.46023431 1.539
-0.83631241 0.46232763 1.5460001
-0.84091431 0.46651429 1.5600001
-0.8379429 0.46651429 1.5600001
-0.8424648 0.47070098 1.5740001
-0.84320003 0.47279429 1.5810001
-0.84444004 0.47518668 1.5890001
-0.84512001 0.47728002 1.5960001
-0.83838671 0.47518668 1.5890001
-0.84272003 0.47937337 1.603
-0.83966672 0.47937337 1.603
-0.83661336 0.47937337 1.603
-0.85125148 0.43246859 1.437
-0.84851432 0.43246859 1.437
-0.84577715 0.43246859 1.437
-0.84656 0.43427432 1.4430001
-0.84381145 0.43427432 1.4430001
-0.84456003 0.43608001 1.4490001
-0.84528577 0.43788573 1.455
-0.84598863 0.43969145 1.4610001
-0.8397429 0.43788573 1.455
-0.84387434 0.44149715 1.4670001
-0.83764005 0.43969145 1.4610001
-0.84571433 0.44540954 1.48
-0.8463124 0.44721526 1.4860001
-0.84348196 0.44721526 1.4860001
-0.84065145 0.44721526 1.4860001
-0.84120387 0.44902098 1.4920001
-0.84229529 0.45112765 1.4990001
-0.83944005 0.45112765 1.4990001
-0.84049147 0.45323431 1.506
-0.83762288 0.45323431 1.506
-0.83475429 0.45323431 1.506
-0.83520001 0.45504001 1.5120001
-0.83232003 0.45504001 1.5120001
-0.83328003 0.45714667 1.5190001
-0.8303867 0.45714667 1.5190001
-0.8345753 0.46105906 1.5320001
-0.83545715 0.46316573 1.539
-0.83631241 0.4652724 1.5460001
-0.83714098 0.46737906 1.5530001
-0.8379429 0.46948573 1.5600001
-0.83871812 0.4715924 1.567
-0.83946669 0.47369906 1.5740001
-0.84018862 0.47580573 1.5810001
-0.84512001 0.48032001 1.5960001
-0.84208006 0.48032001 1.5960001
-0.84272003 0.48242667 1.603
-0.83966672 0.48242667 1.603
-0.83661336 0.48242667 1.603
-0.85125148 0.43520573 1.437
-0.84851432 0.43520573 1.437
-0.84930861 0.43702286 1.4430001
-0.84656 0.43702286 1.4430001
-0.84381145 0.43702286 1.4430001
-0.84456003 0.43884 1.4490001
-0.84528577 0.44065717 1.455
-0.84251434 0.44065717 1.455
-0.8397429 0.44065717 1.455
-0.84387434 0.44429144 1.4670001
-0.84108001 0.44429144 1.4670001
-0.84571433 0.4482286 1.48
-0.84289527 0.4482286 1.48
-0.84348196 0.45004573 1.4860001
-0.84065145 0.45004573 1.4860001
-0.83782101 0.45004573 1.4860001
-0.83836192 0.45186287 1.4920001
-0.83944005 0.45398286 1.4990001
-0.84049147 0.45610288 1.506
-0.83762288 0.45610288 1.506
-0.83475429 0.45610288 1.506
-0.83520001 0.45792001 1.5120001
-0.83232003 0.45792001 1.5120001
-0.83328003 0.46004 1.5190001
-0.8303867 0.46004 1.5190001
-0.8345753 0.46397716 1.5320001
-0.83545715 0.46609715 1.539
-0.83631241 0.46821716 1.5460001
-0.83714098 0.47033715 1.5530001
-0.8379429 0.47245717 1.5600001
-0.83871812 0.47457716 1.567
-0.83946669 0.47669715 1.5740001
-0.84018862 0.47881716 1.5810001
-0.84512001 0.48336002 1.5960001
-0.84577334 0.48548001 1.603
-0.84272003 0.48548001 1.603
-0.84385717 0.48790288 1.6110001
-0.8407886 0.48790288 1.6110001
-0.85125148 0.43794286 1.437
-0.84851432 0.43794286 1.437
-0.84930861 0.43977144 1.4430001
-0.84656 0.43977144 1.4430001
-0.84381145 0.43977144 1.4430001
-0.84456003 0.44160002 1.4490001
-0.84528577 0.44342858 1.455
-0.84598863 0.44525716 1.4610001
-0.84320575 0.44525716 1.4610001
-0.84732574 0.44891429 1.473
-0.84452003 0.44891429 1.473
-0.84571433 0.45104763 1.48
-0.84289527 0.45104763 1.48
-0.84348196 0.45287621 1.4860001
-0.84065145 0.45287621 1.4860001
-0.83782101 0.45287621 1.4860001
-0.83836192 0.45470479 1.4920001
-0.83944005 0.4568381 1.4990001
-0.83658481 0.4568381 1.4990001
-0.83762288 0.45897144 1.506
-0.83475429 0.45897144 1.506
-0.83520001 0.46080002 1.5120001
-0.83232003 0.46080002 1.5120001
-0.83328003 0.46293336 1.5190001
-0.8303867 0.46293336 1.5190001
-0.8345753 0.46689525 1.5320001
-0.83545715 0.46902859 1.539
-0.83631241 0.47116193 1.5460001
-0.83714098 0.47329524 1.5530001
-0.84170288 0.47756192 1.567
-0.83871812 0.47756192 1.567
-0.84320003 0.4818286 1.5810001
-0.84018862 0.4818286 1.5810001
-0.84882671 0.48853335 1.603
-0.8499943 0.49097145 1.6110001
-0.85060573 0.49310479 1.618
-0.84752387 0.49310479 1.618
-0.8486172 0.49554288 1.626
-0.84552002 0.49554288 1.626
-0.85125148 0.44068003 1.437
-0.84851432 0.44068003 1.437
-0.84930861 0.44252002 1.4430001
-0.84656 0.44252002 1.4430001
-0.84732002 0.44436002 1.4490001
-0.84456003 0.44436002 1.4490001
-0.84528577 0.44620001 1.455
-0.84251434 0.44620001 1.455
-0.8397429 0.44620001 1.455
-0.84387434 0.44988 1.4670001
-0.84452003 0.45172003 1.473
-0.84571433 0.45386669 1.48
-0.84289527 0.45386669 1.48
-0.84348196 0.45570669 1.4860001
-0.84065145 0.45570669 1.4860001
-0.83782101 0.45570669 1.4860001
-0.8349905 0.45570669 1.4860001
-0.83944005 0.45969334 1.4990001
-0.83658481 0.45969334 1.4990001
-0.83762288 0.46184 1.506
-0.83475429 0.46184 1.506
-0.83520001 0.46368003 1.5120001
-0.83617336 0.46582669 1.5190001
-0.83328003 0.46582669 1.5190001
-0.8303867 0.46582669 1.5190001
-0.8345753 0.46981335 1.5320001
-0.83925718 0.47410667 1.5460001
-0.83631241 0.47410667 1.5460001
-0.83714098 0.47625336 1.5530001
-0.84170288 0.48054668 1.567
-0.8424648 0.48269334 1.5740001
-0.84320003 0.48484001 1.5810001
-0.84444004 0.48729336 1.5890001
-0.84882671 0.49158669 1.603
-0.8499943 0.49404001 1.6110001
-0.85060573 0.49618667 1.618
-0.84752387 0.49618667 1.618
-0.85279244 0.50109333 1.6340001
-0.84968001 0.50109333 1.6340001
-0.85125148 0.44341716 1.437
-0.84851432 0.44341716 1.437
-0.84930861 0.4452686 1.4430001
-0.84656 0.4452686 1.4430001
-0.84732002 0.44712001 1.4490001
-0.84456003 0.44712001 1.4490001
-0.84528577 0.44897145 1.455
-0.84251434 0.44897145 1.455
-0.84320575 0.45082286 1.4610001
-0.84387434 0.4526743 1.4670001
-0.84452003 0.45452574 1.473
-0.84571433 0.45668572 1.48
-0.84289527 0.45668572 1.48
-0.84007621 0.45668572 1.48
-0.84065145 0.45853716 1.4860001
-0.83782101 0.45853716 1.4860001
-0.8349905 0.45853716 1.4860001
-0.83944005 0.46254858 1.4990001
-0.83658481 0.46254858 1.4990001
-0.83762288 0.4647086 1.506
-0.83475429 0.4647086 1.506
-0.83520001 0.46656001 1.5120001
-0.83617336 0.46872002 1.5190001
-0.83328003 0.46872002 1.5190001
-0.83366668 0.47057146 1.5250001
-0.83076191 0.47057146 1.5250001
-0.83925718 0.47705144 1.5460001
-0.83631241 0.47705144 1.5460001
-0.83714098 0.47921145 1.5530001
-0.8379429 0.48137143 1.5600001
-0.84621143 0.48785144 1.5810001
-0.84746671 0.49032003 1.5890001
-0.84444004 0.49032003 1.5890001
-0.84882671 0.49464002 1.603
-0.8499943 0.49710858 1.6110001
-0.85060573 0.49926859 1.618
-0.85171431 0.50173718 1.626
-0.85279244 0.5042057 1.6340001
-0.84968001 0.5042057 1.6340001
-0.85125148 0.4461543 1.437
-0.84851432 0.4461543 1.437
-0.84577715 0.4461543 1.437
-0.84656 0.44801715 1.4430001
-0.84732002 0.44988 1.4490001
-0.84456003 0.44988 1.4490001
-0.84528577 0.45174289 1.455
-0.84598863 0.45360574 1.4610001
-0.84320575 0.45360574 1.4610001
-0.84732574 0.45733145 1.473
-0.84452003 0.45733145 1.473
-0.84571433 0.45950478 1.48
-0.84289527 0.45950478 1.48
-0.84007621 0.45950478 1.48
-0.84065145 0.46136764 1.4860001
-0.83782101 0.46136764 1.4860001
-0.83836192 0.46323049 1.4920001
-0.83944005 0.46540383 1.4990001
-0.84049147 0.46757716 1.506
-0.83762288 0.46757716 1.506
-0.83475429 0.46757716 1.506
-0.83188576 0.46757716 1.506
-0.83617336 0.47161335 1.5190001
-0.83657146 0.4734762 1.5250001
-0.83749336 0.47564954 1.5320001
-0.83838862 0.47782287 1.539
-0.83925718 0.4799962 1.5460001
-0.83631241 0.4799962 1.5460001
-0.83336765 0.4799962 1.5460001
-0.8379429 0.48434287 1.5600001
-0.8424648 0.48868954 1.5740001
-0.84320003 0.49086288 1.5810001
-0.84444004 0.49334669 1.5890001
-0.84512001 0.49552003 1.5960001
-0.8499943 0.50017715 1.6110001
-0.85060573 0.50235051 1.618
-0.84752387 0.50235051 1.618
-0.85279244 0.50731814 1.6340001
-0.85125148 0.44889143 1.437
-0.84851432 0.44889143 1.437
-0.84930861 0.45076573 1.4430001
-0.84656 0.45076573 1.4430001
-0.84732002 0.45264003 1.4490001
-0.84805715 0.45451429 1.455
-0.84528577 0.45451429 1.455
-0.84598863 0.45638859 1.4610001
-0.84320575 0.45638859 1.4610001
-0.84732574 0.46013716 1.473
-0.84452003 0.46013716 1.473
-0.84171432 0.46013716 1.473
-0.83890861 0.46013716 1.473
-0.84007621 0.46232381 1.48
-0.84065145 0.46419811 1.4860001
-0.83782101 0.46419811 1.4860001
-0.8349905 0.46419811 1.4860001
-0.83944005 0.46825907 1.4990001
-0.84049147 0.47044572 1.506
-0.83762288 0.47044572 1.506
-0.83808005 0.47232002 1.5120001
-0.83906668 0.47450668 1.5190001
-0.83947623 0.47638097 1.5250001
-0.83657146 0.47638097 1.5250001
-0.83749336 0.47856763 1.5320001
-0.83838862 0.48075432 1.539
-0.83925718 0.48294097 1.5460001
-0.83631241 0.48294097 1.5460001
-0.83714098 0.48512763 1.5530001
-0.8379429 0.48731431 1.5600001
-0.8424648 0.49168763 1.5740001
-0.83946669 0.49168763 1.5740001
-0.84444004 0.49637336 1.5890001
-0.84512001 0.49856001 1.5960001
-0.84577334 0.50074667 1.603
-0.84692574 0.50324571 1.6110001
-0.84385717 0.50324571 1.6110001
-0.85125148 0.4516286 1.437
-0.85205716 0.45351431 1.4430001
-0.84930861 0.45351431 1.4430001
-0.84656 0.45351431 1.4430001
-0.84732002 0.45540002 1.4490001
-0.84805715 0.45728573 1.455
-0.84528577 0.45728573 1.455
-0.84598863 0.45917144 1.4610001
-0.84320575 0.45917144 1.4610001
-0.84732574 0.46294287 1.473
-0.84452003 0.46294287 1.473
-0.84171432 0.46294287 1.473
-0.84289527 0.46514288 1.48
-0.84007621 0.46514288 1.48
-0.84065145 0.46702859 1.4860001
-0.83782101 0.46702859 1.4860001
-0.83836192 0.4689143 1.4920001
-0.83552003 0.4689143 1.4920001
-0.83658481 0.47111431 1.4990001
-0.83762288 0.47331432 1.506
-0.83475429 0.47331432 1.506
-0.83520001 0.47520003 1.5120001
-0.83617336 0.4774 1.5190001
-0.83657146 0.47928575 1.5250001
-0.83749336 0.48148572 1.5320001
-0.83838862 0.48368573 1.539
-0.83925718 0.48588574 1.5460001
-0.83631241 0.48588574 1.5460001
-0.83714098 0.48808575 1.5530001
-0.8379429 0.49028572 1.5600001
-0.8424648 0.49468574 1.5740001
-0.84320003 0.49688575 1.5810001
-0.84816003 0.50160003 1.5960001
-0.84882671 0.50380003 1.603
-0.84577334 0.50380003 1.603
-0.84692574 0.50631428 1.6110001
-0.84385717 0.50631428 1.6110001
-0.85125148 0.45436573 1.437
-0.84851432 0.45436573 1.437
-0.84930861 0.45626289 1.4430001
-0.84656 0.45626289 1.4430001
-0.84732002 0.45816001 1.4490001
-0.84805715 0.46005717 1.455
-0.84528577 0.46005717 1.455
-0.84251434 0.46005717 1.455
-0.84320575 0.4619543 1.4610001
-0.84732574 0.46574858 1.473
-0.84452003 0.46574858 1.473
-0.84571433 0.46796191 1.48
-0.84289527 0.46796191 1.48
-0.84007621 0.46796191 1.48
-0.84065145 0.46985906 1.4860001
-0.84120387 0.47175622 1.4920001
-0.83836192 0.47175622 1.4920001
-0.83944005 0.47396955 1.4990001
-0.84049147 0.47618288 1.506
-0.83762288 0.47618288 1.506
-0.83475429 0.47618288 1.506
-0.83520001 0.47808 1.5120001
-0.83617336 0.48029336 1.5190001
-0.83657146 0.48219049 1.5250001
-0.83749336 0.48440382 1.5320001
-0.83838862 0.48661715 1.539
-0.83545715 0.48661715 1.539
-0.83631241 0.48883051 1.5460001
-0.83336765 0.48883051 1.5460001
-0.8379429 0.49325716 1.5600001
-0.8424648 0.49768382 1.5740001
-0.84746671 0.50242668 1.5890001
-0.84816003 0.50464004 1.5960001
-0.84882671 0.50685334 1.603
-0.84577334 0.50685334 1.603
-0.84272003 0.50685334 1.603
-0.84385717 0.5093829 1.6110001
-0.8407886 0.5093829 1.6110001
-0.85125148 0.45710286 1.437
-0.84851432 0.45710286 1.437
-0.84930861 0.45901144 1.4430001
-0.84656 0.45901144 1.4430001
-0.84732002 0.46092001 1.4490001
-0.84805715 0.46282858 1.455
-0.84528577 0.46282858 1.455
-0.84598863 0.46473715 1.4610001
-0.8466686 0.46664572 1.4670001
-0.84732574 0.46855429 1.473
-0.84452003 0.46855429 1.473
-0.84171432 0.46855429 1.473
-0.84289527 0.47078097 1.48
-0.84348196 0.47268954 1.4860001
-0.84404576 0.47459811 1.4920001
-0.84120387 0.47459811 1.4920001
-0.84229529 0.47682479 1.4990001
-0.83944005 0.47682479 1.4990001
-0.84049147 0.47905144 1.506
-0.83762288 0.47905144 1.506
-0.83475429 0.47905144 1.506
-0.83520001 0.48096001 1.5120001
-0.83617336 0.48318669 1.5190001
-0.83328003 0.48318669 1.5190001
-0.83749336 0.48732191 1.5320001
-0.8345753 0.48732191 1.5320001
-0.83545715 0.48954859 1.539
-0.83252573 0.48954859 1.539
-0.83336765 0.49177524 1.5460001
-0.8379429 0.49622858 1.5600001
-0.8424648 0.50068194 1.5740001
-0.84746671 0.50545335 1.5890001
-0.84816003 0.50768 1.5960001
-0.84882671 0.50990671 1.603
-0.84208006 0.50768 1.5960001
-0.83904004 0.50768 1.5960001
-0.83600003 0.50768 1.5960001
-0.83296001 0.50768 1.5960001
-0.85125148 0.45984003 1.437
-0.84851432 0.45984003 1.437
-0.84577715 0.45984003 1.437
-0.84656 0.46176001 1.4430001
-0.85082859 0.46560001 1.455
-0.84805715 0.46560001 1.455
-0.84528577 0.46560001 1.455
-0.84251434 0.46560001 1.455
-0.84320575 0.46752003 1.4610001
-0.84732574 0.47136003 1.473
-0.84452003 0.47136003 1.473
-0.84171432 0.47136003 1.473
-0.83890861 0.47136003 1.473
-0.84348196 0.47552001 1.4860001
-0.84065145 0.47552001 1.4860001
-0.84120387 0.47744003 1.4920001
-0.84229529 0.47968003 1.4990001
-0.84336001 0.48192 1.506
-0.84049147 0.48192 1.506
-0.84096003 0.48384002 1.5120001
-0.83808005 0.48384002 1.5120001
-0.83520001 0.48384002 1.5120001
-0.83617336 0.48608002 1.5190001
-0.83657146 0.48800001 1.5250001
-0.83749336 0.49024001 1.5320001
-0.8345753 0.49024001 1.5320001
-0.83545715 0.49248001 1.539
-0.83252573 0.49248001 1.539
-0.83336765 0.49472001 1.5460001
-0.8379429 0.49920002 1.5600001
-0.8424648 0.50367999 1.5740001
-0.84746671 0.50848001 1.5890001
-0.84816003 0.51072001 1.5960001
-0.84882671 0.51296002 1.603
-0.84208006 0.51072001 1.5960001
-0.83904004 0.51072001 1.5960001
-0.83600003 0.51072001 1.5960001
-0.83296001 0.51072001 1.5960001
-0.8476972 0.46064574 1.4310001
-0.84851432 0.46257716 1.437
-0.84577715 0.46257716 1.437
-0.85008001 0.46644002 1.4490001
-0.85082859 0.46837145 1.455
-0.84805715 0.46837145 1.455
-0.84528577 0.46837145 1.455
-0.84598863 0.47030288 1.4610001
-0.84320575 0.47030288 1.4610001
-0.84732574 0.47416574 1.473
-0.84452003 0.47416574 1.473
-0.84171432 0.47416574 1.473
-0.83890861 0.47416574 1.473
-0.84007621 0.47641906 1.48
-0.84404576 0.48028192 1.4920001
-0.84120387 0.48028192 1.4920001
-0.84229529 0.48253524 1.4990001
-0.84336001 0.4847886 1.506
-0.84049147 0.4847886 1.506
-0.84096003 0.48672003 1.5120001
-0.83808005 0.48672003 1.5120001
-0.83520001 0.48672003 1.5120001
-0.83617336 0.48897335 1.5190001
-0.83328003 0.48897335 1.5190001
-0.83749336 0.4931581 1.5320001
-0.8345753 0.4931581 1.5320001
-0.83545715 0.49541146 1.539
-0.83252573 0.49541146 1.539
-0.83336765 0.49766478 1.5460001
-0.8379429 0.50217146 1.5600001
-0.83871812 0.50442475 1.567
-0.84746671 0.51150668 1.5890001
-0.84816003 0.51376003 1.5960001
-0.84882671 0.51601332 1.603
-0.83838671 0.51150668 1.5890001
-0.83536005 0.51150668 1.5890001
-0.83233339 0.51150668 1.5890001
-0.82930672 0.51150668 1.5890001
-0.8476972 0.46337146 1.4310001
-0.84851432 0.4653143 1.437
-0.84577715 0.4653143 1.437
-0.84656 0.46725717 1.4430001
-0.85082859 0.47114289 1.455
-0.84805715 0.47114289 1.455
-0.84528577 0.47114289 1.455
-0.84598863 0.47308573 1.4610001
-0.84320575 0.47308573 1.4610001
-0.84387434 0.47502857 1.4670001
-0.84108001 0.47502857 1.4670001
-0.84171432 0.47697145 1.473
-0.83890861 0.47697145 1.473
-0.84007621 0.47923812 1.48
-0.84065145 0.48118097 1.4860001
-0.84120387 0.48312384 1.4920001
-0.83836192 0.48312384 1.4920001
-0.83944005 0.48539048 1.4990001
-0.83658481 0.48539048 1.4990001
-0.83762288 0.48765716 1.506
-0.83475429 0.48765716 1.506
-0.83520001 0.48960003 1.5120001
-0.83947623 0.49380955 1.5250001
-0.83657146 0.49380955 1.5250001
-0.83749336 0.4960762 1.5320001
-0.8345753 0.4960762 1.5320001
-0.83165717 0.4960762 1.5320001
-0.83252573 0.49834287 1.539
-0.83336765 0.50060952 1.5460001
-0.8379429 0.50514287 1.5600001
-0.8424648 0.50967622 1.5740001
-0.84746671 0.51453334 1.5890001
-0.85188001 0.51906669 1.603
-0.84882671 0.51906669 1.603
-0.84208006 0.51680005 1.5960001
-0.83536005 0.51453334 1.5890001
-0.83233339 0.51453334 1.5890001
-0.82930672 0.51453334 1.5890001
-0.8476972 0.46609715 1.4310001
-0.84851432 0.46805143 1.437
-0.84577715 0.46805143 1.437
-0.84656 0.47000572 1.4430001
-0.84732002 0.47196001 1.4490001
-0.84805715 0.4739143 1.455
-0.84528577 0.4739143 1.455
-0.84251434 0.4739143 1.455
-0.84320575 0.47586858 1.4610001
-0.84387434 0.47782287 1.4670001
-0.84108001 0.47782287 1.4670001
-0.84171432 0.47977716 1.473
-0.83890861 0.47977716 1.473
-0.84007621 0.48205715 1.48
-0.84065145 0.48401144 1.4860001
-0.84120387 0.48596573 1.4920001
-0.83836192 0.48596573 1.4920001
-0.83944005 0.48824573 1.4990001
-0.83658481 0.48824573 1.4990001
-0.83762288 0.49052572 1.506
-0.83475429 0.49052572 1.506
-0.83520001 0.49248001 1.5120001
-0.83947623 0.49671429 1.5250001
-0.83657146 0.49671429 1.5250001
-0.83749336 0.49899429 1.5320001
-0.83838862 0.50127429 1.539
-0.83545715 0.50127429 1.539
-0.83252573 0.50127429 1.539
-0.83336765 0.50355428 1.5460001
-0.8379429 0.50811428 1.5600001
-0.83871812 0.51039428 1.567
-0.84320003 0.51495433 1.5810001
-0.84816003 0.51984 1.5960001
-0.84512001 0.51984 1.5960001
-0.83838671 0.51756001 1.5890001
-0.83536005 0.51756001 1.5890001
-0.82814288 0.51495433 1.5810001
-0.82513148 0.51495433 1.5810001
-0.8476972 0.46882287 1.4310001
-0.84497148 0.46882287 1.4310001
-0.84577715 0.4707886 1.437
-0.84656 0.4727543 1.4430001
-0.84732002 0.47472003 1.4490001
-0.84456003 0.47472003 1.4490001
-0.84528577 0.47668573 1.455
-0.84251434 0.47668573 1.455
-0.84320575 0.47865143 1.4610001
-0.84042287 0.47865143 1.4610001
-0.84108001 0.48061717 1.4670001
-0.83828574 0.48061717 1.4670001
-0.83890861 0.48258287 1.473
-0.84007621 0.48487622 1.48
-0.83725715 0.48487622 1.48
-0.83782101 0.48684192 1.4860001
-0.83836192 0.48880765 1.4920001
-0.83944005 0.49110097 1.4990001
-0.83658481 0.49110097 1.4990001
-0.83762288 0.49339432 1.506
-0.83475429 0.49339432 1.506
-0.83520001 0.49536002 1.5120001
-0.83232003 0.49536002 1.5120001
-0.83657146 0.49961907 1.5250001
-0.83749336 0.50191242 1.5320001
-0.8345753 0.50191242 1.5320001
-0.83545715 0.5042057 1.539
-0.83252573 0.5042057 1.539
-0.82959431 0.5042057 1.539
-0.83042288 0.50649905 1.5460001
-0.83497149 0.51108575 1.5600001
-0.84746671 0.52058667 1.5890001
-0.85188001 0.52517337 1.603
-0.84882671 0.52517337 1.603
-0.83838671 0.52058667 1.5890001
-0.83536005 0.52058667 1.5890001
-0.82814288 0.51796573 1.5810001
-0.82513148 0.51796573 1.5810001
-0.8476972 0.47154859 1.4310001
-0.84497148 0.47154859 1.4310001
-0.84577715 0.47352573 1.437
-0.84656 0.47550288 1.4430001
-0.84732002 0.47748002 1.4490001
-0.84805715 0.47945717 1.455
-0.84528577 0.47945717 1.455
-0.84598863 0.48143432 1.4610001
-0.84320575 0.48143432 1.4610001
-0.84042287 0.48143432 1.4610001
-0.83764005 0.48143432 1.4610001
-0.83828574 0.48341146 1.4670001
-0.83549148 0.48341146 1.4670001
-0.83269715 0.48341146 1.4670001
-0.83329719 0.48538858 1.473
-0.83443815 0.48769525 1.48
-0.83836192 0.49164954 1.4920001
-0.83552003 0.49164954 1.4920001
-0.83658481 0.49395621 1.4990001
-0.83372957 0.49395621 1.4990001
-0.83475429 0.49626288 1.506
-0.83520001 0.49824002 1.5120001
-0.83232003 0.49824002 1.5120001
-0.83657146 0.50252384 1.5250001
-0.83749336 0.50483048 1.5320001
-0.83838862 0.50713718 1.539
-0.83545715 0.50713718 1.539
-0.83252573 0.50713718 1.539
-0.83336765 0.50944382 1.5460001
-0.83418286 0.51175052 1.5530001
-0.83871812 0.5163638 1.567
-0.84746671 0.52361333 1.5890001
-0.84816003 0.52592003 1.5960001
-0.84512001 0.52592003 1.5960001
-0.83838671 0.52361333 1.5890001
-0.83115429 0.52097714 1.5810001
-0.82080954 0.5163638 1.567
-0.81782478 0.5163638 1.567
-0.8476972 0.47427431 1.4310001
-0.84497148 0.47427431 1.4310001
-0.84577715 0.47626287 1.437
-0.84656 0.47825146 1.4430001
-0.84381145 0.47825146 1.4430001
-0.84456003 0.48024002 1.4490001
-0.84528577 0.48222858 1.455
-0.84251434 0.48222858 1.455
-0.84320575 0.48421717 1.4610001
-0.84042287 0.48421717 1.4610001
-0.83764005 0.48421717 1.4610001
-0.83485717 0.48421717 1.4610001
-0.83549148 0.48620573 1.4670001
-0.83269715 0.48620573 1.4670001
-0.83329719 0.48819432 1.473
-0.83443815 0.49051431 1.48
-0.8349905 0.49250287 1.4860001
-0.83552003 0.49449146 1.4920001
-0.83267814 0.49449146 1.4920001
-0.83372957 0.49681145 1.4990001
-0.83087432 0.49681145 1.4990001
-0.83520001 0.50112003 1.5120001
-0.83617336 0.50344002 1.5190001
-0.83657146 0.50542861 1.5250001
-0.83749336 0.5077486 1.5320001
-0.83838862 0.5100686 1.539
-0.83545715 0.5100686 1.539
-0.83631241 0.51238859 1.5460001
-0.83336765 0.51238859 1.5460001
-0.8379429 0.51702857 1.5600001
-0.83497149 0.51702857 1.5600001
-0.84320003 0.5239886 1.5810001
-0.84444004 0.52664 1.5890001
-0.84512001 0.52896005 1.5960001
-0.83838671 0.52664 1.5890001
-0.83115429 0.5239886 1.5810001
-0.82814288 0.5239886 1.5810001
-0.81782478 0.51934856 1.567
-0.8476972 0.47700003 1.4310001
-0.84497148 0.47700003 1.4310001
-0.84224576 0.47700003 1.4310001
-0.84304005 0.47900003 1.437
-0.84381145 0.48100001 1.4430001
-0.84456003 0.48300001 1.4490001
-0.84528577 0.48500001 1.455
-0.84251434 0.48500001 1.455
-0.84320575 0.48700002 1.4610001
-0.84042287 0.48700002 1.4610001
-0.83764005 0.48700002 1.4610001
-0.83828574 0.48900002 1.4670001
-0.83890861 0.49100003 1.473
-0.8361029 0.49100003 1.473
-0.83725715 0.49333334 1.48
-0.83443815 0.49333334 1.48
-0.8349905 0.49533334 1.4860001
-0.83552003 0.49733335 1.4920001
-0.83267814 0.49733335 1.4920001
-0.82983625 0.49733335 1.4920001
-0.83087432 0.49966669 1.4990001
-0.83520001 0.50400001 1.5120001
-0.83947623 0.50833333 1.5250001
-0.84041148 0.51066667 1.5320001
-0.84132004 0.51300001 1.539
-0.83838862 0.51300001 1.539
-0.83545715 0.51300001 1.539
-0.83631241 0.51533335 1.5460001
-0.83336765 0.51533335 1.5460001
-0.8379429 0.52000004 1.5600001
-0.83497149 0.52000004 1.5600001
-0.83946669 0.52466667 1.5740001
-0.84018862 0.52700001 1.5810001
-0.84141338 0.52966666 1.5890001
-0.83416575 0.52700001 1.5810001
-0.83115429 0.52700001 1.5810001
-0.82814288 0.52700001 1.5810001
-0.8476972 0.47972572 1.4310001
-0.84497148 0.47972572 1.4310001
-0.84224576 0.47972572 1.4310001
-0.84304005 0.48173717 1.437
-0.84030288 0.48173717 1.437
-0.8410629 0.48374858 1.4430001
-0.83831429 0.48374858 1.4430001
-0.84251434 0.48777145 1.455
-0.84320575 0.48978287 1.4610001
-0.84042287 0.48978287 1.4610001
-0.83764005 0.48978287 1.4610001
-0.83828574 0.49179432 1.4670001
-0.83890861 0.49380574 1.473
-0.8361029 0.49380574 1.473
-0.83725715 0.4961524 1.48
-0.83443815 0.4961524 1.48
-0.8349905 0.49816382 1.4860001
-0.83552003 0.50017524 1.4920001
-0.83267814 0.50017524 1.4920001
-0.82983625 0.50017524 1.4920001
-0.83087432 0.50252193 1.4990001
-0.83188576 0.50486857 1.506
-0.83617336 0.50922668 1.5190001
-0.84041148 0.51358479 1.5320001
-0.84132004 0.51593143 1.539
-0.83838862 0.51593143 1.539
-0.83545715 0.51593143 1.539
-0.83631241 0.51827812 1.5460001
-0.83336765 0.51827812 1.5460001
-0.8379429 0.52297145 1.5600001
-0.83871812 0.52531809 1.567
-0.84320003 0.53001148 1.5810001
-0.84444004 0.53269333 1.5890001
-0.84141338 0.53269333 1.5890001
-0.83416575 0.53001148 1.5810001
-0.83115429 0.53001148 1.5810001
-0.82814288 0.53001148 1.5810001
-0.8476972 0.48245144 1.4310001
-0.84497148 0.48245144 1.4310001
-0.84577715 0.4844743 1.437
-0.84304005 0.4844743 1.437
-0.84381145 0.48649716 1.4430001
-0.8410629 0.48649716 1.4430001
-0.84180003 0.48852003 1.4490001
-0.84251434 0.49054289 1.455
-0.84320575 0.49256572 1.4610001
-0.84042287 0.49256572 1.4610001
-0.83764005 0.49256572 1.4610001
-0.83828574 0.49458858 1.4670001
-0.83890861 0.49661145 1.473
-0.8361029 0.49661145 1.473
-0.83329719 0.49661145 1.473
-0.83443815 0.49897143 1.48
-0.8349905 0.50099432 1.4860001
-0.83216006 0.50099432 1.4860001
-0.82932955 0.50099432 1.4860001
-0.82983625 0.50301719 1.4920001
-0.83087432 0.50537717 1.4990001
-0.83520001 0.50976002 1.5120001
-0.83617336 0.51212001 1.5190001
-0.84041148 0.51650286 1.5320001
-0.84132004 0.5188629 1.539
-0.83838862 0.5188629 1.539
-0.83925718 0.52122289 1.5460001
-0.83631241 0.52122289 1.5460001
-0.83336765 0.52122289 1.5460001
-0.8379429 0.52594286 1.5600001
-0.83871812 0.52830285 1.567
-0.84320003 0.53302288 1.5810001
-0.84018862 0.53302288 1.5810001
-0.84141338 0.53571999 1.5890001
-0.83416575 0.53302288 1.5810001
-0.8274743 0.53066289 1.5740001
-0.82447624 0.53066289 1.5740001
-0.8476972 0.48517716 1.4310001
-0.84851432 0.48721144 1.437
-0.84577715 0.48721144 1.437
-0.84656 0.48924574 1.4430001
-0.84381145 0.48924574 1.4430001
-0.84456003 0.49128002 1.4490001
-0.84180003 0.49128002 1.4490001
-0.84251434 0.4933143 1.455
-0.84320575 0.4953486 1.4610001
-0.84042287 0.4953486 1.4610001
-0.84108001 0.49738288 1.4670001
-0.84171432 0.49941716 1.473
-0.84289527 0.50179052 1.48
-0.8361029 0.49941716 1.473
-0.83725715 0.50179052 1.48
-0.83782101 0.50382477 1.4860001
-0.83836192 0.50585908 1.4920001
-0.83552003 0.50585908 1.4920001
-0.83267814 0.50585908 1.4920001
-0.83372957 0.50823241 1.4990001
-0.83475429 0.51060575 1.506
-0.83520001 0.51264 1.5120001
-0.83617336 0.51501334 1.5190001
-0.84041148 0.51942098 1.5320001
-0.83749336 0.51942098 1.5320001
-0.83838862 0.52179432 1.539
-0.83925718 0.52416766 1.5460001
-0.83631241 0.52416766 1.5460001
-0.83714098 0.52654099 1.5530001
-0.83418286 0.52654099 1.5530001
-0.83871812 0.53128761 1.567
-0.84320003 0.53603429 1.5810001
-0.84444004 0.53874671 1.5890001
-0.84141338 0.53874671 1.5890001
-0.83416575 0.53603429 1.5810001
-0.83115429 0.53603429 1.5810001
-0.82447624 0.53366095 1.5740001
-0.8476972 0.48790288 1.4310001
-0.84497148 0.48790288 1.4310001
-0.84577715 0.4899486 1.437
-0.84656 0.49199429 1.4430001
-0.84381145 0.49199429 1.4430001
-0.84456003 0.49404001 1.4490001
-0.84180003 0.49404001 1.4490001
-0.84251434 0.49608573 1.455
-0.84320575 0.49813145 1.4610001
-0.84042287 0.49813145 1.4610001
-0.83764005 0.49813145 1.4610001
-0.83828574 0.50017715 1.4670001
-0.84289527 0.50460953 1.48
-0.8361029 0.5022229 1.473
-0.83329719 0.5022229 1.473
-0.83443815 0.50460953 1.48
-0.8349905 0.50665528 1.4860001
-0.83552003 0.50870097 1.4920001
-0.83267814 0.50870097 1.4920001
-0.83372957 0.51108766 1.4990001
-0.83475429 0.51347429 1.506
-0.83188576 0.51347429 1.506
-0.83617336 0.51790667 1.5190001
-0.83657146 0.51995242 1.5250001
-0.83749336 0.52233905 1.5320001
-0.83838862 0.52472574 1.539
-0.83545715 0.52472574 1.539
-0.84388572 0.53188574 1.5600001
-0.84091431 0.53188574 1.5600001
-0.84170288 0.53427237 1.567
-0.8424648 0.53665906 1.5740001
-0.84320003 0.53904575 1.5810001
-0.84444004 0.54177338 1.5890001
-0.84141338 0.54177338 1.5890001
-0.83416575 0.53904575 1.5810001
-0.83115429 0.53904575 1.5810001
-0.84414291 0.48857144 1.4250001
-0.84497148 0.4906286 1.4310001
-0.84577715 0.49268574 1.437
-0.84656 0.49474287 1.4430001
-0.84732002 0.49680001 1.4490001
-0.84456003 0.49680001 1.4490001
-0.84528577 0.49885717 1.455
-0.84251434 0.49885717 1.455
-0.84320575 0.50091428 1.4610001
-0.84042287 0.50091428 1.4610001
-0.83764005 0.50091428 1.4610001
-0.83828574 0.50297147 1.4670001
-0.83890861 0.50502861 1.473
-0.8361029 0.50502861 1.473
-0.83725715 0.50742859 1.48
-0.83782101 0.50948572 1.4860001
-0.8349905 0.50948572 1.4860001
-0.83552003 0.51154286 1.4920001
-0.83267814 0.51154286 1.4920001
-0.83372957 0.5139429 1.4990001
-0.83475429 0.51634288 1.506
-0.83188576 0.51634288 1.506
-0.83617336 0.52079999 1.5190001
-0.83657146 0.52285719 1.5250001
-0.83366668 0.52285719 1.5250001
-0.83838862 0.52765715 1.539
-0.83925718 0.53005719 1.5460001
-0.8400991 0.53245717 1.5530001
-0.84091431 0.53485715 1.5600001
-0.84170288 0.53725713 1.567
-0.8424648 0.53965718 1.5740001
-0.84320003 0.54205716 1.5810001
-0.84444004 0.54480004 1.5890001
-0.84512001 0.54720002 1.5960001
-0.83838671 0.54480004 1.5890001
-0.83536005 0.54480004 1.5890001
-0.8476972 0.49335429 1.4310001
-0.84497148 0.49335429 1.4310001
-0.84930861 0.49749145 1.4430001
-0.85008001 0.49956003 1.4490001
-0.84732002 0.49956003 1.4490001
-0.84456003 0.49956003 1.4490001
-0.84528577 0.50162858 1.455
-0.84251434 0.50162858 1.455
-0.8397429 0.50162858 1.455
-0.84042287 0.50369716 1.4610001
-0.83764005 0.50369716 1.4610001
-0.83828574 0.50576574 1.4670001
-0.83890861 0.50783432 1.473
-0.8361029 0.50783432 1.473
-0.83725715 0.51024765 1.48
-0.83782101 0.51231623 1.4860001
-0.8349905 0.51231623 1.4860001
-0.83552003 0.51438481 1.4920001
-0.83267814 0.51438481 1.4920001
-0.83372957 0.51679814 1.4990001
-0.83475429 0.51921147 1.506
-0.83188576 0.51921147 1.506
-0.83232003 0.52127999 1.5120001
-0.83657146 0.5257619 1.5250001
-0.83366668 0.5257619 1.5250001
-0.8345753 0.52817523 1.5320001
-0.83925718 0.5330019 1.5460001
-0.8400991 0.53541523 1.5530001
-0.84468764 0.5402419 1.567
-0.84170288 0.5402419 1.567
-0.84621143 0.54506856 1.5810001
-0.84746671 0.54782671 1.5890001
-0.84816003 0.55024004 1.5960001
-0.84512001 0.55024004 1.5960001
-0.83838671 0.54782671 1.5890001
-0.8476972 0.49608001 1.4310001
-0.84497148 0.49608001 1.4310001
-0.84930861 0.50024003 1.4430001
-0.85008001 0.50231999 1.4490001
-0.84732002 0.50231999 1.4490001
-0.84805715 0.50440001 1.455
-0.84528577 0.50440001 1.455
-0.84251434 0.50440001 1.455
-0.84320575 0.50648004 1.4610001
-0.84042287 0.50648004 1.4610001
-0.84108001 0.50856 1.4670001
-0.83828574 0.50856 1.4670001
-0.83890861 0.51064003 1.473
