# .PCD v0.7 - Point Cloud Data file format
VERSION 0.7
FIELDS x y z
SIZE 4 4 4
TYPE F F F
COUNT 1 1 1
WIDTH 1533
HEIGHT 1
VIEWPOINT 0 0 0 1 0 0 0
POINTS 1533
DATA ascii
0.79728001 0.35032001 2.1140001
0.8062343 0.3524743 2.1270001
0.81523812 0.35462859 2.1400001
0.82429147 0.35678288 2.1530001
0.8337791 0.35910287 2.1670001
0.83790672 0.35910287 2.1670001
0.84747434 0.36142287 2.181
0.86217147 0.36589715 2.2080002
0.86637717 0.36589715 2.2080002
0.87649715 0.36838287 2.223
0.88627815 0.37070286 2.237
0.89053911 0.37070286 2.237
0.90080005 0.37318859 2.2520001
0.90508956 0.37318859 2.2520001
0.91503239 0.37550858 2.266
0.9193486 0.37550858 2.266
0.92977905 0.3779943 2.2810001
0.94067621 0.38064572 2.2970002
0.9512229 0.38313144 2.312
0.95562673 0.38313144 2.312
0.96625906 0.38561717 2.3270001
0.97736573 0.38826859 2.3430002
0.98853338 0.39092001 2.3590002
1.0001829 0.39373717 2.3760002
1.0047086 0.39373717 2.3760002
1.0160306 0.39638859 2.3920002
1.02784 0.39920571 2.4090002
1.0324286 0.39920571 2.4090002
1.0370172 0.39920571 2.4090002
1.0416057 0.39920571 2.4090002
-0.42064002 0.44067049 2.6290002
-0.4156324 0.44067049 2.6290002
-0.41062477 0.44067049 2.6290002
-0.40561715 0.44067049 2.6290002
-0.39756191 0.43731812 2.6090002
-0.3925924 0.43731812 2.6090002
-0.38465145 0.43396574 2.5890002
-0.37972 0.43396574 2.5890002
-0.37478858 0.43396574 2.5890002
-0.36985716 0.43396574 2.5890002
-0.36492574 0.43396574 2.5890002
-0.35999429 0.43396574 2.5890002
-0.35506287 0.43396574 2.5890002
-0.35013145 0.43396574 2.5890002
-0.34266669 0.43078098 2.5700002
-0.33777145 0.43078098 2.5700002
-0.33041525 0.42759621 2.5510001
-0.32555619 0.42759621 2.5510001
-0.32069716 0.42759621 2.5510001
-0.3158381 0.42759621 2.5510001
-0.31097907 0.42759621 2.5510001
-0.30384001 0.42441145 2.5320001
-0.29901716 0.42441145 2.5320001
-0.29419431 0.42441145 2.5320001
-0.28937143 0.42441145 2.5320001
-0.28454858 0.42441145 2.5320001
-0.27773714 0.42139429 2.5140002
-0.27294859 0.42139429 2.5140002
-0.26624 0.41837716 2.4960001
-0.26337144 0.42139429 2.5140002
-0.25858286 0.42139429 2.5140002
-0.25379428 0.42139429 2.5140002
-0.24722287 0.41837716 2.4960001
-0.24246858 0.41837716 2.4960001
-0.236 0.41536 2.4780002
-0.23128001 0.41536 2.4780002
-0.22656001 0.41536 2.4780002
-0.22184001 0.41536 2.4780002
-0.21554287 0.41234288 2.46
-0.21085715 0.41234288 2.46
-0.20617144 0.41234288 2.46
-0.20148572 0.41234288 2.46
-0.19680001 0.41234288 2.46
-0.19211429 0.41234288 2.46
-0.18613334 0.40949336 2.4430001
-0.18148001 0.40949336 2.4430001
-0.17682667 0.40949336 2.4430001
-0.17217334 0.40949336 2.4430001
-0.1663543 0.40664384 2.4260001
-0.16173334 0.40664384 2.4260001
-0.15601143 0.40379429 2.4090002
-0.15142286 0.40379429 2.4090002
-0.14683428 0.40379429 2.4090002
-0.14224572 0.40379429 2.4090002
-0.13765715 0.40379429 2.4090002
-0.13306858 0.40379429 2.4090002
-0.12848 0.40379429 2.4090002
-0.12389144 0.40379429 2.4090002
-0.11930286 0.40379429 2.4090002
-0.11471429 0.40379429 2.4090002
-0.10934857 0.40094477 2.3920002
-0.10479239 0.40094477 2.3920002
-0.099565715 0.39826286 2.3760002
-0.095040001 0.39826286 2.3760002
-0.089866668 0.39541334 2.3590002
-0.085373335 0.39541334 2.3590002
-0.080880001 0.39541334 2.3590002
-0.075868577 0.39273143 2.3430002
-0.071405716 0.39273143 2.3430002
-0.067400001 0.39541334 2.3590002
-0.062906668 0.39541334 2.3590002
-0.058413334 0.39541334 2.3590002
-0.053554289 0.39273143 2.3430002
-0.049091429 0.39273143 2.3430002
-0.044628572 0.39273143 2.3430002
-0.040165715 0.39273143 2.3430002
-0.035702858 0.39273143 2.3430002
-0.030826667 0.38753524 2.312
-0.026422858 0.38753524 2.312
-0.022019049 0.38753524 2.312
-0.017500954 0.38502097 2.2970002
-0.013211429 0.38753524 2.312
-0.0087504769 0.38502097 2.2970002
-0.0043447618 0.38233906 2.2810001
0 0.38233906 2.2810001
0.0043447618 0.38233906 2.2810001
0.0086895237 0.38233906 2.2810001
0.012948572 0.37982479 2.266
0.017264763 0.37982479 2.266
0.021580953 0.37982479 2.266
0.025897143 0.37982479 2.266
0.030213334 0.37982479 2.266
0.034529526 0.37982479 2.266
0.038845714 0.37982479 2.266
0.042895239 0.37747812 2.2520001
0.047184765 0.37747812 2.2520001
0.051474288 0.37747812 2.2520001
0.055763811 0.37747812 2.2520001
0.060053337 0.37747812 2.2520001
0.064342856 0.37747812 2.2520001
0.068175241 0.37496382 2.237
0.072436191 0.37496382 2.237
0.076697148 0.37496382 2.237
0.080958098 0.37496382 2.237
0.085219048 0.37496382 2.237
0.088920005 0.37261716 2.223
0.093154289 0.37261716 2.223
0.097388573 0.37261716 2.223
0.10093714 0.37010288 2.2080002
0.10514286 0.37010288 2.2080002
0.10934857 0.37010288 2.2080002
0.11355429 0.37010288 2.2080002
0.11701334 0.36775622 2.194
0.12119239 0.36775622 2.194
0.12537143 0.36775622 2.194
0.12955049 0.36775622 2.194
0.13372953 0.36775622 2.194
0.13709143 0.36557716 2.181
0.14124572 0.36557716 2.181
0.14446667 0.3632305 2.1670001
0.14859429 0.3632305 2.1670001
0.15272191 0.3632305 2.1670001
0.15583619 0.36088383 2.1530001
0.15993714 0.36088383 2.1530001
0.16403811 0.36088383 2.1530001
0.16813906 0.36088383 2.1530001
0.17224 0.36088383 2.1530001
0.17634095 0.36088383 2.1530001
0.17935239 0.35870478 2.1400001
0.18342859 0.35870478 2.1400001
0.18750477 0.35870478 2.1400001
0.19158097 0.35870478 2.1400001
0.19565715 0.35870478 2.1400001
0.19973335 0.35870478 2.1400001
0.20380953 0.35870478 2.1400001
0.20788573 0.35870478 2.1400001
0.21196191 0.35870478 2.1400001
0.21472572 0.35652572 2.1270001
0.21877715 0.35652572 2.1270001
0.22282858 0.35652572 2.1270001
0.22688001 0.35652572 2.1270001
0.22952001 0.35434669 2.1140001
0.23354667 0.35434669 2.1140001
0.23611239 0.35216764 2.1010001
0.2401143 0.35216764 2.1010001
0.2441162 0.35216764 2.1010001
0.24658287 0.34998858 2.0880001
0.25056002 0.34998858 2.0880001
0.25453717 0.34998858 2.0880001
0.25851429 0.34998858 2.0880001
0.26249143 0.34998858 2.0880001
0.26646858 0.34998858 2.0880001
0.27044573 0.34998858 2.0880001
0.27284572 0.34797716 2.0760002
0.27680001 0.34797716 2.0760002
0.2789962 0.34579811 2.0630002
0.28292572 0.34579811 2.0630002
0.28685525 0.34579811 2.0630002
0.28909335 0.34378669 2.0510001
0.29128572 0.34177524 2.039
0.29516953 0.34177524 2.039
0.29905334 0.34177524 2.039
0.30293715 0.34177524 2.039
0.30501524 0.33976382 2.0270002
0.30887622 0.33976382 2.0270002
0.31088573 0.3377524 2.0150001
0.31659812 0.33976382 2.0270002
0.32045907 0.33976382 2.0270002
0.32048002 0.33574095 2.003
0.32429525 0.33574095 2.003
0.32811049 0.33574095 2.003
0.33192572 0.33574095 2.003
0.33574095 0.33574095 2.003
0.33769143 0.33389714 1.9920001
0.34148574 0.33389714 1.9920001
0.34528002 0.33389714 1.9920001
0.3490743 0.33389714 1.9920001
0.35286859 0.33389714 1.9920001
0.35666287 0.33389714 1.9920001
0.36045715 0.33389714 1.9920001
0.36425143 0.33389714 1.9920001
0.36582857 0.33188573 1.9800001
0.36960003 0.33188573 1.9800001
0.37337145 0.33188573 1.9800001
0.37714288 0.33188573 1.9800001
0.3787981 0.33004192 1.9690001
0.38468572 0.33188573 1.9800001
0.38629907 0.33004192 1.9690001
0.38569143 0.3263543 1.9470001
0.38940001 0.3263543 1.9470001
0.39310858 0.3263543 1.9470001
0.39681715 0.3263543 1.9470001
0.39826286 0.32451048 1.9360001
0.40195048 0.32451048 1.9360001
0.4056381 0.32451048 1.9360001
0.40932572 0.32451048 1.9360001
0.41301334 0.32451048 1.9360001
0.41433334 0.32266667 1.9250001
0.41800001 0.32266667 1.9250001
0.42166668 0.32266667 1.9250001
0.42533335 0.32266667 1.9250001
0.42900002 0.32266667 1.9250001
0.43041906 0.3209905 1.9150001
0.43406668 0.3209905 1.9150001
0.43771431 0.3209905 1.9150001
0.43882668 0.31914669 1.904
0.44245335 0.31914669 1.904
0.44608003 0.31914669 1.904
0.44970667 0.31914669 1.904
0.45095241 0.31747049 1.8940001
0.45456001 0.31747049 1.8940001
0.45816764 0.31747049 1.8940001
0.46177524 0.31747049 1.8940001
0.46538287 0.31747049 1.8940001
0.4689905 0.31747049 1.8940001
0.47509336 0.31914669 1.904
0.47620574 0.31747049 1.8940001
0.48234668 0.31914669 1.904
0.48342097 0.31747049 1.8940001
0.48420003 0.31562668 1.8830001
0.48778668 0.31562668 1.8830001
0.48876384 0.31395048 1.8730001
0.48970288 0.31227431 1.863
0.49325144 0.31227431 1.863
0.49413335 0.31059811 1.853
0.49766287 0.31059811 1.853
0.50119239 0.31059811 1.853
0.50472194 0.31059811 1.853
0.5055086 0.3089219 1.8430001
0.50901908 0.3089219 1.8430001
0.51252955 0.3089219 1.8430001
0.51604003 0.3089219 1.8430001
0.5195505 0.3089219 1.8430001
0.52306098 0.3089219 1.8430001
0.52657145 0.3089219 1.8430001
0.53008193 0.3089219 1.8430001
0.5335924 0.3089219 1.8430001
0.53418857 0.30724573 1.8330001
0.53768003 0.30724573 1.8330001
0.53851432 0.30573717 1.8240001
0.54466289 0.30724573 1.8330001
0.54815429 0.30724573 1.8330001
0.55164576 0.30724573 1.8330001
0.55816573 0.3089219 1.8430001
0.5616762 0.3089219 1.8430001
0.56518668 0.3089219 1.8430001
0.56869715 0.3089219 1.8430001
0.57531238 0.31059811 1.853
0.58196574 0.31227431 1.863
0.58551431 0.31227431 1.863
0.59222478 0.31395048 1.8730001
0.59579241 0.31395048 1.8730001
0.60256004 0.31562668 1.8830001
0.60968763 0.31747049 1.8940001
0.61653334 0.31914669 1.904
0.62374288 0.3209905 1.9150001
0.6273905 0.3209905 1.9150001
0.63433337 0.32266667 1.9250001
0.63800001 0.32266667 1.9250001
0.64533335 0.32451048 1.9360001
0.65270859 0.3263543 1.9470001
0.66012573 0.32819811 1.9580001
0.66385525 0.32819811 1.9580001
0.67508572 0.33188573 1.9800001
0.67885715 0.33188573 1.9800001
0.68676573 0.33389714 1.9920001
0.69437337 0.33574095 2.003
0.70237148 0.3377524 2.0150001
0.70620954 0.3377524 2.0150001
0.71004766 0.3377524 2.0150001
0.71813715 0.33976382 2.0270002
0.7262724 0.34177524 2.039
0.73445338 0.34378669 2.0510001
0.74268001 0.34579811 2.0630002
0.74660957 0.34579811 2.0630002
0.75526857 0.34797716 2.0760002
0.75922287 0.34797716 2.0760002
0.76758862 0.34998858 2.0880001
0.77156574 0.34998858 2.0880001
0.78037143 0.35216764 2.1010001
0.78922671 0.35434669 2.1140001
0.79325336 0.35434669 2.1140001
0.79728001 0.35434669 2.1140001
0.8062343 0.35652572 2.1270001
0.81523812 0.35870478 2.1400001
0.82429147 0.36088383 2.1530001
0.82839239 0.36088383 2.1530001
0.83790672 0.3632305 2.1670001
0.85252577 0.36775622 2.194
0.86217147 0.37010288 2.2080002
0.86637717 0.37010288 2.2080002
0.87649715 0.37261716 2.223
0.88627815 0.37496382 2.237
0.89053911 0.37496382 2.237
0.90080005 0.37747812 2.2520001
0.90508956 0.37747812 2.2520001
0.90937907 0.37747812 2.2520001
0.9193486 0.37982479 2.266
0.92977905 0.38233906 2.2810001
0.94067621 0.38502097 2.2970002
0.9512229 0.38753524 2.312
0.95562673 0.38753524 2.312
0.96625906 0.39004955 2.3270001
0.97736573 0.39273143 2.3430002
0.98853338 0.39541334 2.3590002
1.0001829 0.39826286 2.3760002
1.0114744 0.40094477 2.3920002
1.0232514 0.40379429 2.4090002
1.02784 0.40379429 2.4090002
1.0324286 0.40379429 2.4090002
1.0370172 0.40379429 2.4090002
1.0416057 0.40379429 2.4090002
-0.42064002 0.44567811 2.6290002
-0.4156324 0.44567811 2.6290002
-0.41062477 0.44567811 2.6290002
-0.40561715 0.44567811 2.6290002
-0.39756191 0.44228762 2.6090002
-0.3925924 0.44228762 2.6090002
-0.38465145 0.43889716 2.5890002
-0.37972 0.43889716 2.5890002
-0.37478858 0.43889716 2.5890002
-0.37271431 0.44228762 2.6090002
-0.36774477 0.44228762 2.6090002
-0.36277527 0.44228762 2.6090002
-0.35506287 0.43889716 2.5890002
-0.35013145 0.43889716 2.5890002
-0.3452 0.43889716 2.5890002
-0.34026858 0.43889716 2.5890002
-0.33287621 0.43567622 2.5700002
-0.32555619 0.43245524 2.5510001
-0.32069716 0.43245524 2.5510001
-0.3158381 0.43245524 2.5510001
-0.31097907 0.43245524 2.5510001
-0.30384001 0.4292343 2.5320001
-0.29901716 0.4292343 2.5320001
-0.29419431 0.4292343 2.5320001
-0.28937143 0.4292343 2.5320001
-0.28252572 0.42618287 2.5140002
-0.27773714 0.42618287 2.5140002
-0.27099431 0.42313144 2.4960001
-0.26624 0.42313144 2.4960001
-0.26337144 0.42618287 2.5140002
-0.25858286 0.42618287 2.5140002
-0.25197715 0.42313144 2.4960001
-0.24722287 0.42313144 2.4960001
-0.24246858 0.42313144 2.4960001
-0.236 0.42008001 2.4780002
-0.23128001 0.42008001 2.4780002
-0.22656001 0.42008001 2.4780002
-0.22184001 0.42008001 2.4780002
-0.21554287 0.41702858 2.46
-0.21085715 0.41702858 2.46
-0.20617144 0.41702858 2.46
-0.20148572 0.41702858 2.46
-0.19680001 0.41702858 2.46
-0.19211429 0.41702858 2.46
-0.18613334 0.41414669 2.4430001
-0.18148001 0.41414669 2.4430001
-0.17682667 0.41414669 2.4430001
-0.17097524 0.41126478 2.4260001
-0.1663543 0.41126478 2.4260001
-0.16060001 0.40838286 2.4090002
-0.15601143 0.40838286 2.4090002
-0.15142286 0.40838286 2.4090002
-0.14683428 0.40838286 2.4090002
-0.14224572 0.40838286 2.4090002
-0.13765715 0.40838286 2.4090002
-0.13306858 0.40838286 2.4090002
-0.12848 0.40838286 2.4090002
-0.12389144 0.40838286 2.4090002
-0.11930286 0.40838286 2.4090002
-0.11471429 0.40838286 2.4090002
-0.10934857 0.40550098 2.3920002
-0.10479239 0.40550098 2.3920002
-0.099565715 0.40278858 2.3760002
-0.095040001 0.40278858 2.3760002
-0.089866668 0.39990669 2.3590002
-0.085373335 0.39990669 2.3590002
-0.080880001 0.39990669 2.3590002
-0.076386668 0.39990669 2.3590002
-0.071893334 0.39990669 2.3590002
-0.067400001 0.39990669 2.3590002
-0.062906668 0.39990669 2.3590002
-0.058413334 0.39990669 2.3590002
-0.053920001 0.39990669 2.3590002
-0.049091429 0.3971943 2.3430002
-0.044628572 0.3971943 2.3430002
-0.040165715 0.3971943 2.3430002
-0.035702858 0.3971943 2.3430002
-0.030826667 0.39193907 2.312
-0.026422858 0.39193907 2.312
-0.021876192 0.38939619 2.2970002
-0.017500954 0.38939619 2.2970002
-0.013125715 0.38939619 2.2970002
-0.0087504769 0.38939619 2.2970002
-0.0043447618 0.38668382 2.2810001
0 0.38668382 2.2810001
0.0043447618 0.38668382 2.2810001
0.0086895237 0.38668382 2.2810001
0.012948572 0.38414097 2.266
0.017264763 0.38414097 2.266
0.021580953 0.38414097 2.266
0.025897143 0.38414097 2.266
0.030213334 0.38414097 2.266
0.034529526 0.38414097 2.266
0.038605716 0.38176763 2.2520001
0.042895239 0.38176763 2.2520001
0.047184765 0.38176763 2.2520001
0.051474288 0.38176763 2.2520001
0.055763811 0.38176763 2.2520001
0.060053337 0.38176763 2.2520001
0.063914292 0.37922478 2.237
0.068175241 0.37922478 2.237
0.072436191 0.37922478 2.237
0.076697148 0.37922478 2.237
0.080958098 0.37922478 2.237
0.085219048 0.37922478 2.237
0.088920005 0.37685144 2.223
0.093154289 0.37685144 2.223
0.097388573 0.37685144 2.223
0.10093714 0.37430859 2.2080002
0.10514286 0.37430859 2.2080002
0.10934857 0.37430859 2.2080002
0.11355429 0.37430859 2.2080002
0.11701334 0.37193525 2.194
0.12119239 0.37193525 2.194
0.12537143 0.37193525 2.194
0.12955049 0.37193525 2.194
0.13372953 0.37193525 2.194
0.13709143 0.36973146 2.181
0.14124572 0.36973146 2.181
0.1454 0.36973146 2.181
0.14859429 0.36735812 2.1670001
0.15272191 0.36735812 2.1670001
0.15583619 0.36498478 2.1530001
0.16097715 0.36735812 2.1670001
0.16403811 0.36498478 2.1530001
0.16813906 0.36498478 2.1530001
0.17224 0.36498478 2.1530001
0.17634095 0.36498478 2.1530001
0.17935239 0.36278096 2.1400001
0.18342859 0.36278096 2.1400001
0.18750477 0.36278096 2.1400001
0.19158097 0.36278096 2.1400001
0.19565715 0.36278096 2.1400001
0.19973335 0.36278096 2.1400001
0.20380953 0.36278096 2.1400001
0.20788573 0.36278096 2.1400001
0.21196191 0.36278096 2.1400001
0.21472572 0.36057717 2.1270001
0.21877715 0.36057717 2.1270001
0.22282858 0.36057717 2.1270001
0.22688001 0.36057717 2.1270001
0.22952001 0.35837334 2.1140001
0.23354667 0.35837334 2.1140001
0.23611239 0.35616955 2.1010001
0.2401143 0.35616955 2.1010001
0.2441162 0.35616955 2.1010001
0.24658287 0.35396573 2.0880001
0.25056002 0.35396573 2.0880001
0.2561219 0.35616955 2.1010001
0.26012382 0.35616955 2.1010001
0.26249143 0.35396573 2.0880001
0.26646858 0.35396573 2.0880001
0.27044573 0.35396573 2.0880001
0.27284572 0.35193145 2.0760002
0.27680001 0.35193145 2.0760002
0.2789962 0.34972763 2.0630002
0.28292572 0.34972763 2.0630002
0.28685525 0.34972763 2.0630002
0.28909335 0.34769335 2.0510001
0.29128572 0.34565905 2.039
0.29516953 0.34565905 2.039
0.29905334 0.34565905 2.039
0.30293715 0.34565905 2.039
0.30682096 0.34565905 2.039
0.30887622 0.34362477 2.0270002
0.31273717 0.34362477 2.0270002
0.31659812 0.34362477 2.0270002
0.32045907 0.34362477 2.0270002
0.32432002 0.34362477 2.0270002
0.32429525 0.33955622 2.003
0.32811049 0.33955622 2.003
0.33192572 0.33955622 2.003
0.33574095 0.33955622 2.003
0.33955622 0.33955622 2.003
0.34148574 0.33769143 1.9920001
0.34528002 0.33769143 1.9920001
0.3490743 0.33769143 1.9920001
0.35286859 0.33769143 1.9920001
0.35666287 0.33769143 1.9920001
0.36045715 0.33769143 1.9920001
0.36425143 0.33769143 1.9920001
0.36582857 0.33565715 1.9800001
0.36960003 0.33565715 1.9800001
0.37337145 0.33565715 1.9800001
0.37714288 0.33565715 1.9800001
0.3809143 0.33565715 1.9800001
0.38254857 0.33379239 1.9690001
0.38629907 0.33379239 1.9690001
0.38569143 0.33006287 1.9470001
0.38940001 0.33006287 1.9470001
0.39310858 0.33006287 1.9470001
0.39681715 0.33006287 1.9470001
0.39826286 0.32819811 1.9360001
0.40195048 0.32819811 1.9360001
0.4056381 0.32819811 1.9360001
0.40932572 0.32819811 1.9360001
0.41301334 0.32819811 1.9360001
0.41670096 0.32819811 1.9360001
0.42038858 0.32819811 1.9360001
0.42166668 0.32633334 1.9250001
0.42533335 0.32633334 1.9250001
0.42900002 0.32633334 1.9250001
0.43041906 0.3246381 1.9150001
0.43406668 0.3246381 1.9150001
0.43771431 0.3246381 1.9150001
0.43882668 0.32277334 1.904
0.44245335 0.32277334 1.904
0.44608003 0.32277334 1.904
0.44734478 0.32107812 1.8940001
0.45095241 0.32107812 1.8940001
0.45456001 0.32107812 1.8940001
0.45816764 0.32107812 1.8940001
0.46177524 0.32107812 1.8940001
0.46538287 0.32107812 1.8940001
0.4689905 0.32107812 1.8940001
0.47259811 0.32107812 1.8940001
0.47620574 0.32107812 1.8940001
0.47981334 0.32107812 1.8940001
0.48342097 0.32107812 1.8940001
0.48420003 0.31921333 1.8830001
0.48778668 0.31921333 1.8830001
0.48876384 0.31751812 1.8730001
0.48970288 0.31582287 1.863
0.49325144 0.31582287 1.863
0.49413335 0.31412762 1.853
0.49766287 0.31412762 1.853
0.49848765 0.31243238 1.8430001
0.49927431 0.31073716 1.8330001
0.50276572 0.31073716 1.8330001
0.50901908 0.31243238 1.8430001
0.50974858 0.31073716 1.8330001
0.51324004 0.31073716 1.8330001
0.5195505 0.31243238 1.8430001
0.52306098 0.31243238 1.8430001
0.52657145 0.31243238 1.8430001
0.53008193 0.31243238 1.8430001
0.5335924 0.31243238 1.8430001
0.53418857 0.31073716 1.8330001
0.53768003 0.31073716 1.8330001
0.53851432 0.30921143 1.8240001
0.54198861 0.30921143 1.8240001
0.54815429 0.31073716 1.8330001
0.55164576 0.31073716 1.8330001
0.55816573 0.31243238 1.8430001
0.5616762 0.31243238 1.8430001
0.56825334 0.31412762 1.853
0.57178289 0.31412762 1.853
0.57841718 0.31582287 1.863
0.58196574 0.31582287 1.863
0.58865714 0.31751812 1.8730001
0.59222478 0.31751812 1.8730001
0.59897333 0.31921333 1.8830001
0.60256004 0.31921333 1.8830001
0.60968763 0.32107812 1.8940001
0.61653334 0.32277334 1.904
0.62374288 0.3246381 1.9150001
0.63066667 0.32633334 1.9250001
0.63433337 0.32633334 1.9250001
0.64164573 0.32819811 1.9360001
0.64533335 0.32819811 1.9360001
0.64902097 0.32819811 1.9360001
0.65641719 0.33006287 1.9470001
0.66385525 0.33192763 1.9580001
0.67508572 0.33565715 1.9800001
0.67885715 0.33565715 1.9800001
0.68676573 0.33769143 1.9920001
0.69437337 0.33955622 2.003
0.70237148 0.34159049 2.0150001
0.70620954 0.34159049 2.0150001
0.71004766 0.34159049 2.0150001
0.71813715 0.34362477 2.0270002
0.7262724 0.34565905 2.039
0.73445338 0.34769335 2.0510001
0.74268001 0.34972763 2.0630002
0.74660957 0.34972763 2.0630002
0.75526857 0.35193145 2.0760002
0.75922287 0.35193145 2.0760002
0.76758862 0.35396573 2.0880001
0.77156574 0.35396573 2.0880001
0.78037143 0.35616955 2.1010001
0.78922671 0.35837334 2.1140001
0.79325336 0.35837334 2.1140001
0.79728001 0.35837334 2.1140001
0.8062343 0.36057717 2.1270001
0.81523812 0.36278096 2.1400001
0.82429147 0.36498478 2.1530001
0.8337791 0.36735812 2.1670001
0.84332001 0.36973146 2.181
0.85252577 0.37193525 2.194
0.86217147 0.37430859 2.2080002
0.8722629 0.37685144 2.223
0.87649715 0.37685144 2.223
0.88627815 0.37922478 2.237
0.89651048 0.38176763 2.2520001
0.90080005 0.38176763 2.2520001
0.90508956 0.38176763 2.2520001
0.91503239 0.38414097 2.266
0.9193486 0.38414097 2.266
0.92977905 0.38668382 2.2810001
0.94067621 0.38939619 2.2970002
0.9512229 0.39193907 2.312
0.95562673 0.39193907 2.312
0.97290289 0.3971943 2.3430002
0.97736573 0.3971943 2.3430002
0.98853338 0.39990669 2.3590002
1.0001829 0.40278858 2.3760002
1.0047086 0.40278858 2.3760002
1.0160306 0.40550098 2.3920002
1.02784 0.40838286 2.4090002
1.0324286 0.40838286 2.4090002
1.0370172 0.40838286 2.4090002
-0.41062477 0.45068574 2.6290002
-0.40870288 0.45411429 2.6490002
-0.40060955 0.45068574 2.6290002
-0.3925924 0.44725716 2.6090002
-0.38465145 0.44382858 2.5890002
-0.37972 0.44382858 2.5890002
-0.37478858 0.44382858 2.5890002
-0.37271431 0.44725716 2.6090002
-0.36774477 0.44725716 2.6090002
-0.36277527 0.44725716 2.6090002
-0.35780573 0.44725716 2.6090002
-0.35283619 0.44725716 2.6090002
-0.3452 0.44382858 2.5890002
-0.34026858 0.44382858 2.5890002
-0.33287621 0.44057146 2.5700002
-0.32798097 0.44057146 2.5700002
-0.32069716 0.4373143 2.5510001
-0.3158381 0.4373143 2.5510001
-0.30866286 0.43405715 2.5320001
-0.30384001 0.43405715 2.5320001
-0.29901716 0.43405715 2.5320001
-0.29419431 0.43405715 2.5320001
-0.28937143 0.43405715 2.5320001
-0.28454858 0.43405715 2.5320001
-0.27773714 0.43097144 2.5140002
-0.27099431 0.42788574 2.4960001
-0.26624 0.42788574 2.4960001
-0.26337144 0.43097144 2.5140002
-0.25858286 0.43097144 2.5140002
-0.25197715 0.42788574 2.4960001
-0.24722287 0.42788574 2.4960001
-0.24246858 0.42788574 2.4960001
-0.236 0.42480001 2.4780002
-0.23128001 0.42480001 2.4780002
-0.22656001 0.42480001 2.4780002
-0.22022858 0.42171431 2.46
-0.21554287 0.42171431 2.46
-0.21085715 0.42171431 2.46
-0.20617144 0.42171431 2.46
-0.20148572 0.42171431 2.46
-0.19680001 0.42171431 2.46
-0.19211429 0.42171431 2.46
-0.18613334 0.41880003 2.4430001
-0.18148001 0.41880003 2.4430001
-0.17682667 0.41880003 2.4430001
-0.17097524 0.41588572 2.4260001
-0.1663543 0.41588572 2.4260001
-0.16060001 0.41297144 2.4090002
-0.15601143 0.41297144 2.4090002
-0.15142286 0.41297144 2.4090002
-0.14683428 0.41297144 2.4090002
-0.14224572 0.41297144 2.4090002
-0.13765715 0.41297144 2.4090002
-0.13306858 0.41297144 2.4090002
-0.12848 0.41297144 2.4090002
-0.12389144 0.41297144 2.4090002
-0.11930286 0.41297144 2.4090002
-0.11471429 0.41297144 2.4090002
-0.10934857 0.41005716 2.3920002
-0.10479239 0.41005716 2.3920002
-0.10023619 0.41005716 2.3920002
-0.095040001 0.4073143 2.3760002
-0.090514287 0.4073143 2.3760002
-0.085373335 0.40440002 2.3590002
-0.080880001 0.40440002 2.3590002
-0.076386668 0.40440002 2.3590002
-0.071893334 0.40440002 2.3590002
-0.067400001 0.40440002 2.3590002
-0.062906668 0.40440002 2.3590002
-0.058413334 0.40440002 2.3590002
-0.053920001 0.40440002 2.3590002
-0.049091429 0.40165716 2.3430002
-0.044628572 0.40165716 2.3430002
-0.040165715 0.40165716 2.3430002
-0.035702858 0.40165716 2.3430002
-0.030826667 0.39634287 2.312
-0.026422858 0.39634287 2.312
-0.022019049 0.39634287 2.312
-0.017615238 0.39634287 2.312
-0.013125715 0.39377144 2.2970002
-0.0087504769 0.39377144 2.2970002
-0.0043447618 0.39102858 2.2810001
0 0.39102858 2.2810001
0.0043161907 0.38845715 2.266
0.0086323814 0.38845715 2.266
0.012948572 0.38845715 2.266
0.017264763 0.38845715 2.266
0.021580953 0.38845715 2.266
0.025897143 0.38845715 2.266
0.030213334 0.38845715 2.266
0.034529526 0.38845715 2.266
0.038845714 0.38845715 2.266
0.042895239 0.38605717 2.2520001
0.047184765 0.38605717 2.2520001
0.051474288 0.38605717 2.2520001
0.055763811 0.38605717 2.2520001
0.060053337 0.38605717 2.2520001
0.063914292 0.38348573 2.237
0.068175241 0.38348573 2.237
0.071982861 0.38108572 2.223
0.076217145 0.38108572 2.223
0.080958098 0.38348573 2.237
0.084685721 0.38108572 2.223
0.088920005 0.38108572 2.223
0.093154289 0.38108572 2.223
0.096731432 0.37851429 2.2080002
0.10093714 0.37851429 2.2080002
0.10514286 0.37851429 2.2080002
0.10934857 0.37851429 2.2080002
0.11355429 0.37851429 2.2080002
0.11701334 0.37611431 2.194
0.12119239 0.37611431 2.194
0.12537143 0.37611431 2.194
0.12955049 0.37611431 2.194
0.13372953 0.37611431 2.194
0.13790858 0.37611431 2.194
0.14124572 0.37388572 2.181
0.1454 0.37388572 2.181
0.14859429 0.37148574 2.1670001
0.15272191 0.37148574 2.1670001
0.15583619 0.36908573 2.1530001
0.15993714 0.36908573 2.1530001
0.16403811 0.36908573 2.1530001
0.16813906 0.36908573 2.1530001
0.17224 0.36908573 2.1530001
0.17634095 0.36908573 2.1530001
0.17935239 0.36685717 2.1400001
0.18342859 0.36685717 2.1400001
0.18750477 0.36685717 2.1400001
0.19158097 0.36685717 2.1400001
0.19565715 0.36685717 2.1400001
0.19973335 0.36685717 2.1400001
0.20380953 0.36685717 2.1400001
0.20788573 0.36685717 2.1400001
0.21196191 0.36685717 2.1400001
0.21472572 0.36462858 2.1270001
0.21877715 0.36462858 2.1270001
0.22282858 0.36462858 2.1270001
0.22688001 0.36462858 2.1270001
0.22952001 0.36240003 2.1140001
0.23354667 0.36240003 2.1140001
0.23611239 0.36017144 2.1010001
0.2401143 0.36017144 2.1010001
0.24260572 0.35794288 2.0880001
0.24658287 0.35794288 2.0880001
0.25056002 0.35794288 2.0880001
0.25453717 0.35794288 2.0880001
0.25851429 0.35794288 2.0880001
0.26249143 0.35794288 2.0880001
0.26646858 0.35794288 2.0880001
0.27044573 0.35794288 2.0880001
0.27284572 0.35588571 2.0760002
0.27680001 0.35588571 2.0760002
0.2789962 0.35365716 2.0630002
0.28292572 0.35365716 2.0630002
0.28685525 0.35365716 2.0630002
0.28909335 0.35160002 2.0510001
0.29128572 0.34954286 2.039
0.29516953 0.34954286 2.039
0.29905334 0.34954286 2.039
0.30293715 0.34954286 2.039
0.30682096 0.34954286 2.039
0.30887622 0.34748572 2.0270002
0.31273717 0.34748572 2.0270002
0.31659812 0.34748572 2.0270002
0.31856191 0.34542859 2.0150001
0.3224 0.34542859 2.0150001
0.32429525 0.34337145 2.003
0.32811049 0.34337145 2.003
0.33192572 0.34337145 2.003
0.33574095 0.34337145 2.003
0.33955622 0.34337145 2.003
0.34337145 0.34337145 2.003
0.34528002 0.34148574 1.9920001
0.3490743 0.34148574 1.9920001
0.35286859 0.34148574 1.9920001
0.35666287 0.34148574 1.9920001
0.36045715 0.34148574 1.9920001
0.36205715 0.33942857 1.9800001
0.36582857 0.33942857 1.9800001
0.36960003 0.33942857 1.9800001
0.37337145 0.33942857 1.9800001
0.37504762 0.33754286 1.9690001
0.3787981 0.33754286 1.9690001
0.38254857 0.33754286 1.9690001
0.38629907 0.33754286 1.9690001
0.38787049 0.33565715 1.9580001
0.39160001 0.33565715 1.9580001
0.39532954 0.33565715 1.9580001
0.39681715 0.33377144 1.9470001
0.39826286 0.33188573 1.9360001
0.40195048 0.33188573 1.9360001
0.4056381 0.33188573 1.9360001
0.40932572 0.33188573 1.9360001
0.41301334 0.33188573 1.9360001
0.41670096 0.33188573 1.9360001
0.42038858 0.33188573 1.9360001
0.4240762 0.33188573 1.9360001
0.42533335 0.33000001 1.9250001
0.42900002 0.33000001 1.9250001
0.43041906 0.32828572 1.9150001
0.43406668 0.32828572 1.9150001
0.43771431 0.32828572 1.9150001
0.43882668 0.32640001 1.904
0.44245335 0.32640001 1.904
0.44608003 0.32640001 1.904
0.44734478 0.32468572 1.8940001
0.45095241 0.32468572 1.8940001
0.45456001 0.32468572 1.8940001
0.45816764 0.32468572 1.8940001
0.46177524 0.32468572 1.8940001
0.46538287 0.32468572 1.8940001
0.4689905 0.32468572 1.8940001
0.47259811 0.32468572 1.8940001
0.47620574 0.32468572 1.8940001
0.47981334 0.32468572 1.8940001
0.48342097 0.32468572 1.8940001
0.48420003 0.32280001 1.8830001
0.48778668 0.32280001 1.8830001
0.48876384 0.32108572 1.8730001
0.48970288 0.31937143 1.863
0.49325144 0.31937143 1.863
0.49413335 0.31765714 1.853
0.49766287 0.31765714 1.853
0.49848765 0.31594288 1.8430001
0.49927431 0.31422859 1.8330001
0.5055086 0.31594288 1.8430001
0.50901908 0.31594288 1.8430001
0.50974858 0.31422859 1.8330001
0.51604003 0.31594288 1.8430001
0.5195505 0.31594288 1.8430001
0.52306098 0.31594288 1.8430001
0.52657145 0.31594288 1.8430001
0.53008193 0.31594288 1.8430001
0.5335924 0.31594288 1.8430001
0.53418857 0.31422859 1.8330001
0.54061335 0.31594288 1.8430001
0.53851432 0.31268573 1.8240001
0.54466289 0.31422859 1.8330001
0.54815429 0.31422859 1.8330001
0.55465525 0.31594288 1.8430001
0.55816573 0.31594288 1.8430001
0.56472385 0.31765714 1.853
0.56825334 0.31765714 1.853
0.57178289 0.31765714 1.853
0.57841718 0.31937143 1.863
0.58196574 0.31937143 1.863
0.58865714 0.32108572 1.8730001
0.59222478 0.32108572 1.8730001
0.59897333 0.32280001 1.8830001
0.60256004 0.32280001 1.8830001
0.60968763 0.32468572 1.8940001
0.62009525 0.32828572 1.9150001
0.62374288 0.32828572 1.9150001
0.63066667 0.33000001 1.9250001
0.63433337 0.33000001 1.9250001
0.64164573 0.33188573 1.9360001
0.64533335 0.33188573 1.9360001
0.64902097 0.33188573 1.9360001
0.65641719 0.33377144 1.9470001
0.66385525 0.33565715 1.9580001
0.67133528 0.33754286 1.9690001
0.67885715 0.33942857 1.9800001
0.68262857 0.33942857 1.9800001
0.69437337 0.34337145 2.003
0.70237148 0.34542859 2.0150001
0.70620954 0.34542859 2.0150001
0.71427619 0.34748572 2.0270002
0.71813715 0.34748572 2.0270002
0.7262724 0.34954286 2.039
0.73445338 0.35160002 2.0510001
0.74268001 0.35365716 2.0630002
0.74660957 0.35365716 2.0630002
0.75526857 0.35588571 2.0760002
0.75922287 0.35588571 2.0760002
0.76758862 0.35794288 2.0880001
0.77156574 0.35794288 2.0880001
0.78037143 0.36017144 2.1010001
0.78922671 0.36240003 2.1140001
0.79325336 0.36240003 2.1140001
0.80218291 0.36462858 2.1270001
0.8062343 0.36462858 2.1270001
0.81523812 0.36685717 2.1400001
0.82429147 0.36908573 2.1530001
0.8337791 0.37148574 2.1670001
0.84332001 0.37388572 2.181
0.85252577 0.37611431 2.194
0.86217147 0.37851429 2.2080002
0.8722629 0.38108572 2.223
0.87649715 0.38108572 2.223
0.88627815 0.38348573 2.237
0.89053911 0.38348573 2.237
0.90080005 0.38605717 2.2520001
0.90508956 0.38605717 2.2520001
0.91503239 0.38845715 2.266
0.9193486 0.38845715 2.266
0.92977905 0.39102858 2.2810001
0.94067621 0.39377144 2.2970002
0.9512229 0.39634287 2.312
0.96182668 0.39891431 2.3270001
0.97290289 0.40165716 2.3430002
0.98404002 0.40440002 2.3590002
0.98853338 0.40440002 2.3590002
1.0001829 0.4073143 2.3760002
1.0047086 0.4073143 2.3760002
1.0232514 0.41297144 2.4090002
1.02784 0.41297144 2.4090002
1.0324286 0.41297144 2.4090002
1.0370172 0.41297144 2.4090002
-0.40870288 0.45916003 2.6490002
-0.40060955 0.45569336 2.6290002
-0.3925924 0.45222667 2.6090002
-0.38465145 0.44876 2.5890002
-0.37972 0.44876 2.5890002
-0.37478858 0.44876 2.5890002
-0.36985716 0.44876 2.5890002
-0.36492574 0.44876 2.5890002
-0.36277527 0.45222667 2.6090002
-0.35506287 0.44876 2.5890002
-0.35283619 0.45222667 2.6090002
-0.3452 0.44876 2.5890002
-0.33777145 0.4454667 2.5700002
-0.33287621 0.4454667 2.5700002
-0.32798097 0.4454667 2.5700002
-0.32069716 0.44217336 2.5510001
-0.3158381 0.44217336 2.5510001
-0.31097907 0.44217336 2.5510001
-0.30384001 0.43888003 2.5320001
-0.29901716 0.43888003 2.5320001
-0.29419431 0.43888003 2.5320001
-0.28937143 0.43888003 2.5320001
-0.28454858 0.43888003 2.5320001
-0.27773714 0.43576002 2.5140002
-0.27099431 0.43264002 2.4960001
-0.26624 0.43264002 2.4960001
-0.26148573 0.43264002 2.4960001
-0.25673145 0.43264002 2.4960001
-0.25197715 0.43264002 2.4960001
-0.24722287 0.43264002 2.4960001
-0.24072 0.42952001 2.4780002
-0.236 0.42952001 2.4780002
-0.23128001 0.42952001 2.4780002
-0.22656001 0.42952001 2.4780002
-0.22022858 0.42640001 2.46
-0.21554287 0.42640001 2.46
-0.21085715 0.42640001 2.46
-0.20617144 0.42640001 2.46
-0.20148572 0.42640001 2.46
-0.19680001 0.42640001 2.46
-0.19211429 0.42640001 2.46
-0.18613334 0.42345336 2.4430001
-0.18148001 0.42345336 2.4430001
-0.17559619 0.42050669 2.4260001
-0.17097524 0.42050669 2.4260001
-0.1663543 0.42050669 2.4260001
-0.16060001 0.41756001 2.4090002
-0.15601143 0.41756001 2.4090002
-0.15142286 0.41756001 2.4090002
-0.14683428 0.41756001 2.4090002
-0.14224572 0.41756001 2.4090002
-0.13765715 0.41756001 2.4090002
-0.13306858 0.41756001 2.4090002
-0.12848 0.41756001 2.4090002
-0.12389144 0.41756001 2.4090002
-0.11930286 0.41756001 2.4090002
-0.11471429 0.41756001 2.4090002
-0.10934857 0.41461334 2.3920002
-0.10479239 0.41461334 2.3920002
-0.099565715 0.41184002 2.3760002
-0.095040001 0.41184002 2.3760002
-0.090514287 0.41184002 2.3760002
-0.085988574 0.41184002 2.3760002
-0.08146286 0.41184002 2.3760002
-0.076937146 0.41184002 2.3760002
-0.072411433 0.41184002 2.3760002
-0.067885719 0.41184002 2.3760002
-0.063360006 0.41184002 2.3760002
-0.058413334 0.40889335 2.3590002
-0.053920001 0.40889335 2.3590002
-0.049091429 0.40612 2.3430002
-0.044628572 0.40612 2.3430002
-0.040165715 0.40612 2.3430002
-0.035702858 0.40612 2.3430002
-0.030826667 0.40074667 2.312
-0.026422858 0.40074667 2.312
-0.022019049 0.40074667 2.312
-0.017615238 0.40074667 2.312
-0.013125715 0.39814669 2.2970002
-0.0087504769 0.39814669 2.2970002
-0.0043447618 0.39537334 2.2810001
0 0.39537334 2.2810001
0.0043447618 0.39537334 2.2810001
0.0086895237 0.39537334 2.2810001
0.012948572 0.39277336 2.266
0.017264763 0.39277336 2.266
0.021580953 0.39277336 2.266
0.025897143 0.39277336 2.266
0.030213334 0.39277336 2.266
0.034529526 0.39277336 2.266
0.038845714 0.39277336 2.266
0.043161906 0.39277336 2.266
0.047478098 0.39277336 2.266
0.051474288 0.39034668 2.2520001
0.055763811 0.39034668 2.2520001
0.060053337 0.39034668 2.2520001
0.064342856 0.39034668 2.2520001
0.068175241 0.38774669 2.237
0.072436191 0.38774669 2.237
0.076697148 0.38774669 2.237
0.080451429 0.38532001 2.223
0.084685721 0.38532001 2.223
0.088320002 0.38272002 2.2080002
0.092525721 0.38272002 2.2080002
0.096731432 0.38272002 2.2080002
0.10093714 0.38272002 2.2080002
0.10514286 0.38272002 2.2080002
0.10934857 0.38272002 2.2080002
0.11355429 0.38272002 2.2080002
0.11776 0.38272002 2.2080002
0.12196572 0.38272002 2.2080002
0.12537143 0.38029334 2.194
0.12955049 0.38029334 2.194
0.13372953 0.38029334 2.194
0.13790858 0.38029334 2.194
0.14124572 0.37804002 2.181
0.1454 0.37804002 2.181
0.14859429 0.37561336 2.1670001
0.15272191 0.37561336 2.1670001
0.15583619 0.37318668 2.1530001
0.15993714 0.37318668 2.1530001
0.16403811 0.37318668 2.1530001
0.16712381 0.37093335 2.1400001
0.17224 0.37318668 2.1530001
0.17527619 0.37093335 2.1400001
0.17935239 0.37093335 2.1400001
0.18342859 0.37093335 2.1400001
0.18750477 0.37093335 2.1400001
0.19158097 0.37093335 2.1400001
0.19565715 0.37093335 2.1400001
0.19973335 0.37093335 2.1400001
0.20380953 0.37093335 2.1400001
0.20788573 0.37093335 2.1400001
0.21196191 0.37093335 2.1400001
0.21472572 0.36868 2.1270001
0.21877715 0.36868 2.1270001
0.22282858 0.36868 2.1270001
0.22688001 0.36868 2.1270001
0.23093143 0.36868 2.1270001
0.23354667 0.36642668 2.1140001
0.23611239 0.36417335 2.1010001
0.2401143 0.36417335 2.1010001
0.2441162 0.36417335 2.1010001
0.24658287 0.36192 2.0880001
0.25056002 0.36192 2.0880001
0.25453717 0.36192 2.0880001
0.25851429 0.36192 2.0880001
0.26249143 0.36192 2.0880001
0.26646858 0.36192 2.0880001
0.27044573 0.36192 2.0880001
0.27284572 0.35984001 2.0760002
0.27680001 0.35984001 2.0760002
0.2789962 0.35758668 2.0630002
0.28292572 0.35758668 2.0630002
0.28685525 0.35758668 2.0630002
0.28909335 0.35550669 2.0510001
0.29128572 0.35342667 2.039
0.29516953 0.35342667 2.039
0.29905334 0.35342667 2.039
0.30293715 0.35342667 2.039
0.30682096 0.35342667 2.039
0.31070477 0.35342667 2.039
0.31273717 0.35134667 2.0270002
0.31659812 0.35134667 2.0270002
0.32045907 0.35134667 2.0270002
0.3224 0.34926668 2.0150001
0.3262381 0.34926668 2.0150001
0.32811049 0.34718668 2.003
0.33192572 0.34718668 2.003
0.33574095 0.34718668 2.003
0.33955622 0.34718668 2.003
0.34337145 0.34718668 2.003
0.34528002 0.34528002 1.9920001
0.3490743 0.34528002 1.9920001
0.35286859 0.34528002 1.9920001
0.35666287 0.34528002 1.9920001
0.35828573 0.3432 1.9800001
0.36205715 0.3432 1.9800001
0.36582857 0.3432 1.9800001
0.36960003 0.3432 1.9800001
0.37337145 0.3432 1.9800001
0.37714288 0.3432 1.9800001
0.3809143 0.3432 1.9800001
0.38254857 0.34129333 1.9690001
0.38629907 0.34129333 1.9690001
0.39004955 0.34129333 1.9690001
0.39160001 0.33938667 1.9580001
0.39532954 0.33938667 1.9580001
0.39681715 0.33748001 1.9470001
0.40052572 0.33748001 1.9470001
0.40195048 0.33557335 1.9360001
0.4056381 0.33557335 1.9360001
0.40932572 0.33557335 1.9360001
0.41301334 0.33557335 1.9360001
0.41670096 0.33557335 1.9360001
0.42038858 0.33557335 1.9360001
0.42166668 0.33366668 1.9250001
0.42533335 0.33366668 1.9250001
0.42900002 0.33366668 1.9250001
0.43041906 0.33193335 1.9150001
0.43406668 0.33193335 1.9150001
0.43771431 0.33193335 1.9150001
0.43882668 0.33002669 1.904
0.44245335 0.33002669 1.904
0.44608003 0.33002669 1.904
0.44970667 0.33002669 1.904
0.45095241 0.32829335 1.8940001
0.45456001 0.32829335 1.8940001
0.45816764 0.32829335 1.8940001
0.46177524 0.32829335 1.8940001
0.46538287 0.32829335 1.8940001
0.4689905 0.32829335 1.8940001
0.47259811 0.32829335 1.8940001
0.47620574 0.32829335 1.8940001
0.47702667 0.32638669 1.8830001
0.48061335 0.32638669 1.8830001
0.4816286 0.32465336 1.8730001
0.4851962 0.32465336 1.8730001
0.48615432 0.32292002 1.863
0.48970288 0.32292002 1.863
0.49325144 0.32292002 1.863
0.49680001 0.32292002 1.863
0.49766287 0.32118669 1.853
0.50119239 0.32118669 1.853
0.50199813 0.31945336 1.8430001
0.5055086 0.31945336 1.8430001
0.50901908 0.31945336 1.8430001
0.51252955 0.31945336 1.8430001
0.51604003 0.31945336 1.8430001
0.5195505 0.31945336 1.8430001
0.52306098 0.31945336 1.8430001
0.52657145 0.31945336 1.8430001
0.53008193 0.31945336 1.8430001
0.53069717 0.31772003 1.8330001
0.53418857 0.31772003 1.8330001
0.53768003 0.31772003 1.8330001
0.53851432 0.31616002 1.8240001
0.54198861 0.31616002 1.8240001
0.54546291 0.31616002 1.8240001
0.55164576 0.31772003 1.8330001
0.55816573 0.31945336 1.8430001
0.5616762 0.31945336 1.8430001
0.56825334 0.32118669 1.853
0.57178289 0.32118669 1.853
0.57841718 0.32292002 1.863
0.58508956 0.32465336 1.8730001
0.59180003 0.32638669 1.8830001
0.59538668 0.32638669 1.8830001
0.59897333 0.32638669 1.8830001
0.60608 0.32829335 1.8940001
0.60968763 0.32829335 1.8940001
0.62009525 0.33193335 1.9150001
0.62700003 0.33366668 1.9250001
0.63066667 0.33366668 1.9250001
0.63433337 0.33366668 1.9250001
0.64164573 0.33557335 1.9360001
0.64533335 0.33557335 1.9360001
0.65270859 0.33748001 1.9470001
0.65641719 0.33748001 1.9470001
0.66385525 0.33938667 1.9580001
0.67508572 0.3432 1.9800001
0.67885715 0.3432 1.9800001
0.68676573 0.34528002 1.9920001
0.69437337 0.34718668 2.003
0.70237148 0.34926668 2.0150001
0.70620954 0.34926668 2.0150001
0.71004766 0.34926668 2.0150001
0.71813715 0.35134667 2.0270002
0.7262724 0.35342667 2.039
0.73445338 0.35550669 2.0510001
0.74268001 0.35758668 2.0630002
0.74660957 0.35758668 2.0630002
0.75526857 0.35984001 2.0760002
0.75922287 0.35984001 2.0760002
0.76758862 0.36192 2.0880001
0.77156574 0.36192 2.0880001
0.78037143 0.36417335 2.1010001
0.78922671 0.36642668 2.1140001
0.79325336 0.36642668 2.1140001
0.80218291 0.36868 2.1270001
0.81116194 0.37093335 2.1400001
0.82019049 0.37318668 2.1530001
0.82965147 0.37561336 2.1670001
0.8337791 0.37561336 2.1670001
0.84332001 0.37804002 2.181
0.85252577 0.38029334 2.194
0.86217147 0.38272002 2.2080002
0.8722629 0.38532001 2.223
0.8820172 0.38774669 2.237
0.88627815 0.38774669 2.237
0.89053911 0.38774669 2.237
0.90080005 0.39034668 2.2520001
0.90508956 0.39034668 2.2520001
0.91503239 0.39277336 2.266
0.9193486 0.39277336 2.266
0.92977905 0.39537334 2.2810001
0.94067621 0.39814669 2.2970002
0.9573943 0.40334669 2.3270001
0.96182668 0.40334669 2.3270001
0.97290289 0.40612 2.3430002
0.98404002 0.40889335 2.3590002
0.98853338 0.40889335 2.3590002
1.0001829 0.41184002 2.3760002
1.0047086 0.41184002 2.3760002
1.0232514 0.41756001 2.4090002
1.0205867 0.41461334 2.3920002
1.0251429 0.41461334 2.3920002
1.0296991 0.41461334 2.3920002
-0.40870288 0.46420574 2.6490002
-0.39756191 0.45719621 2.6090002
-0.3925924 0.45719621 2.6090002
-0.38465145 0.45369145 2.5890002
-0.37693334 0.45036191 2.5700002
-0.37478858 0.45369145 2.5890002
-0.36985716 0.45369145 2.5890002
-0.36492574 0.45369145 2.5890002
-0.36277527 0.45719621 2.6090002
-0.35506287 0.45369145 2.5890002
-0.35283619 0.45719621 2.6090002
-0.3452 0.45369145 2.5890002
-0.33777145 0.45036191 2.5700002
-0.33287621 0.45036191 2.5700002
-0.32798097 0.45036191 2.5700002
-0.32069716 0.44703239 2.5510001
-0.3158381 0.44703239 2.5510001
-0.31097907 0.44703239 2.5510001
-0.30612001 0.44703239 2.5510001
-0.30126098 0.44703239 2.5510001
-0.29419431 0.44370288 2.5320001
-0.28937143 0.44370288 2.5320001
-0.28454858 0.44370288 2.5320001
-0.27773714 0.4405486 2.5140002
-0.27294859 0.4405486 2.5140002
-0.26624 0.43739429 2.4960001
-0.26148573 0.43739429 2.4960001
-0.25673145 0.43739429 2.4960001
-0.25197715 0.43739429 2.4960001
-0.24722287 0.43739429 2.4960001
-0.24072 0.43424001 2.4780002
-0.236 0.43424001 2.4780002
-0.23128001 0.43424001 2.4780002
-0.22656001 0.43424001 2.4780002
-0.22022858 0.43108574 2.46
-0.21554287 0.43108574 2.46
-0.21085715 0.43108574 2.46
-0.20617144 0.43108574 2.46
-0.20148572 0.43108574 2.46
-0.19680001 0.43108574 2.46
-0.19211429 0.43108574 2.46
-0.18613334 0.4281067 2.4430001
-0.18148001 0.4281067 2.4430001
-0.17682667 0.4281067 2.4430001
-0.17097524 0.42512763 2.4260001
-0.1663543 0.42512763 2.4260001
-0.16060001 0.42214859 2.4090002
-0.15601143 0.42214859 2.4090002
-0.15142286 0.42214859 2.4090002
-0.14683428 0.42214859 2.4090002
-0.14224572 0.42214859 2.4090002
-0.13765715 0.42214859 2.4090002
-0.13306858 0.42214859 2.4090002
-0.12848 0.42214859 2.4090002
-0.12389144 0.42214859 2.4090002
-0.11930286 0.42214859 2.4090002
-0.11471429 0.42214859 2.4090002
-0.11012572 0.42214859 2.4090002
-0.10479239 0.41916955 2.3920002
-0.099565715 0.41636574 2.3760002
-0.095040001 0.41636574 2.3760002
-0.090514287 0.41636574 2.3760002
-0.085988574 0.41636574 2.3760002
-0.08146286 0.41636574 2.3760002
-0.076937146 0.41636574 2.3760002
-0.072411433 0.41636574 2.3760002
-0.067885719 0.41636574 2.3760002
-0.063360006 0.41636574 2.3760002
-0.058413334 0.41338667 2.3590002
-0.053920001 0.41338667 2.3590002
-0.049091429 0.41058287 2.3430002
-0.044628572 0.41058287 2.3430002
-0.040165715 0.41058287 2.3430002
-0.035702858 0.41058287 2.3430002
-0.031026667 0.40777907 2.3270001
-0.026422858 0.4051505 2.312
-0.022019049 0.4051505 2.312
-0.017615238 0.4051505 2.312
-0.013211429 0.4051505 2.312
-0.0087504769 0.40252191 2.2970002
-0.0043447618 0.39971811 2.2810001
0 0.39971811 2.2810001
0.0043447618 0.39971811 2.2810001
0.0086323814 0.39708954 2.266
0.012948572 0.39708954 2.266
0.017264763 0.39708954 2.266
0.021580953 0.39708954 2.266
0.025897143 0.39708954 2.266
0.030213334 0.39708954 2.266
0.034529526 0.39708954 2.266
0.038845714 0.39708954 2.266
0.043161906 0.39708954 2.266
0.047478098 0.39708954 2.266
0.051474288 0.39463621 2.2520001
0.055763811 0.39463621 2.2520001
0.060053337 0.39463621 2.2520001
0.064342856 0.39463621 2.2520001
0.068175241 0.39200762 2.237
0.072436191 0.39200762 2.237
0.076697148 0.39200762 2.237
0.080451429 0.38955429 2.223
0.084685721 0.38955429 2.223
0.088920005 0.38955429 2.223
0.092525721 0.38692573 2.2080002
0.096731432 0.38692573 2.2080002
0.10093714 0.38692573 2.2080002
0.10514286 0.38692573 2.2080002
0.10934857 0.38692573 2.2080002
0.11355429 0.38692573 2.2080002
0.11776 0.38692573 2.2080002
0.12196572 0.38692573 2.2080002
0.12537143 0.3844724 2.194
0.12955049 0.3844724 2.194
0.13372953 0.3844724 2.194
0.13790858 0.3844724 2.194
0.14124572 0.38219431 2.181
0.1454 0.38219431 2.181
0.1495543 0.38219431 2.181
0.15272191 0.37974095 2.1670001
0.15684953 0.37974095 2.1670001
0.16097715 0.37974095 2.1670001
0.16403811 0.37728763 2.1530001
0.16813906 0.37728763 2.1530001
0.17224 0.37728763 2.1530001
0.17527619 0.37500954 2.1400001
0.17935239 0.37500954 2.1400001
0.18342859 0.37500954 2.1400001
0.18750477 0.37500954 2.1400001
0.19158097 0.37500954 2.1400001
0.19565715 0.37500954 2.1400001
0.19973335 0.37500954 2.1400001
0.20380953 0.37500954 2.1400001
0.20662287 0.37273145 2.1270001
0.21196191 0.37500954 2.1400001
0.21472572 0.37273145 2.1270001
0.21877715 0.37273145 2.1270001
0.22282858 0.37273145 2.1270001
0.22688001 0.37273145 2.1270001
0.22952001 0.37045336 2.1140001
0.23354667 0.37045336 2.1140001
0.23611239 0.36817524 2.1010001
0.2401143 0.36817524 2.1010001
0.2441162 0.36817524 2.1010001
0.2481181 0.36817524 2.1010001
0.25212002 0.36817524 2.1010001
0.2561219 0.36817524 2.1010001
0.26012382 0.36817524 2.1010001
0.26249143 0.36589715 2.0880001
0.26646858 0.36589715 2.0880001
0.27044573 0.36589715 2.0880001
0.27284572 0.3637943 2.0760002
0.27680001 0.3637943 2.0760002
0.2807543 0.3637943 2.0760002
0.28292572 0.36151621 2.0630002
0.28685525 0.36151621 2.0630002
0.28909335 0.35941336 2.0510001
0.29128572 0.3573105 2.039
0.29516953 0.3573105 2.039
0.29905334 0.3573105 2.039
0.30293715 0.3573105 2.039
0.30682096 0.3573105 2.039
0.31070477 0.3573105 2.039
0.31273717 0.35520762 2.0270002
0.31659812 0.35520762 2.0270002
0.32045907 0.35520762 2.0270002
0.3224 0.35310477 2.0150001
0.3262381 0.35310477 2.0150001
0.32811049 0.35100192 2.003
0.33192572 0.35100192 2.003
0.33574095 0.35100192 2.003
0.33955622 0.35100192 2.003
0.34148574 0.3490743 1.9920001
0.34528002 0.3490743 1.9920001
0.3490743 0.3490743 1.9920001
0.35286859 0.3490743 1.9920001
0.35666287 0.3490743 1.9920001
0.35828573 0.34697145 1.9800001
0.36205715 0.34697145 1.9800001
0.36582857 0.34697145 1.9800001
0.36960003 0.34697145 1.9800001
0.37337145 0.34697145 1.9800001
0.37714288 0.34697145 1.9800001
0.3809143 0.34697145 1.9800001
0.38254857 0.34504381 1.9690001
0.38629907 0.34504381 1.9690001
0.38787049 0.34311619 1.9580001
0.39160001 0.34311619 1.9580001
0.39532954 0.34311619 1.9580001
0.39681715 0.34118858 1.9470001
0.40052572 0.34118858 1.9470001
0.40195048 0.33926097 1.9360001
0.40794286 0.34118858 1.9470001
0.40932572 0.33926097 1.9360001
0.41301334 0.33926097 1.9360001
0.41670096 0.33926097 1.9360001
0.41800001 0.33733335 1.9250001
0.42166668 0.33733335 1.9250001
0.42533335 0.33733335 1.9250001
0.42677143 0.33558097 1.9150001
0.43041906 0.33558097 1.9150001
0.43406668 0.33558097 1.9150001
0.43771431 0.33558097 1.9150001
0.44136193 0.33558097 1.9150001
0.44245335 0.33365333 1.904
0.44608003 0.33365333 1.904
0.44970667 0.33365333 1.904
0.45095241 0.33190095 1.8940001
0.45456001 0.33190095 1.8940001
0.45816764 0.33190095 1.8940001
0.46177524 0.33190095 1.8940001
0.46538287 0.33190095 1.8940001
0.4689905 0.33190095 1.8940001
0.47259811 0.33190095 1.8940001
0.47620574 0.33190095 1.8940001
0.47702667 0.32997334 1.8830001
0.48061335 0.32997334 1.8830001
0.4816286 0.32822096 1.8730001
0.4851962 0.32822096 1.8730001
0.48615432 0.32646859 1.863
0.48970288 0.32646859 1.863
0.49325144 0.32646859 1.863
0.49680001 0.32646859 1.863
0.49766287 0.32471621 1.853
0.50119239 0.32471621 1.853
0.50472194 0.32471621 1.853
0.5055086 0.32296383 1.8430001
0.50901908 0.32296383 1.8430001
0.51252955 0.32296383 1.8430001
0.51604003 0.32296383 1.8430001
0.5195505 0.32296383 1.8430001
0.52306098 0.32296383 1.8430001
0.52657145 0.32296383 1.8430001
0.53008193 0.32296383 1.8430001
0.5335924 0.32296383 1.8430001
0.53418857 0.32121143 1.8330001
0.53768003 0.32121143 1.8330001
0.53851432 0.31963429 1.8240001
0.54198861 0.31963429 1.8240001
0.54815429 0.32121143 1.8330001
0.55465525 0.32296383 1.8430001
0.55816573 0.32296383 1.8430001
0.5616762 0.32296383 1.8430001
0.56825334 0.32471621 1.853
0.57178289 0.32471621 1.853
0.57841718 0.32646859 1.863
0.58196574 0.32646859 1.863
0.58865714 0.32822096 1.8730001
0.59222478 0.32822096 1.8730001
0.59897333 0.32997334 1.8830001
0.60256004 0.32997334 1.8830001
0.60968763 0.33190095 1.8940001
0.62009525 0.33558097 1.9150001
0.62700003 0.33733335 1.9250001
0.63066667 0.33733335 1.9250001
0.63795811 0.33926097 1.9360001
0.64164573 0.33926097 1.9360001
0.64533335 0.33926097 1.9360001
0.65270859 0.34118858 1.9470001
0.66012573 0.34311619 1.9580001
0.66758478 0.34504381 1.9690001
0.67508572 0.34697145 1.9800001
0.67885715 0.34697145 1.9800001
0.68676573 0.3490743 1.9920001
