# .PCD v0.7 - Point Cloud Data file format
VERSION 0.7
FIELDS x y z
SIZE 4 4 4
TYPE F F F
COUNT 1 1 1
WIDTH 1565
HEIGHT 1
VIEWPOINT 0 0 0 1 0 0 0
POINTS 1565
DATA ascii
0.56313717 0.18068571 1.5810001
0.56614858 0.18068571 1.5810001
0.56916004 0.18068571 1.5810001
0.57217145 0.18068571 1.5810001
0.57518286 0.18068571 1.5810001
0.57819432 0.18068571 1.5810001
0.58120573 0.18068571 1.5810001
0.58421719 0.18068571 1.5810001
0.5872286 0.18068571 1.5810001
0.59024 0.18068571 1.5810001
0.59325147 0.18068571 1.5810001
0.59626287 0.18068571 1.5810001
0.59927434 0.18068571 1.5810001
0.60228574 0.18068571 1.5810001
0.60529715 0.18068571 1.5810001
0.61138672 0.1816 1.5890001
0.61441338 0.1816 1.5890001
0.61744004 0.1816 1.5890001
0.62046671 0.1816 1.5890001
0.62624002 0.1824 1.5960001
0.62928003 0.1824 1.5960001
0.63509333 0.1832 1.603
0.6381467 0.1832 1.603
0.64120001 0.1832 1.603
0.64425337 0.1832 1.603
0.64730668 0.1832 1.603
0.65036005 0.1832 1.603
0.65341336 0.1832 1.603
0.65646666 0.1832 1.603
0.65952003 0.1832 1.603
0.66257334 0.1832 1.603
0.66272002 0.1824 1.5960001
0.66576004 0.1824 1.5960001
0.6688 0.1824 1.5960001
0.67184001 0.1824 1.5960001
0.67488003 0.1824 1.5960001
0.67792004 0.1824 1.5960001
0.68096 0.1824 1.5960001
0.68400002 0.1824 1.5960001
0.68704003 0.1824 1.5960001
0.69008005 0.1824 1.5960001
0.69312 0.1824 1.5960001
0.69616002 0.1824 1.5960001
0.69920003 0.1824 1.5960001
0.70224005 0.1824 1.5960001
0.70837337 0.1832 1.603
0.71142668 0.1832 1.603
0.71448004 0.1832 1.603
0.71753335 0.1832 1.603
0.72058672 0.1832 1.603
0.72364002 0.1832 1.603
0.72669333 0.1832 1.603
0.7333886 0.18411429 1.6110001
0.73645717 0.18411429 1.6110001
0.73952574 0.18411429 1.6110001
0.745821 0.18491429 1.618
0.74890286 0.18491429 1.618
0.75198478 0.18491429 1.618
0.7518 0.18411429 1.6110001
0.75814861 0.18491429 1.618
0.75793719 0.18411429 1.6110001
0.76100576 0.18411429 1.6110001
0.76407433 0.18411429 1.6110001
0.77047622 0.18491429 1.618
0.77355814 0.18491429 1.618
0.77664006 0.18491429 1.618
0.78357714 0.18582858 1.626
0.78667432 0.18582858 1.626
0.78977144 0.18582858 1.626
0.79286861 0.18582858 1.626
0.79596573 0.18582858 1.626
0.79906291 0.18582858 1.626
0.80216002 0.18582858 1.626
0.8052572 0.18582858 1.626
0.80835432 0.18582858 1.626
-0.10319048 0.25178477 2.1670001
-0.09906286 0.25178477 2.1670001
-0.094321907 0.2501581 2.1530001
-0.08913143 0.24713716 2.1270001
-0.084040001 0.2441162 2.1010001
-0.079085715 0.24121144 2.0760002
-0.07422667 0.23830667 2.0510001
-0.069908574 0.23691238 2.039
-0.065636195 0.2355181 2.0270002
-0.060708575 0.23145144 1.9920001
-0.05594286 0.22750096 1.9580001
-0.05192 0.22622287 1.9470001
-0.047666669 0.22366667 1.9250001
-0.044 0.22366667 1.9250001
-0.040123813 0.22250476 1.9150001
-0.035866667 0.21878667 1.8830001
-0.032108571 0.21762477 1.8730001
-0.028236192 0.21530096 1.853
-0.024440002 0.21297716 1.8330001
-0.020948572 0.21297716 1.8330001
-0.017371429 0.21193144 1.8240001
-0.013676191 0.20856191 1.7950001
-0.010205715 0.20751619 1.7860001
-0.0068038097 0.20751619 1.7860001
-0.003384762 0.20647049 1.7770001
0 0.20647049 1.7770001
0.003384762 0.20647049 1.7770001
0.006769524 0.20647049 1.7770001
0.010000001 0.20333335 1.7500001
0.011779048 0.17963049 1.5460001
0.014790476 0.18044382 1.5530001
0.017668571 0.17963049 1.5460001
0.020613333 0.17963049 1.5460001
0.023451429 0.17881715 1.539
0.026382858 0.17881715 1.539
0.029314287 0.17881715 1.539
0.03209905 0.17800382 1.5320001
0.035017144 0.17800382 1.5320001
0.037935238 0.17800382 1.5320001
0.040853336 0.17800382 1.5320001
0.043771431 0.17800382 1.5320001
0.046689525 0.17800382 1.5320001
0.04960762 0.17800382 1.5320001
0.052525718 0.17800382 1.5320001
0.055190478 0.17719048 1.5250001
0.058095239 0.17719048 1.5250001
0.061000001 0.17719048 1.5250001
0.063904762 0.17719048 1.5250001
0.066546671 0.17649335 1.5190001
0.069714285 0.17719048 1.5250001
0.072619051 0.17719048 1.5250001
0.075523809 0.17719048 1.5250001
0.078788571 0.17800382 1.5320001
0.081706673 0.17800382 1.5320001
0.084624767 0.17800382 1.5320001
0.087542862 0.17800382 1.5320001
0.090460956 0.17800382 1.5320001
0.09337905 0.17800382 1.5320001
0.096297145 0.17800382 1.5320001
0.099215239 0.17800382 1.5320001
0.1026 0.17881715 1.539
0.10505144 0.17800382 1.5320001
0.10796953 0.17800382 1.5320001
0.11088762 0.17800382 1.5320001
0.11380572 0.17800382 1.5320001
0.11672381 0.17800382 1.5320001
0.11964191 0.17800382 1.5320001
0.12256 0.17800382 1.5320001
0.12605143 0.17881715 1.539
0.12898286 0.17881715 1.539
0.13191429 0.17881715 1.539
0.13484572 0.17881715 1.539
0.13777715 0.17881715 1.539
0.14070858 0.17881715 1.539
0.14364001 0.17881715 1.539
0.14657143 0.17881715 1.539
0.14950286 0.17881715 1.539
0.15243429 0.17881715 1.539
0.15536572 0.17881715 1.539
0.15829715 0.17881715 1.539
0.16122858 0.17881715 1.539
0.16416001 0.17881715 1.539
0.16709143 0.17881715 1.539
0.17002286 0.17881715 1.539
0.17374095 0.17963049 1.5460001
0.17668572 0.17963049 1.5460001
0.17963049 0.17963049 1.5460001
0.18257524 0.17963049 1.5460001
0.18552001 0.17963049 1.5460001
0.18846478 0.17963049 1.5460001
0.19054286 0.17881715 1.539
0.19347429 0.17881715 1.539
0.19640572 0.17881715 1.539
0.20024382 0.17963049 1.5460001
0.20318858 0.17963049 1.5460001
0.20613334 0.17963049 1.5460001
0.2090781 0.17963049 1.5460001
0.21298286 0.18044382 1.5530001
0.21496762 0.17963049 1.5460001
0.21791239 0.17963049 1.5460001
0.22085716 0.17963049 1.5460001
0.22380191 0.17963049 1.5460001
0.22674668 0.17963049 1.5460001
0.22969143 0.17963049 1.5460001
0.2326362 0.17963049 1.5460001
0.23558097 0.17963049 1.5460001
0.23960572 0.18044382 1.5530001
0.24256381 0.18044382 1.5530001
0.24552192 0.18044382 1.5530001
0.24848001 0.18044382 1.5530001
0.25143811 0.18044382 1.5530001
0.2543962 0.18044382 1.5530001
0.25735429 0.18044382 1.5530001
0.26031238 0.18044382 1.5530001
0.2632705 0.18044382 1.5530001
0.26622859 0.18044382 1.5530001
0.26797333 0.17963049 1.5460001
0.2709181 0.17963049 1.5460001
0.27510285 0.18044382 1.5530001
0.27680764 0.17963049 1.5460001
0.2797524 0.17963049 1.5460001
0.28397715 0.18044382 1.5530001
0.28693524 0.18044382 1.5530001
0.28989333 0.18044382 1.5530001
0.29285145 0.18044382 1.5530001
0.29580954 0.18044382 1.5530001
0.29876763 0.18044382 1.5530001
0.30172572 0.18044382 1.5530001
0.30468383 0.18044382 1.5530001
0.3090286 0.18125714 1.5600001
0.31060001 0.18044382 1.5530001
0.3135581 0.18044382 1.5530001
0.31794286 0.18125714 1.5600001
0.3209143 0.18125714 1.5600001
0.32388574 0.18125714 1.5600001
0.32539049 0.18044382 1.5530001
0.32834858 0.18044382 1.5530001
0.33130667 0.18044382 1.5530001
0.33577144 0.18125714 1.5600001
0.33874288 0.18125714 1.5600001
0.34171429 0.18125714 1.5600001
0.34468573 0.18125714 1.5600001
0.34765714 0.18125714 1.5600001
0.35062858 0.18125714 1.5600001
0.35360003 0.18125714 1.5600001
0.35657144 0.18125714 1.5600001
0.35954288 0.18125714 1.5600001
0.36251429 0.18125714 1.5600001
0.36548573 0.18125714 1.5600001
0.36845717 0.18125714 1.5600001
0.37142858 0.18125714 1.5600001
0.37440002 0.18125714 1.5600001
0.37737143 0.18125714 1.5600001
0.38034287 0.18125714 1.5600001
0.38331431 0.18125714 1.5600001
0.38628572 0.18125714 1.5600001
0.38925716 0.18125714 1.5600001
0.39222857 0.18125714 1.5600001
0.39520001 0.18125714 1.5600001
0.39817145 0.18125714 1.5600001
0.40114287 0.18125714 1.5600001
0.40592763 0.18207048 1.567
0.40891239 0.18207048 1.567
0.41189715 0.18207048 1.567
0.41488191 0.18207048 1.567
0.41786668 0.18207048 1.567
0.41897145 0.18125714 1.5600001
0.42194286 0.18125714 1.5600001
0.4249143 0.18125714 1.5600001
0.42596573 0.18044382 1.5530001
0.43085715 0.18125714 1.5600001
0.43382859 0.18125714 1.5600001
0.4368 0.18125714 1.5600001
0.43977144 0.18125714 1.5600001
0.44274288 0.18125714 1.5600001
0.44571429 0.18125714 1.5600001
0.44868574 0.18125714 1.5600001
0.45165715 0.18125714 1.5600001
0.45462859 0.18125714 1.5600001
0.45760003 0.18125714 1.5600001
0.46263811 0.18207048 1.567
0.46562287 0.18207048 1.567
0.46860763 0.18207048 1.567
0.4715924 0.18207048 1.567
0.47669715 0.18288381 1.5740001
0.47969526 0.18288381 1.5740001
0.48269334 0.18288381 1.5740001
0.48569146 0.18288381 1.5740001
0.48868954 0.18288381 1.5740001
0.49168763 0.18288381 1.5740001
0.49468574 0.18288381 1.5740001
0.49768382 0.18288381 1.5740001
0.50068194 0.18288381 1.5740001
0.50367999 0.18288381 1.5740001
0.5066781 0.18288381 1.5740001
0.50967622 0.18288381 1.5740001
0.51267433 0.18288381 1.5740001
0.51567239 0.18288381 1.5740001
0.5186705 0.18288381 1.5740001
0.52166861 0.18288381 1.5740001
0.52466667 0.18288381 1.5740001
0.52766478 0.18288381 1.5740001
0.53066289 0.18288381 1.5740001
0.53366095 0.18288381 1.5740001
0.53665906 0.18288381 1.5740001
0.53965718 0.18288381 1.5740001
0.54265523 0.18288381 1.5740001
0.54808003 0.18369715 1.5810001
0.54865146 0.18288381 1.5740001
0.5541029 0.18369715 1.5810001
0.55464762 0.18288381 1.5740001
0.56012571 0.18369715 1.5810001
0.56313717 0.18369715 1.5810001
0.56614858 0.18369715 1.5810001
0.56916004 0.18369715 1.5810001
0.57217145 0.18369715 1.5810001
0.57518286 0.18369715 1.5810001
0.57819432 0.18369715 1.5810001
0.58120573 0.18369715 1.5810001
0.58421719 0.18369715 1.5810001
0.5872286 0.18369715 1.5810001
0.59024 0.18369715 1.5810001
0.59325147 0.18369715 1.5810001
0.59626287 0.18369715 1.5810001
0.59927434 0.18369715 1.5810001
0.60533333 0.18462667 1.5890001
0.60836005 0.18462667 1.5890001
0.61138672 0.18462667 1.5890001
0.61441338 0.18462667 1.5890001
0.61744004 0.18462667 1.5890001
0.6232 0.18544 1.5960001
0.62624002 0.18544 1.5960001
0.63204002 0.18625334 1.603
0.63509333 0.18625334 1.603
0.6381467 0.18625334 1.603
0.64120001 0.18625334 1.603
0.64425337 0.18625334 1.603
0.64730668 0.18625334 1.603
0.65036005 0.18625334 1.603
0.65341336 0.18625334 1.603
0.65646666 0.18625334 1.603
0.65952003 0.18625334 1.603
0.66257334 0.18625334 1.603
0.66272002 0.18544 1.5960001
0.66576004 0.18544 1.5960001
0.6688 0.18544 1.5960001
0.67184001 0.18544 1.5960001
0.67488003 0.18544 1.5960001
0.67792004 0.18544 1.5960001
0.68096 0.18544 1.5960001
0.68400002 0.18544 1.5960001
0.68704003 0.18544 1.5960001
0.69008005 0.18544 1.5960001
0.69312 0.18544 1.5960001
0.69921339 0.18625334 1.603
0.70226669 0.18625334 1.603
0.70532 0.18625334 1.603
0.70837337 0.18625334 1.603
0.71142668 0.18625334 1.603
0.71448004 0.18625334 1.603
0.71753335 0.18625334 1.603
0.72058672 0.18625334 1.603
0.72364002 0.18625334 1.603
0.73032004 0.18718286 1.6110001
0.7333886 0.18718286 1.6110001
0.73645717 0.18718286 1.6110001
0.74273908 0.18799619 1.618
0.745821 0.18799619 1.618
0.74890286 0.18799619 1.618
0.75198478 0.18799619 1.618
0.7518 0.18718286 1.6110001
0.75814861 0.18799619 1.618
0.75793719 0.18718286 1.6110001
0.76431239 0.18799619 1.618
0.7673943 0.18799619 1.618
0.77047622 0.18799619 1.618
0.77355814 0.18799619 1.618
0.78048003 0.18892573 1.626
0.78357714 0.18892573 1.626
0.78667432 0.18892573 1.626
0.78977144 0.18892573 1.626
0.79286861 0.18892573 1.626
0.79596573 0.18892573 1.626
0.79906291 0.18892573 1.626
0.80216002 0.18892573 1.626
0.8052572 0.18892573 1.626
0.80835432 0.18892573 1.626
-0.10319048 0.25591239 2.1670001
-0.09906286 0.25591239 2.1670001
-0.094935238 0.25591239 2.1670001
-0.088586673 0.24965334 2.1140001
-0.083520003 0.24658287 2.0880001
-0.079085715 0.24516572 2.0760002
-0.07422667 0.24221334 2.0510001
-0.069908574 0.24079619 2.039
-0.064859048 0.23654477 2.003
-0.060708575 0.23524572 1.9920001
-0.055314288 0.22863239 1.9360001
-0.051626667 0.22863239 1.9360001
-0.047666669 0.22733334 1.9250001
-0.043771431 0.22615239 1.9150001
-0.039453335 0.22237334 1.8830001
-0.035676192 0.22119239 1.8730001
-0.031937145 0.22001144 1.863
-0.027931429 0.21646857 1.8330001
-0.024320001 0.21540572 1.8240001
-0.020845715 0.21540572 1.8240001
-0.01727619 0.21422477 1.8140001
-0.013607619 0.2109181 1.7860001
-0.010154286 0.20985524 1.7770001
-0.006769524 0.20985524 1.7770001
-0.0033676191 0.20879239 1.7680001
0 0.20879239 1.7680001
0.0033504763 0.20772953 1.7590001
0.0066666668 0.20666668 1.7500001
0.010000001 0.20666668 1.7500001
0.011779048 0.18257524 1.5460001
0.014790476 0.18340191 1.5530001
0.017668571 0.18257524 1.5460001
0.020613333 0.18257524 1.5460001
0.023451429 0.18174858 1.539
0.026382858 0.18174858 1.539
0.029314287 0.18174858 1.539
0.032245714 0.18174858 1.539
0.035017144 0.18092191 1.5320001
0.037935238 0.18092191 1.5320001
0.040853336 0.18092191 1.5320001
0.043771431 0.18092191 1.5320001
0.046689525 0.18092191 1.5320001
0.04960762 0.18092191 1.5320001
0.052525718 0.18092191 1.5320001
0.055443812 0.18092191 1.5320001
0.058095239 0.18009524 1.5250001
0.061000001 0.18009524 1.5250001
0.063904762 0.18009524 1.5250001
0.066809528 0.18009524 1.5250001
0.069714285 0.18009524 1.5250001
0.072619051 0.18009524 1.5250001
0.075870477 0.18092191 1.5320001
0.078788571 0.18092191 1.5320001
0.081706673 0.18092191 1.5320001
0.084624767 0.18092191 1.5320001
0.087542862 0.18092191 1.5320001
0.090460956 0.18092191 1.5320001
0.09337905 0.18092191 1.5320001
0.096737146 0.18174858 1.539
0.099668577 0.18174858 1.539
0.1026 0.18174858 1.539
0.10553143 0.18174858 1.539
0.10796953 0.18092191 1.5320001
0.11088762 0.18092191 1.5320001
0.11380572 0.18092191 1.5320001
0.11672381 0.18092191 1.5320001
0.11964191 0.18092191 1.5320001
0.12256 0.18092191 1.5320001
0.1254781 0.18092191 1.5320001
0.1283962 0.18092191 1.5320001
0.13191429 0.18174858 1.539
0.13423239 0.18092191 1.5320001
0.13715048 0.18092191 1.5320001
0.14070858 0.18174858 1.539
0.14364001 0.18174858 1.539
0.14657143 0.18174858 1.539
0.14950286 0.18174858 1.539
0.15243429 0.18174858 1.539
0.15536572 0.18174858 1.539
0.15829715 0.18174858 1.539
0.16122858 0.18174858 1.539
0.16416001 0.18174858 1.539
0.16709143 0.18174858 1.539
0.17002286 0.18174858 1.539
0.17374095 0.18257524 1.5460001
0.17668572 0.18257524 1.5460001
0.17963049 0.18257524 1.5460001
0.18257524 0.18257524 1.5460001
0.18552001 0.18257524 1.5460001
0.18846478 0.18257524 1.5460001
0.19054286 0.18174858 1.539
0.19347429 0.18174858 1.539
0.19640572 0.18174858 1.539
0.20024382 0.18257524 1.5460001
0.20318858 0.18257524 1.5460001
0.20613334 0.18257524 1.5460001
0.2090781 0.18257524 1.5460001
0.21202287 0.18257524 1.5460001
0.21594097 0.18340191 1.5530001
0.21889906 0.18340191 1.5530001
0.22185715 0.18340191 1.5530001
0.22380191 0.18257524 1.5460001
0.22777334 0.18340191 1.5530001
0.23073144 0.18340191 1.5530001
0.23368953 0.18340191 1.5530001
0.23558097 0.18257524 1.5460001
0.23960572 0.18340191 1.5530001
0.24256381 0.18340191 1.5530001
0.24552192 0.18340191 1.5530001
0.24848001 0.18340191 1.5530001
0.25143811 0.18340191 1.5530001
0.2543962 0.18340191 1.5530001
0.25735429 0.18340191 1.5530001
0.26031238 0.18340191 1.5530001
0.2632705 0.18340191 1.5530001
0.2650286 0.18257524 1.5460001
0.26797333 0.18257524 1.5460001
0.2709181 0.18257524 1.5460001
0.27510285 0.18340191 1.5530001
0.27680764 0.18257524 1.5460001
0.2797524 0.18257524 1.5460001
0.28397715 0.18340191 1.5530001
0.28693524 0.18340191 1.5530001
0.28989333 0.18340191 1.5530001
0.29417145 0.18422858 1.5600001
0.29580954 0.18340191 1.5530001
0.3001143 0.18422858 1.5600001
0.30308571 0.18422858 1.5600001
0.30605716 0.18422858 1.5600001
0.3090286 0.18422858 1.5600001
0.31200001 0.18422858 1.5600001
0.31497145 0.18422858 1.5600001
0.31794286 0.18422858 1.5600001
0.3209143 0.18422858 1.5600001
0.32388574 0.18422858 1.5600001
0.32685715 0.18422858 1.5600001
0.32982859 0.18422858 1.5600001
0.3328 0.18422858 1.5600001
0.33577144 0.18422858 1.5600001
0.33874288 0.18422858 1.5600001
0.34171429 0.18422858 1.5600001
0.34468573 0.18422858 1.5600001
0.34765714 0.18422858 1.5600001
0.35062858 0.18422858 1.5600001
0.35360003 0.18422858 1.5600001
0.35657144 0.18422858 1.5600001
0.35954288 0.18422858 1.5600001
0.36251429 0.18422858 1.5600001
0.36548573 0.18422858 1.5600001
0.36845717 0.18422858 1.5600001
0.37142858 0.18422858 1.5600001
0.37440002 0.18422858 1.5600001
0.37737143 0.18422858 1.5600001
0.38034287 0.18422858 1.5600001
0.38331431 0.18422858 1.5600001
0.38628572 0.18422858 1.5600001
0.38925716 0.18422858 1.5600001
0.39222857 0.18422858 1.5600001
0.39520001 0.18422858 1.5600001
0.39817145 0.18422858 1.5600001
0.40114287 0.18422858 1.5600001
0.40592763 0.18505524 1.567
0.40891239 0.18505524 1.567
0.41189715 0.18505524 1.567
0.41488191 0.18505524 1.567
0.41786668 0.18505524 1.567
0.41897145 0.18422858 1.5600001
0.42194286 0.18422858 1.5600001
0.4249143 0.18422858 1.5600001
0.42596573 0.18340191 1.5530001
0.43085715 0.18422858 1.5600001
0.43382859 0.18422858 1.5600001
0.4368 0.18422858 1.5600001
0.43977144 0.18422858 1.5600001
0.44274288 0.18422858 1.5600001
0.44571429 0.18422858 1.5600001
0.44868574 0.18422858 1.5600001
0.45165715 0.18422858 1.5600001
0.45462859 0.18422858 1.5600001
0.45760003 0.18422858 1.5600001
0.46057144 0.18422858 1.5600001
0.46354288 0.18422858 1.5600001
0.46860763 0.18505524 1.567
0.4715924 0.18505524 1.567
0.47457716 0.18505524 1.567
0.47969526 0.18588191 1.5740001
0.48269334 0.18588191 1.5740001
0.48569146 0.18588191 1.5740001
0.48868954 0.18588191 1.5740001
0.49168763 0.18588191 1.5740001
0.49468574 0.18588191 1.5740001
0.49768382 0.18588191 1.5740001
0.50068194 0.18588191 1.5740001
0.50367999 0.18588191 1.5740001
0.5066781 0.18588191 1.5740001
0.50967622 0.18588191 1.5740001
0.51267433 0.18588191 1.5740001
0.51567239 0.18588191 1.5740001
0.5186705 0.18588191 1.5740001
0.52166861 0.18588191 1.5740001
0.52466667 0.18588191 1.5740001
0.52766478 0.18588191 1.5740001
0.53066289 0.18588191 1.5740001
0.53366095 0.18588191 1.5740001
0.53665906 0.18588191 1.5740001
0.53965718 0.18588191 1.5740001
0.54265523 0.18588191 1.5740001
0.54565334 0.18588191 1.5740001
0.54865146 0.18588191 1.5740001
0.5541029 0.18670858 1.5810001
0.55464762 0.18588191 1.5740001
0.56012571 0.18670858 1.5810001
0.56064385 0.18588191 1.5740001
0.56614858 0.18670858 1.5810001
0.56916004 0.18670858 1.5810001
0.57217145 0.18670858 1.5810001
0.57518286 0.18670858 1.5810001
0.57819432 0.18670858 1.5810001
0.58120573 0.18670858 1.5810001
0.58421719 0.18670858 1.5810001
0.5872286 0.18670858 1.5810001
0.59024 0.18670858 1.5810001
0.59325147 0.18670858 1.5810001
0.59626287 0.18670858 1.5810001
0.60230666 0.18765333 1.5890001
0.60533333 0.18765333 1.5890001
0.60836005 0.18765333 1.5890001
0.61138672 0.18765333 1.5890001
0.61441338 0.18765333 1.5890001
0.62016004 0.18848 1.5960001
0.6232 0.18848 1.5960001
0.62624002 0.18848 1.5960001
0.63204002 0.18930668 1.603
0.63509333 0.18930668 1.603
0.6381467 0.18930668 1.603
0.64120001 0.18930668 1.603
0.64425337 0.18930668 1.603
0.64730668 0.18930668 1.603
0.65036005 0.18930668 1.603
0.65341336 0.18930668 1.603
0.65646666 0.18930668 1.603
0.65952003 0.18930668 1.603
0.66257334 0.18930668 1.603
0.66272002 0.18848 1.5960001
0.66576004 0.18848 1.5960001
0.6688 0.18848 1.5960001
0.67184001 0.18848 1.5960001
0.67488003 0.18848 1.5960001
0.67792004 0.18848 1.5960001
0.68096 0.18848 1.5960001
0.68400002 0.18848 1.5960001
0.68704003 0.18848 1.5960001
0.69008005 0.18848 1.5960001
0.69616002 0.18930668 1.603
0.69921339 0.18930668 1.603
0.70226669 0.18930668 1.603
0.70532 0.18930668 1.603
0.70837337 0.18930668 1.603
0.71142668 0.18930668 1.603
0.71448004 0.18930668 1.603
0.71753335 0.18930668 1.603
0.72058672 0.18930668 1.603
0.72364002 0.18930668 1.603
0.73032004 0.19025144 1.6110001
0.7333886 0.19025144 1.6110001
0.73965716 0.1910781 1.618
0.74273908 0.1910781 1.618
0.745821 0.1910781 1.618
0.74890286 0.1910781 1.618
0.75198478 0.1910781 1.618
0.7518 0.19025144 1.6110001
0.75486863 0.19025144 1.6110001
0.75793719 0.19025144 1.6110001
0.76431239 0.1910781 1.618
0.7673943 0.1910781 1.618
0.77047622 0.1910781 1.618
0.77355814 0.1910781 1.618
0.78048003 0.19202286 1.626
0.78357714 0.19202286 1.626
0.78667432 0.19202286 1.626
0.78977144 0.19202286 1.626
0.78896767 0.1910781 1.618
0.79204953 0.1910781 1.618
0.79513144 0.1910781 1.618
0.79821336 0.1910781 1.618
0.80129528 0.1910781 1.618
-0.10319048 0.26004001 2.1670001
-0.09906286 0.26004001 2.1670001
-0.094321907 0.25836 2.1530001
-0.088586673 0.25368002 2.1140001
-0.083520003 0.25056002 2.0880001
-0.079085715 0.24912001 2.0760002
-0.07422667 0.24612001 2.0510001
-0.069908574 0.24468 2.039
-0.064859048 0.24036001 2.003
-0.060342859 0.23760001 1.9800001
-0.055314288 0.23232001 1.9360001
-0.051333334 0.23100001 1.9250001
-0.047419049 0.22980002 1.9150001
-0.04352 0.22848001 1.904
-0.039453335 0.22596 1.8830001
-0.035485715 0.22356001 1.863
-0.031765714 0.22236001 1.853
-0.027931429 0.21996 1.8330001
-0.024320001 0.21888001 1.8240001
-0.020731429 0.21768001 1.8140001
-0.017095238 0.21540001 1.7950001
-0.013539048 0.21324001 1.7770001
-0.010154286 0.21324001 1.7770001
-0.0067352382 0.21216001 1.7680001
-0.0033504763 0.21108001 1.7590001
0 0.21216001 1.7680001
0.0033504763 0.21108001 1.7590001
0.0066666668 0.21000001 1.7500001
0.010000001 0.21000001 1.7500001
0.011779048 0.18552001 1.5460001
0.01472381 0.18552001 1.5460001
0.017668571 0.18552001 1.5460001
0.020613333 0.18552001 1.5460001
0.023451429 0.18468 1.539
0.026382858 0.18468 1.539
0.029314287 0.18468 1.539
0.032245714 0.18468 1.539
0.035017144 0.18384001 1.5320001
0.037935238 0.18384001 1.5320001
0.040853336 0.18384001 1.5320001
0.043771431 0.18384001 1.5320001
0.046689525 0.18384001 1.5320001
0.04960762 0.18384001 1.5320001
0.052525718 0.18384001 1.5320001
0.055190478 0.18300001 1.5250001
0.058095239 0.18300001 1.5250001
0.061000001 0.18300001 1.5250001
0.063904762 0.18300001 1.5250001
0.066809528 0.18300001 1.5250001
0.069714285 0.18300001 1.5250001
0.072619051 0.18300001 1.5250001
0.075870477 0.18384001 1.5320001
0.078788571 0.18384001 1.5320001
0.081706673 0.18384001 1.5320001
0.084624767 0.18384001 1.5320001
0.087542862 0.18384001 1.5320001
0.090460956 0.18384001 1.5320001
0.09337905 0.18384001 1.5320001
0.096297145 0.18384001 1.5320001
0.099215239 0.18384001 1.5320001
0.1026 0.18468 1.539
0.10553143 0.18468 1.539
0.10796953 0.18384001 1.5320001
0.11139429 0.18468 1.539
0.11380572 0.18384001 1.5320001
0.11725715 0.18468 1.539
0.12018858 0.18468 1.539
0.12312 0.18468 1.539
0.12605143 0.18468 1.539
0.12898286 0.18468 1.539
0.13191429 0.18468 1.539
0.13484572 0.18468 1.539
0.13777715 0.18468 1.539
0.14070858 0.18468 1.539
0.14364001 0.18468 1.539
0.14657143 0.18468 1.539
0.14950286 0.18468 1.539
0.15243429 0.18468 1.539
0.15536572 0.18468 1.539
0.15829715 0.18468 1.539
0.16122858 0.18468 1.539
0.16416001 0.18468 1.539
0.16709143 0.18468 1.539
0.17002286 0.18468 1.539
0.17295429 0.18468 1.539
0.17668572 0.18552001 1.5460001
0.17963049 0.18552001 1.5460001
0.18257524 0.18552001 1.5460001
0.18552001 0.18552001 1.5460001
0.18846478 0.18552001 1.5460001
0.19054286 0.18468 1.539
0.19347429 0.18468 1.539
0.19640572 0.18468 1.539
0.20024382 0.18552001 1.5460001
0.20318858 0.18552001 1.5460001
0.20613334 0.18552001 1.5460001
0.2090781 0.18552001 1.5460001
0.21202287 0.18552001 1.5460001
0.21594097 0.18636 1.5530001
0.21889906 0.18636 1.5530001
0.22185715 0.18636 1.5530001
0.22481525 0.18636 1.5530001
0.22777334 0.18636 1.5530001
0.23073144 0.18636 1.5530001
0.23368953 0.18636 1.5530001
0.23664762 0.18636 1.5530001
0.23960572 0.18636 1.5530001
0.24256381 0.18636 1.5530001
0.24552192 0.18636 1.5530001
0.24848001 0.18636 1.5530001
0.25143811 0.18636 1.5530001
0.2543962 0.18636 1.5530001
0.25735429 0.18636 1.5530001
0.26031238 0.18636 1.5530001
0.2632705 0.18636 1.5530001
0.26622859 0.18636 1.5530001
0.26797333 0.18552001 1.5460001
0.27214476 0.18636 1.5530001
0.27510285 0.18636 1.5530001
0.27806097 0.18636 1.5530001
0.28101906 0.18636 1.5530001
0.28397715 0.18636 1.5530001
0.28693524 0.18636 1.5530001
0.29120001 0.18720001 1.5600001
0.29417145 0.18720001 1.5600001
0.29580954 0.18636 1.5530001
0.3001143 0.18720001 1.5600001
0.30308571 0.18720001 1.5600001
0.30605716 0.18720001 1.5600001
0.3090286 0.18720001 1.5600001
0.31200001 0.18720001 1.5600001
0.31497145 0.18720001 1.5600001
0.31794286 0.18720001 1.5600001
0.3209143 0.18720001 1.5600001
0.32388574 0.18720001 1.5600001
0.32685715 0.18720001 1.5600001
0.32982859 0.18720001 1.5600001
0.3328 0.18720001 1.5600001
0.33577144 0.18720001 1.5600001
0.33874288 0.18720001 1.5600001
0.34171429 0.18720001 1.5600001
0.34468573 0.18720001 1.5600001
0.34765714 0.18720001 1.5600001
0.35062858 0.18720001 1.5600001
0.35360003 0.18720001 1.5600001
0.35657144 0.18720001 1.5600001
0.35954288 0.18720001 1.5600001
0.36251429 0.18720001 1.5600001
0.36548573 0.18720001 1.5600001
0.36845717 0.18720001 1.5600001
0.37142858 0.18720001 1.5600001
0.37440002 0.18720001 1.5600001
0.37737143 0.18720001 1.5600001
0.38034287 0.18720001 1.5600001
0.38331431 0.18720001 1.5600001
0.38628572 0.18720001 1.5600001
0.38925716 0.18720001 1.5600001
0.39222857 0.18720001 1.5600001
0.39520001 0.18720001 1.5600001
0.39817145 0.18720001 1.5600001
0.40114287 0.18720001 1.5600001
0.40592763 0.18804 1.567
0.41073906 0.18888001 1.5740001
0.41373715 0.18888001 1.5740001
0.41488191 0.18804 1.567
0.41786668 0.18804 1.567
0.41897145 0.18720001 1.5600001
0.42194286 0.18720001 1.5600001
0.4249143 0.18720001 1.5600001
0.42596573 0.18636 1.5530001
0.43085715 0.18720001 1.5600001
0.43382859 0.18720001 1.5600001
0.4368 0.18720001 1.5600001
0.43977144 0.18720001 1.5600001
0.44274288 0.18720001 1.5600001
0.44571429 0.18720001 1.5600001
0.45069906 0.18804 1.567
0.45368382 0.18804 1.567
0.45666859 0.18804 1.567
0.45760003 0.18720001 1.5600001
0.46057144 0.18720001 1.5600001
0.46562287 0.18804 1.567
0.46860763 0.18804 1.567
0.4715924 0.18804 1.567
0.47457716 0.18804 1.567
0.47969526 0.18888001 1.5740001
0.48269334 0.18888001 1.5740001
0.48569146 0.18888001 1.5740001
0.48868954 0.18888001 1.5740001
0.49168763 0.18888001 1.5740001
0.49468574 0.18888001 1.5740001
0.49768382 0.18888001 1.5740001
0.50068194 0.18888001 1.5740001
0.50367999 0.18888001 1.5740001
0.5066781 0.18888001 1.5740001
0.50967622 0.18888001 1.5740001
0.51267433 0.18888001 1.5740001
0.51567239 0.18888001 1.5740001
0.5186705 0.18888001 1.5740001
0.52166861 0.18888001 1.5740001
0.52466667 0.18888001 1.5740001
0.52766478 0.18888001 1.5740001
0.53066289 0.18888001 1.5740001
0.53366095 0.18888001 1.5740001
0.53665906 0.18888001 1.5740001
0.53965718 0.18888001 1.5740001
0.54265523 0.18888001 1.5740001
0.54565334 0.18888001 1.5740001
0.54865146 0.18888001 1.5740001
0.55164957 0.18888001 1.5740001
0.55464762 0.18888001 1.5740001
0.55764574 0.18888001 1.5740001
0.56064385 0.18888001 1.5740001
0.56364191 0.18888001 1.5740001
0.56916004 0.18972 1.5810001
0.57217145 0.18972 1.5810001
0.57518286 0.18972 1.5810001
0.57819432 0.18972 1.5810001
0.58120573 0.18972 1.5810001
0.58421719 0.18972 1.5810001
0.59020001 0.19068001 1.5890001
0.59024 0.18972 1.5810001
0.59325147 0.18972 1.5810001
0.59928 0.19068001 1.5890001
0.60230666 0.19068001 1.5890001
0.60800004 0.19152001 1.5960001
0.60836005 0.19068001 1.5890001
0.61138672 0.19068001 1.5890001
0.61441338 0.19068001 1.5890001
0.62016004 0.19152001 1.5960001
0.62593335 0.19236001 1.603
0.62898672 0.19236001 1.603
0.63204002 0.19236001 1.603
0.63509333 0.19236001 1.603
0.6381467 0.19236001 1.603
0.64120001 0.19236001 1.603
0.64425337 0.19236001 1.603
0.64730668 0.19236001 1.603
0.65036005 0.19236001 1.603
0.65341336 0.19236001 1.603
0.65646666 0.19236001 1.603
0.65952003 0.19236001 1.603
0.66257334 0.19236001 1.603
0.66272002 0.19152001 1.5960001
0.66576004 0.19152001 1.5960001
0.6688 0.19152001 1.5960001
0.67184001 0.19152001 1.5960001
0.67488003 0.19152001 1.5960001
0.68089336 0.19236001 1.603
0.68394667 0.19236001 1.603
0.68700004 0.19236001 1.603
0.69005334 0.19236001 1.603
0.69310671 0.19236001 1.603
0.69616002 0.19236001 1.603
0.69921339 0.19236001 1.603
0.70226669 0.19236001 1.603
0.70532 0.19236001 1.603
0.70837337 0.19236001 1.603
0.71142668 0.19236001 1.603
0.71448004 0.19236001 1.603
0.71753335 0.19236001 1.603
0.72058672 0.19236001 1.603
0.72364002 0.19236001 1.603
0.73032004 0.19332001 1.6110001
0.7333886 0.19332001 1.6110001
0.73965716 0.19416001 1.618
0.74273908 0.19416001 1.618
0.745821 0.19416001 1.618
0.74890286 0.19416001 1.618
0.75198478 0.19416001 1.618
0.7518 0.19332001 1.6110001
0.75486863 0.19332001 1.6110001
0.75793719 0.19332001 1.6110001
0.76100576 0.19332001 1.6110001
0.7673943 0.19416001 1.618
0.77047622 0.19416001 1.618
0.77355814 0.19416001 1.618
0.77664006 0.19416001 1.618
0.78357714 0.19512001 1.626
0.78667432 0.19512001 1.626
0.78977144 0.19512001 1.626
0.78896767 0.19416001 1.618
0.79204953 0.19416001 1.618
0.79513144 0.19416001 1.618
0.79821336 0.19416001 1.618
0.80129528 0.19416001 1.618
-0.098422863 0.26246098 2.1530001
-0.093752384 0.26087621 2.1400001
-0.088586673 0.25770667 2.1140001
-0.083520003 0.25453717 2.0880001
-0.079085715 0.25307429 2.0760002
-0.07422667 0.25002667 2.0510001
-0.069908574 0.24856383 2.039
-0.064502858 0.2428343 1.9920001
-0.059001908 0.23600763 1.9360001
-0.055000003 0.23466668 1.9250001
-0.051333334 0.23466668 1.9250001
-0.047419049 0.23344763 1.9150001
-0.04352 0.23210667 1.904
-0.03924381 0.22832763 1.8730001
-0.035485715 0.22710858 1.863
-0.031765714 0.22588953 1.853
-0.027794287 0.22235429 1.8240001
-0.024186667 0.22113524 1.8140001
-0.020617144 0.21991619 1.8040001
-0.016923809 0.21662477 1.7770001
-0.013470476 0.21552762 1.7680001
-0.010102858 0.21552762 1.7680001
-0.0067009525 0.21443048 1.7590001
-0.0033333334 0.21333334 1.7500001
0 0.21443048 1.7590001
0.0033333334 0.21333334 1.7500001
0.0066323811 0.2122362 1.7410001
0.0099485721 0.2122362 1.7410001
0.011779048 0.18846478 1.5460001
0.01472381 0.18846478 1.5460001
0.017668571 0.18846478 1.5460001
0.020613333 0.18846478 1.5460001
0.023451429 0.18761143 1.539
0.026382858 0.18761143 1.539
0.029314287 0.18761143 1.539
0.032245714 0.18761143 1.539
0.035017144 0.1867581 1.5320001
0.037935238 0.1867581 1.5320001
0.040853336 0.1867581 1.5320001
0.043771431 0.1867581 1.5320001
0.046689525 0.1867581 1.5320001
0.04960762 0.1867581 1.5320001
0.052525718 0.1867581 1.5320001
0.055190478 0.18590477 1.5250001
0.058095239 0.18590477 1.5250001
0.061000001 0.18590477 1.5250001
0.063904762 0.18590477 1.5250001
0.066809528 0.18590477 1.5250001
0.069714285 0.18590477 1.5250001
0.072619051 0.18590477 1.5250001
0.075870477 0.1867581 1.5320001
0.078788571 0.1867581 1.5320001
0.081706673 0.1867581 1.5320001
0.084624767 0.1867581 1.5320001
0.087542862 0.1867581 1.5320001
0.090460956 0.1867581 1.5320001
0.092952386 0.18590477 1.5250001
0.096297145 0.1867581 1.5320001
0.099215239 0.1867581 1.5320001
0.1026 0.18761143 1.539
0.10553143 0.18761143 1.539
0.10846286 0.18761143 1.539
0.11139429 0.18761143 1.539
0.11432572 0.18761143 1.539
0.11725715 0.18761143 1.539
0.12018858 0.18761143 1.539
0.12312 0.18761143 1.539
0.12605143 0.18761143 1.539
0.12898286 0.18761143 1.539
0.13191429 0.18761143 1.539
0.13484572 0.18761143 1.539
0.13777715 0.18761143 1.539
0.14070858 0.18761143 1.539
0.14364001 0.18761143 1.539
0.14657143 0.18761143 1.539
0.14950286 0.18761143 1.539
0.15243429 0.18761143 1.539
0.15536572 0.18761143 1.539
0.15829715 0.18761143 1.539
0.16122858 0.18761143 1.539
0.16416001 0.18761143 1.539
0.16785143 0.18846478 1.5460001
0.1707962 0.18846478 1.5460001
0.17374095 0.18846478 1.5460001
0.17668572 0.18846478 1.5460001
0.17963049 0.18846478 1.5460001
0.18257524 0.18846478 1.5460001
0.18552001 0.18846478 1.5460001
0.18846478 0.18846478 1.5460001
0.19054286 0.18761143 1.539
0.19347429 0.18761143 1.539
0.19640572 0.18761143 1.539
0.20024382 0.18846478 1.5460001
0.20318858 0.18846478 1.5460001
0.20613334 0.18846478 1.5460001
0.2090781 0.18846478 1.5460001
0.21202287 0.18846478 1.5460001
0.21594097 0.18931811 1.5530001
0.21889906 0.18931811 1.5530001
0.22185715 0.18931811 1.5530001
0.22481525 0.18931811 1.5530001
0.22777334 0.18931811 1.5530001
0.23073144 0.18931811 1.5530001
0.23368953 0.18931811 1.5530001
0.23664762 0.18931811 1.5530001
0.23960572 0.18931811 1.5530001
0.24256381 0.18931811 1.5530001
0.24552192 0.18931811 1.5530001
0.24848001 0.18931811 1.5530001
0.25143811 0.18931811 1.5530001
0.2543962 0.18931811 1.5530001
0.25735429 0.18931811 1.5530001
0.26031238 0.18931811 1.5530001
0.2632705 0.18931811 1.5530001
0.26622859 0.18931811 1.5530001
0.26797333 0.18846478 1.5460001
0.27214476 0.18931811 1.5530001
0.27510285 0.18931811 1.5530001
0.27806097 0.18931811 1.5530001
0.28101906 0.18931811 1.5530001
0.28397715 0.18931811 1.5530001
0.28693524 0.18931811 1.5530001
0.29120001 0.19017144 1.5600001
0.29417145 0.19017144 1.5600001
0.29714286 0.19017144 1.5600001
0.3001143 0.19017144 1.5600001
0.30308571 0.19017144 1.5600001
0.30605716 0.19017144 1.5600001
0.3090286 0.19017144 1.5600001
0.31200001 0.19017144 1.5600001
0.31497145 0.19017144 1.5600001
0.31794286 0.19017144 1.5600001
0.3209143 0.19017144 1.5600001
0.32388574 0.19017144 1.5600001
0.32685715 0.19017144 1.5600001
0.32982859 0.19017144 1.5600001
0.3328 0.19017144 1.5600001
0.33577144 0.19017144 1.5600001
0.33874288 0.19017144 1.5600001
0.34171429 0.19017144 1.5600001
0.34468573 0.19017144 1.5600001
0.34765714 0.19017144 1.5600001
0.35220191 0.19102477 1.567
0.35360003 0.19017144 1.5600001
0.35817143 0.19102477 1.567
0.35954288 0.19017144 1.5600001
0.36251429 0.19017144 1.5600001
0.36548573 0.19017144 1.5600001
0.36845717 0.19017144 1.5600001
0.37142858 0.19017144 1.5600001
0.37440002 0.19017144 1.5600001
0.37737143 0.19017144 1.5600001
0.38034287 0.19017144 1.5600001
0.38331431 0.19017144 1.5600001
0.38628572 0.19017144 1.5600001
0.38925716 0.19017144 1.5600001
0.39222857 0.19017144 1.5600001
0.39520001 0.19017144 1.5600001
0.39817145 0.19017144 1.5600001
0.40114287 0.19017144 1.5600001
0.40592763 0.19102477 1.567
0.41073906 0.1918781 1.5740001
0.41373715 0.1918781 1.5740001
0.41673526 0.1918781 1.5740001
0.41973335 0.1918781 1.5740001
0.41897145 0.19017144 1.5600001
0.42194286 0.19017144 1.5600001
0.4249143 0.19017144 1.5600001
0.42788574 0.19017144 1.5600001
0.43085715 0.19017144 1.5600001
0.43382859 0.19017144 1.5600001
0.43876001 0.19102477 1.567
0.44174477 0.19102477 1.567
0.44472954 0.19102477 1.567
0.4477143 0.19102477 1.567
0.45069906 0.19102477 1.567
0.45368382 0.19102477 1.567
0.45666859 0.19102477 1.567
0.45965335 0.19102477 1.567
0.46057144 0.19017144 1.5600001
0.46562287 0.19102477 1.567
0.46860763 0.19102477 1.567
0.4715924 0.19102477 1.567
0.47457716 0.19102477 1.567
0.47969526 0.1918781 1.5740001
0.48269334 0.1918781 1.5740001
0.48569146 0.1918781 1.5740001
0.48868954 0.1918781 1.5740001
0.49168763 0.1918781 1.5740001
0.49468574 0.1918781 1.5740001
0.49768382 0.1918781 1.5740001
0.50068194 0.1918781 1.5740001
0.50367999 0.1918781 1.5740001
0.5066781 0.1918781 1.5740001
0.50967622 0.1918781 1.5740001
0.51267433 0.1918781 1.5740001
0.51567239 0.1918781 1.5740001
0.5186705 0.1918781 1.5740001
0.52166861 0.1918781 1.5740001
0.52466667 0.1918781 1.5740001
0.52766478 0.1918781 1.5740001
0.53066289 0.1918781 1.5740001
0.53366095 0.1918781 1.5740001
0.53665906 0.1918781 1.5740001
0.53965718 0.1918781 1.5740001
0.54265523 0.1918781 1.5740001
0.54565334 0.1918781 1.5740001
0.54865146 0.1918781 1.5740001
0.5541029 0.19273144 1.5810001
0.55464762 0.1918781 1.5740001
0.56012571 0.19273144 1.5810001
0.56064385 0.1918781 1.5740001
0.56614858 0.19273144 1.5810001
0.56916004 0.19273144 1.5810001
0.57217145 0.19273144 1.5810001
0.57518286 0.19273144 1.5810001
0.57819432 0.19273144 1.5810001
0.58120573 0.19273144 1.5810001
0.58717334 0.19370668 1.5890001
0.59020001 0.19370668 1.5890001
0.59024 0.19273144 1.5810001
0.59325147 0.19273144 1.5810001
0.59626287 0.19273144 1.5810001
0.59927434 0.19273144 1.5810001
0.60800004 0.19456001 1.5960001
0.61104 0.19456001 1.5960001
0.61138672 0.19370668 1.5890001
0.61441338 0.19370668 1.5890001
0.62016004 0.19456001 1.5960001
0.62593335 0.19541334 1.603
0.62898672 0.19541334 1.603
0.63204002 0.19541334 1.603
0.63509333 0.19541334 1.603
0.6381467 0.19541334 1.603
0.64120001 0.19541334 1.603
0.64425337 0.19541334 1.603
0.64730668 0.19541334 1.603
0.65036005 0.19541334 1.603
0.65341336 0.19541334 1.603
0.65646666 0.19541334 1.603
0.65952003 0.19541334 1.603
0.66257334 0.19541334 1.603
0.66272002 0.19456001 1.5960001
0.66576004 0.19456001 1.5960001
0.6688 0.19456001 1.5960001
0.67184001 0.19456001 1.5960001
0.67488003 0.19456001 1.5960001
0.68089336 0.19541334 1.603
0.68394667 0.19541334 1.603
0.68700004 0.19541334 1.603
0.69005334 0.19541334 1.603
0.69310671 0.19541334 1.603
0.69616002 0.19541334 1.603
0.69921339 0.19541334 1.603
0.70226669 0.19541334 1.603
0.70532 0.19541334 1.603
0.70837337 0.19541334 1.603
0.71142668 0.19541334 1.603
0.71448004 0.19541334 1.603
0.71753335 0.19541334 1.603
0.72058672 0.19541334 1.603
0.72364002 0.19541334 1.603
0.73032004 0.19638857 1.6110001
0.73657525 0.19724192 1.618
0.73965716 0.19724192 1.618
0.74273908 0.19724192 1.618
0.745821 0.19724192 1.618
0.74890286 0.19724192 1.618
0.75198478 0.19724192 1.618
0.7518 0.19638857 1.6110001
0.75486863 0.19638857 1.6110001
0.75793719 0.19638857 1.6110001
0.76100576 0.19638857 1.6110001
0.76407433 0.19638857 1.6110001
0.77047622 0.19724192 1.618
0.77355814 0.19724192 1.618
0.78048003 0.19821715 1.626
0.78357714 0.19821715 1.626
0.78667432 0.19821715 1.626
0.78977144 0.19821715 1.626
0.78896767 0.19724192 1.618
0.79204953 0.19724192 1.618
0.79513144 0.19724192 1.618
0.79821336 0.19724192 1.618
0.80129528 0.19724192 1.618
-0.09906286 0.26829526 2.1670001
-0.093752384 0.26495239 2.1400001
-0.088586673 0.26173335 2.1140001
-0.083520003 0.25851429 2.0880001
-0.079085715 0.25702858 2.0760002
-0.07422667 0.25393334 2.0510001
-0.069497146 0.2509619 2.0270002
-0.064114287 0.24514286 1.9800001
-0.059001908 0.23969525 1.9360001
-0.055000003 0.23833334 1.9250001
-0.051066667 0.23709525 1.9150001
-0.047146667 0.23573335 1.904
-0.043291431 0.23449525 1.8940001
-0.03924381 0.23189525 1.8730001
-0.035485715 0.23065715 1.863
-0.031594288 0.22818096 1.8430001
-0.027794287 0.22582857 1.8240001
-0.024186667 0.22459048 1.8140001
-0.020514287 0.22223811 1.7950001
-0.016838096 0.21889524 1.7680001
-0.013401905 0.21778096 1.7590001
-0.010051429 0.21778096 1.7590001
-0.0066666668 0.21666667 1.7500001
-0.0033161906 0.21555239 1.7410001
0 0.21666667 1.7500001
0.0032990477 0.2144381 1.7320001
0.0065980954 0.2144381 1.7320001
0.009845715 0.21332382 1.723
0.011779048 0.19140953 1.5460001
0.01472381 0.19140953 1.5460001
0.017668571 0.19140953 1.5460001
0.020613333 0.19140953 1.5460001
0.023451429 0.19054286 1.539
0.026382858 0.19054286 1.539
0.029314287 0.19054286 1.539
0.032245714 0.19054286 1.539
0.035017144 0.1896762 1.5320001
0.037935238 0.1896762 1.5320001
0.040853336 0.1896762 1.5320001
0.043771431 0.1896762 1.5320001
0.046689525 0.1896762 1.5320001
0.04960762 0.1896762 1.5320001
0.052285716 0.18880953 1.5250001
0.055190478 0.18880953 1.5250001
0.058095239 0.18880953 1.5250001
0.061000001 0.18880953 1.5250001
0.064198099 0.1896762 1.5320001
0.067116193 0.1896762 1.5320001
0.070034288 0.1896762 1.5320001
0.072952382 0.1896762 1.5320001
0.075870477 0.1896762 1.5320001
0.078788571 0.1896762 1.5320001
0.081706673 0.1896762 1.5320001
0.084624767 0.1896762 1.5320001
0.087542862 0.1896762 1.5320001
0.090460956 0.1896762 1.5320001
0.09337905 0.1896762 1.5320001
0.096297145 0.1896762 1.5320001
0.099215239 0.1896762 1.5320001
0.1026 0.19054286 1.539
0.10553143 0.19054286 1.539
0.10846286 0.19054286 1.539
0.11139429 0.19054286 1.539
0.11432572 0.19054286 1.539
0.11725715 0.19054286 1.539
0.12018858 0.19054286 1.539
0.12368 0.19140953 1.5460001
0.12605143 0.19054286 1.539
0.12898286 0.19054286 1.539
0.13191429 0.19054286 1.539
0.13484572 0.19054286 1.539
0.13777715 0.19054286 1.539
0.14070858 0.19054286 1.539
0.14364001 0.19054286 1.539
0.14657143 0.19054286 1.539
0.14950286 0.19054286 1.539
0.15243429 0.19054286 1.539
0.15536572 0.19054286 1.539
0.15829715 0.19054286 1.539
0.16196191 0.19140953 1.5460001
0.16490667 0.19140953 1.5460001
0.16785143 0.19140953 1.5460001
0.1707962 0.19140953 1.5460001
0.17374095 0.19140953 1.5460001
0.17668572 0.19140953 1.5460001
0.17963049 0.19140953 1.5460001
0.18257524 0.19140953 1.5460001
0.18552001 0.19140953 1.5460001
0.18846478 0.19140953 1.5460001
0.19054286 0.19054286 1.539
0.19347429 0.19054286 1.539
0.19640572 0.19054286 1.539
0.20024382 0.19140953 1.5460001
0.20318858 0.19140953 1.5460001
0.20613334 0.19140953 1.5460001
0.2090781 0.19140953 1.5460001
0.21202287 0.19140953 1.5460001
0.21496762 0.19140953 1.5460001
0.21889906 0.19227619 1.5530001
0.22185715 0.19227619 1.5530001
0.22481525 0.19227619 1.5530001
0.22777334 0.19227619 1.5530001
0.23073144 0.19227619 1.5530001
0.23368953 0.19227619 1.5530001
0.23664762 0.19227619 1.5530001
0.23960572 0.19227619 1.5530001
0.24256381 0.19227619 1.5530001
0.24552192 0.19227619 1.5530001
0.24848001 0.19227619 1.5530001
0.25143811 0.19227619 1.5530001
0.2543962 0.19227619 1.5530001
0.25735429 0.19227619 1.5530001
0.26031238 0.19227619 1.5530001
0.2632705 0.19227619 1.5530001
0.26622859 0.19227619 1.5530001
0.26918668 0.19227619 1.5530001
0.27214476 0.19227619 1.5530001
0.27510285 0.19227619 1.5530001
0.27806097 0.19227619 1.5530001
0.28101906 0.19227619 1.5530001
0.28397715 0.19227619 1.5530001
0.28693524 0.19227619 1.5530001
0.28989333 0.19227619 1.5530001
0.29285145 0.19227619 1.5530001
0.29580954 0.19227619 1.5530001
0.29876763 0.19227619 1.5530001
0.30308571 0.19314286 1.5600001
0.30605716 0.19314286 1.5600001
0.3090286 0.19314286 1.5600001
0.31200001 0.19314286 1.5600001
0.31497145 0.19314286 1.5600001
0.31794286 0.19314286 1.5600001
0.3209143 0.19314286 1.5600001
0.32388574 0.19314286 1.5600001
0.32685715 0.19314286 1.5600001
0.32982859 0.19314286 1.5600001
0.3328 0.19314286 1.5600001
0.33577144 0.19314286 1.5600001
0.33874288 0.19314286 1.5600001
0.34171429 0.19314286 1.5600001
0.34468573 0.19314286 1.5600001
0.34765714 0.19314286 1.5600001
0.35220191 0.19400953 1.567
0.35518667 0.19400953 1.567
0.35817143 0.19400953 1.567
0.35954288 0.19314286 1.5600001
0.36251429 0.19314286 1.5600001
0.36548573 0.19314286 1.5600001
0.36845717 0.19314286 1.5600001
0.37142858 0.19314286 1.5600001
0.37440002 0.19314286 1.5600001
0.37737143 0.19314286 1.5600001
0.38034287 0.19314286 1.5600001
0.38331431 0.19314286 1.5600001
0.38628572 0.19314286 1.5600001
0.38925716 0.19314286 1.5600001
0.39222857 0.19314286 1.5600001
0.39520001 0.19314286 1.5600001
0.39817145 0.19314286 1.5600001
0.40294287 0.19400953 1.567
0.40592763 0.19400953 1.567
0.41073906 0.19487619 1.5740001
0.41373715 0.19487619 1.5740001
0.41673526 0.19487619 1.5740001
0.41973335 0.19487619 1.5740001
0.41897145 0.19314286 1.5600001
0.4238362 0.19400953 1.567
0.42682096 0.19400953 1.567
0.42788574 0.19314286 1.5600001
0.43085715 0.19314286 1.5600001
0.43577525 0.19400953 1.567
0.43876001 0.19400953 1.567
0.44174477 0.19400953 1.567
0.44472954 0.19400953 1.567
0.4477143 0.19400953 1.567
0.45069906 0.19400953 1.567
0.45165715 0.19314286 1.5600001
0.45462859 0.19314286 1.5600001
0.45760003 0.19314286 1.5600001
0.46057144 0.19314286 1.5600001
0.46354288 0.19314286 1.5600001
0.46651429 0.19314286 1.5600001
0.46948573 0.19314286 1.5600001
0.47457716 0.19400953 1.567
0.47756192 0.19400953 1.567
0.48269334 0.19487619 1.5740001
0.48569146 0.19487619 1.5740001
0.48868954 0.19487619 1.5740001
0.49168763 0.19487619 1.5740001
0.49468574 0.19487619 1.5740001
0.49768382 0.19487619 1.5740001
0.50068194 0.19487619 1.5740001
0.50367999 0.19487619 1.5740001
0.5066781 0.19487619 1.5740001
0.50967622 0.19487619 1.5740001
0.51267433 0.19487619 1.5740001
0.51567239 0.19487619 1.5740001
0.5186705 0.19487619 1.5740001
0.52166861 0.19487619 1.5740001
0.52466667 0.19487619 1.5740001
0.52766478 0.19487619 1.5740001
0.53066289 0.19487619 1.5740001
0.53874671 0.19673334 1.5890001
0.53665906 0.19487619 1.5740001
0.53965718 0.19487619 1.5740001
0.54265523 0.19487619 1.5740001
0.54565334 0.19487619 1.5740001
0.55109143 0.19574286 1.5810001
0.5541029 0.19574286 1.5810001
0.5571143 0.19574286 1.5810001
0.56012571 0.19574286 1.5810001
0.56313717 0.19574286 1.5810001
0.56614858 0.19574286 1.5810001
0.56916004 0.19574286 1.5810001
0.57217145 0.19574286 1.5810001
0.57518286 0.19574286 1.5810001
0.58112001 0.19673334 1.5890001
0.58414668 0.19673334 1.5890001
0.58717334 0.19673334 1.5890001
0.59020001 0.19673334 1.5890001
0.59322667 0.19673334 1.5890001
0.59325147 0.19574286 1.5810001
0.59626287 0.19574286 1.5810001
0.60230666 0.19673334 1.5890001
0.60533333 0.19673334 1.5890001
0.60836005 0.19673334 1.5890001
0.61138672 0.19673334 1.5890001
0.61441338 0.19673334 1.5890001
0.62016004 0.19760001 1.5960001
0.62593335 0.19846667 1.603
0.62898672 0.19846667 1.603
0.63204002 0.19846667 1.603
0.63509333 0.19846667 1.603
0.6381467 0.19846667 1.603
0.64120001 0.19846667 1.603
0.64425337 0.19846667 1.603
0.64730668 0.19846667 1.603
0.65036005 0.19846667 1.603
0.65341336 0.19846667 1.603
0.65646666 0.19846667 1.603
0.65952003 0.19846667 1.603
0.66257334 0.19846667 1.603
0.66272002 0.19760001 1.5960001
0.66868001 0.19846667 1.603
0.67173338 0.19846667 1.603
0.67478669 0.19846667 1.603
0.67784005 0.19846667 1.603
0.68089336 0.19846667 1.603
0.68394667 0.19846667 1.603
0.68700004 0.19846667 1.603
0.69005334 0.19846667 1.603
0.69310671 0.19846667 1.603
0.69616002 0.19846667 1.603
0.69921339 0.19846667 1.603
0.70226669 0.19846667 1.603
0.70532 0.19846667 1.603
0.70837337 0.19846667 1.603
0.71142668 0.19846667 1.603
0.71448004 0.19846667 1.603
0.71753335 0.19846667 1.603
0.72058672 0.19846667 1.603
0.72725147 0.19945715 1.6110001
0.73032004 0.19945715 1.6110001
0.73657525 0.20032382 1.618
0.73965716 0.20032382 1.618
0.74273908 0.20032382 1.618
0.745821 0.20032382 1.618
0.74890286 0.20032382 1.618
0.74873143 0.19945715 1.6110001
0.7518 0.19945715 1.6110001
0.75486863 0.19945715 1.6110001
0.75793719 0.19945715 1.6110001
0.76100576 0.19945715 1.6110001
0.76407433 0.19945715 1.6110001
0.77047622 0.20032382 1.618
0.77355814 0.20032382 1.618
0.77664006 0.20032382 1.618
0.78357714 0.2013143 1.626
0.78280383 0.20032382 1.618
0.78588575 0.20032382 1.618
0.78555429 0.19945715 1.6110001
0.78862292 0.19945715 1.6110001
0.79169148 0.19945715 1.6110001
0.79821336 0.20032382 1.618
0.80129528 0.20032382 1.618
-0.09906286 0.27242288 2.1670001
-0.092613339 0.26576 2.1140001
-0.088586673 0.26576 2.1140001
-0.082520001 0.25934857 2.0630002
-0.078590482 0.25934857 2.0630002
-0.07422667 0.25784001 2.0510001
-0.069497146 0.25482288 2.0270002
-0.062689528 0.24338287 1.9360001
-0.058666669 0.24200001 1.9250001
-0.054714289 0.24074286 1.9150001
-0.051066667 0.24074286 1.9150001
-0.047146667 0.23936 1.904
-0.04304 0.23672001 1.8830001
-0.039034288 0.23420572 1.863
-0.035295241 0.23294859 1.853
-0.031594288 0.23169143 1.8430001
-0.027641905 0.22804572 1.8140001
-0.024053333 0.22678858 1.8040001
-0.02041143 0.22452572 1.7860001
-0.016838096 0.22226286 1.7680001
-0.013401905 0.22113144 1.7590001
-0.0099485721 0.21886858 1.7410001
-0.0065980954 0.21773715 1.7320001
-0.0032819049 0.21660572 1.723
0 0.21660572 1.723
0.0032666668 0.21560001 1.715
0.0065333336 0.21560001 1.715
0.0087942863 0.19347429 1.539
0.011725714 0.19347429 1.539
0.01472381 0.1943543 1.5460001
0.017668571 0.1943543 1.5460001
0.020613333 0.1943543 1.5460001
0.023451429 0.19347429 1.539
0.026382858 0.19347429 1.539
0.029180953 0.19259429 1.5320001
0.03209905 0.19259429 1.5320001
0.035017144 0.19259429 1.5320001
0.037935238 0.19259429 1.5320001
0.040853336 0.19259429 1.5320001
0.043571431 0.19171429 1.5250001
0.046689525 0.19259429 1.5320001
0.04960762 0.19259429 1.5320001
0.052285716 0.19171429 1.5250001
0.055190478 0.19171429 1.5250001
0.058095239 0.19171429 1.5250001
0.061000001 0.19171429 1.5250001
0.064198099 0.19259429 1.5320001
0.067116193 0.19259429 1.5320001
0.070034288 0.19259429 1.5320001
0.072952382 0.19259429 1.5320001
0.075870477 0.19259429 1.5320001
0.078788571 0.19259429 1.5320001
0.081706673 0.19259429 1.5320001
0.084624767 0.19259429 1.5320001
0.087542862 0.19259429 1.5320001
0.090460956 0.19259429 1.5320001
0.09337905 0.19259429 1.5320001
0.096297145 0.19259429 1.5320001
0.099668577 0.19347429 1.539
0.1026 0.19347429 1.539
0.10553143 0.19347429 1.539
