# .PCD v0.7 - Point Cloud Data file format
VERSION 0.7
FIELDS x y z
SIZE 4 4 4
TYPE F F F
COUNT 1 1 1
WIDTH 1535
HEIGHT 1
VIEWPOINT 0 0 0 1 0 0 0
POINTS 1535
DATA ascii
-0.85360003 0.32702857 1.455
-0.85082859 0.32702857 1.455
-0.85155433 0.32837716 1.4610001
-0.84877145 0.32837716 1.4610001
-0.84598863 0.32837716 1.4610001
-0.84320575 0.32837716 1.4610001
-0.84042287 0.32837716 1.4610001
-0.84108001 0.32972571 1.4670001
-0.83828574 0.32972571 1.4670001
-0.84289527 0.33264762 1.48
-0.84348196 0.33399621 1.4860001
-0.84065145 0.33399621 1.4860001
-0.84120387 0.33534476 1.4920001
-0.83836192 0.33534476 1.4920001
-0.84336001 0.33849144 1.506
-0.84049147 0.33849144 1.506
-0.83762288 0.33849144 1.506
-0.84196001 0.34141335 1.5190001
-0.83906668 0.34141335 1.5190001
-0.83947623 0.3427619 1.5250001
-0.84041148 0.34433526 1.5320001
-0.84132004 0.34590858 1.539
-0.84220195 0.34748191 1.5460001
-0.84685719 0.35062858 1.5600001
-0.85145909 0.35377526 1.5740001
-0.8565467 0.35714668 1.5890001
-0.85352004 0.35714668 1.5890001
-0.85424006 0.35872 1.5960001
-0.85120004 0.35872 1.5960001
-0.85188001 0.36029336 1.603
-0.84882671 0.36029336 1.603
-0.85125148 0.32572001 1.437
-0.85205716 0.32708001 1.4430001
-0.85284001 0.32844001 1.4490001
-0.85360003 0.32980001 1.455
-0.85082859 0.32980001 1.455
-0.84805715 0.32980001 1.455
-0.84528577 0.32980001 1.455
-0.84598863 0.33116001 1.4610001
-0.84320575 0.33116001 1.4610001
-0.84387434 0.33252001 1.4670001
-0.84108001 0.33252001 1.4670001
-0.84171432 0.33388001 1.473
-0.84289527 0.33546668 1.48
-0.84348196 0.33682668 1.4860001
-0.84065145 0.33682668 1.4860001
-0.84120387 0.33818668 1.4920001
-0.83836192 0.33818668 1.4920001
-0.84336001 0.34136 1.506
-0.84384 0.34272 1.5120001
-0.84096003 0.34272 1.5120001
-0.83808005 0.34272 1.5120001
-0.83906668 0.34430668 1.5190001
-0.83947623 0.34566668 1.5250001
-0.84041148 0.34725335 1.5320001
-0.84514672 0.35042667 1.5460001
-0.84601527 0.35201335 1.5530001
-0.84685719 0.35360003 1.5600001
-0.85145909 0.35677335 1.5740001
-0.8565467 0.36017334 1.5890001
-0.85352004 0.36017334 1.5890001
-0.85424006 0.36176002 1.5960001
-0.85120004 0.36176002 1.5960001
-0.85188001 0.36334667 1.603
-0.84882671 0.36334667 1.603
-0.85480577 0.32982859 1.4430001
-0.85205716 0.32982859 1.4430001
-0.84930861 0.32982859 1.4430001
-0.85008001 0.3312 1.4490001
-0.85082859 0.33257145 1.455
-0.84805715 0.33257145 1.455
-0.84528577 0.33257145 1.455
-0.84598863 0.33394286 1.4610001
-0.84320575 0.33394286 1.4610001
-0.84387434 0.3353143 1.4670001
-0.84108001 0.3353143 1.4670001
-0.84171432 0.33668572 1.473
-0.84289527 0.33828571 1.48
-0.84348196 0.33965716 1.4860001
-0.84065145 0.33965716 1.4860001
-0.84120387 0.34102857 1.4920001
-0.83836192 0.34102857 1.4920001
-0.84336001 0.3442286 1.506
-0.84049147 0.3442286 1.506
-0.84096003 0.34560001 1.5120001
-0.84196001 0.34720001 1.5190001
-0.83906668 0.34720001 1.5190001
-0.83947623 0.34857145 1.5250001
-0.84425145 0.35177144 1.539
-0.84897339 0.35497144 1.5530001
-0.84601527 0.35497144 1.5530001
-0.84685719 0.35657144 1.5600001
-0.85145909 0.35977143 1.5740001
-0.8522343 0.36137143 1.5810001
-0.8492229 0.36137143 1.5810001
-0.85049337 0.36320001 1.5890001
-0.85493338 0.3664 1.603
-0.85613143 0.36822858 1.6110001
-0.85676956 0.36982858 1.618
-0.85368764 0.36982858 1.618
-0.85125148 0.33119431 1.437
-0.84851432 0.33119431 1.437
-0.84930861 0.33257717 1.4430001
-0.85008001 0.33396003 1.4490001
-0.85082859 0.33534288 1.455
-0.84805715 0.33534288 1.455
-0.84528577 0.33534288 1.455
-0.84598863 0.33672571 1.4610001
-0.84320575 0.33672571 1.4610001
-0.84387434 0.33810857 1.4670001
-0.84108001 0.33810857 1.4670001
-0.84171432 0.33949143 1.473
-0.84289527 0.34110478 1.48
-0.84007621 0.34110478 1.48
-0.84065145 0.34248763 1.4860001
-0.84120387 0.34387049 1.4920001
-0.84229529 0.34548381 1.4990001
-0.84336001 0.34709716 1.506
-0.84049147 0.34709716 1.506
-0.84096003 0.34848002 1.5120001
-0.84196001 0.35009333 1.5190001
-0.83906668 0.35009333 1.5190001
-0.83947623 0.35147619 1.5250001
-0.84425145 0.35470286 1.539
-0.84897339 0.35792953 1.5530001
-0.8498286 0.35954288 1.5600001
-0.85065717 0.3611562 1.567
-0.85145909 0.36276954 1.5740001
-0.8522343 0.36438286 1.5810001
-0.8492229 0.36438286 1.5810001
-0.85424006 0.36784002 1.5960001
-0.85493338 0.36945334 1.603
-0.85613143 0.37129715 1.6110001
-0.85676956 0.3729105 1.618
-0.85368764 0.3729105 1.618
-0.85125148 0.33393145 1.437
-0.84851432 0.33393145 1.437
-0.84930861 0.33532572 1.4430001
-0.85008001 0.33672002 1.4490001
-0.84732002 0.33672002 1.4490001
-0.84805715 0.33811429 1.455
-0.84528577 0.33811429 1.455
-0.84598863 0.33950859 1.4610001
-0.84320575 0.33950859 1.4610001
-0.84387434 0.34090286 1.4670001
-0.84452003 0.34229717 1.473
-0.84571433 0.34392384 1.48
-0.84289527 0.34392384 1.48
-0.84348196 0.34531811 1.4860001
-0.84065145 0.34531811 1.4860001
-0.84120387 0.34671238 1.4920001
-0.84229529 0.34833905 1.4990001
-0.84336001 0.34996572 1.506
-0.84049147 0.34996572 1.506
-0.84096003 0.35136002 1.5120001
-0.83808005 0.35136002 1.5120001
-0.83906668 0.35298669 1.5190001
-0.83947623 0.35438097 1.5250001
-0.84425145 0.35763431 1.539
-0.84897339 0.36088765 1.5530001
-0.8498286 0.36251429 1.5600001
-0.85065717 0.36414096 1.567
-0.85145909 0.36576763 1.5740001
-0.8522343 0.3673943 1.5810001
-0.8492229 0.3673943 1.5810001
-0.85424006 0.37088001 1.5960001
-0.85493338 0.37250668 1.603
-0.85188001 0.37250668 1.603
-0.84882671 0.37250668 1.603
-0.84577334 0.37250668 1.603
-0.85480577 0.3380743 1.4430001
-0.85205716 0.3380743 1.4430001
-0.84930861 0.3380743 1.4430001
-0.85360003 0.34088573 1.455
-0.84732002 0.33948001 1.4490001
-0.84805715 0.34088573 1.455
-0.84528577 0.34088573 1.455
-0.84598863 0.34229144 1.4610001
-0.84320575 0.34229144 1.4610001
-0.84732574 0.34510288 1.473
-0.84853339 0.34674287 1.48
-0.84571433 0.34674287 1.48
-0.84289527 0.34674287 1.48
-0.84348196 0.34814858 1.4860001
-0.84065145 0.34814858 1.4860001
-0.84120387 0.3495543 1.4920001
-0.8462286 0.35283428 1.506
-0.84336001 0.35283428 1.506
-0.84049147 0.35283428 1.506
-0.84096003 0.35424 1.5120001
-0.83808005 0.35424 1.5120001
-0.83906668 0.35588002 1.5190001
-0.83947623 0.35728574 1.5250001
-0.84041148 0.35892573 1.5320001
-0.84132004 0.36056572 1.539
-0.84601527 0.36384574 1.5530001
-0.84685719 0.36548573 1.5600001
-0.8476724 0.36712572 1.567
-0.84846097 0.36876574 1.5740001
-0.8492229 0.37040573 1.5810001
-0.85424006 0.37392002 1.5960001
-0.85120004 0.37392002 1.5960001
-0.84816003 0.37392002 1.5960001
-0.84512001 0.37392002 1.5960001
-0.84208006 0.37392002 1.5960001
-0.85125148 0.33940572 1.437
-0.84851432 0.33940572 1.437
-0.84930861 0.34082288 1.4430001
-0.85360003 0.34365717 1.455
-0.85082859 0.34365717 1.455
-0.85155433 0.3450743 1.4610001
-0.84877145 0.3450743 1.4610001
-0.84598863 0.3450743 1.4610001
-0.8466686 0.34649146 1.4670001
-0.84732574 0.34790859 1.473
-0.84853339 0.34956193 1.48
-0.84571433 0.34956193 1.48
-0.84289527 0.34956193 1.48
-0.84348196 0.35097906 1.4860001
-0.84065145 0.35097906 1.4860001
-0.84120387 0.35239619 1.4920001
-0.84229529 0.35404953 1.4990001
-0.84336001 0.35570288 1.506
-0.84049147 0.35570288 1.506
-0.84096003 0.35712001 1.5120001
-0.83808005 0.35712001 1.5120001
-0.83906668 0.35877335 1.5190001
-0.84332955 0.36184382 1.5320001
-0.84041148 0.36184382 1.5320001
-0.84132004 0.36349717 1.539
-0.84601527 0.36680382 1.5530001
-0.84685719 0.36845717 1.5600001
-0.8476724 0.37011048 1.567
-0.84846097 0.37176383 1.5740001
-0.8492229 0.37341717 1.5810001
-0.85049337 0.37530667 1.5890001
-0.85120004 0.37696001 1.5960001
-0.84816003 0.37696001 1.5960001
-0.84512001 0.37696001 1.5960001
-0.84208006 0.37696001 1.5960001
-0.85125148 0.34214288 1.437
-0.84851432 0.34214288 1.437
-0.84577715 0.34214288 1.437
-0.85360003 0.34642857 1.455
-0.85082859 0.34642857 1.455
-0.84805715 0.34642857 1.455
-0.84877145 0.34785715 1.4610001
-0.84598863 0.34785715 1.4610001
-0.8466686 0.34928572 1.4670001
-0.84732574 0.3507143 1.473
-0.84853339 0.35238096 1.48
-0.84571433 0.35238096 1.48
-0.8463124 0.35380954 1.4860001
-0.84348196 0.35380954 1.4860001
-0.84404576 0.35523811 1.4920001
-0.84120387 0.35523811 1.4920001
-0.8462286 0.35857144 1.506
-0.84336001 0.35857144 1.506
-0.84384 0.36000001 1.5120001
-0.84096003 0.36000001 1.5120001
-0.83808005 0.36000001 1.5120001
-0.83906668 0.36166668 1.5190001
-0.84332955 0.36476192 1.5320001
-0.84425145 0.36642858 1.539
-0.84132004 0.36642858 1.539
-0.84601527 0.36976191 1.5530001
-0.84685719 0.37142858 1.5600001
-0.8476724 0.37309524 1.567
-0.84468764 0.37309524 1.567
-0.8492229 0.37642857 1.5810001
-0.85049337 0.37833336 1.5890001
-0.85120004 0.38000003 1.5960001
-0.84816003 0.38000003 1.5960001
-0.84512001 0.38000003 1.5960001
-0.84208006 0.38000003 1.5960001
-0.83904004 0.38000003 1.5960001
-0.85125148 0.34488001 1.437
-0.84851432 0.34488001 1.437
-0.84577715 0.34488001 1.437
-0.85360003 0.34920001 1.455
-0.85082859 0.34920001 1.455
-0.84805715 0.34920001 1.455
-0.84180003 0.34776002 1.4490001
-0.84598863 0.35064 1.4610001
-0.8466686 0.35208002 1.4670001
-0.84732574 0.35352001 1.473
-0.84853339 0.35520002 1.48
-0.84571433 0.35520002 1.48
-0.8463124 0.35664001 1.4860001
-0.84348196 0.35664001 1.4860001
-0.84404576 0.35808 1.4920001
-0.84515053 0.35976002 1.4990001
-0.8462286 0.36144 1.506
-0.84336001 0.36144 1.506
-0.84384 0.36288002 1.5120001
-0.84096003 0.36288002 1.5120001
-0.83808005 0.36288002 1.5120001
-0.83906668 0.36456001 1.5190001
-0.83947623 0.36600003 1.5250001
-0.84425145 0.36936 1.539
-0.84897339 0.37272 1.5530001
-0.84601527 0.37272 1.5530001
-0.84685719 0.37440002 1.5600001
-0.8476724 0.37608001 1.567
-0.84846097 0.37776002 1.5740001
-0.8492229 0.37944001 1.5810001
-0.85049337 0.38136002 1.5890001
-0.85120004 0.38304001 1.5960001
-0.84816003 0.38304001 1.5960001
-0.84512001 0.38304001 1.5960001
-0.84208006 0.38304001 1.5960001
-0.83904004 0.38304001 1.5960001
-0.85125148 0.34761715 1.437
-0.84851432 0.34761715 1.437
-0.84577715 0.34761715 1.437
-0.84656 0.34906858 1.4430001
-0.84381145 0.34906858 1.4430001
-0.84805715 0.35197145 1.455
-0.84180003 0.35052001 1.4490001
-0.84598863 0.35342288 1.4610001
-0.8466686 0.35487431 1.4670001
-0.84732574 0.35632572 1.473
-0.84452003 0.35632572 1.473
-0.84571433 0.35801905 1.48
-0.84289527 0.35801905 1.48
-0.84007621 0.35801905 1.48
-0.84065145 0.35947049 1.4860001
-0.84120387 0.36092192 1.4920001
-0.84229529 0.36261526 1.4990001
-0.84336001 0.3643086 1.506
-0.84384 0.36576 1.5120001
-0.84096003 0.36576 1.5120001
-0.83808005 0.36576 1.5120001
-0.842381 0.36890477 1.5250001
-0.83947623 0.36890477 1.5250001
-0.84425145 0.37229145 1.539
-0.84897339 0.37567812 1.5530001
-0.84601527 0.37567812 1.5530001
-0.84685719 0.37737143 1.5600001
-0.8476724 0.37906477 1.567
-0.84468764 0.37906477 1.567
-0.84546286 0.38075811 1.5740001
-0.85049337 0.38438669 1.5890001
-0.84746671 0.38438669 1.5890001
-0.84816003 0.38608003 1.5960001
-0.84141338 0.38438669 1.5890001
-0.83838671 0.38438669 1.5890001
-0.83536005 0.38438669 1.5890001
-0.85125148 0.35035428 1.437
-0.84851432 0.35035428 1.437
-0.84577715 0.35035428 1.437
-0.84656 0.35181716 1.4430001
-0.84381145 0.35181716 1.4430001
-0.84805715 0.35474288 1.455
-0.84528577 0.35474288 1.455
-0.84598863 0.35620573 1.4610001
-0.8466686 0.35766858 1.4670001
-0.84387434 0.35766858 1.4670001
-0.84452003 0.35913146 1.473
-0.84171432 0.35913146 1.473
-0.84289527 0.36083812 1.48
-0.84007621 0.36083812 1.48
-0.84065145 0.36230096 1.4860001
-0.84120387 0.36376381 1.4920001
-0.8462286 0.36717716 1.506
-0.84336001 0.36717716 1.506
-0.84384 0.36864001 1.5120001
-0.84096003 0.36864001 1.5120001
-0.83808005 0.36864001 1.5120001
-0.83906668 0.3703467 1.5190001
-0.83947623 0.37180954 1.5250001
-0.84041148 0.3735162 1.5320001
-0.84132004 0.37522286 1.539
-0.84601527 0.37863621 1.5530001
-0.84685719 0.38034287 1.5600001
-0.8476724 0.38204953 1.567
-0.84468764 0.38204953 1.567
-0.84546286 0.38375619 1.5740001
-0.85049337 0.38741335 1.5890001
-0.84746671 0.38741335 1.5890001
-0.84444004 0.38741335 1.5890001
-0.84141338 0.38741335 1.5890001
-0.83838671 0.38741335 1.5890001
-0.83536005 0.38741335 1.5890001
-0.85125148 0.35309145 1.437
-0.84851432 0.35309145 1.437
-0.84577715 0.35309145 1.437
-0.84656 0.35456574 1.4430001
-0.84381145 0.35456574 1.4430001
-0.84805715 0.35751429 1.455
-0.84877145 0.35898858 1.4610001
-0.84598863 0.35898858 1.4610001
-0.8466686 0.36046287 1.4670001
-0.84387434 0.36046287 1.4670001
-0.84452003 0.36193717 1.473
-0.84171432 0.36193717 1.473
-0.84289527 0.36365715 1.48
-0.84007621 0.36365715 1.48
-0.84065145 0.36513144 1.4860001
-0.84120387 0.36660573 1.4920001
-0.8462286 0.37004572 1.506
-0.84336001 0.37004572 1.506
-0.84384 0.37152001 1.5120001
-0.84096003 0.37152001 1.5120001
-0.83808005 0.37152001 1.5120001
-0.83906668 0.37324002 1.5190001
-0.83947623 0.37471429 1.5250001
-0.84041148 0.3764343 1.5320001
-0.84132004 0.37815431 1.539
-0.8498286 0.38331431 1.5600001
-0.84685719 0.38331431 1.5600001
-0.84388572 0.38331431 1.5600001
-0.84468764 0.38503429 1.567
-0.84170288 0.38503429 1.567
-0.84621143 0.38847429 1.5810001
-0.84746671 0.39044002 1.5890001
-0.84816003 0.39216003 1.5960001
-0.84512001 0.39216003 1.5960001
-0.84208006 0.39216003 1.5960001
-0.83904004 0.39216003 1.5960001
-0.83600003 0.39216003 1.5960001
-0.85125148 0.35582858 1.437
-0.84851432 0.35582858 1.437
-0.84577715 0.35582858 1.437
-0.84656 0.35731429 1.4430001
-0.84381145 0.35731429 1.4430001
-0.84805715 0.36028573 1.455
-0.84877145 0.36177143 1.4610001
-0.84598863 0.36177143 1.4610001
-0.8466686 0.36325717 1.4670001
-0.84387434 0.36325717 1.4670001
-0.84452003 0.36474288 1.473
-0.84171432 0.36474288 1.473
-0.84289527 0.36647621 1.48
-0.84348196 0.36796191 1.4860001
-0.84065145 0.36796191 1.4860001
-0.84120387 0.36944762 1.4920001
-0.8462286 0.37291431 1.506
-0.84336001 0.37291431 1.506
-0.84384 0.37440002 1.5120001
-0.84096003 0.37440002 1.5120001
-0.83808005 0.37440002 1.5120001
-0.83906668 0.37613335 1.5190001
-0.83617336 0.37613335 1.5190001
-0.84041148 0.37935239 1.5320001
-0.84897339 0.38455239 1.5530001
-0.84601527 0.38455239 1.5530001
-0.84685719 0.38628572 1.5600001
-0.8476724 0.38801906 1.567
-0.84468764 0.38801906 1.567
-0.84546286 0.38975239 1.5740001
-0.84621143 0.39148572 1.5810001
-0.84746671 0.39346668 1.5890001
-0.84816003 0.39520001 1.5960001
-0.84512001 0.39520001 1.5960001
-0.84208006 0.39520001 1.5960001
-0.83904004 0.39520001 1.5960001
-0.83600003 0.39520001 1.5960001
-0.85125148 0.35856572 1.437
-0.84851432 0.35856572 1.437
-0.84577715 0.35856572 1.437
-0.84656 0.36006287 1.4430001
-0.84381145 0.36006287 1.4430001
-0.84805715 0.36305717 1.455
-0.84528577 0.36305717 1.455
-0.84251434 0.36305717 1.455
-0.84320575 0.36455429 1.4610001
-0.84387434 0.36605144 1.4670001
-0.84108001 0.36605144 1.4670001
-0.84171432 0.36754858 1.473
-0.84289527 0.36929524 1.48
-0.84007621 0.36929524 1.48
-0.84065145 0.37079239 1.4860001
-0.84120387 0.37228954 1.4920001
-0.84229529 0.37403619 1.4990001
-0.84336001 0.37578288 1.506
-0.84049147 0.37578288 1.506
-0.83762288 0.37578288 1.506
-0.83475429 0.37578288 1.506
-0.83520001 0.37728003 1.5120001
-0.83947623 0.38052383 1.5250001
-0.84041148 0.38227049 1.5320001
-0.84514672 0.38576382 1.5460001
-0.8498286 0.38925716 1.5600001
-0.84685719 0.38925716 1.5600001
-0.8476724 0.39100382 1.567
-0.84468764 0.39100382 1.567
-0.84546286 0.3927505 1.5740001
-0.84621143 0.39449716 1.5810001
-0.84746671 0.39649335 1.5890001
-0.84816003 0.39824 1.5960001
-0.84882671 0.39998668 1.603
-0.84577334 0.39998668 1.603
-0.84272003 0.39998668 1.603
-0.83966672 0.39998668 1.603
-0.8476972 0.35979429 1.4310001
-0.84497148 0.35979429 1.4310001
-0.84577715 0.36130288 1.437
-0.84656 0.36281145 1.4430001
-0.84732002 0.36432001 1.4490001
-0.84805715 0.36582857 1.455
-0.84528577 0.36582857 1.455
-0.84598863 0.36733717 1.4610001
-0.84320575 0.36733717 1.4610001
-0.84387434 0.36884573 1.4670001
-0.84452003 0.37035429 1.473
-0.84571433 0.3721143 1.48
-0.84289527 0.3721143 1.48
-0.84348196 0.37362286 1.4860001
-0.84065145 0.37362286 1.4860001
-0.84120387 0.37513143 1.4920001
-0.84229529 0.37689143 1.4990001
-0.83944005 0.37689143 1.4990001
-0.84049147 0.37865144 1.506
-0.83762288 0.37865144 1.506
-0.83808005 0.38016 1.5120001
-0.83906668 0.38192001 1.5190001
-0.83947623 0.38342857 1.5250001
-0.84041148 0.38518858 1.5320001
-0.84514672 0.38870859 1.5460001
-0.84601527 0.3904686 1.5530001
-0.84305716 0.3904686 1.5530001
-0.84388572 0.39222857 1.5600001
-0.84468764 0.39398858 1.567
-0.84546286 0.39574859 1.5740001
-0.8424648 0.39574859 1.5740001
-0.84320003 0.39750859 1.5810001
-0.84816003 0.40128002 1.5960001
-0.84882671 0.40304002 1.603
-0.84577334 0.40304002 1.603
-0.84272003 0.40304002 1.603
-0.83966672 0.40304002 1.603
-0.8476972 0.36252001 1.4310001
-0.84497148 0.36252001 1.4310001
-0.84577715 0.36404002 1.437
-0.84656 0.36556002 1.4430001
-0.84732002 0.36708 1.4490001
-0.84805715 0.36860001 1.455
-0.84877145 0.37012002 1.4610001
-0.84598863 0.37012002 1.4610001
-0.84320575 0.37012002 1.4610001
-0.84387434 0.37164003 1.4670001
-0.84452003 0.37316 1.473
-0.84171432 0.37316 1.473
-0.84289527 0.37493336 1.48
-0.84007621 0.37493336 1.48
-0.83725715 0.37493336 1.48
-0.84120387 0.37797335 1.4920001
-0.84229529 0.37974668 1.4990001
-0.83944005 0.37974668 1.4990001
-0.84049147 0.38152 1.506
-0.83762288 0.38152 1.506
-0.83808005 0.38304001 1.5120001
-0.842381 0.38633335 1.5250001
-0.83947623 0.38633335 1.5250001
-0.84041148 0.38810667 1.5320001
-0.84132004 0.38988 1.539
-0.84601527 0.39342669 1.5530001
-0.84305716 0.39342669 1.5530001
-0.84388572 0.39520001 1.5600001
-0.84468764 0.39697334 1.567
-0.84546286 0.39874667 1.5740001
-0.8424648 0.39874667 1.5740001
-0.83946669 0.39874667 1.5740001
-0.84444004 0.40254667 1.5890001
-0.84512001 0.40432 1.5960001
-0.84577334 0.40609336 1.603
-0.84272003 0.40609336 1.603
-0.83966672 0.40609336 1.603
-0.8476972 0.36524573 1.4310001
-0.84497148 0.36524573 1.4310001
-0.84577715 0.36677715 1.437
-0.84656 0.36830857 1.4430001
-0.84732002 0.36984003 1.4490001
-0.84805715 0.37137145 1.455
-0.84877145 0.37290287 1.4610001
-0.84598863 0.37290287 1.4610001
-0.84320575 0.37290287 1.4610001
-0.84042287 0.37290287 1.4610001
-0.84108001 0.37443429 1.4670001
-0.84171432 0.37596571 1.473
-0.83890861 0.37596571 1.473
-0.84007621 0.37775239 1.48
-0.84065145 0.37928382 1.4860001
-0.84120387 0.38081524 1.4920001
-0.83836192 0.38081524 1.4920001
-0.83944005 0.38260192 1.4990001
-0.83658481 0.38260192 1.4990001
-0.83762288 0.3843886 1.506
-0.83808005 0.38592002 1.5120001
-0.842381 0.38923812 1.5250001
-0.83947623 0.38923812 1.5250001
-0.84041148 0.39102477 1.5320001
-0.84132004 0.39281145 1.539
-0.84601527 0.39638478 1.5530001
-0.84305716 0.39638478 1.5530001
-0.84388572 0.39817145 1.5600001
-0.84468764 0.3999581 1.567
-0.84546286 0.40174478 1.5740001
-0.8424648 0.40174478 1.5740001
-0.83946669 0.40174478 1.5740001
-0.84444004 0.40557334 1.5890001
-0.84882671 0.4091467 1.603
-0.8499943 0.41118857 1.6110001
-0.84692574 0.41118857 1.6110001
-0.84385717 0.41118857 1.6110001
-0.8476972 0.36797145 1.4310001
-0.84851432 0.36951429 1.437
-0.84577715 0.36951429 1.437
-0.84656 0.37105715 1.4430001
-0.84732002 0.37260002 1.4490001
-0.84805715 0.37414289 1.455
-0.84528577 0.37414289 1.455
-0.84598863 0.37568572 1.4610001
-0.84320575 0.37568572 1.4610001
-0.84387434 0.37722859 1.4670001
-0.84452003 0.37877145 1.473
-0.84571433 0.38057145 1.48
-0.84289527 0.38057145 1.48
-0.84007621 0.38057145 1.48
-0.84065145 0.38211429 1.4860001
-0.83782101 0.38211429 1.4860001
-0.83836192 0.38365716 1.4920001
-0.83552003 0.38365716 1.4920001
-0.83658481 0.38545716 1.4990001
-0.83762288 0.38725716 1.506
-0.83808005 0.38880002 1.5120001
-0.842381 0.39214286 1.5250001
-0.84332955 0.39394286 1.5320001
-0.84041148 0.39394286 1.5320001
-0.84514672 0.39754286 1.5460001
-0.84601527 0.39934286 1.5530001
-0.84685719 0.40114287 1.5600001
-0.84388572 0.40114287 1.5600001
-0.84468764 0.40294287 1.567
-0.84170288 0.40294287 1.567
-0.8424648 0.40474287 1.5740001
-0.83946669 0.40474287 1.5740001
-0.84444004 0.4086 1.5890001
-0.84512001 0.4104 1.5960001
-0.84577334 0.4122 1.603
-0.85060573 0.41605717 1.618
-0.84752387 0.41605717 1.618
-0.8476972 0.37069717 1.4310001
-0.84497148 0.37069717 1.4310001
-0.84224576 0.37069717 1.4310001
-0.84656 0.37380573 1.4430001
-0.84381145 0.37380573 1.4430001
-0.84456003 0.37536001 1.4490001
-0.84528577 0.37691429 1.455
-0.84598863 0.37846857 1.4610001
-0.84320575 0.37846857 1.4610001
-0.84387434 0.38002288 1.4670001
-0.84452003 0.38157716 1.473
-0.84571433 0.38339049 1.48
-0.84289527 0.38339049 1.48
-0.84007621 0.38339049 1.48
-0.84065145 0.38494477 1.4860001
-0.83782101 0.38494477 1.4860001
-0.83836192 0.38649905 1.4920001
-0.83944005 0.3883124 1.4990001
-0.83658481 0.3883124 1.4990001
-0.83762288 0.39012572 1.506
-0.83808005 0.39168 1.5120001
-0.842381 0.39504763 1.5250001
-0.83947623 0.39504763 1.5250001
-0.84041148 0.39686096 1.5320001
-0.84132004 0.39867431 1.539
-0.84601527 0.40230095 1.5530001
-0.84685719 0.40411431 1.5600001
-0.84388572 0.40411431 1.5600001
-0.84091431 0.40411431 1.5600001
-0.84170288 0.40592763 1.567
-0.8424648 0.40774098 1.5740001
-0.83946669 0.40774098 1.5740001
-0.84018862 0.4095543 1.5810001
-0.84141338 0.4116267 1.5890001
-0.84208006 0.41344002 1.5960001
-0.83904004 0.41344002 1.5960001
-0.84752387 0.41913906 1.618
-0.8476972 0.37342286 1.4310001
-0.84851432 0.37498859 1.437
-0.84577715 0.37498859 1.437
-0.84656 0.37655431 1.4430001
-0.84381145 0.37655431 1.4430001
-0.84456003 0.37812001 1.4490001
-0.84528577 0.37968573 1.455
-0.84598863 0.38125145 1.4610001
-0.84320575 0.38125145 1.4610001
-0.84387434 0.38281715 1.4670001
-0.84452003 0.38438287 1.473
-0.84571433 0.38620955 1.48
-0.84289527 0.38620955 1.48
-0.84348196 0.38777524 1.4860001
-0.84065145 0.38777524 1.4860001
-0.84120387 0.38934097 1.4920001
-0.83836192 0.38934097 1.4920001
-0.83552003 0.38934097 1.4920001
-0.83658481 0.39116764 1.4990001
-0.83762288 0.39299431 1.506
-0.83808005 0.39456001 1.5120001
-0.842381 0.39795241 1.5250001
-0.83947623 0.39795241 1.5250001
-0.84041148 0.39977905 1.5320001
-0.84132004 0.40160573 1.539
-0.84601527 0.40525907 1.5530001
-0.84685719 0.40708572 1.5600001
-0.84388572 0.40708572 1.5600001
-0.84091431 0.40708572 1.5600001
-0.84170288 0.40891239 1.567
-0.8424648 0.41073906 1.5740001
-0.83946669 0.41073906 1.5740001
-0.84018862 0.41256574 1.5810001
-0.84141338 0.41465336 1.5890001
-0.83838671 0.41465336 1.5890001
-0.83904004 0.41648 1.5960001
-0.8476972 0.37614858 1.4310001
-0.84497148 0.37614858 1.4310001
-0.84224576 0.37614858 1.4310001
-0.84304005 0.37772572 1.437
-0.84030288 0.37772572 1.437
-0.8410629 0.37930286 1.4430001
-0.84180003 0.38088003 1.4490001
-0.84251434 0.38245717 1.455
-0.84320575 0.38403431 1.4610001
-0.84042287 0.38403431 1.4610001
-0.84452003 0.38718858 1.473
-0.84171432 0.38718858 1.473
-0.84289527 0.38902858 1.48
-0.84007621 0.38902858 1.48
-0.84065145 0.39060572 1.4860001
-0.83782101 0.39060572 1.4860001
-0.83836192 0.39218286 1.4920001
-0.83944005 0.39402288 1.4990001
-0.83658481 0.39402288 1.4990001
-0.83762288 0.39586288 1.506
-0.83808005 0.39744002 1.5120001
-0.83906668 0.39928001 1.5190001
-0.83947623 0.40085715 1.5250001
-0.84041148 0.40269715 1.5320001
-0.84132004 0.40453717 1.539
-0.84220195 0.40637717 1.5460001
-0.84305716 0.40821716 1.5530001
-0.84388572 0.41005716 1.5600001
-0.84091431 0.41005716 1.5600001
-0.84170288 0.41189715 1.567
-0.8424648 0.41373715 1.5740001
-0.84320003 0.41557714 1.5810001
-0.84816003 0.41952002 1.5960001
-0.85306287 0.42346287 1.6110001
-0.84577334 0.42136002 1.603
-0.84272003 0.42136002 1.603
-0.8476972 0.3788743 1.4310001
-0.84851432 0.38046288 1.437
-0.84224576 0.3788743 1.4310001
-0.84304005 0.38046288 1.437
-0.84030288 0.38046288 1.437
-0.8410629 0.38205144 1.4430001
-0.84180003 0.38364002 1.4490001
-0.84251434 0.38522857 1.455
-0.84320575 0.38681716 1.4610001
-0.84042287 0.38681716 1.4610001
-0.84452003 0.38999429 1.473
-0.84171432 0.38999429 1.473
-0.84289527 0.39184764 1.48
-0.84007621 0.39184764 1.48
-0.84065145 0.39343619 1.4860001
-0.84120387 0.39502478 1.4920001
-0.83836192 0.39502478 1.4920001
-0.84336001 0.39873144 1.506
-0.83658481 0.39687812 1.4990001
-0.83762288 0.39873144 1.506
-0.83808005 0.40032002 1.5120001
-0.83906668 0.40217334 1.5190001
-0.83947623 0.40376192 1.5250001
-0.84041148 0.40561524 1.5320001
-0.84132004 0.40746859 1.539
-0.84220195 0.40932193 1.5460001
-0.84305716 0.41117525 1.5530001
-0.84388572 0.4130286 1.5600001
-0.84091431 0.4130286 1.5600001
-0.8379429 0.4130286 1.5600001
-0.83871812 0.41488191 1.567
-0.84746671 0.42070669 1.5890001
-0.85613143 0.42653143 1.6110001
-0.84882671 0.42441335 1.603
-0.84577334 0.42441335 1.603
-0.84272003 0.42441335 1.603
-0.85125148 0.38320002 1.437
-0.84851432 0.38320002 1.437
-0.84577715 0.38320002 1.437
-0.84304005 0.38320002 1.437
-0.84030288 0.38320002 1.437
-0.8410629 0.38480002 1.4430001
-0.84180003 0.38640001 1.4490001
-0.84598863 0.38960001 1.4610001
-0.84320575 0.38960001 1.4610001
-0.84387434 0.39120001 1.4670001
-0.84452003 0.3928 1.473
-0.84171432 0.3928 1.473
-0.84289527 0.39466667 1.48
-0.84007621 0.39466667 1.48
-0.84065145 0.39626667 1.4860001
-0.83782101 0.39626667 1.4860001
-0.83836192 0.3978667 1.4920001
-0.83944005 0.39973333 1.4990001
-0.83658481 0.39973333 1.4990001
-0.83762288 0.4016 1.506
-0.83808005 0.4032 1.5120001
-0.83520001 0.4032 1.5120001
-0.83947623 0.4066667 1.5250001
-0.84041148 0.40853333 1.5320001
-0.84132004 0.4104 1.539
-0.84220195 0.41226667 1.5460001
-0.84305716 0.41413334 1.5530001
-0.84388572 0.41600001 1.5600001
-0.84091431 0.41600001 1.5600001
-0.84170288 0.41786668 1.567
-0.8424648 0.41973335 1.5740001
-0.85120004 0.42560002 1.5960001
-0.85613143 0.42960003 1.6110001
-0.84882671 0.42746669 1.603
-0.84577334 0.42746669 1.603
-0.84272003 0.42746669 1.603
-0.85125148 0.38593715 1.437
-0.84851432 0.38593715 1.437
-0.84577715 0.38593715 1.437
-0.84304005 0.38593715 1.437
-0.84030288 0.38593715 1.437
-0.8410629 0.3875486 1.4430001
-0.84528577 0.39077145 1.455
-0.84598863 0.39238286 1.4610001
-0.84320575 0.39238286 1.4610001
-0.84387434 0.3939943 1.4670001
-0.84452003 0.39560574 1.473
-0.84171432 0.39560574 1.473
-0.84289527 0.39748573 1.48
-0.84007621 0.39748573 1.48
-0.84065145 0.39909714 1.4860001
-0.83782101 0.39909714 1.4860001
-0.84229529 0.40258858 1.4990001
-0.83944005 0.40258858 1.4990001
-0.83658481 0.40258858 1.4990001
-0.83762288 0.4044686 1.506
-0.83808005 0.40608001 1.5120001
-0.83520001 0.40608001 1.5120001
-0.83947623 0.40957144 1.5250001
-0.84041148 0.41145143 1.5320001
-0.84132004 0.41333145 1.539
-0.84220195 0.41521144 1.5460001
-0.84305716 0.41709143 1.5530001
-0.84388572 0.41897145 1.5600001
-0.84091431 0.41897145 1.5600001
-0.84170288 0.42085144 1.567
-0.85798669 0.43052003 1.603
-0.85493338 0.43052003 1.603
-0.85613143 0.4326686 1.6110001
-0.85306287 0.4326686 1.6110001
-0.8499943 0.4326686 1.6110001
-0.84692574 0.4326686 1.6110001
-0.8476972 0.38705143 1.4310001
-0.84851432 0.38867429 1.437
-0.84577715 0.38867429 1.437
-0.84304005 0.38867429 1.437
-0.84030288 0.38867429 1.437
-0.8410629 0.39029714 1.4430001
-0.84180003 0.39192 1.4490001
-0.84251434 0.39354289 1.455
-0.84320575 0.39516574 1.4610001
-0.84387434 0.3967886 1.4670001
-0.84452003 0.39841145 1.473
-0.84171432 0.39841145 1.473
-0.84289527 0.40030476 1.48
-0.84007621 0.40030476 1.48
-0.84065145 0.40192762 1.4860001
-0.83782101 0.40192762 1.4860001
-0.83836192 0.40355051 1.4920001
-0.83944005 0.40544382 1.4990001
-0.83658481 0.40544382 1.4990001
-0.83762288 0.40733716 1.506
-0.83808005 0.40896001 1.5120001
-0.83520001 0.40896001 1.5120001
-0.84332955 0.41436955 1.5320001
-0.84425145 0.41626287 1.539
-0.84132004 0.41626287 1.539
-0.84220195 0.41815621 1.5460001
-0.84305716 0.42004955 1.5530001
-0.84388572 0.42194286 1.5600001
-0.84091431 0.42194286 1.5600001
-0.8492229 0.42762288 1.5810001
-0.85798669 0.43357334 1.603
-0.85493338 0.43357334 1.603
-0.85613143 0.43573716 1.6110001
-0.85306287 0.43573716 1.6110001
-0.8499943 0.43573716 1.6110001
-0.85481149 0.4397943 1.626
-0.85171431 0.4397943 1.626
-0.85125148 0.39141145 1.437
-0.84851432 0.39141145 1.437
-0.84577715 0.39141145 1.437
-0.84304005 0.39141145 1.437
-0.84030288 0.39141145 1.437
-0.8410629 0.39304572 1.4430001
-0.84180003 0.39468002 1.4490001
-0.84598863 0.39794859 1.4610001
-0.84320575 0.39794859 1.4610001
-0.84042287 0.39794859 1.4610001
-0.84452003 0.40121716 1.473
-0.84171432 0.40121716 1.473
-0.84289527 0.40312383 1.48
-0.84007621 0.40312383 1.48
-0.84065145 0.4047581 1.4860001
-0.83782101 0.4047581 1.4860001
-0.83836192 0.4063924 1.4920001
-0.83944005 0.40829906 1.4990001
-0.84049147 0.41020572 1.506
-0.83762288 0.41020572 1.506
-0.83808005 0.41184002 1.5120001
-0.83520001 0.41184002 1.5120001
-0.83947623 0.41538095 1.5250001
-0.84041148 0.41728765 1.5320001
-0.84132004 0.41919431 1.539
-0.84220195 0.42110097 1.5460001
-0.83925718 0.42110097 1.5460001
-0.84388572 0.4249143 1.5600001
-0.84091431 0.4249143 1.5600001
-0.84546286 0.42872763 1.5740001
-0.86226863 0.43880573 1.6110001
-0.85920006 0.43880573 1.6110001
-0.85613143 0.43880573 1.6110001
-0.85306287 0.43880573 1.6110001
-0.85368764 0.44071239 1.618
-0.85060573 0.44071239 1.618
-0.84752387 0.44071239 1.618
-0.85125148 0.39414859 1.437
-0.84851432 0.39414859 1.437
-0.84577715 0.39414859 1.437
-0.84304005 0.39414859 1.437
-0.84030288 0.39414859 1.437
-0.8410629 0.3957943 1.4430001
-0.84180003 0.39744002 1.4490001
-0.84598863 0.40073144 1.4610001
-0.84320575 0.40073144 1.4610001
-0.84042287 0.40073144 1.4610001
-0.84108001 0.40237716 1.4670001
-0.84171432 0.40402287 1.473
-0.84289527 0.40594286 1.48
-0.84007621 0.40594286 1.48
-0.83725715 0.40594286 1.48
-0.83782101 0.4075886 1.4860001
-0.83836192 0.40923432 1.4920001
-0.83552003 0.40923432 1.4920001
-0.84049147 0.41307431 1.506
-0.83372957 0.4111543 1.4990001
-0.83475429 0.41307431 1.506
-0.83520001 0.41472003 1.5120001
-0.83947623 0.41828573 1.5250001
-0.84041148 0.42020574 1.5320001
-0.84132004 0.42212573 1.539
-0.84220195 0.42404574 1.5460001
-0.83925718 0.42404574 1.5460001
-0.8400991 0.42596573 1.5530001
-0.84091431 0.42788574 1.5600001
-0.8492229 0.43364573 1.5810001
-0.85424006 0.43776003 1.5960001
-0.85120004 0.43776003 1.5960001
-0.85985148 0.44379431 1.618
-0.85676956 0.44379431 1.618
-0.85790861 0.4459886 1.626
-0.85481149 0.4459886 1.626
-0.85590482 0.44818288 1.6340001
-0.85279244 0.44818288 1.6340001
-0.85125148 0.39688572 1.437
-0.84851432 0.39688572 1.437
-0.84577715 0.39688572 1.437
-0.84304005 0.39688572 1.437
-0.84381145 0.39854288 1.4430001
-0.84456003 0.40020001 1.4490001
-0.84528577 0.40185717 1.455
-0.84598863 0.4035143 1.4610001
-0.8466686 0.40517145 1.4670001
-0.84387434 0.40517145 1.4670001
-0.84452003 0.40682858 1.473
-0.84171432 0.40682858 1.473
-0.84289527 0.40876192 1.48
-0.84007621 0.40876192 1.48
-0.83725715 0.40876192 1.48
-0.83782101 0.41041908 1.4860001
-0.83836192 0.41207621 1.4920001
-0.83552003 0.41207621 1.4920001
-0.84049147 0.41594288 1.506
-0.83762288 0.41594288 1.506
-0.83808005 0.41760001 1.5120001
-0.83906668 0.41953334 1.5190001
-0.83947623 0.4211905 1.5250001
-0.84041148 0.42312384 1.5320001
-0.84132004 0.42505717 1.539
-0.83838862 0.42505717 1.539
-0.83545715 0.42505717 1.539
-0.83631241 0.42699048 1.5460001
-0.84091431 0.43085715 1.5600001
-0.8492229 0.43665716 1.5810001
-0.85424006 0.44080001 1.5960001
-0.85920006 0.44494286 1.6110001
-0.85613143 0.44494286 1.6110001
-0.85676956 0.4468762 1.618
-0.85790861 0.44908574 1.626
-0.85481149 0.44908574 1.626
-0.85957146 0.45322859 1.641
-0.85644573 0.45322859 1.641
-0.85332 0.45322859 1.641
-0.85125148 0.39962286 1.437
-0.84851432 0.39962286 1.437
-0.84930861 0.40129143 1.4430001
-0.84656 0.40129143 1.4430001
-0.84732002 0.40296 1.4490001
-0.84805715 0.40462857 1.455
-0.84528577 0.40462857 1.455
-0.84598863 0.40629715 1.4610001
-0.8466686 0.40796572 1.4670001
-0.84387434 0.40796572 1.4670001
-0.84452003 0.40963429 1.473
-0.84571433 0.41158098 1.48
-0.84289527 0.41158098 1.48
-0.84007621 0.41158098 1.48
-0.83725715 0.41158098 1.48
-0.83782101 0.41324955 1.4860001
-0.8349905 0.41324955 1.4860001
-0.83552003 0.41491812 1.4920001
-0.84384 0.42048001 1.5120001
-0.83762288 0.41881144 1.506
-0.83808005 0.42048001 1.5120001
-0.83906668 0.42242667 1.5190001
-0.83947623 0.42409524 1.5250001
-0.83657146 0.42409524 1.5250001
-0.83749336 0.42604193 1.5320001
-0.83838862 0.42798859 1.539
-0.83545715 0.42798859 1.539
-0.83631241 0.42993525 1.5460001
-0.84091431 0.43382859 1.5600001
-0.8492229 0.4396686 1.5810001
-0.85049337 0.44189334 1.5890001
-0.85493338 0.44578668 1.603
-0.85985148 0.44995812 1.618
-0.85306287 0.44801146 1.6110001
-0.85790861 0.45218286 1.626
-0.85901719 0.45440763 1.6340001
-0.85957146 0.45635429 1.641
-0.86062098 0.45857906 1.649
-0.85748005 0.45857906 1.649
-0.85125148 0.40236002 1.437
-0.84851432 0.40236002 1.437
-0.84930861 0.40404001 1.4430001
-0.85008001 0.40572003 1.4490001
-0.84732002 0.40572003 1.4490001
-0.84805715 0.40740001 1.455
-0.84528577 0.40740001 1.455
-0.84598863 0.40908003 1.4610001
-0.8466686 0.41076002 1.4670001
-0.84387434 0.41076002 1.4670001
-0.84452003 0.41244 1.473
-0.84571433 0.41440001 1.48
-0.84289527 0.41440001 1.48
-0.84007621 0.41440001 1.48
-0.83725715 0.41440001 1.48
-0.83443815 0.41440001 1.48
-0.8349905 0.41608003 1.4860001
-0.83552003 0.41776001 1.4920001
-0.84049147 0.42168 1.506
-0.83762288 0.42168 1.506
-0.83475429 0.42168 1.506
-0.83906668 0.42532003 1.5190001
-0.83947623 0.42700002 1.5250001
-0.84041148 0.42896003 1.5320001
-0.84132004 0.43092 1.539
-0.83838862 0.43092 1.539
-0.83925718 0.43288001 1.5460001
-0.8400991 0.43484002 1.5530001
-0.84091431 0.4368 1.5600001
-0.84546286 0.44072002 1.5740001
-0.84621143 0.44268003 1.5810001
-0.85120004 0.44688001 1.5960001
-0.85985148 0.45304 1.618
-0.85306287 0.45108002 1.6110001
-0.85790861 0.45528001 1.626
-0.85901719 0.45752001 1.6340001
-0.85957146 0.45948002 1.641
-0.86062098 0.46172002 1.649
-0.85748005 0.46172002 1.649
-0.85125148 0.40509716 1.437
-0.84851432 0.40509716 1.437
-0.84577715 0.40509716 1.437
-0.84656 0.40678859 1.4430001
-0.84732002 0.40848002 1.4490001
-0.84805715 0.41017145 1.455
-0.84528577 0.41017145 1.455
-0.84598863 0.41186288 1.4610001
-0.84320575 0.41186288 1.4610001
-0.84387434 0.41355431 1.4670001
-0.84452003 0.41524574 1.473
-0.84171432 0.41524574 1.473
-0.84289527 0.41721907 1.48
-0.84007621 0.41721907 1.48
-0.83725715 0.41721907 1.48
-0.83443815 0.41721907 1.48
-0.8349905 0.4189105 1.4860001
-0.83216006 0.4189105 1.4860001
-0.83658481 0.42257527 1.4990001
-0.84096003 0.42624003 1.5120001
-0.83808005 0.42624003 1.5120001
-0.83906668 0.42821336 1.5190001
-0.83947623 0.42990479 1.5250001
-0.84041148 0.43187812 1.5320001
-0.84132004 0.43385145 1.539
-0.83838862 0.43385145 1.539
-0.83925718 0.43582478 1.5460001
-0.8400991 0.43779811 1.5530001
-0.84091431 0.43977144 1.5600001
-0.84170288 0.44174477 1.567
-0.84621143 0.44569144 1.5810001
-0.84746671 0.4479467 1.5890001
-0.84816003 0.44992003 1.5960001
-0.84882671 0.45189336 1.603
-0.8499943 0.45414859 1.6110001
-0.85481149 0.45837715 1.626
-0.85590482 0.46063238 1.6340001
-0.85279244 0.46063238 1.6340001
-0.85748005 0.46486098 1.649
-0.85125148 0.40783429 1.437
-0.84851432 0.40783429 1.437
-0.84930861 0.40953717 1.4430001
-0.84656 0.40953717 1.4430001
-0.84732002 0.41124001 1.4490001
-0.84456003 0.41124001 1.4490001
-0.84528577 0.41294289 1.455
-0.84251434 0.41294289 1.455
-0.84320575 0.41464573 1.4610001
-0.84387434 0.41634858 1.4670001
-0.84452003 0.41805145 1.473
-0.84171432 0.41805145 1.473
-0.84289527 0.4200381 1.48
-0.84007621 0.4200381 1.48
-0.83725715 0.4200381 1.48
-0.83782101 0.42174098 1.4860001
-0.8349905 0.42174098 1.4860001
-0.83552003 0.42344382 1.4920001
-0.83658481 0.42543051 1.4990001
-0.84096003 0.42912 1.5120001
-0.83808005 0.42912 1.5120001
-0.83906668 0.43110669 1.5190001
-0.83947623 0.43280953 1.5250001
-0.84041148 0.43479621 1.5320001
-0.84132004 0.43678287 1.539
-0.83838862 0.43678287 1.539
-0.83925718 0.43876955 1.5460001
-0.8400991 0.4407562 1.5530001
-0.84091431 0.44274288 1.5600001
-0.84170288 0.44472954 1.567
-0.8424648 0.44671622 1.5740001
-0.84746671 0.45097336 1.5890001
-0.85188001 0.4549467 1.603
-0.84882671 0.4549467 1.603
-0.8499943 0.45721716 1.6110001
-0.85481149 0.4614743 1.626
-0.85171431 0.4614743 1.626
-0.85279244 0.46374479 1.6340001
-0.85125148 0.41057146 1.437
-0.84851432 0.41057146 1.437
-0.84930861 0.41228572 1.4430001
-0.85008001 0.414 1.4490001
-0.84732002 0.414 1.4490001
-0.84805715 0.41571429 1.455
-0.84528577 0.41571429 1.455
-0.84251434 0.41571429 1.455
-0.84320575 0.41742858 1.4610001
-0.84042287 0.41742858 1.4610001
-0.84108001 0.41914287 1.4670001
-0.83828574 0.41914287 1.4670001
-0.84289527 0.42285717 1.48
-0.84007621 0.42285717 1.48
-0.83725715 0.42285717 1.48
-0.83782101 0.42457145 1.4860001
-0.8349905 0.42457145 1.4860001
-0.83552003 0.42628574 1.4920001
-0.83658481 0.42828572 1.4990001
-0.84096003 0.43200001 1.5120001
-0.83808005 0.43200001 1.5120001
-0.83906668 0.43400002 1.5190001
-0.83947623 0.4357143 1.5250001
-0.84041148 0.43771431 1.5320001
-0.84132004 0.43971431 1.539
-0.83838862 0.43971431 1.539
-0.83925718 0.44171432 1.5460001
-0.8400991 0.44371429 1.5530001
-0.84091431 0.44571429 1.5600001
-0.84170288 0.4477143 1.567
-0.8424648 0.4497143 1.5740001
-0.84746671 0.45400003 1.5890001
-0.84816003 0.45600003 1.5960001
-0.84512001 0.45600003 1.5960001
-0.84208006 0.45600003 1.5960001
-0.85481149 0.46457145 1.626
-0.85171431 0.46457145 1.626
-0.85125148 0.41330859 1.437
-0.84851432 0.41330859 1.437
-0.84930861 0.41503429 1.4430001
-0.85008001 0.41676003 1.4490001
-0.84732002 0.41676003 1.4490001
-0.84456003 0.41676003 1.4490001
-0.84528577 0.41848573 1.455
-0.84251434 0.41848573 1.455
-0.84320575 0.42021143 1.4610001
-0.84042287 0.42021143 1.4610001
-0.84452003 0.42366287 1.473
-0.84571433 0.4256762 1.48
-0.84289527 0.4256762 1.48
-0.84348196 0.42740193 1.4860001
-0.84065145 0.42740193 1.4860001
-0.83782101 0.42740193 1.4860001
-0.83836192 0.42912763 1.4920001
-0.83944005 0.43114096 1.4990001
-0.84049147 0.43315431 1.506
-0.83762288 0.43315431 1.506
-0.83808005 0.43488002 1.5120001
-0.83520001 0.43488002 1.5120001
-0.83617336 0.43689334 1.5190001
-0.84041148 0.4406324 1.5320001
-0.83749336 0.4406324 1.5320001
-0.83838862 0.44264573 1.539
-0.83925718 0.44465905 1.5460001
-0.8400991 0.44667241 1.5530001
-0.84091431 0.44868574 1.5600001
-0.84170288 0.45069906 1.567
-0.8424648 0.45271239 1.5740001
-0.84320003 0.45472574 1.5810001
-0.84444004 0.45702669 1.5890001
-0.84512001 0.45904002 1.5960001
-0.84208006 0.45904002 1.5960001
-0.83904004 0.45904002 1.5960001
-0.85171431 0.46766859 1.626
-0.85125148 0.41604573 1.437
-0.84851432 0.41604573 1.437
-0.84577715 0.41604573 1.437
-0.84656 0.41778287 1.4430001
-0.84381145 0.41778287 1.4430001
-0.84456003 0.41952002 1.4490001
-0.84528577 0.42125717 1.455
-0.84251434 0.42125717 1.455
-0.84320575 0.42299432 1.4610001
-0.84042287 0.42299432 1.4610001
-0.84108001 0.42473143 1.4670001
-0.84171432 0.42646858 1.473
-0.84289527 0.42849526 1.48
-0.84348196 0.43023241 1.4860001
-0.84065145 0.43023241 1.4860001
-0.83782101 0.43023241 1.4860001
-0.83836192 0.43196955 1.4920001
-0.83944005 0.4339962 1.4990001
-0.84049147 0.43602288 1.506
-0.83762288 0.43602288 1.506
-0.83808005 0.43776003 1.5120001
-0.83520001 0.43776003 1.5120001
-0.83617336 0.43978667 1.5190001
-0.83657146 0.44152382 1.5250001
-0.83749336 0.4435505 1.5320001
-0.83838862 0.44557714 1.539
-0.83925718 0.44760382 1.5460001
-0.8400991 0.4496305 1.5530001
-0.84091431 0.45165715 1.5600001
-0.84170288 0.45368382 1.567
-0.8424648 0.4557105 1.5740001
-0.84320003 0.45773715 1.5810001
-0.84444004 0.46005335 1.5890001
-0.84141338 0.46005335 1.5890001
-0.84208006 0.46208003 1.5960001
-0.83904004 0.46208003 1.5960001
-0.8476972 0.4170343 1.4310001
-0.84497148 0.4170343 1.4310001
-0.84577715 0.41878286 1.437
-0.84656 0.42053145 1.4430001
-0.84381145 0.42053145 1.4430001
-0.84456003 0.42228001 1.4490001
-0.84528577 0.42402858 1.455
-0.84251434 0.42402858 1.455
-0.8397429 0.42402858 1.455
-0.84042287 0.42577717 1.4610001
-0.84108001 0.42752573 1.4670001
-0.84171432 0.42927429 1.473
-0.84289527 0.43131429 1.48
-0.84348196 0.43306288 1.4860001
-0.84404576 0.43481144 1.4920001
-0.84120387 0.43481144 1.4920001
-0.84229529 0.43685144 1.4990001
-0.83944005 0.43685144 1.4990001
-0.84049147 0.43889144 1.506
-0.83762288 0.43889144 1.506
-0.83475429 0.43889144 1.506
-0.83520001 0.44064 1.5120001
-0.83617336 0.44268003 1.5190001
-0.83657146 0.44442859 1.5250001
-0.83749336 0.44646859 1.5320001
-0.83838862 0.44850859 1.539
-0.83925718 0.45054859 1.5460001
-0.8400991 0.45258859 1.5530001
-0.84091431 0.45462859 1.5600001
-0.84170288 0.45666859 1.567
-0.8424648 0.45870858 1.5740001
-0.84320003 0.46074858 1.5810001
-0.84444004 0.46308002 1.5890001
-0.84141338 0.46308002 1.5890001
-0.84208006 0.46512002 1.5960001
-0.83904004 0.46512002 1.5960001
-0.8476972 0.41976002 1.4310001
-0.84497148 0.41976002 1.4310001
-0.84577715 0.42152002 1.437
-0.84304005 0.42152002 1.437
-0.84381145 0.42328 1.4430001
-0.84456003 0.42504001 1.4490001
-0.84180003 0.42504001 1.4490001
-0.84251434 0.42680001 1.455
-0.8397429 0.42680001 1.455
-0.84042287 0.42856002 1.4610001
-0.83764005 0.42856002 1.4610001
-0.84914291 0.43589336 1.4860001
-0.8463124 0.43589336 1.4860001
-0.84348196 0.43589336 1.4860001
-0.84404576 0.43765336 1.4920001
-0.84120387 0.43765336 1.4920001
-0.84229529 0.43970668 1.4990001
-0.83944005 0.43970668 1.4990001
-0.84049147 0.44176 1.506
-0.83762288 0.44176 1.506
-0.83808005 0.44352001 1.5120001
-0.83520001 0.44352001 1.5120001
-0.83617336 0.44557336 1.5190001
-0.83657146 0.44733334 1.5250001
-0.83749336 0.44938669 1.5320001
-0.83838862 0.45144001 1.539
-0.83925718 0.45349336 1.5460001
-0.8400991 0.45554668 1.5530001
-0.84091431 0.45760003 1.5600001
-0.84170288 0.45965335 1.567
-0.8424648 0.4617067 1.5740001
-0.84320003 0.46376002 1.5810001
-0.84444004 0.46610668 1.5890001
-0.84141338 0.46610668 1.5890001
-0.84208006 0.46816 1.5960001
-0.83904004 0.46816 1.5960001
-0.8476972 0.42248574 1.4310001
-0.84497148 0.42248574 1.4310001
-0.84577715 0.42425716 1.437
-0.84656 0.42602858 1.4430001
-0.84381145 0.42602858 1.4430001
-0.84456003 0.42780003 1.4490001
-0.84528577 0.42957145 1.455
-0.84251434 0.42957145 1.455
-0.8397429 0.42957145 1.455
-0.84042287 0.43134287 1.4610001
-0.84108001 0.43311429 1.4670001
-0.84571433 0.43695238 1.48
-0.8463124 0.43872383 1.4860001
-0.84688765 0.44049525 1.4920001
-0.84404576 0.44049525 1.4920001
-0.84120387 0.44049525 1.4920001
-0.84229529 0.44256192 1.4990001
-0.83944005 0.44256192 1.4990001
-0.84049147 0.4446286 1.506
-0.83762288 0.4446286 1.506
-0.83475429 0.4446286 1.506
-0.83520001 0.44640002 1.5120001
-0.83232003 0.44640002 1.5120001
-0.83328003 0.44846669 1.5190001
-0.83366668 0.45023811 1.5250001
-0.83838862 0.45437145 1.539
-0.83925718 0.45643812 1.5460001
-0.8400991 0.45850477 1.5530001
-0.84091431 0.46057144 1.5600001
-0.84170288 0.46263811 1.567
-0.8424648 0.46470478 1.5740001
-0.84320003 0.46677145 1.5810001
-0.84444004 0.46913335 1.5890001
-0.84141338 0.46913335 1.5890001
-0.84208006 0.47120002 1.5960001
-0.83904004 0.47120002 1.5960001
-0.8476972 0.42521143 1.4310001
-0.84851432 0.42699429 1.437
-0.84930861 0.42877716 1.4430001
-0.84656 0.42877716 1.4430001
-0.84732002 0.43056002 1.4490001
-0.84456003 0.43056002 1.4490001
-0.84528577 0.43234289 1.455
-0.84251434 0.43234289 1.455
-0.8397429 0.43234289 1.455
-0.84042287 0.43412572 1.4610001
-0.84108001 0.43590859 1.4670001
-0.84914291 0.44155431 1.4860001
-0.8463124 0.44155431 1.4860001
-0.84688765 0.44333717 1.4920001
-0.84404576 0.44333717 1.4920001
-0.84120387 0.44333717 1.4920001
-0.84229529 0.44541717 1.4990001
-0.83944005 0.44541717 1.4990001
-0.84049147 0.44749716 1.506
-0.83762288 0.44749716 1.506
-0.83475429 0.44749716 1.506
-0.83520001 0.44928002 1.5120001
-0.83232003 0.44928002 1.5120001
-0.83328003 0.45136002 1.5190001
-0.83366668 0.45314288 1.5250001
-0.8345753 0.45522287 1.5320001
-0.83925718 0.45938286 1.5460001
-0.8400991 0.46146289 1.5530001
-0.84091431 0.46354288 1.5600001
-0.84170288 0.46562287 1.567
-0.8424648 0.46770287 1.5740001
-0.84746671 0.47216001 1.5890001
-0.84444004 0.47216001 1.5890001
-0.84512001 0.47424001 1.5960001
-0.8499943 0.47869715 1.6110001
-0.84692574 0.47869715 1.6110001
-0.85125148 0.42973146 1.437
-0.84851432 0.42973146 1.437
-0.84930861 0.43152574 1.4430001
-0.84656 0.43152574 1.4430001
-0.84732002 0.43332002 1.4490001
-0.84805715 0.43511429 1.455
-0.84528577 0.43511429 1.455
-0.84598863 0.43690857 1.4610001
-0.84320575 0.43690857 1.4610001
-0.84387434 0.43870288 1.4670001
-0.84108001 0.43870288 1.4670001
-0.84571433 0.4425905 1.48
-0.84289527 0.4425905 1.48
-0.84348196 0.44438478 1.4860001
-0.84404576 0.44617906 1.4920001
-0.84120387 0.44617906 1.4920001
-0.84229529 0.44827241 1.4990001
-0.83944005 0.44827241 1.4990001
-0.84049147 0.45036572 1.506
-0.83762288 0.45036572 1.506
-0.83475429 0.45036572 1.506
-0.83520001 0.45216003 1.5120001
-0.83232003 0.45216003 1.5120001
-0.83328003 0.45425335 1.5190001
-0.83366668 0.45604762 1.5250001
-0.8345753 0.45814097 1.5320001
-0.83925718 0.46232763 1.5460001
-0.8400991 0.46442097 1.5530001
-0.84091431 0.46651429 1.5600001
-0.84170288 0.46860763 1.567
-0.8424648 0.47070098 1.5740001
-0.84746671 0.47518668 1.5890001
-0.84444004 0.47518668 1.5890001
-0.84512001 0.47728002 1.5960001
-0.8499943 0.48176572 1.6110001
-0.85060573 0.48385906 1.618
-0.84752387 0.48385906 1.618
-0.84444195 0.48385906 1.618
-0.85125148 0.43246859 1.437
-0.84851432 0.43246859 1.437
-0.84930861 0.43427432 1.4430001
-0.84656 0.43427432 1.4430001
-0.84732002 0.43608001 1.4490001
-0.84805715 0.43788573 1.455
-0.84877145 0.43969145 1.4610001
-0.84598863 0.43969145 1.4610001
-0.84320575 0.43969145 1.4610001
-0.84387434 0.44149715 1.4670001
-0.83764005 0.43969145 1.4610001
-0.84914291 0.44721526 1.4860001
-0.8463124 0.44721526 1.4860001
-0.84688765 0.44902098 1.4920001
-0.84404576 0.44902098 1.4920001
-0.84120387 0.44902098 1.4920001
-0.84229529 0.45112765 1.4990001
-0.83944005 0.45112765 1.4990001
-0.84049147 0.45323431 1.506
-0.83762288 0.45323431 1.506
-0.83475429 0.45323431 1.506
-0.83520001 0.45504001 1.5120001
-0.83232003 0.45504001 1.5120001
-0.83328003 0.45714667 1.5190001
-0.83366668 0.4589524 1.5250001
-0.8345753 0.46105906 1.5320001
-0.83545715 0.46316573 1.539
-0.8400991 0.46737906 1.5530001
-0.84091431 0.46948573 1.5600001
-0.8379429 0.46948573 1.5600001
-0.8424648 0.47369906 1.5740001
-0.84320003 0.47580573 1.5810001
-0.84444004 0.47821334 1.5890001
-0.84882671 0.48242667 1.603
-0.8499943 0.48483431 1.6110001
-0.85481149 0.48934859 1.626
-0.85590482 0.4917562 1.6340001
-0.85279244 0.4917562 1.6340001
-0.85125148 0.43520573 1.437
-0.85205716 0.43702286 1.4430001
-0.85284001 0.43884 1.4490001
-0.85008001 0.43884 1.4490001
-0.84732002 0.43884 1.4490001
-0.84805715 0.44065717 1.455
-0.84528577 0.44065717 1.455
-0.84598863 0.44247431 1.4610001
-0.8397429 0.44065717 1.455
-0.84042287 0.44247431 1.4610001
-0.84108001 0.44429144 1.4670001
-0.84171432 0.44610858 1.473
-0.83890861 0.44610858 1.473
-0.84348196 0.45004573 1.4860001
-0.84065145 0.45004573 1.4860001
-0.83782101 0.45004573 1.4860001
-0.83836192 0.45186287 1.4920001
-0.83944005 0.45398286 1.4990001
-0.84049147 0.45610288 1.506
-0.84096003 0.45792001 1.5120001
-0.83808005 0.45792001 1.5120001
-0.83520001 0.45792001 1.5120001
-0.83617336 0.46004 1.5190001
-0.83657146 0.46185717 1.5250001
-0.83366668 0.46185717 1.5250001
-0.8345753 0.46397716 1.5320001
-0.83545715 0.46609715 1.539
-0.83631241 0.46821716 1.5460001
-0.84091431 0.47245717 1.5600001
-0.8379429 0.47245717 1.5600001
-0.8424648 0.47669715 1.5740001
-0.84320003 0.47881716 1.5810001
-0.84816003 0.48336002 1.5960001
-0.85306287 0.48790288 1.6110001
-0.85368764 0.49002287 1.618
-0.85060573 0.49002287 1.618
-0.85590482 0.49486858 1.6340001
-0.85279244 0.49486858 1.6340001
-0.85125148 0.43794286 1.437
