# .PCD v0.7 - Point Cloud Data file format
VERSION 0.7
FIELDS x y z
SIZE 4 4 4
TYPE F F F
COUNT 1 1 1
WIDTH 1585
HEIGHT 1
VIEWPOINT 0 0 0 1 0 0 0
POINTS 1585
DATA ascii
0.51601332 0.50990671 1.603
0.51906669 0.50990671 1.603
0.52212 0.50990671 1.603
0.5277943 0.51245147 1.6110001
0.53086287 0.51245147 1.6110001
0.53393143 0.51245147 1.6110001
0.53933334 0.51467812 1.618
0.54509717 0.51722288 1.626
0.54819429 0.51722288 1.626
0.55129147 0.51722288 1.626
0.55438858 0.51722288 1.626
0.55748576 0.51722288 1.626
0.56058288 0.51722288 1.626
0.56367999 0.51722288 1.626
0.56956571 0.51976764 1.6340001
0.56987429 0.51722288 1.626
0.57579052 0.51976764 1.6340001
0.58138287 0.52199429 1.641
0.5845086 0.52199429 1.641
0.58763433 0.52199429 1.641
0.59364003 0.52453905 1.649
0.59967619 0.52708381 1.6570001
0.60574287 0.52962857 1.6650001
0.60598862 0.52708381 1.6570001
0.60914481 0.52708381 1.6570001
0.61230099 0.52708381 1.6570001
0.61545718 0.52708381 1.6570001
0.62160003 0.52962857 1.6650001
0.62477148 0.52962857 1.6650001
0.62794286 0.52962857 1.6650001
0.6311143 0.52962857 1.6650001
0.64038098 0.5347181 1.6810001
0.64358288 0.5347181 1.6810001
0.65024763 0.53758097 1.6900001
0.6534667 0.53758097 1.6900001
0.65668571 0.53758097 1.6900001
0.65990478 0.53758097 1.6900001
0.66312385 0.53758097 1.6900001
0.91767621 0.58943051 1.853
0.92120576 0.58943051 1.853
0.92473525 0.58943051 1.853
0.9282648 0.58943051 1.853
0.92173719 0.58306861 1.8330001
0.93027622 0.58624953 1.8430001
0.92416006 0.58020574 1.8240001
0.9276343 0.58020574 1.8240001
0.16171429 0.54335999 1.6980001
0.16417143 0.54080003 1.6900001
0.16649905 0.53792 1.6810001
0.16970097 0.53792 1.6810001
0.17382857 0.54080003 1.6900001
0.17359048 0.53024 1.6570001
0.17504001 0.52512002 1.641
0.17816572 0.52512002 1.641
0.18129143 0.52512002 1.641
0.18441714 0.52512002 1.641
0.18674286 0.52288002 1.6340001
0.18985525 0.52288002 1.6340001
0.19296762 0.52288002 1.6340001
0.19512001 0.52032 1.626
0.19821715 0.52032 1.626
0.2013143 0.52032 1.626
0.20340572 0.51776004 1.618
0.20559429 0.51552004 1.6110001
0.20866287 0.51552004 1.6110001
0.20976001 0.51072001 1.5960001
0.21186668 0.50848001 1.5890001
0.21489334 0.50848001 1.5890001
0.21682286 0.50591999 1.5810001
0.2198343 0.50591999 1.5810001
0.22185905 0.50367999 1.5740001
0.22385715 0.50144005 1.567
0.22684191 0.50144005 1.567
0.22982667 0.50144005 1.567
0.23177144 0.49920002 1.5600001
0.23474286 0.49920002 1.5600001
0.23771429 0.49920002 1.5600001
0.24068572 0.49920002 1.5600001
0.24256381 0.49696001 1.5530001
0.24441525 0.49472001 1.5460001
0.24512 0.49024001 1.5320001
0.24690478 0.48800001 1.5250001
0.24768001 0.48384002 1.5120001
0.25056002 0.48384002 1.5120001
0.25243428 0.48192 1.506
0.25530288 0.48192 1.506
0.25697145 0.47968003 1.4990001
0.25982669 0.47968003 1.4990001
0.26145524 0.47744003 1.4920001
0.26217145 0.47360003 1.48
0.26499048 0.47360003 1.48
0.26654288 0.47136003 1.473
0.26934859 0.47136003 1.473
0.2721543 0.47136003 1.473
0.27496001 0.47136003 1.473
0.27776572 0.47136003 1.473
0.28057143 0.47136003 1.473
0.28337714 0.47136003 1.473
0.28618288 0.47136003 1.473
0.28898859 0.47136003 1.473
0.2917943 0.47136003 1.473
0.296 0.47360003 1.48
0.29740572 0.47136003 1.473
0.3016381 0.47360003 1.48
0.30445716 0.47360003 1.48
0.30727619 0.47360003 1.48
0.31009525 0.47360003 1.48
0.31291431 0.47360003 1.48
0.31573334 0.47360003 1.48
0.31984383 0.47552001 1.4860001
0.32397714 0.47744003 1.4920001
0.32681906 0.47744003 1.4920001
0.33120763 0.47968003 1.4990001
0.33406287 0.47968003 1.4990001
0.33691812 0.47968003 1.4990001
0.33977336 0.47968003 1.4990001
0.3442286 0.48192 1.506
0.34848002 0.48384002 1.5120001
0.35136002 0.48384002 1.5120001
0.35283428 0.48192 1.506
0.35712001 0.48384002 1.5120001
0.36000001 0.48384002 1.5120001
0.36288002 0.48384002 1.5120001
0.36576 0.48384002 1.5120001
0.36864001 0.48384002 1.5120001
0.37324002 0.48608002 1.5190001
0.37613335 0.48608002 1.5190001
0.38052383 0.48800001 1.5250001
0.38342857 0.48800001 1.5250001
0.38633335 0.48800001 1.5250001
0.39102477 0.49024001 1.5320001
0.39394286 0.49024001 1.5320001
0.39686096 0.49024001 1.5320001
0.40160573 0.49248001 1.539
0.40453717 0.49248001 1.539
0.40746859 0.49248001 1.539
0.41226667 0.49472001 1.5460001
0.41521144 0.49472001 1.5460001
0.42004955 0.49696001 1.5530001
0.42300764 0.49696001 1.5530001
0.42596573 0.49696001 1.5530001
0.42892382 0.49696001 1.5530001
0.43188193 0.49696001 1.5530001
0.43484002 0.49696001 1.5530001
0.43582478 0.49472001 1.5460001
0.4407562 0.49696001 1.5530001
0.44371429 0.49696001 1.5530001
0.44667241 0.49696001 1.5530001
0.45165715 0.49920002 1.5600001
0.45462859 0.49920002 1.5600001
0.45760003 0.49920002 1.5600001
0.46263811 0.50144005 1.567
0.46770287 0.50367999 1.5740001
0.47070098 0.50367999 1.5740001
0.47369906 0.50367999 1.5740001
0.47669715 0.50367999 1.5740001
0.4818286 0.50591999 1.5810001
0.48484001 0.50591999 1.5810001
0.49032003 0.50848001 1.5890001
0.49334669 0.50848001 1.5890001
0.49856001 0.51072001 1.5960001
0.50160003 0.51072001 1.5960001
0.50685334 0.51296002 1.603
0.50990671 0.51296002 1.603
0.51296002 0.51296002 1.603
0.51601332 0.51296002 1.603
0.52165717 0.51552004 1.6110001
0.52472574 0.51552004 1.6110001
0.5277943 0.51552004 1.6110001
0.53086287 0.51552004 1.6110001
0.53625143 0.51776004 1.618
0.53933334 0.51776004 1.618
0.54509717 0.52032 1.626
0.54819429 0.52032 1.626
0.55129147 0.52032 1.626
0.55438858 0.52032 1.626
0.55748576 0.52032 1.626
0.56058288 0.52032 1.626
0.56645334 0.52288002 1.6340001
0.56956571 0.52288002 1.6340001
0.57267809 0.52288002 1.6340001
0.57579052 0.52288002 1.6340001
0.58138287 0.52512002 1.641
0.5845086 0.52512002 1.641
0.58763433 0.52512002 1.641
0.59364003 0.52768004 1.649
0.59967619 0.53024 1.6570001
0.60574287 0.53280002 1.6650001
0.60598862 0.53024 1.6570001
0.60914481 0.53024 1.6570001
0.61230099 0.53024 1.6570001
0.61545718 0.53024 1.6570001
0.61861336 0.53024 1.6570001
0.62477148 0.53280002 1.6650001
0.62794286 0.53280002 1.6650001
0.6311143 0.53280002 1.6650001
0.63733333 0.53536004 1.6730001
0.64358288 0.53792 1.6810001
0.64678478 0.53792 1.6810001
0.92120576 0.59296 1.853
0.92473525 0.59296 1.853
0.9282648 0.59296 1.853
0.92676574 0.58976001 1.8430001
0.93027622 0.58976001 1.8430001
0.93378669 0.58976001 1.8430001
0.93729717 0.58976001 1.8430001
0.1624762 0.54916954 1.7060001
0.16494858 0.54659432 1.6980001
0.17589334 0.53082097 1.649
0.17903429 0.53082097 1.649
0.18129143 0.52824575 1.641
0.18441714 0.52824575 1.641
0.18674286 0.52599239 1.6340001
0.18985525 0.52599239 1.6340001
0.19296762 0.52599239 1.6340001
0.19512001 0.52341717 1.626
0.19821715 0.52341717 1.626
0.20032382 0.5208419 1.618
0.20340572 0.5208419 1.618
0.20559429 0.5185886 1.6110001
0.20866287 0.5185886 1.6110001
0.20976001 0.51376003 1.5960001
0.21186668 0.51150668 1.5890001
0.21489334 0.51150668 1.5890001
0.21682286 0.50893146 1.5810001
0.2198343 0.50893146 1.5810001
0.22185905 0.5066781 1.5740001
0.22385715 0.50442475 1.567
0.22684191 0.50442475 1.567
0.22982667 0.50442475 1.567
0.23177144 0.50217146 1.5600001
0.23474286 0.50217146 1.5600001
0.23771429 0.50217146 1.5600001
0.24068572 0.50217146 1.5600001
0.24256381 0.4999181 1.5530001
0.24441525 0.49766478 1.5460001
0.24512 0.4931581 1.5320001
0.24690478 0.49090478 1.5250001
0.24768001 0.48672003 1.5120001
0.25056002 0.48672003 1.5120001
0.25243428 0.4847886 1.506
0.25530288 0.4847886 1.506
0.25817144 0.4847886 1.506
0.25982669 0.48253524 1.4990001
0.2626819 0.48253524 1.4990001
0.26323429 0.47835049 1.4860001
0.26499048 0.47641906 1.48
0.26780954 0.47641906 1.48
0.26934859 0.47416574 1.473
0.2721543 0.47416574 1.473
0.27496001 0.47416574 1.473
0.27776572 0.47416574 1.473
0.28057143 0.47416574 1.473
0.28337714 0.47416574 1.473
0.28618288 0.47416574 1.473
0.28898859 0.47416574 1.473
0.2917943 0.47416574 1.473
0.29460001 0.47416574 1.473
0.29740572 0.47416574 1.473
0.3016381 0.47641906 1.48
0.30445716 0.47641906 1.48
0.30727619 0.47641906 1.48
0.31009525 0.47641906 1.48
0.31291431 0.47641906 1.48
0.31701335 0.47835049 1.4860001
0.31984383 0.47835049 1.4860001
0.32397714 0.48028192 1.4920001
0.32681906 0.48028192 1.4920001
0.32966095 0.48028192 1.4920001
0.33406287 0.48253524 1.4990001
0.33691812 0.48253524 1.4990001
0.33977336 0.48253524 1.4990001
0.3442286 0.4847886 1.506
0.34709716 0.4847886 1.506
0.35136002 0.48672003 1.5120001
0.35283428 0.4847886 1.506
0.35712001 0.48672003 1.5120001
0.36000001 0.48672003 1.5120001
0.36288002 0.48672003 1.5120001
0.36576 0.48672003 1.5120001
0.3703467 0.48897335 1.5190001
0.37324002 0.48897335 1.5190001
0.37613335 0.48897335 1.5190001
0.38052383 0.49090478 1.5250001
0.38342857 0.49090478 1.5250001
0.38810667 0.4931581 1.5320001
0.39102477 0.4931581 1.5320001
0.39394286 0.4931581 1.5320001
0.39686096 0.4931581 1.5320001
0.40160573 0.49541146 1.539
0.40453717 0.49541146 1.539
0.40746859 0.49541146 1.539
0.41226667 0.49766478 1.5460001
0.41521144 0.49766478 1.5460001
0.41815621 0.49766478 1.5460001
0.42300764 0.4999181 1.5530001
0.42596573 0.4999181 1.5530001
0.42892382 0.4999181 1.5530001
0.43188193 0.4999181 1.5530001
0.43484002 0.4999181 1.5530001
0.43779811 0.4999181 1.5530001
0.4407562 0.4999181 1.5530001
0.44371429 0.4999181 1.5530001
0.44868574 0.50217146 1.5600001
0.45165715 0.50217146 1.5600001
0.45666859 0.50442475 1.567
0.45965335 0.50442475 1.567
0.46263811 0.50442475 1.567
0.46770287 0.5066781 1.5740001
0.47070098 0.5066781 1.5740001
0.47369906 0.5066781 1.5740001
0.47881716 0.50893146 1.5810001
0.4818286 0.50893146 1.5810001
0.48484001 0.50893146 1.5810001
0.49032003 0.51150668 1.5890001
0.49334669 0.51150668 1.5890001
0.49856001 0.51376003 1.5960001
0.50160003 0.51376003 1.5960001
0.50685334 0.51601332 1.603
0.50990671 0.51601332 1.603
0.51296002 0.51601332 1.603
0.51601332 0.51601332 1.603
0.52165717 0.5185886 1.6110001
0.52472574 0.5185886 1.6110001
0.5277943 0.5185886 1.6110001
0.53316957 0.5208419 1.618
0.53625143 0.5208419 1.618
0.542 0.52341717 1.626
0.54509717 0.52341717 1.626
0.54819429 0.52341717 1.626
0.55129147 0.52341717 1.626
0.55438858 0.52341717 1.626
0.55748576 0.52341717 1.626
0.56058288 0.52341717 1.626
0.56645334 0.52599239 1.6340001
0.56956571 0.52599239 1.6340001
0.57267809 0.52599239 1.6340001
0.57579052 0.52599239 1.6340001
0.58138287 0.52824575 1.641
0.58735812 0.53082097 1.649
0.58763433 0.52824575 1.641
0.59364003 0.53082097 1.649
0.59967619 0.53339618 1.6570001
0.60283238 0.53339618 1.6570001
0.60598862 0.53339618 1.6570001
0.60914481 0.53339618 1.6570001
0.61230099 0.53339618 1.6570001
0.61248577 0.53082097 1.649
0.61861336 0.53339618 1.6570001
0.62176955 0.53339618 1.6570001
0.62492573 0.53339618 1.6570001
0.9282648 0.59648955 1.853
0.92676574 0.59327048 1.8430001
0.93027622 0.59327048 1.8430001
0.93378669 0.59327048 1.8430001
0.17903429 0.53396195 1.649
0.18217525 0.53396195 1.649
0.18531619 0.53396195 1.649
0.18754287 0.53137147 1.641
0.18985525 0.52910477 1.6340001
0.19296762 0.52910477 1.6340001
0.19512001 0.52651429 1.626
0.19821715 0.52651429 1.626
0.20032382 0.52392381 1.618
0.20340572 0.52392381 1.618
0.20648763 0.52392381 1.618
0.20866287 0.52165717 1.6110001
0.20976001 0.51680005 1.5960001
0.21186668 0.51453334 1.5890001
0.21489334 0.51453334 1.5890001
0.21682286 0.51194286 1.5810001
0.21886095 0.50967622 1.5740001
0.22185905 0.50967622 1.5740001
0.22385715 0.50740951 1.567
0.22684191 0.50740951 1.567
0.22880001 0.50514287 1.5600001
0.23177144 0.50514287 1.5600001
0.23474286 0.50514287 1.5600001
0.23771429 0.50514287 1.5600001
0.24068572 0.50514287 1.5600001
0.24256381 0.50287622 1.5530001
0.24552192 0.50287622 1.5530001
0.24512 0.4960762 1.5320001
0.24690478 0.49380955 1.5250001
0.24768001 0.48960003 1.5120001
0.25056002 0.48960003 1.5120001
0.25243428 0.48765716 1.506
0.25530288 0.48765716 1.506
0.25697145 0.48539048 1.4990001
0.25982669 0.48539048 1.4990001
0.2626819 0.48539048 1.4990001
0.26323429 0.48118097 1.4860001
0.26499048 0.47923812 1.48
0.26780954 0.47923812 1.48
0.26934859 0.47697145 1.473
0.2721543 0.47697145 1.473
0.27496001 0.47697145 1.473
0.27776572 0.47697145 1.473
0.28057143 0.47697145 1.473
0.28337714 0.47697145 1.473
0.28618288 0.47697145 1.473
0.28898859 0.47697145 1.473
0.2917943 0.47697145 1.473
0.29460001 0.47697145 1.473
0.29740572 0.47697145 1.473
0.3016381 0.47923812 1.48
0.30445716 0.47923812 1.48
0.30727619 0.47923812 1.48
0.31009525 0.47923812 1.48
0.31291431 0.47923812 1.48
0.31701335 0.48118097 1.4860001
0.31984383 0.48118097 1.4860001
0.3226743 0.48118097 1.4860001
0.32550478 0.48118097 1.4860001
0.32966095 0.48312384 1.4920001
0.33250287 0.48312384 1.4920001
0.33691812 0.48539048 1.4990001
0.33977336 0.48539048 1.4990001
0.3442286 0.48765716 1.506
0.34709716 0.48765716 1.506
0.34996572 0.48765716 1.506
0.35283428 0.48765716 1.506
0.35712001 0.48960003 1.5120001
0.36000001 0.48960003 1.5120001
0.36288002 0.48960003 1.5120001
0.36576 0.48960003 1.5120001
0.3703467 0.49186668 1.5190001
0.37324002 0.49186668 1.5190001
0.37761906 0.49380955 1.5250001
0.38052383 0.49380955 1.5250001
0.38342857 0.49380955 1.5250001
0.38810667 0.4960762 1.5320001
0.39102477 0.4960762 1.5320001
0.39394286 0.4960762 1.5320001
0.39686096 0.4960762 1.5320001
0.40160573 0.49834287 1.539
0.40453717 0.49834287 1.539
0.40746859 0.49834287 1.539
0.4104 0.49834287 1.539
0.41521144 0.50060952 1.5460001
0.41815621 0.50060952 1.5460001
0.42300764 0.50287622 1.5530001
0.42596573 0.50287622 1.5530001
0.42892382 0.50287622 1.5530001
0.43188193 0.50287622 1.5530001
0.4368 0.50514287 1.5600001
0.43779811 0.50287622 1.5530001
0.4407562 0.50287622 1.5530001
0.44371429 0.50287622 1.5530001
0.44868574 0.50514287 1.5600001
0.45368382 0.50740951 1.567
0.45666859 0.50740951 1.567
0.45965335 0.50740951 1.567
0.46470478 0.50967622 1.5740001
0.46770287 0.50967622 1.5740001
0.47070098 0.50967622 1.5740001
0.47580573 0.51194286 1.5810001
0.47881716 0.51194286 1.5810001
0.4818286 0.51194286 1.5810001
0.48729336 0.51453334 1.5890001
0.49032003 0.51453334 1.5890001
0.49334669 0.51453334 1.5890001
0.49856001 0.51680005 1.5960001
0.50160003 0.51680005 1.5960001
0.50685334 0.51906669 1.603
0.50990671 0.51906669 1.603
0.51296002 0.51906669 1.603
0.51601332 0.51906669 1.603
0.52165717 0.52165717 1.6110001
0.52472574 0.52165717 1.6110001
0.53008765 0.52392381 1.618
0.53316957 0.52392381 1.618
0.53890288 0.52651429 1.626
0.542 0.52651429 1.626
0.54509717 0.52651429 1.626
0.54819429 0.52651429 1.626
0.55129147 0.52651429 1.626
0.55438858 0.52651429 1.626
0.55748576 0.52651429 1.626
0.56058288 0.52651429 1.626
0.56645334 0.52910477 1.6340001
0.56956571 0.52910477 1.6340001
0.57267809 0.52910477 1.6340001
0.57579052 0.52910477 1.6340001
0.58138287 0.53137147 1.641
0.5845086 0.53137147 1.641
0.58763433 0.53137147 1.641
0.59364003 0.53396195 1.649
0.59678096 0.53396195 1.649
0.60283238 0.53655243 1.6570001
0.60598862 0.53655243 1.6570001
0.60620385 0.53396195 1.649
0.60934478 0.53396195 1.649
0.6095143 0.53137147 1.641
0.61264002 0.53137147 1.641
0.18674286 0.53221714 1.6340001
0.18985525 0.53221714 1.6340001
0.19296762 0.53221714 1.6340001
0.19512001 0.52961147 1.626
0.19821715 0.52961147 1.626
0.20032382 0.52700573 1.618
0.20252572 0.52472574 1.6110001
0.20559429 0.52472574 1.6110001
0.20866287 0.52472574 1.6110001
0.20976001 0.51984 1.5960001
0.21186668 0.51756001 1.5890001
0.21489334 0.51756001 1.5890001
0.21682286 0.51495433 1.5810001
0.2198343 0.51495433 1.5810001
0.22185905 0.51267433 1.5740001
0.22385715 0.51039428 1.567
0.22684191 0.51039428 1.567
0.22880001 0.50811428 1.5600001
0.23177144 0.50811428 1.5600001
0.23474286 0.50811428 1.5600001
0.23771429 0.50811428 1.5600001
0.24068572 0.50811428 1.5600001
0.24256381 0.50583428 1.5530001
0.24552192 0.50583428 1.5530001
0.24512 0.49899429 1.5320001
0.24690478 0.49671429 1.5250001
0.24882668 0.49476001 1.5190001
0.25056002 0.49248001 1.5120001
0.25243428 0.49052572 1.506
0.25530288 0.49052572 1.506
0.25697145 0.48824573 1.4990001
0.25982669 0.48824573 1.4990001
0.2626819 0.48824573 1.4990001
0.26323429 0.48401144 1.4860001
0.26499048 0.48205715 1.48
0.26780954 0.48205715 1.48
0.27062857 0.48205715 1.48
0.2721543 0.47977716 1.473
0.27496001 0.47977716 1.473
0.27776572 0.47977716 1.473
0.28057143 0.47977716 1.473
0.28337714 0.47977716 1.473
0.28618288 0.47977716 1.473
0.28898859 0.47977716 1.473
0.2917943 0.47977716 1.473
0.29460001 0.47977716 1.473
0.29740572 0.47977716 1.473
0.3016381 0.48205715 1.48
0.30445716 0.48205715 1.48
0.30727619 0.48205715 1.48
0.31009525 0.48205715 1.48
0.31418288 0.48401144 1.4860001
0.31701335 0.48401144 1.4860001
0.31984383 0.48401144 1.4860001
0.32397714 0.48596573 1.4920001
0.32681906 0.48596573 1.4920001
0.32966095 0.48596573 1.4920001
0.33406287 0.48824573 1.4990001
0.33691812 0.48824573 1.4990001
0.33977336 0.48824573 1.4990001
0.3442286 0.49052572 1.506
0.34709716 0.49052572 1.506
0.34996572 0.49052572 1.506
0.35283428 0.49052572 1.506
0.35712001 0.49248001 1.5120001
0.36000001 0.49248001 1.5120001
0.36288002 0.49248001 1.5120001
0.36576 0.49248001 1.5120001
0.3703467 0.49476001 1.5190001
0.37324002 0.49476001 1.5190001
0.37761906 0.49671429 1.5250001
0.38052383 0.49671429 1.5250001
0.38342857 0.49671429 1.5250001
0.38810667 0.49899429 1.5320001
0.39102477 0.49899429 1.5320001
0.39394286 0.49899429 1.5320001
0.39686096 0.49899429 1.5320001
0.40160573 0.50127429 1.539
0.40453717 0.50127429 1.539
0.40746859 0.50127429 1.539
0.4104 0.50127429 1.539
0.41521144 0.50355428 1.5460001
0.41815621 0.50355428 1.5460001
0.42300764 0.50583428 1.5530001
0.42596573 0.50583428 1.5530001
0.42892382 0.50583428 1.5530001
0.43188193 0.50583428 1.5530001
0.4368 0.50811428 1.5600001
0.43779811 0.50583428 1.5530001
0.4407562 0.50583428 1.5530001
0.44371429 0.50583428 1.5530001
0.44868574 0.50811428 1.5600001
0.45368382 0.51039428 1.567
0.45666859 0.51039428 1.567
0.4617067 0.51267433 1.5740001
0.46470478 0.51267433 1.5740001
0.46770287 0.51267433 1.5740001
0.47070098 0.51267433 1.5740001
0.47580573 0.51495433 1.5810001
0.47881716 0.51495433 1.5810001
0.4818286 0.51495433 1.5810001
0.48729336 0.51756001 1.5890001
0.49032003 0.51756001 1.5890001
0.49334669 0.51756001 1.5890001
0.49856001 0.51984 1.5960001
0.50160003 0.51984 1.5960001
0.50685334 0.52212 1.603
0.50990671 0.52212 1.603
0.51296002 0.52212 1.603
0.51601332 0.52212 1.603
0.52165717 0.52472574 1.6110001
0.52472574 0.52472574 1.6110001
0.53008765 0.52700573 1.618
0.53316957 0.52700573 1.618
0.53890288 0.52961147 1.626
0.542 0.52961147 1.626
0.54509717 0.52961147 1.626
0.55089146 0.53221714 1.6340001
0.55400383 0.53221714 1.6340001
0.55438858 0.52961147 1.626
0.55748576 0.52961147 1.626
0.56334096 0.53221714 1.6340001
0.56645334 0.53221714 1.6340001
0.56956571 0.53221714 1.6340001
0.57267809 0.53221714 1.6340001
0.57579052 0.53221714 1.6340001
0.5789029 0.53221714 1.6340001
0.5845086 0.53449714 1.641
0.58763433 0.53449714 1.641
0.59364003 0.53710288 1.649
0.18892573 0.53270859 1.626
0.19202286 0.53270859 1.626
0.19512001 0.53270859 1.626
0.19724192 0.53008765 1.618
0.20032382 0.53008765 1.618
0.20252572 0.5277943 1.6110001
0.20559429 0.5277943 1.6110001
0.20866287 0.5277943 1.6110001
0.20976001 0.52288002 1.5960001
0.21186668 0.52058667 1.5890001
0.21489334 0.52058667 1.5890001
0.21682286 0.51796573 1.5810001
0.2198343 0.51796573 1.5810001
0.22185905 0.51567239 1.5740001
0.22485715 0.51567239 1.5740001
0.22684191 0.51337904 1.567
0.22982667 0.51337904 1.567
0.23177144 0.51108575 1.5600001
0.23474286 0.51108575 1.5600001
0.23771429 0.51108575 1.5600001
0.24068572 0.51108575 1.5600001
0.24256381 0.5087924 1.5530001
0.24552192 0.5087924 1.5530001
0.24512 0.50191242 1.5320001
0.24690478 0.49961907 1.5250001
0.24882668 0.49765337 1.5190001
0.25056002 0.49536002 1.5120001
0.25243428 0.49339432 1.506
0.25530288 0.49339432 1.506
0.25697145 0.49110097 1.4990001
0.25982669 0.49110097 1.4990001
0.2626819 0.49110097 1.4990001
0.26323429 0.48684192 1.4860001
0.26606476 0.48684192 1.4860001
0.26780954 0.48487622 1.48
0.27062857 0.48487622 1.48
0.2721543 0.48258287 1.473
0.27496001 0.48258287 1.473
0.27776572 0.48258287 1.473
0.28057143 0.48258287 1.473
0.28337714 0.48258287 1.473
0.28618288 0.48258287 1.473
0.28898859 0.48258287 1.473
0.2917943 0.48258287 1.473
0.29460001 0.48258287 1.473
0.29740572 0.48258287 1.473
0.3016381 0.48487622 1.48
0.30445716 0.48487622 1.48
0.30727619 0.48487622 1.48
0.31009525 0.48487622 1.48
0.31418288 0.48684192 1.4860001
0.31701335 0.48684192 1.4860001
0.32113525 0.48880765 1.4920001
0.32397714 0.48880765 1.4920001
0.32681906 0.48880765 1.4920001
0.32966095 0.48880765 1.4920001
0.33406287 0.49110097 1.4990001
0.33691812 0.49110097 1.4990001
0.33977336 0.49110097 1.4990001
0.3442286 0.49339432 1.506
0.34709716 0.49339432 1.506
0.34996572 0.49339432 1.506
0.35283428 0.49339432 1.506
0.35712001 0.49536002 1.5120001
0.36000001 0.49536002 1.5120001
0.36288002 0.49536002 1.5120001
0.36576 0.49536002 1.5120001
0.3703467 0.49765337 1.5190001
0.37324002 0.49765337 1.5190001
0.37761906 0.49961907 1.5250001
0.38052383 0.49961907 1.5250001
0.38342857 0.49961907 1.5250001
0.38810667 0.50191242 1.5320001
0.39102477 0.50191242 1.5320001
0.39394286 0.50191242 1.5320001
0.39686096 0.50191242 1.5320001
0.40160573 0.5042057 1.539
0.40453717 0.5042057 1.539
0.40746859 0.5042057 1.539
0.4104 0.5042057 1.539
0.41521144 0.50649905 1.5460001
0.42004955 0.5087924 1.5530001
0.42300764 0.5087924 1.5530001
0.42596573 0.5087924 1.5530001
0.42892382 0.5087924 1.5530001
0.43382859 0.51108575 1.5600001
0.4368 0.51108575 1.5600001
0.43779811 0.5087924 1.5530001
0.4407562 0.5087924 1.5530001
0.44571429 0.51108575 1.5600001
0.44868574 0.51108575 1.5600001
0.45368382 0.51337904 1.567
0.45666859 0.51337904 1.567
0.4617067 0.51567239 1.5740001
0.46470478 0.51567239 1.5740001
0.46770287 0.51567239 1.5740001
0.47070098 0.51567239 1.5740001
0.47580573 0.51796573 1.5810001
0.47881716 0.51796573 1.5810001
0.4818286 0.51796573 1.5810001
0.48484001 0.51796573 1.5810001
0.49032003 0.52058667 1.5890001
0.49334669 0.52058667 1.5890001
0.49637336 0.52058667 1.5890001
0.50160003 0.52288002 1.5960001
0.50464004 0.52288002 1.5960001
0.50990671 0.52517337 1.603
0.51296002 0.52517337 1.603
0.51601332 0.52517337 1.603
0.52165717 0.5277943 1.6110001
0.52472574 0.5277943 1.6110001
0.5277943 0.5277943 1.6110001
0.53316957 0.53008765 1.618
0.53625143 0.53008765 1.618
0.542 0.53270859 1.626
0.54777908 0.53532952 1.6340001
0.55089146 0.53532952 1.6340001
0.55400383 0.53532952 1.6340001
0.55438858 0.53270859 1.626
0.56022859 0.53532952 1.6340001
0.56334096 0.53532952 1.6340001
0.56645334 0.53532952 1.6340001
0.56956571 0.53532952 1.6340001
0.57267809 0.53532952 1.6340001
0.57297146 0.53270859 1.626
0.57606858 0.53270859 1.626
0.1910781 0.53316957 1.618
0.19416001 0.53316957 1.618
0.19724192 0.53316957 1.618
0.19945715 0.53086287 1.6110001
0.20252572 0.53086287 1.6110001
0.20559429 0.53086287 1.6110001
0.20762667 0.52822667 1.603
0.20976001 0.52592003 1.5960001
0.21186668 0.52361333 1.5890001
0.21489334 0.52361333 1.5890001
0.21792001 0.52361333 1.5890001
0.2198343 0.52097714 1.5810001
0.22185905 0.5186705 1.5740001
0.22485715 0.5186705 1.5740001
0.22684191 0.5163638 1.567
0.22982667 0.5163638 1.567
0.23177144 0.51405716 1.5600001
0.23474286 0.51405716 1.5600001
0.23771429 0.51405716 1.5600001
0.24068572 0.51405716 1.5600001
0.24256381 0.51175052 1.5530001
0.24552192 0.51175052 1.5530001
0.24512 0.50483048 1.5320001
0.24690478 0.50252384 1.5250001
0.24882668 0.50054669 1.5190001
0.25056002 0.49824002 1.5120001
0.25243428 0.49626288 1.506
0.25530288 0.49626288 1.506
0.25817144 0.49626288 1.506
0.25982669 0.49395621 1.4990001
0.2626819 0.49395621 1.4990001
0.26323429 0.48967239 1.4860001
0.26606476 0.48967239 1.4860001
0.26780954 0.48769525 1.48
0.27062857 0.48769525 1.48
0.2721543 0.48538858 1.473
0.27496001 0.48538858 1.473
0.27776572 0.48538858 1.473
0.28057143 0.48538858 1.473
0.28337714 0.48538858 1.473
0.28618288 0.48538858 1.473
0.28898859 0.48538858 1.473
0.2917943 0.48538858 1.473
0.29460001 0.48538858 1.473
0.29740572 0.48538858 1.473
0.3016381 0.48769525 1.48
0.30445716 0.48769525 1.48
0.30727619 0.48769525 1.48
0.31009525 0.48769525 1.48
0.31418288 0.48967239 1.4860001
0.31701335 0.48967239 1.4860001
0.32113525 0.49164954 1.4920001
0.32397714 0.49164954 1.4920001
0.32681906 0.49164954 1.4920001
0.32966095 0.49164954 1.4920001
0.33406287 0.49395621 1.4990001
0.33691812 0.49395621 1.4990001
0.33977336 0.49395621 1.4990001
0.3442286 0.49626288 1.506
0.34709716 0.49626288 1.506
0.34996572 0.49626288 1.506
0.35283428 0.49626288 1.506
0.35712001 0.49824002 1.5120001
0.36000001 0.49824002 1.5120001
0.36456001 0.50054669 1.5190001
0.36576 0.49824002 1.5120001
0.3703467 0.50054669 1.5190001
0.37471429 0.50252384 1.5250001
0.37761906 0.50252384 1.5250001
0.38052383 0.50252384 1.5250001
0.38342857 0.50252384 1.5250001
0.38810667 0.50483048 1.5320001
0.39102477 0.50483048 1.5320001
0.39394286 0.50483048 1.5320001
0.39686096 0.50483048 1.5320001
0.40160573 0.50713718 1.539
0.40453717 0.50713718 1.539
0.40932193 0.50944382 1.5460001
0.41226667 0.50944382 1.5460001
0.41709143 0.51175052 1.5530001
0.42004955 0.51175052 1.5530001
0.42300764 0.51175052 1.5530001
0.42596573 0.51175052 1.5530001
0.42892382 0.51175052 1.5530001
0.43382859 0.51405716 1.5600001
0.4368 0.51405716 1.5600001
0.43779811 0.51175052 1.5530001
0.4407562 0.51175052 1.5530001
0.44571429 0.51405716 1.5600001
0.44868574 0.51405716 1.5600001
0.45368382 0.5163638 1.567
0.45666859 0.5163638 1.567
0.4617067 0.5186705 1.5740001
0.46470478 0.5186705 1.5740001
0.46978289 0.52097714 1.5810001
0.47279429 0.52097714 1.5810001
0.47580573 0.52097714 1.5810001
0.47881716 0.52097714 1.5810001
0.4818286 0.52097714 1.5810001
0.48729336 0.52361333 1.5890001
0.49032003 0.52361333 1.5890001
0.49334669 0.52361333 1.5890001
0.49637336 0.52361333 1.5890001
0.50160003 0.52592003 1.5960001
0.50464004 0.52592003 1.5960001
0.50768 0.52592003 1.5960001
0.51296002 0.52822667 1.603
0.51601332 0.52822667 1.603
0.52165717 0.53086287 1.6110001
0.52472574 0.53086287 1.6110001
0.5277943 0.53086287 1.6110001
0.53316957 0.53316957 1.618
0.53890288 0.53580576 1.626
0.542 0.53580576 1.626
0.54777908 0.5384419 1.6340001
0.55089146 0.5384419 1.6340001
0.55400383 0.5384419 1.6340001
0.55438858 0.53580576 1.626
0.56022859 0.5384419 1.6340001
0.56334096 0.5384419 1.6340001
0.56645334 0.5384419 1.6340001
0.56956571 0.5384419 1.6340001
0.57267809 0.5384419 1.6340001
0.57579052 0.5384419 1.6340001
0.19638857 0.53393143 1.6110001
0.19945715 0.53393143 1.6110001
0.20252572 0.53393143 1.6110001
0.20559429 0.53393143 1.6110001
0.20762667 0.53128004 1.603
0.20976001 0.52896005 1.5960001
0.21186668 0.52664 1.5890001
0.21489334 0.52664 1.5890001
0.21792001 0.52664 1.5890001
0.2198343 0.5239886 1.5810001
0.22284572 0.5239886 1.5810001
0.22485715 0.52166861 1.5740001
0.22684191 0.51934856 1.567
0.22880001 0.51702857 1.5600001
0.23177144 0.51702857 1.5600001
0.23474286 0.51702857 1.5600001
0.23771429 0.51702857 1.5600001
0.24068572 0.51702857 1.5600001
0.24256381 0.51470858 1.5530001
0.24441525 0.51238859 1.5460001
0.24624 0.5100686 1.539
0.24690478 0.50542861 1.5250001
0.24882668 0.50344002 1.5190001
0.25056002 0.50112003 1.5120001
0.25344002 0.50112003 1.5120001
0.25530288 0.49913144 1.506
0.25817144 0.49913144 1.506
0.25982669 0.49681145 1.4990001
0.2626819 0.49681145 1.4990001
0.26553714 0.49681145 1.4990001
0.26606476 0.49250287 1.4860001
0.26889524 0.49250287 1.4860001
0.27062857 0.49051431 1.48
0.27344763 0.49051431 1.48
0.27626666 0.49051431 1.48
0.27908573 0.49051431 1.48
0.28057143 0.48819432 1.473
0.28337714 0.48819432 1.473
0.28618288 0.48819432 1.473
0.28898859 0.48819432 1.473
0.2917943 0.48819432 1.473
0.29460001 0.48819432 1.473
0.29740572 0.48819432 1.473
0.30021143 0.48819432 1.473
0.30445716 0.49051431 1.48
0.30727619 0.49051431 1.48
0.3113524 0.49250287 1.4860001
0.31418288 0.49250287 1.4860001
0.31701335 0.49250287 1.4860001
0.32113525 0.49449146 1.4920001
0.32397714 0.49449146 1.4920001
0.32681906 0.49449146 1.4920001
0.32966095 0.49449146 1.4920001
0.33406287 0.49681145 1.4990001
0.33691812 0.49681145 1.4990001
0.33977336 0.49681145 1.4990001
0.3426286 0.49681145 1.4990001
0.34709716 0.49913144 1.506
0.34996572 0.49913144 1.506
0.35424 0.50112003 1.5120001
0.35712001 0.50112003 1.5120001
0.36000001 0.50112003 1.5120001
0.36456001 0.50344002 1.5190001
0.36745334 0.50344002 1.5190001
0.3703467 0.50344002 1.5190001
0.37471429 0.50542861 1.5250001
0.37761906 0.50542861 1.5250001
0.38052383 0.50542861 1.5250001
0.38342857 0.50542861 1.5250001
0.38810667 0.5077486 1.5320001
0.39102477 0.5077486 1.5320001
0.39394286 0.5077486 1.5320001
0.39686096 0.5077486 1.5320001
0.40160573 0.5100686 1.539
0.40637717 0.51238859 1.5460001
0.40932193 0.51238859 1.5460001
0.41413334 0.51470858 1.5530001
0.41709143 0.51470858 1.5530001
0.42004955 0.51470858 1.5530001
0.42300764 0.51470858 1.5530001
0.42596573 0.51470858 1.5530001
0.43085715 0.51702857 1.5600001
0.43382859 0.51702857 1.5600001
0.4368 0.51702857 1.5600001
0.43779811 0.51470858 1.5530001
0.44274288 0.51702857 1.5600001
0.44571429 0.51702857 1.5600001
0.44868574 0.51702857 1.5600001
0.45368382 0.51934856 1.567
0.45666859 0.51934856 1.567
0.4617067 0.52166861 1.5740001
0.46677145 0.5239886 1.5810001
0.46978289 0.5239886 1.5810001
0.47279429 0.5239886 1.5810001
0.47580573 0.5239886 1.5810001
0.47881716 0.5239886 1.5810001
0.4842667 0.52664 1.5890001
0.48729336 0.52664 1.5890001
0.49032003 0.52664 1.5890001
0.49334669 0.52664 1.5890001
0.49637336 0.52664 1.5890001
0.50160003 0.52896005 1.5960001
0.50464004 0.52896005 1.5960001
0.50990671 0.53128004 1.603
0.51296002 0.53128004 1.603
0.51601332 0.53128004 1.603
0.51906669 0.53128004 1.603
0.52472574 0.53393143 1.6110001
0.5277943 0.53393143 1.6110001
0.53316957 0.53625143 1.618
0.53890288 0.53890288 1.626
0.542 0.53890288 1.626
0.54509717 0.53890288 1.626
0.55089146 0.54155433 1.6340001
0.55129147 0.53890288 1.626
0.55438858 0.53890288 1.626
0.55748576 0.53890288 1.626
0.56334096 0.54155433 1.6340001
0.56645334 0.54155433 1.6340001
0.56956571 0.54155433 1.6340001
0.57267809 0.54155433 1.6340001
0.19638857 0.537 1.6110001
0.19945715 0.537 1.6110001
0.20252572 0.537 1.6110001
0.20559429 0.537 1.6110001
0.20866287 0.537 1.6110001
0.20976001 0.53200001 1.5960001
0.21280001 0.53200001 1.5960001
0.21489334 0.52966666 1.5890001
0.21792001 0.52966666 1.5890001
0.2198343 0.52700001 1.5810001
0.22284572 0.52700001 1.5810001
0.22485715 0.52466667 1.5740001
0.22785525 0.52466667 1.5740001
0.22982667 0.52233332 1.567
0.23281144 0.52233332 1.567
0.23474286 0.52000004 1.5600001
0.23771429 0.52000004 1.5600001
0.23960572 0.5176667 1.5530001
0.24256381 0.5176667 1.5530001
0.24441525 0.51533335 1.5460001
0.24624 0.51300001 1.539
0.24690478 0.50833333 1.5250001
0.24882668 0.50633335 1.5190001
0.25056002 0.50400001 1.5120001
0.25344002 0.50400001 1.5120001
0.25530288 0.50200003 1.506
0.25817144 0.50200003 1.506
0.25982669 0.49966669 1.4990001
0.2626819 0.49966669 1.4990001
0.26553714 0.49966669 1.4990001
0.26606476 0.49533334 1.4860001
0.26889524 0.49533334 1.4860001
0.27062857 0.49333334 1.48
0.27344763 0.49333334 1.48
0.27626666 0.49333334 1.48
0.27908573 0.49333334 1.48
0.28057143 0.49100003 1.473
0.28337714 0.49100003 1.473
0.28618288 0.49100003 1.473
0.28898859 0.49100003 1.473
0.2917943 0.49100003 1.473
0.29460001 0.49100003 1.473
0.29740572 0.49100003 1.473
0.30021143 0.49100003 1.473
0.30445716 0.49333334 1.48
0.30727619 0.49333334 1.48
0.3113524 0.49533334 1.4860001
0.31418288 0.49533334 1.4860001
0.31701335 0.49533334 1.4860001
0.32113525 0.49733335 1.4920001
0.32397714 0.49733335 1.4920001
0.32681906 0.49733335 1.4920001
0.32966095 0.49733335 1.4920001
0.33406287 0.49966669 1.4990001
0.33691812 0.49966669 1.4990001
0.33977336 0.49966669 1.4990001
0.3442286 0.50200003 1.506
0.34709716 0.50200003 1.506
0.34996572 0.50200003 1.506
0.35424 0.50400001 1.5120001
0.35712001 0.50400001 1.5120001
0.36000001 0.50400001 1.5120001
0.36456001 0.50633335 1.5190001
0.36745334 0.50633335 1.5190001
0.3703467 0.50633335 1.5190001
0.37324002 0.50633335 1.5190001
0.37761906 0.50833333 1.5250001
0.38052383 0.50833333 1.5250001
0.38342857 0.50833333 1.5250001
0.38810667 0.51066667 1.5320001
0.39102477 0.51066667 1.5320001
0.39394286 0.51066667 1.5320001
0.39686096 0.51066667 1.5320001
0.40160573 0.51300001 1.539
0.40637717 0.51533335 1.5460001
0.40932193 0.51533335 1.5460001
0.41413334 0.5176667 1.5530001
0.41709143 0.5176667 1.5530001
0.42004955 0.5176667 1.5530001
0.42300764 0.5176667 1.5530001
0.42788574 0.52000004 1.5600001
0.43085715 0.52000004 1.5600001
0.43382859 0.52000004 1.5600001
0.4368 0.52000004 1.5600001
0.43779811 0.5176667 1.5530001
0.44274288 0.52000004 1.5600001
0.44571429 0.52000004 1.5600001
0.45069906 0.52233332 1.567
0.45368382 0.52233332 1.567
0.45666859 0.52233332 1.567
0.4617067 0.52466667 1.5740001
0.46677145 0.52700001 1.5810001
0.46978289 0.52700001 1.5810001
0.47279429 0.52700001 1.5810001
0.47580573 0.52700001 1.5810001
0.48124 0.52966666 1.5890001
0.4842667 0.52966666 1.5890001
0.48729336 0.52966666 1.5890001
0.49032003 0.52966666 1.5890001
0.49334669 0.52966666 1.5890001
0.49637336 0.52966666 1.5890001
0.50160003 0.53200001 1.5960001
0.50464004 0.53200001 1.5960001
0.50768 0.53200001 1.5960001
0.51296002 0.53433335 1.603
0.51601332 0.53433335 1.603
0.51906669 0.53433335 1.603
0.52472574 0.537 1.6110001
0.5277943 0.537 1.6110001
0.53316957 0.53933334 1.618
0.53890288 0.542 1.626
0.542 0.542 1.626
0.54241526 0.53933334 1.618
0.55089146 0.54466671 1.6340001
0.55129147 0.542 1.626
0.55438858 0.542 1.626
0.55748576 0.542 1.626
0.20152001 0.53738672 1.603
0.20559429 0.54006857 1.6110001
0.20866287 0.54006857 1.6110001
0.20976001 0.53504002 1.5960001
0.21280001 0.53504002 1.5960001
0.21489334 0.53269333 1.5890001
0.21792001 0.53269333 1.5890001
0.2198343 0.53001148 1.5810001
0.22284572 0.53001148 1.5810001
0.22585715 0.53001148 1.5810001
0.22785525 0.52766478 1.5740001
0.22982667 0.52531809 1.567
0.23281144 0.52531809 1.567
0.23474286 0.52297145 1.5600001
0.23771429 0.52297145 1.5600001
0.23960572 0.52062476 1.5530001
0.24256381 0.52062476 1.5530001
0.24441525 0.51827812 1.5460001
0.24624 0.51593143 1.539
0.24690478 0.5112381 1.5250001
0.24882668 0.50922668 1.5190001
0.25172001 0.50922668 1.5190001
0.25344002 0.50688004 1.5120001
0.25530288 0.50486857 1.506
0.25817144 0.50486857 1.506
0.25982669 0.50252193 1.4990001
0.2626819 0.50252193 1.4990001
0.26429716 0.50017524 1.4920001
0.26606476 0.49816382 1.4860001
0.26889524 0.49816382 1.4860001
0.27062857 0.4961524 1.48
0.27344763 0.4961524 1.48
0.27626666 0.4961524 1.48
0.27908573 0.4961524 1.48
0.28057143 0.49380574 1.473
0.28337714 0.49380574 1.473
0.28618288 0.49380574 1.473
0.28898859 0.49380574 1.473
0.2917943 0.49380574 1.473
0.29460001 0.49380574 1.473
0.29740572 0.49380574 1.473
0.3016381 0.4961524 1.48
0.30445716 0.4961524 1.48
0.30727619 0.4961524 1.48
0.31009525 0.4961524 1.48
0.31418288 0.49816382 1.4860001
0.31701335 0.49816382 1.4860001
0.32113525 0.50017524 1.4920001
0.32397714 0.50017524 1.4920001
0.32681906 0.50017524 1.4920001
0.33120763 0.50252193 1.4990001
0.33406287 0.50252193 1.4990001
0.33691812 0.50252193 1.4990001
0.33977336 0.50252193 1.4990001
0.3442286 0.50486857 1.506
0.34709716 0.50486857 1.506
0.35136002 0.50688004 1.5120001
0.35424 0.50688004 1.5120001
0.35712001 0.50688004 1.5120001
0.36166668 0.50922668 1.5190001
0.36456001 0.50922668 1.5190001
0.36745334 0.50922668 1.5190001
0.37180954 0.5112381 1.5250001
0.37471429 0.5112381 1.5250001
0.37761906 0.5112381 1.5250001
0.38052383 0.5112381 1.5250001
0.38342857 0.5112381 1.5250001
0.38810667 0.51358479 1.5320001
0.39102477 0.51358479 1.5320001
0.39394286 0.51358479 1.5320001
0.39686096 0.51358479 1.5320001
0.40160573 0.51593143 1.539
0.40637717 0.51827812 1.5460001
0.40932193 0.51827812 1.5460001
0.41226667 0.51827812 1.5460001
0.41709143 0.52062476 1.5530001
0.42004955 0.52062476 1.5530001
0.42300764 0.52062476 1.5530001
0.42788574 0.52297145 1.5600001
0.43085715 0.52297145 1.5600001
0.43382859 0.52297145 1.5600001
0.4368 0.52297145 1.5600001
0.43977144 0.52297145 1.5600001
0.44274288 0.52297145 1.5600001
0.44571429 0.52297145 1.5600001
0.45069906 0.52531809 1.567
0.45368382 0.52531809 1.567
0.45666859 0.52531809 1.567
0.4617067 0.52766478 1.5740001
0.46677145 0.53001148 1.5810001
0.46978289 0.53001148 1.5810001
0.47279429 0.53001148 1.5810001
0.47580573 0.53001148 1.5810001
0.48124 0.53269333 1.5890001
0.4842667 0.53269333 1.5890001
0.48729336 0.53269333 1.5890001
0.49032003 0.53269333 1.5890001
0.49334669 0.53269333 1.5890001
0.49387431 0.53001148 1.5810001
0.49940002 0.53269333 1.5890001
0.50464004 0.53504002 1.5960001
0.50768 0.53504002 1.5960001
0.51072001 0.53504002 1.5960001
0.51601332 0.53738672 1.603
0.51906669 0.53738672 1.603
0.52472574 0.54006857 1.6110001
0.5277943 0.54006857 1.6110001
0.53580576 0.54509717 1.626
0.53625143 0.54241526 1.618
0.53933334 0.54241526 1.618
0.54241526 0.54241526 1.618
0.20648763 0.54549718 1.618
0.20866287 0.54313713 1.6110001
0.20976001 0.53808004 1.5960001
0.21280001 0.53808004 1.5960001
0.21489334 0.53571999 1.5890001
0.21792001 0.53571999 1.5890001
0.22094667 0.53571999 1.5890001
0.22284572 0.53302288 1.5810001
0.22585715 0.53302288 1.5810001
0.22785525 0.53066289 1.5740001
0.22982667 0.52830285 1.567
0.23281144 0.52830285 1.567
0.23474286 0.52594286 1.5600001
0.23771429 0.52594286 1.5600001
0.23960572 0.52358288 1.5530001
0.24256381 0.52358288 1.5530001
0.24441525 0.52122289 1.5460001
0.24624 0.5188629 1.539
0.24690478 0.51414287 1.5250001
0.24980953 0.51414287 1.5250001
0.25172001 0.51212001 1.5190001
0.25344002 0.50976002 1.5120001
0.25530288 0.50773716 1.506
0.25697145 0.50537717 1.4990001
0.25982669 0.50537717 1.4990001
0.2626819 0.50537717 1.4990001
0.26429716 0.50301719 1.4920001
0.26606476 0.50099432 1.4860001
0.26780954 0.49897143 1.48
0.27062857 0.49897143 1.48
0.27344763 0.49897143 1.48
0.27626666 0.49897143 1.48
0.27908573 0.49897143 1.48
0.28057143 0.49661145 1.473
0.28337714 0.49661145 1.473
0.28618288 0.49661145 1.473
0.28898859 0.49661145 1.473
0.2917943 0.49661145 1.473
0.29460001 0.49661145 1.473
0.29740572 0.49661145 1.473
0.3016381 0.49897143 1.48
0.30445716 0.49897143 1.48
0.30727619 0.49897143 1.48
0.31009525 0.49897143 1.48
0.31418288 0.50099432 1.4860001
0.31701335 0.50099432 1.4860001
0.32113525 0.50301719 1.4920001
0.32397714 0.50301719 1.4920001
0.32681906 0.50301719 1.4920001
0.33120763 0.50537717 1.4990001
0.33406287 0.50537717 1.4990001
0.33691812 0.50537717 1.4990001
0.33977336 0.50537717 1.4990001
0.3442286 0.50773716 1.506
0.34709716 0.50773716 1.506
0.35136002 0.50976002 1.5120001
0.35424 0.50976002 1.5120001
0.35712001 0.50976002 1.5120001
0.36166668 0.51212001 1.5190001
0.36456001 0.51212001 1.5190001
0.36745334 0.51212001 1.5190001
0.37180954 0.51414287 1.5250001
0.37471429 0.51414287 1.5250001
0.37761906 0.51414287 1.5250001
0.38052383 0.51414287 1.5250001
0.38342857 0.51414287 1.5250001
0.38810667 0.51650286 1.5320001
0.39102477 0.51650286 1.5320001
0.39394286 0.51650286 1.5320001
0.39686096 0.51650286 1.5320001
0.40160573 0.5188629 1.539
0.40637717 0.52122289 1.5460001
0.41117525 0.52358288 1.5530001
0.41413334 0.52358288 1.5530001
0.41709143 0.52358288 1.5530001
0.42004955 0.52358288 1.5530001
0.42300764 0.52358288 1.5530001
0.42788574 0.52594286 1.5600001
0.43085715 0.52594286 1.5600001
0.43382859 0.52594286 1.5600001
0.4368 0.52594286 1.5600001
0.43977144 0.52594286 1.5600001
0.44274288 0.52594286 1.5600001
0.44571429 0.52594286 1.5600001
0.45069906 0.52830285 1.567
0.45368382 0.52830285 1.567
0.45666859 0.52830285 1.567
0.4617067 0.53066289 1.5740001
0.46470478 0.53066289 1.5740001
0.46978289 0.53302288 1.5810001
0.47279429 0.53302288 1.5810001
0.47580573 0.53302288 1.5810001
0.47881716 0.53302288 1.5810001
0.4842667 0.53571999 1.5890001
0.48729336 0.53571999 1.5890001
0.49032003 0.53571999 1.5890001
0.49334669 0.53571999 1.5890001
0.49387431 0.53302288 1.5810001
0.49940002 0.53571999 1.5890001
0.50242668 0.53571999 1.5890001
0.50768 0.53808004 1.5960001
0.51072001 0.53808004 1.5960001
0.51601332 0.54044002 1.603
0.51906669 0.54044002 1.603
0.52472574 0.54313713 1.6110001
0.5277943 0.54313713 1.6110001
0.53086287 0.54313713 1.6110001
0.53625143 0.54549718 1.618
0.20976001 0.54111999 1.5960001
0.21280001 0.54111999 1.5960001
0.21489334 0.53874671 1.5890001
0.21792001 0.53874671 1.5890001
0.22094667 0.53874671 1.5890001
0.22284572 0.53603429 1.5810001
0.22585715 0.53603429 1.5810001
0.22785525 0.53366095 1.5740001
0.23085335 0.53366095 1.5740001
0.23281144 0.53128761 1.567
0.23474286 0.52891433 1.5600001
0.23771429 0.52891433 1.5600001
0.24068572 0.52891433 1.5600001
0.24256381 0.52654099 1.5530001
0.24441525 0.52416766 1.5460001
0.24624 0.52179432 1.539
0.24690478 0.51704764 1.5250001
0.24980953 0.51704764 1.5250001
0.25172001 0.51501334 1.5190001
0.25344002 0.51264 1.5120001
0.25530288 0.51060575 1.506
0.25817144 0.51060575 1.506
0.25982669 0.50823241 1.4990001
0.2626819 0.50823241 1.4990001
0.26429716 0.50585908 1.4920001
0.26606476 0.50382477 1.4860001
0.26889524 0.50382477 1.4860001
0.27062857 0.50179052 1.48
0.27344763 0.50179052 1.48
0.27626666 0.50179052 1.48
0.27908573 0.50179052 1.48
0.28190479 0.50179052 1.48
0.28337714 0.49941716 1.473
0.28618288 0.49941716 1.473
0.28898859 0.49941716 1.473
0.2917943 0.49941716 1.473
0.29460001 0.49941716 1.473
0.29740572 0.49941716 1.473
0.3016381 0.50179052 1.48
0.30445716 0.50179052 1.48
0.30727619 0.50179052 1.48
0.3113524 0.50382477 1.4860001
0.31545144 0.50585908 1.4920001
0.31829333 0.50585908 1.4920001
0.32113525 0.50585908 1.4920001
0.32549715 0.50823241 1.4990001
0.32835239 0.50823241 1.4990001
0.33120763 0.50823241 1.4990001
0.33406287 0.50823241 1.4990001
0.33691812 0.50823241 1.4990001
0.34136 0.51060575 1.506
0.3442286 0.51060575 1.506
0.34709716 0.51060575 1.506
0.35136002 0.51264 1.5120001
0.35424 0.51264 1.5120001
0.35877335 0.51501334 1.5190001
0.36166668 0.51501334 1.5190001
0.36456001 0.51501334 1.5190001
0.36745334 0.51501334 1.5190001
0.37180954 0.51704764 1.5250001
0.37471429 0.51704764 1.5250001
0.37761906 0.51704764 1.5250001
0.38052383 0.51704764 1.5250001
0.38342857 0.51704764 1.5250001
0.38810667 0.51942098 1.5320001
0.39102477 0.51942098 1.5320001
0.39394286 0.51942098 1.5320001
0.39867431 0.52179432 1.539
0.40160573 0.52179432 1.539
0.40637717 0.52416766 1.5460001
0.41117525 0.52654099 1.5530001
0.41413334 0.52654099 1.5530001
0.41709143 0.52654099 1.5530001
0.42004955 0.52654099 1.5530001
0.42300764 0.52654099 1.5530001
0.42788574 0.52891433 1.5600001
0.43085715 0.52891433 1.5600001
0.43382859 0.52891433 1.5600001
0.4368 0.52891433 1.5600001
0.43977144 0.52891433 1.5600001
0.44274288 0.52891433 1.5600001
0.44571429 0.52891433 1.5600001
0.45069906 0.53128761 1.567
0.45368382 0.53128761 1.567
0.45666859 0.53128761 1.567
0.4617067 0.53366095 1.5740001
0.46470478 0.53366095 1.5740001
0.46978289 0.53603429 1.5810001
0.47279429 0.53603429 1.5810001
0.47580573 0.53603429 1.5810001
0.47881716 0.53603429 1.5810001
0.4842667 0.53874671 1.5890001
0.48729336 0.53874671 1.5890001
0.49032003 0.53874671 1.5890001
0.49334669 0.53874671 1.5890001
0.49387431 0.53603429 1.5810001
0.49940002 0.53874671 1.5890001
0.50464004 0.54111999 1.5960001
0.50768 0.54111999 1.5960001
0.51072001 0.54111999 1.5960001
0.51601332 0.54349333 1.603
0.51906669 0.54349333 1.603
0.52212 0.54349333 1.603
0.5277943 0.54620576 1.6110001
0.21186668 0.54177338 1.5890001
0.21489334 0.54177338 1.5890001
0.21792001 0.54177338 1.5890001
0.22094667 0.54177338 1.5890001
0.22284572 0.53904575 1.5810001
0.22585715 0.53904575 1.5810001
0.22785525 0.53665906 1.5740001
0.23085335 0.53665906 1.5740001
0.23385143 0.53665906 1.5740001
0.2357962 0.53427237 1.567
0.23771429 0.53188574 1.5600001
0.24068572 0.53188574 1.5600001
0.24256381 0.52949905 1.5530001
0.24441525 0.52711242 1.5460001
0.24624 0.52472574 1.539
0.24690478 0.51995242 1.5250001
0.24980953 0.51995242 1.5250001
0.25172001 0.51790667 1.5190001
0.25344002 0.51552004 1.5120001
0.25632 0.51552004 1.5120001
0.25817144 0.51347429 1.506
0.25982669 0.51108766 1.4990001
0.2626819 0.51108766 1.4990001
0.26429716 0.50870097 1.4920001
0.26606476 0.50665528 1.4860001
0.26889524 0.50665528 1.4860001
0.27062857 0.50460953 1.48
0.27344763 0.50460953 1.48
0.27626666 0.50460953 1.48
0.27908573 0.50460953 1.48
0.28190479 0.50460953 1.48
0.28337714 0.5022229 1.473
0.28618288 0.5022229 1.473
0.28898859 0.5022229 1.473
0.2917943 0.5022229 1.473
0.29460001 0.5022229 1.473
0.29740572 0.5022229 1.473
0.30021143 0.5022229 1.473
0.30445716 0.50460953 1.48
0.30727619 0.50460953 1.48
0.3113524 0.50665528 1.4860001
0.31418288 0.50665528 1.4860001
0.31829333 0.50870097 1.4920001
0.32113525 0.50870097 1.4920001
0.32549715 0.51108766 1.4990001
0.32835239 0.51108766 1.4990001
0.33120763 0.51108766 1.4990001
0.33406287 0.51108766 1.4990001
0.33691812 0.51108766 1.4990001
0.34136 0.51347429 1.506
0.3442286 0.51347429 1.506
0.34709716 0.51347429 1.506
0.34996572 0.51347429 1.506
0.35424 0.51552004 1.5120001
0.35712001 0.51552004 1.5120001
0.36166668 0.51790667 1.5190001
0.36456001 0.51790667 1.5190001
0.36890477 0.51995242 1.5250001
0.37180954 0.51995242 1.5250001
0.37471429 0.51995242 1.5250001
0.37761906 0.51995242 1.5250001
0.38052383 0.51995242 1.5250001
0.38342857 0.51995242 1.5250001
0.38810667 0.52233905 1.5320001
0.39102477 0.52233905 1.5320001
0.39394286 0.52233905 1.5320001
0.39867431 0.52472574 1.539
0.4034324 0.52711242 1.5460001
0.40637717 0.52711242 1.5460001
0.41117525 0.52949905 1.5530001
0.41413334 0.52949905 1.5530001
0.41709143 0.52949905 1.5530001
0.42004955 0.52949905 1.5530001
0.42300764 0.52949905 1.5530001
0.42788574 0.53188574 1.5600001
0.43085715 0.53188574 1.5600001
0.43382859 0.53188574 1.5600001
0.4368 0.53188574 1.5600001
0.43779811 0.52949905 1.5530001
0.4407562 0.52949905 1.5530001
0.44571429 0.53188574 1.5600001
0.44868574 0.53188574 1.5600001
0.45165715 0.53188574 1.5600001
0.45666859 0.53427237 1.567
0.45965335 0.53427237 1.567
0.46470478 0.53665906 1.5740001
0.46770287 0.53665906 1.5740001
0.47070098 0.53665906 1.5740001
0.47580573 0.53904575 1.5810001
0.47881716 0.53904575 1.5810001
0.4818286 0.53904575 1.5810001
0.48484001 0.53904575 1.5810001
0.49032003 0.54177338 1.5890001
0.49334669 0.54177338 1.5890001
0.49637336 0.54177338 1.5890001
0.21381144 0.54205716 1.5810001
0.21682286 0.54205716 1.5810001
0.2198343 0.54205716 1.5810001
0.22284572 0.54205716 1.5810001
0.22585715 0.54205716 1.5810001
0.22785525 0.53965718 1.5740001
0.23085335 0.53965718 1.5740001
0.23281144 0.53725713 1.567
0.2357962 0.53725713 1.567
0.23771429 0.53485715 1.5600001
0.24068572 0.53485715 1.5600001
0.24256381 0.53245717 1.5530001
0.24441525 0.53005719 1.5460001
0.24624 0.52765715 1.539
0.24690478 0.52285719 1.5250001
0.24980953 0.52285719 1.5250001
0.25172001 0.52079999 1.5190001
0.25344002 0.51840001 1.5120001
0.25632 0.51840001 1.5120001
0.25817144 0.51634288 1.506
0.25982669 0.5139429 1.4990001
0.2626819 0.5139429 1.4990001
0.26429716 0.51154286 1.4920001
0.26606476 0.50948572 1.4860001
0.26889524 0.50948572 1.4860001
0.27172571 0.50948572 1.4860001
0.27344763 0.50742859 1.48
0.27626666 0.50742859 1.48
0.27908573 0.50742859 1.48
0.28190479 0.50742859 1.48
0.28337714 0.50502861 1.473
0.28618288 0.50502861 1.473
0.28898859 0.50502861 1.473
0.2917943 0.50502861 1.473
0.29460001 0.50502861 1.473
0.29881907 0.50742859 1.48
0.30286098 0.50948572 1.4860001
0.30569145 0.50948572 1.4860001
0.30852193 0.50948572 1.4860001
0.3113524 0.50948572 1.4860001
0.31545144 0.51154286 1.4920001
0.31829333 0.51154286 1.4920001
0.32264191 0.5139429 1.4990001
0.32549715 0.5139429 1.4990001
0.32835239 0.5139429 1.4990001
0.33120763 0.5139429 1.4990001
0.33406287 0.5139429 1.4990001
0.33849144 0.51634288 1.506
0.34136 0.51634288 1.506
0.3442286 0.51634288 1.506
0.34709716 0.51634288 1.506
0.34996572 0.51634288 1.506
0.35424 0.51840001 1.5120001
0.35877335 0.52079999 1.5190001
