# .PCD v0.7 - Point Cloud Data file format
VERSION 0.7
FIELDS x y z
SIZE 4 4 4
TYPE F F F
COUNT 1 1 1
WIDTH 1531
HEIGHT 1
VIEWPOINT 0 0 0 1 0 0 0
POINTS 1531
DATA ascii
0.15535238 0.20584191 2.039
0.15829906 0.20463048 2.0270002
0.16216001 0.20463048 2.0270002
0.16700381 0.20584191 2.039
0.17088762 0.20584191 2.039
0.17477143 0.20584191 2.039
0.17865525 0.20584191 2.039
0.18253906 0.20584191 2.039
0.18752001 0.20705333 2.0510001
0.19142668 0.20705333 2.0510001
0.19533335 0.20705333 2.0510001
0.19924001 0.20705333 2.0510001
0.20314668 0.20705333 2.0510001
0.20584191 0.20584191 2.039
0.20972572 0.20584191 2.039
0.21360953 0.20584191 2.039
0.21877334 0.20705333 2.0510001
0.22268 0.20705333 2.0510001
0.22658667 0.20705333 2.0510001
0.22914477 0.20584191 2.039
0.2344 0.20705333 2.0510001
0.23691238 0.20584191 2.039
0.24079619 0.20584191 2.039
0.24468 0.20584191 2.039
0.25002667 0.20705333 2.0510001
0.25393334 0.20705333 2.0510001
0.25784001 0.20705333 2.0510001
0.26174667 0.20705333 2.0510001
0.26565334 0.20705333 2.0510001
0.26956001 0.20705333 2.0510001
0.27346668 0.20705333 2.0510001
0.27737334 0.20705333 2.0510001
0.28128001 0.20705333 2.0510001
0.28518668 0.20705333 2.0510001
0.28571048 0.20463048 2.0270002
0.28957143 0.20463048 2.0270002
0.29343238 0.20463048 2.0270002
0.29729334 0.20463048 2.0270002
0.30115429 0.20463048 2.0270002
0.30501524 0.20463048 2.0270002
0.30887622 0.20463048 2.0270002
0.31273717 0.20463048 2.0270002
0.31659812 0.20463048 2.0270002
0.31856191 0.20341906 2.0150001
0.32432002 0.20463048 2.0270002
0.3262381 0.20341906 2.0150001
0.33007619 0.20341906 2.0150001
0.33391431 0.20341906 2.0150001
0.3377524 0.20341906 2.0150001
0.34159049 0.20341906 2.0150001
0.34542859 0.20341906 2.0150001
0.34926668 0.20341906 2.0150001
0.35310477 0.20341906 2.0150001
0.35481715 0.20220762 2.003
0.35863239 0.20220762 2.003
0.36045715 0.20109715 1.9920001
0.36626288 0.20220762 2.003
0.36804572 0.20109715 1.9920001
0.37389335 0.20220762 2.003
0.37997144 0.20341906 2.0150001
0.38380954 0.20341906 2.0150001
0.38764763 0.20341906 2.0150001
0.38915429 0.20220762 2.003
0.39296955 0.20220762 2.003
0.39460573 0.20109715 1.9920001
0.39840001 0.20109715 1.9920001
0.40219429 0.20109715 1.9920001
0.40598857 0.20109715 1.9920001
0.40978289 0.20109715 1.9920001
0.41357717 0.20109715 1.9920001
0.41485715 0.19988573 1.9800001
0.41862857 0.19988573 1.9800001
0.42240003 0.19988573 1.9800001
0.4287543 0.20109715 1.9920001
0.43254858 0.20109715 1.9920001
0.4337143 0.19988573 1.9800001
0.44013715 0.20109715 1.9920001
0.44125715 0.19988573 1.9800001
0.44502857 0.19988573 1.9800001
0.45152003 0.20109715 1.9920001
0.45257145 0.19988573 1.9800001
0.45634288 0.19988573 1.9800001
0.4601143 0.19988573 1.9800001
0.46388572 0.19988573 1.9800001
0.46765715 0.19988573 1.9800001
0.4714286 0.19988573 1.9800001
0.47520003 0.19988573 1.9800001
0.47897145 0.19988573 1.9800001
0.48274288 0.19988573 1.9800001
0.4865143 0.19988573 1.9800001
0.48756191 0.19877525 1.9690001
0.49131238 0.19877525 1.9690001
0.49506289 0.19877525 1.9690001
0.49881336 0.19877525 1.9690001
0.50537145 0.19988573 1.9800001
0.50914288 0.19988573 1.9800001
0.5129143 0.19988573 1.9800001
0.51668572 0.19988573 1.9800001
0.52045715 0.19988573 1.9800001
0.52422857 0.19988573 1.9800001
0.528 0.19988573 1.9800001
0.53177142 0.19988573 1.9800001
0.53256762 0.19877525 1.9690001
0.53631812 0.19877525 1.9690001
0.54006857 0.19877525 1.9690001
0.54078096 0.19766477 1.9580001
0.54451048 0.19766477 1.9580001
0.54824001 0.19766477 1.9580001
0.5488686 0.19655429 1.9470001
0.55569905 0.19766477 1.9580001
0.55942857 0.19766477 1.9580001
0.55999428 0.19655429 1.9470001
0.56688762 0.19766477 1.9580001
0.57061714 0.19766477 1.9580001
0.57434666 0.19766477 1.9580001
0.57482857 0.19655429 1.9470001
0.57853717 0.19655429 1.9470001
0.58224571 0.19655429 1.9470001
0.58595431 0.19655429 1.9470001
0.58633143 0.19544382 1.9360001
0.59001905 0.19544382 1.9360001
0.59370667 0.19544382 1.9360001
0.59739429 0.19544382 1.9360001
0.60108191 0.19544382 1.9360001
0.60476953 0.19544382 1.9360001
0.60845715 0.19544382 1.9360001
0.61214477 0.19544382 1.9360001
0.61583239 0.19544382 1.9360001
0.61952001 0.19544382 1.9360001
0.62320763 0.19544382 1.9360001
0.62689525 0.19544382 1.9360001
0.63058287 0.19544382 1.9360001
0.63427049 0.19544382 1.9360001
0.64158291 0.19655429 1.9470001
0.64164573 0.19544382 1.9360001
0.64533335 0.19544382 1.9360001
0.64902097 0.19544382 1.9360001
0.65270859 0.19544382 1.9360001
0.65266669 0.19433334 1.9250001
0.65633339 0.19433334 1.9250001
0.66000003 0.19433334 1.9250001
0.66366667 0.19433334 1.9250001
0.66733336 0.19433334 1.9250001
0.671 0.19433334 1.9250001
0.67852193 0.19544382 1.9360001
0.67833334 0.19433334 1.9250001
0.68589717 0.19544382 1.9360001
0.68958479 0.19544382 1.9360001
0.69327241 0.19544382 1.9360001
0.69696003 0.19544382 1.9360001
0.70064765 0.19544382 1.9360001
0.70433527 0.19544382 1.9360001
0.70802289 0.19544382 1.9360001
0.71171051 0.19544382 1.9360001
0.71539813 0.19544382 1.9360001
0.71908575 0.19544382 1.9360001
0.72277337 0.19544382 1.9360001
0.72646099 0.19544382 1.9360001
0.73014861 0.19544382 1.9360001
0.73383623 0.19544382 1.9360001
0.73752385 0.19544382 1.9360001
0.7454229 0.19655429 1.9470001
0.74913144 0.19655429 1.9470001
0.75284004 0.19655429 1.9470001
0.75654858 0.19655429 1.9470001
0.76025718 0.19655429 1.9470001
0.76396573 0.19655429 1.9470001
0.76767433 0.19655429 1.9470001
0.77574098 0.19766477 1.9580001
0.7794705 0.19766477 1.9580001
0.78320003 0.19766477 1.9580001
0.78692955 0.19766477 1.9580001
0.79065907 0.19766477 1.9580001
0.79438859 0.19766477 1.9580001
0.79811811 0.19766477 1.9580001
0.80184764 0.19766477 1.9580001
0.80557716 0.19766477 1.9580001
0.81385338 0.19877525 1.9690001
0.81760383 0.19877525 1.9690001
0.82135433 0.19877525 1.9690001
0.82049525 0.19766477 1.9580001
0.82422477 0.19766477 1.9580001
0.82795429 0.19766477 1.9580001
0.82233906 0.19544382 1.9360001
0.82133335 0.19433334 1.9250001
0.82071429 0.19332382 1.9150001
0.81532192 0.19120382 1.8940001
0.81417334 0.19009334 1.8830001
0.8134172 0.18908381 1.8730001
0.8126229 0.18807429 1.863
0.81179053 0.18706477 1.853
0.80652004 0.18504572 1.8330001
0.80161524 0.18312763 1.8140001
0.79663813 0.18120953 1.7950001
0.79604572 0.18030097 1.7860001
0.7954191 0.17939238 1.7770001
0.79071242 0.17757525 1.7590001
0.79000002 0.17666668 1.7500001
0.78517336 0.17484953 1.7320001
0.77663624 0.17222477 1.7060001
0.77622861 0.17141715 1.6980001
0.77579051 0.17060953 1.6900001
0.77900958 0.17060953 1.6900001
0.77806288 0.16970097 1.6810001
0.78126478 0.16970097 1.6810001
0.77700001 0.16808572 1.6650001
0.77642286 0.1672781 1.6570001
0.77581525 0.16647048 1.649
0.77517718 0.16566287 1.641
0.77118862 0.16414858 1.626
0.76714289 0.1626343 1.6110001
0.76638669 0.16182667 1.603
0.76272005 0.16041334 1.5890001
0.7585181 0.15889905 1.5740001
0.75812954 0.15819238 1.567
0.75771433 0.15748572 1.5600001
0.75727242 0.15677905 1.5530001
0.7533772 0.15536572 1.539
0.75286859 0.15465905 1.5320001
0.75233334 0.15395239 1.5250001
0.74880004 0.15264 1.5120001
0.74869716 0.1520343 1.506
0.74807239 0.15132762 1.4990001
-0.34580573 0.17290287 1.6810001
-0.34443811 0.17382857 1.6900001
-0.34444955 0.17547429 1.7060001
-0.34460002 0.17722286 1.723
-0.34310097 0.17814858 1.7320001
-0.34156764 0.17907429 1.7410001
-0.33825144 0.17907429 1.7410001
-0.33666667 0.18000001 1.7500001
-0.33676192 0.18185143 1.7680001
-0.33678859 0.18370287 1.7860001
-0.33674669 0.1855543 1.8040001
-0.33515811 0.18658286 1.8140001
-0.33517715 0.18853715 1.8330001
-0.33349526 0.18956572 1.8430001
-0.33177525 0.19059429 1.853
-0.32824573 0.19059429 1.853
-0.32646859 0.19162287 1.863
-0.32292002 0.19162287 1.863
-0.32108572 0.19265144 1.8730001
-0.31751812 0.19265144 1.8730001
-0.31562668 0.19368 1.8830001
-0.31204 0.19368 1.8830001
-0.31025526 0.19481143 1.8940001
-0.30826667 0.19584 1.904
-0.308 0.19800001 1.9250001
-0.30433336 0.19800001 1.9250001
-0.30410287 0.20026286 1.9470001
-0.30209145 0.20139429 1.9580001
-0.30521905 0.20602286 2.003
-0.29974857 0.20489144 1.9920001
-0.29758859 0.20602286 2.003
-0.29553336 0.20725715 2.0150001
-0.29169524 0.20725715 2.0150001
-0.29128572 0.20972572 2.039
-0.28571048 0.20849143 2.0270002
-0.28184953 0.20849143 2.0270002
-0.27798858 0.20849143 2.0270002
-0.27737334 0.21096 2.0510001
-0.25829142 0.22865143 2.223
-0.25405714 0.22865143 2.223
-0.20936573 0.19162287 1.863
-0.20581715 0.19162287 1.863
-0.20226859 0.19162287 1.863
-0.19872001 0.19162287 1.863
-0.19726667 0.19368 1.8830001
-0.19368 0.19368 1.8830001
-0.19120382 0.19481143 1.8940001
-0.19066668 0.19800001 1.9250001
-0.18700001 0.19800001 1.9250001
-0.18238096 0.19697143 1.9150001
-0.17873333 0.19697143 1.9150001
-0.17508572 0.19697143 1.9150001
-0.1939981 0.22289144 2.1670001
-0.18864381 0.22145143 2.1530001
-0.16234286 0.19481143 1.8940001
-0.15873525 0.19481143 1.8940001
-0.15422668 0.19368 1.8830001
-0.15064001 0.19368 1.8830001
-0.14791238 0.19481143 1.8940001
-0.14430477 0.19481143 1.8940001
-0.14225715 0.19697143 1.9150001
-0.13860953 0.19697143 1.9150001
-0.1349619 0.19697143 1.9150001
-0.13131429 0.19697143 1.9150001
-0.12833335 0.19800001 1.9250001
-0.12466667 0.19800001 1.9250001
-0.12037143 0.19697143 1.9150001
-0.11605334 0.19584 1.904
-0.11242667 0.19584 1.904
-0.1088 0.19584 1.904
-0.10290857 0.19162287 1.863
-0.099893339 0.19265144 1.8730001
-0.096325718 0.19265144 1.8730001
-0.092758097 0.19265144 1.8730001
-0.089190483 0.19265144 1.8730001
-0.084708571 0.19059429 1.853
-0.081179053 0.19059429 1.853
-0.079367623 0.19481143 1.8940001
-0.075759999 0.19481143 1.8940001
-0.072533339 0.19584 1.904
-0.068146668 0.19368 1.8830001
-0.064937145 0.19481143 1.8940001
-0.061653335 0.19584 1.904
-0.058026668 0.19584 1.904
-0.053800002 0.19368 1.8830001
-0.050213337 0.19368 1.8830001
-0.046626668 0.19368 1.8830001
-0.04304 0.19368 1.8830001
-0.039034288 0.19162287 1.863
-0.035485715 0.19162287 1.863
-0.032280002 0.19368 1.8830001
-0.028540954 0.19265144 1.8730001
-0.024973335 0.19265144 1.8730001
-0.02152 0.19368 1.8830001
-0.017838096 0.19265144 1.8730001
-0.014270477 0.19265144 1.8730001
-0.010702858 0.19265144 1.8730001
-0.0069828574 0.18853715 1.8330001
-0.0034914287 0.18853715 1.8330001
0 0.18853715 1.8330001
0.0037085717 0.20026286 1.9470001
0.0075885719 0.20489144 1.9920001
0.011382857 0.20489144 1.9920001
0.015177144 0.20489144 1.9920001
0.01864762 0.20139429 1.9580001
0.022377145 0.20139429 1.9580001
0.026106667 0.20139429 1.9580001
0.029836191 0.20139429 1.9580001
0.034954287 0.20972572 2.039
0.038838096 0.20972572 2.039
0.042721905 0.20972572 2.039
0.046605717 0.20972572 2.039
0.050489526 0.20972572 2.039
0.054373335 0.20972572 2.039
0.051828574 0.18658286 1.8140001
0.055588573 0.18761143 1.8240001
0.059062861 0.18761143 1.8240001
0.064560004 0.19368 1.8830001
0.068146668 0.19368 1.8830001
0.072152384 0.19481143 1.8940001
0.075759999 0.19481143 1.8940001
0.079367623 0.19481143 1.8940001
0.082493335 0.19368 1.8830001
0.08608 0.19368 1.8830001
0.089190483 0.19265144 1.8730001
0.092262864 0.19162287 1.863
0.095811434 0.19162287 1.863
0.098826669 0.19059429 1.853
0.10180382 0.18956572 1.8430001
0.10531429 0.18956572 1.8430001
0.11183619 0.19481143 1.8940001
0.11544381 0.19481143 1.8940001
0.11584572 0.18956572 1.8430001
0.11935619 0.18956572 1.8430001
0.1242 0.19162287 1.863
0.12774858 0.19162287 1.863
0.13418667 0.19584 1.904
0.13781334 0.19584 1.904
0.14225715 0.19697143 1.9150001
0.14590476 0.19697143 1.9150001
0.14955239 0.19697143 1.9150001
0.1532 0.19697143 1.9150001
0.15684763 0.19697143 1.9150001
0.16049525 0.19697143 1.9150001
0.16320001 0.19584 1.904
0.16779049 0.19697143 1.9150001
0.1714381 0.19697143 1.9150001
0.17508572 0.19697143 1.9150001
0.19030668 0.20972572 2.039
0.19419049 0.20972572 2.039
0.1980743 0.20972572 2.039
0.2019581 0.20972572 2.039
0.20463048 0.20849143 2.0270002
0.20849143 0.20849143 2.0270002
0.21360953 0.20972572 2.039
0.21749334 0.20972572 2.039
0.22137715 0.20972572 2.039
0.22526096 0.20972572 2.039
0.22914477 0.20972572 2.039
0.23302858 0.20972572 2.039
0.23691238 0.20972572 2.039
0.24079619 0.20972572 2.039
0.24468 0.20972572 2.039
0.24856383 0.20972572 2.039
0.25393334 0.21096 2.0510001
0.25784001 0.21096 2.0510001
0.26174667 0.21096 2.0510001
0.26565334 0.21096 2.0510001
0.26956001 0.21096 2.0510001
0.27346668 0.21096 2.0510001
0.27737334 0.21096 2.0510001
0.28128001 0.21096 2.0510001
0.28518668 0.21096 2.0510001
0.28571048 0.20849143 2.0270002
0.28957143 0.20849143 2.0270002
0.29343238 0.20849143 2.0270002
0.29729334 0.20849143 2.0270002
0.30115429 0.20849143 2.0270002
0.30320954 0.20725715 2.0150001
0.30704764 0.20725715 2.0150001
0.31088573 0.20725715 2.0150001
0.31472382 0.20725715 2.0150001
0.31856191 0.20725715 2.0150001
0.32432002 0.20849143 2.0270002
0.3262381 0.20725715 2.0150001
0.33007619 0.20725715 2.0150001
0.33391431 0.20725715 2.0150001
0.33976382 0.20849143 2.0270002
0.34362477 0.20849143 2.0270002
0.34748572 0.20849143 2.0270002
0.34926668 0.20725715 2.0150001
0.35310477 0.20725715 2.0150001
0.35481715 0.20602286 2.003
0.35863239 0.20602286 2.003
0.36045715 0.20489144 1.9920001
0.36425143 0.20489144 1.9920001
0.36582857 0.20365715 1.9800001
0.37184 0.20489144 1.9920001
0.37997144 0.20725715 2.0150001
0.38609526 0.20849143 2.0270002
0.38764763 0.20725715 2.0150001
0.39148572 0.20725715 2.0150001
0.39532381 0.20725715 2.0150001
0.39678478 0.20602286 2.003
0.39840001 0.20489144 1.9920001
0.39977145 0.20365715 1.9800001
0.40354288 0.20365715 1.9800001
0.4073143 0.20365715 1.9800001
0.41108572 0.20365715 1.9800001
0.41485715 0.20365715 1.9800001
0.41862857 0.20365715 1.9800001
0.42240003 0.20365715 1.9800001
0.42617145 0.20365715 1.9800001
0.43254858 0.20489144 1.9920001
0.4337143 0.20365715 1.9800001
0.43748572 0.20365715 1.9800001
0.44125715 0.20365715 1.9800001
0.44502857 0.20365715 1.9800001
0.44880003 0.20365715 1.9800001
0.45257145 0.20365715 1.9800001
0.45634288 0.20365715 1.9800001
0.4601143 0.20365715 1.9800001
0.46388572 0.20365715 1.9800001
0.46765715 0.20365715 1.9800001
0.4714286 0.20365715 1.9800001
0.47520003 0.20365715 1.9800001
0.47897145 0.20365715 1.9800001
0.48274288 0.20365715 1.9800001
0.4865143 0.20365715 1.9800001
0.48756191 0.20252572 1.9690001
0.49131238 0.20252572 1.9690001
0.49506289 0.20252572 1.9690001
0.49881336 0.20252572 1.9690001
0.50256383 0.20252572 1.9690001
0.50914288 0.20365715 1.9800001
0.5129143 0.20365715 1.9800001
0.51668572 0.20365715 1.9800001
0.51756573 0.20252572 1.9690001
0.52422857 0.20365715 1.9800001
0.52506667 0.20252572 1.9690001
0.53177142 0.20365715 1.9800001
0.53256762 0.20252572 1.9690001
0.53631812 0.20252572 1.9690001
0.54006857 0.20252572 1.9690001
0.54078096 0.20139429 1.9580001
0.54145145 0.20026286 1.9470001
0.54516 0.20026286 1.9470001
0.5488686 0.20026286 1.9470001
0.54945529 0.19913143 1.9360001
0.55314291 0.19913143 1.9360001
0.55683053 0.19913143 1.9360001
0.56051815 0.19913143 1.9360001
0.56741142 0.20026286 1.9470001
0.57112002 0.20026286 1.9470001
0.57482857 0.20026286 1.9470001
0.57853717 0.20026286 1.9470001
0.58224571 0.20026286 1.9470001
0.58595431 0.20026286 1.9470001
0.58633143 0.19913143 1.9360001
0.59001905 0.19913143 1.9360001
0.59370667 0.19913143 1.9360001
0.59739429 0.19913143 1.9360001
0.60108191 0.19913143 1.9360001
0.60133338 0.19800001 1.9250001
0.60500002 0.19800001 1.9250001
0.61214477 0.19913143 1.9360001
0.61583239 0.19913143 1.9360001
0.61952001 0.19913143 1.9360001
0.62320763 0.19913143 1.9360001
0.62689525 0.19913143 1.9360001
0.63058287 0.19913143 1.9360001
0.63427049 0.19913143 1.9360001
0.64158291 0.20026286 1.9470001
0.64164573 0.19913143 1.9360001
0.64533335 0.19913143 1.9360001
0.64902097 0.19913143 1.9360001
0.65270859 0.19913143 1.9360001
0.65266669 0.19800001 1.9250001
0.65633339 0.19800001 1.9250001
0.65657145 0.19697143 1.9150001
0.66021907 0.19697143 1.9150001
0.66733336 0.19800001 1.9250001
0.671 0.19800001 1.9250001
0.6746667 0.19800001 1.9250001
0.67833334 0.19800001 1.9250001
0.68589717 0.19913143 1.9360001
0.68958479 0.19913143 1.9360001
0.69327241 0.19913143 1.9360001
0.69696003 0.19913143 1.9360001
0.70064765 0.19913143 1.9360001
0.70433527 0.19913143 1.9360001
0.70802289 0.19913143 1.9360001
0.71171051 0.19913143 1.9360001
0.71539813 0.19913143 1.9360001
0.71908575 0.19913143 1.9360001
0.72277337 0.19913143 1.9360001
0.72646099 0.19913143 1.9360001
0.73014861 0.19913143 1.9360001
0.73383623 0.19913143 1.9360001
0.73752385 0.19913143 1.9360001
0.74121147 0.19913143 1.9360001
0.74913144 0.20026286 1.9470001
0.75284004 0.20026286 1.9470001
0.75654858 0.20026286 1.9470001
0.76025718 0.20026286 1.9470001
0.76396573 0.20026286 1.9470001
0.76767433 0.20026286 1.9470001
0.77574098 0.20139429 1.9580001
0.7794705 0.20139429 1.9580001
0.77880001 0.20026286 1.9470001
0.78692955 0.20139429 1.9580001
0.79065907 0.20139429 1.9580001
0.79438859 0.20139429 1.9580001
0.79811811 0.20139429 1.9580001
0.80635244 0.20252572 1.9690001
0.81010288 0.20252572 1.9690001
0.81385338 0.20252572 1.9690001
0.81760383 0.20252572 1.9690001
0.82135433 0.20252572 1.9690001
0.82510477 0.20252572 1.9690001
0.82422477 0.20139429 1.9580001
0.82795429 0.20139429 1.9580001
0.82233906 0.19913143 1.9360001
0.82133335 0.19800001 1.9250001
0.82071429 0.19697143 1.9150001
0.81532192 0.19481143 1.8940001
0.81417334 0.19368 1.8830001
0.8134172 0.19265144 1.8730001
0.8126229 0.19162287 1.863
0.81179053 0.19059429 1.853
0.80652004 0.18853715 1.8330001
0.80161524 0.18658286 1.8140001
0.79663813 0.18462858 1.7950001
0.80005717 0.18462858 1.7950001
0.79944766 0.18370287 1.7860001
0.79071242 0.18092573 1.7590001
0.79000002 0.18000001 1.7500001
0.78517336 0.17814858 1.7320001
0.78073335 0.17640001 1.715
0.77622861 0.17465143 1.6980001
0.77946287 0.17465143 1.6980001
0.77900958 0.17382857 1.6900001
0.77806288 0.17290287 1.6810001
0.78126478 0.17290287 1.6810001
0.77700001 0.17125715 1.6650001
0.77642286 0.1704343 1.6570001
0.77581525 0.16961144 1.649
0.77187049 0.16806857 1.6340001
0.77118862 0.16724572 1.626
0.76714289 0.16570286 1.6110001
0.76638669 0.16488001 1.603
0.76272005 0.16344 1.5890001
0.7585181 0.16189715 1.5740001
0.75812954 0.16117714 1.567
0.75771433 0.16045715 1.5600001
0.7538591 0.15901715 1.5460001
0.7533772 0.15829715 1.539
0.75286859 0.15757714 1.5320001
0.75233334 0.15685715 1.5250001
0.75226671 0.15624 1.5190001
0.74869716 0.15490286 1.506
0.74807239 0.15418287 1.4990001
-0.34900764 0.17610477 1.6810001
-0.34580573 0.17610477 1.6810001
-0.34606859 0.17788573 1.6980001
-0.34444955 0.17872381 1.7060001
-0.34300002 0.17966667 1.715
-0.3413181 0.18050477 1.723
-0.33980191 0.18144763 1.7320001
-0.33825144 0.18239048 1.7410001
-0.33493525 0.18239048 1.7410001
-0.33504763 0.18427619 1.7590001
-0.33339429 0.18521905 1.7680001
-0.33338669 0.18710476 1.7860001
-0.32998478 0.18710476 1.7860001
-0.33517715 0.19202858 1.8330001
-0.33349526 0.19307619 1.8430001
-0.33177525 0.19412382 1.853
-0.32824573 0.19412382 1.853
-0.32471621 0.19412382 1.853
-0.32292002 0.19517143 1.863
-0.32108572 0.19621906 1.8730001
-0.31921333 0.19726667 1.8830001
-0.31562668 0.19726667 1.8830001
-0.31386286 0.19841905 1.8940001
-0.31189334 0.19946668 1.904
-0.31004763 0.20061906 1.9150001
-0.308 0.20166667 1.9250001
-0.30433336 0.20166667 1.9250001
-0.30410287 0.20397143 1.9470001
-0.30378857 0.20627619 1.9690001
-0.3017143 0.20742857 1.9800001
-0.29974857 0.20868573 1.9920001
-0.29758859 0.20983811 2.003
-0.29553336 0.21109524 2.0150001
-0.29169524 0.21109524 2.0150001
-0.28785715 0.21109524 2.0150001
-0.28401905 0.21109524 2.0150001
-0.28018096 0.21109524 2.0150001
-0.27798858 0.2123524 2.0270002
-0.20936573 0.19517143 1.863
-0.20581715 0.19517143 1.863
-0.20226859 0.19517143 1.863
-0.19978668 0.19621906 1.8730001
-0.19726667 0.19726667 1.8830001
-0.19368 0.19726667 1.8830001
-0.19120382 0.19841905 1.8940001
-0.18858667 0.19946668 1.904
-0.18194857 0.19621906 1.8730001
-0.17838097 0.19621906 1.8730001
-0.17677334 0.19841905 1.8940001
-0.16941714 0.19412382 1.853
-0.16857333 0.19726667 1.8830001
-0.16498667 0.19726667 1.8830001
-0.16140001 0.19726667 1.8830001
-0.15781334 0.19726667 1.8830001
-0.15422668 0.19726667 1.8830001
-0.15064001 0.19726667 1.8830001
-0.14791238 0.19841905 1.8940001
-0.14430477 0.19841905 1.8940001
-0.14144 0.19946668 1.904
-0.13781334 0.19946668 1.904
-0.13418667 0.19946668 1.904
-0.13056001 0.19946668 1.904
-0.12766667 0.20061906 1.9150001
-0.12401905 0.20061906 1.9150001
-0.11968 0.19946668 1.904
-0.11477334 0.19726667 1.8830001
-0.11059619 0.19621906 1.8730001
-0.10702857 0.19621906 1.8730001
-0.10290857 0.19517143 1.863
-0.099893339 0.19621906 1.8730001
-0.096325718 0.19621906 1.8730001
-0.092758097 0.19621906 1.8730001
-0.089190483 0.19621906 1.8730001
-0.084708571 0.19412382 1.853
-0.081179053 0.19412382 1.853
-0.077649526 0.19412382 1.853
-0.074519999 0.19517143 1.863
-0.070971429 0.19517143 1.863
-0.067784764 0.19621906 1.8730001
-0.064560004 0.19726667 1.8830001
-0.061653335 0.19946668 1.904
-0.058026668 0.19946668 1.904
-0.053800002 0.19726667 1.8830001
-0.049413335 0.19412382 1.853
-0.045883812 0.19412382 1.853
-0.042354286 0.19412382 1.853
-0.039034288 0.19517143 1.863
-0.035485715 0.19517143 1.863
-0.032280002 0.19726667 1.8830001
-0.028540954 0.19621906 1.8730001
-0.024840001 0.19517143 1.863
-0.021291429 0.19517143 1.863
-0.017742857 0.19517143 1.863
-0.014194286 0.19517143 1.863
-0.010645715 0.19517143 1.863
-0.0069828574 0.19202858 1.8330001
-0.0034914287 0.19202858 1.8330001
0 0.19202858 1.8330001
0.0034914287 0.19202858 1.8330001
0.0074171433 0.20397143 1.9470001
0.011125715 0.20397143 1.9470001
0.014834287 0.20397143 1.9470001
0.018542858 0.20397143 1.9470001
0.022251429 0.20397143 1.9470001
0.02596 0.20397143 1.9470001
0.029836191 0.20512381 1.9580001
0.034954287 0.21360953 2.039
0.038838096 0.21360953 2.039
0.042721905 0.21360953 2.039
0.041462857 0.1900381 1.8140001
0.045165718 0.19108573 1.8240001
0.048640002 0.19108573 1.8240001
0.051828574 0.1900381 1.8140001
0.055588573 0.19108573 1.8240001
0.059062861 0.19108573 1.8240001
0.062537149 0.19108573 1.8240001
0.067422859 0.19517143 1.863
0.071352385 0.19621906 1.8730001
0.074920006 0.19621906 1.8730001
0.079367623 0.19841905 1.8940001
0.082055241 0.19621906 1.8730001
0.085622862 0.19621906 1.8730001
0.089190483 0.19621906 1.8730001
0.092262864 0.19517143 1.863
0.095297143 0.19412382 1.853
0.098826669 0.19412382 1.853
0.10180382 0.19307619 1.8430001
0.10531429 0.19307619 1.8430001
0.11242667 0.19946668 1.904
0.11605334 0.19946668 1.904
0.11905143 0.19841905 1.8940001
0.12065143 0.19517143 1.863
0.1242 0.19517143 1.863
0.12774858 0.19517143 1.863
0.13418667 0.19946668 1.904
0.13781334 0.19946668 1.904
0.14144 0.19946668 1.904
0.14590476 0.20061906 1.9150001
0.14955239 0.20061906 1.9150001
0.1532 0.20061906 1.9150001
0.15684763 0.20061906 1.9150001
0.16049525 0.20061906 1.9150001
0.16320001 0.19946668 1.904
0.16779049 0.20061906 1.9150001
0.1714381 0.20061906 1.9150001
0.17508572 0.20061906 1.9150001
0.17873333 0.20061906 1.9150001
0.18238096 0.20061906 1.9150001
0.18292001 0.19726667 1.8830001
0.18650667 0.19726667 1.8830001
0.20463048 0.2123524 2.0270002
0.20849143 0.2123524 2.0270002
0.2123524 0.2123524 2.0270002
0.21621335 0.2123524 2.0270002
0.2200743 0.2123524 2.0270002
0.22526096 0.21360953 2.039
0.22914477 0.21360953 2.039
0.23302858 0.21360953 2.039
0.23691238 0.21360953 2.039
0.24079619 0.21360953 2.039
0.24468 0.21360953 2.039
0.24856383 0.21360953 2.039
0.25393334 0.21486667 2.0510001
0.25784001 0.21486667 2.0510001
0.26174667 0.21486667 2.0510001
0.26565334 0.21486667 2.0510001
0.26956001 0.21486667 2.0510001
0.27346668 0.21486667 2.0510001
0.27737334 0.21486667 2.0510001
0.28128001 0.21486667 2.0510001
0.28351811 0.21360953 2.039
0.28571048 0.2123524 2.0270002
0.28785715 0.21109524 2.0150001
0.29169524 0.21109524 2.0150001
0.29553336 0.21109524 2.0150001
0.29937145 0.21109524 2.0150001
0.30320954 0.21109524 2.0150001
0.30704764 0.21109524 2.0150001
0.31088573 0.21109524 2.0150001
0.31472382 0.21109524 2.0150001
0.31856191 0.21109524 2.0150001
0.32432002 0.2123524 2.0270002
0.3262381 0.21109524 2.0150001
0.33007619 0.21109524 2.0150001
0.33391431 0.21109524 2.0150001
0.33976382 0.2123524 2.0270002
0.34362477 0.2123524 2.0270002
0.34748572 0.2123524 2.0270002
0.34926668 0.21109524 2.0150001
0.35310477 0.21109524 2.0150001
0.35481715 0.20983811 2.003
0.35863239 0.20983811 2.003
0.36045715 0.20868573 1.9920001
0.36425143 0.20868573 1.9920001
0.36582857 0.20742857 1.9800001
0.37184 0.20868573 1.9920001
0.37997144 0.21109524 2.0150001
0.38838097 0.21360953 2.039
0.39226478 0.21360953 2.039
0.39148572 0.21109524 2.0150001
0.39532381 0.21109524 2.0150001
0.39678478 0.20983811 2.003
0.39840001 0.20868573 1.9920001
0.39088765 0.20281905 1.9360001
0.39457524 0.20281905 1.9360001
0.4073143 0.20742857 1.9800001
0.41108572 0.20742857 1.9800001
0.41255239 0.20627619 1.9690001
0.41630286 0.20627619 1.9690001
0.42005336 0.20627619 1.9690001
0.42617145 0.20742857 1.9800001
0.43254858 0.20868573 1.9920001
0.4337143 0.20742857 1.9800001
0.43748572 0.20742857 1.9800001
0.44125715 0.20742857 1.9800001
0.4425562 0.20627619 1.9690001
0.44880003 0.20742857 1.9800001
0.45257145 0.20742857 1.9800001
0.45380762 0.20627619 1.9690001
0.4601143 0.20742857 1.9800001
0.46669716 0.20868573 1.9920001
0.46765715 0.20742857 1.9800001
0.4714286 0.20742857 1.9800001
0.47520003 0.20742857 1.9800001
0.47897145 0.20742857 1.9800001
0.48274288 0.20742857 1.9800001
0.4865143 0.20742857 1.9800001
0.49028572 0.20742857 1.9800001
0.49131238 0.20627619 1.9690001
0.49506289 0.20627619 1.9690001
0.49602669 0.20512381 1.9580001
0.45585525 0.18710476 1.7860001
0.45925716 0.18710476 1.7860001
0.46265906 0.18710476 1.7860001
0.46606097 0.18710476 1.7860001
0.46946287 0.18710476 1.7860001
0.47048193 0.18616191 1.7770001
0.47386667 0.18616191 1.7770001
0.47241715 0.18427619 1.7590001
0.47576764 0.18427619 1.7590001
0.47911811 0.18427619 1.7590001
0.53705144 0.20512381 1.9580001
0.54078096 0.20512381 1.9580001
0.54145145 0.20397143 1.9470001
0.54824001 0.20512381 1.9580001
0.55196953 0.20512381 1.9580001
0.5068838 0.18710476 1.7860001
0.55314291 0.20281905 1.9360001
0.55683053 0.20281905 1.9360001
0.56051815 0.20281905 1.9360001
0.56100005 0.20166667 1.9250001
0.57434666 0.20512381 1.9580001
0.57482857 0.20397143 1.9470001
0.57853717 0.20397143 1.9470001
0.58224571 0.20397143 1.9470001
0.58595431 0.20397143 1.9470001
0.58633143 0.20281905 1.9360001
0.5866667 0.20166667 1.9250001
0.59033334 0.20166667 1.9250001
0.59400004 0.20166667 1.9250001
0.59766668 0.20166667 1.9250001
0.60133338 0.20166667 1.9250001
0.60500002 0.20166667 1.9250001
0.60866672 0.20166667 1.9250001
0.61583239 0.20281905 1.9360001
0.61952001 0.20281905 1.9360001
0.62320763 0.20281905 1.9360001
0.62689525 0.20281905 1.9360001
0.63058287 0.20281905 1.9360001
0.63427049 0.20281905 1.9360001
0.64158291 0.20397143 1.9470001
0.64164573 0.20281905 1.9360001
0.64533335 0.20281905 1.9360001
0.64533335 0.20166667 1.9250001
0.64900005 0.20166667 1.9250001
0.6492762 0.20061906 1.9150001
0.64917338 0.19946668 1.904
0.65280002 0.19946668 1.904
0.65642667 0.19946668 1.904
0.66733336 0.20166667 1.9250001
0.66751432 0.20061906 1.9150001
0.6746667 0.20166667 1.9250001
0.67833334 0.20166667 1.9250001
0.68589717 0.20281905 1.9360001
0.68958479 0.20281905 1.9360001
0.69327241 0.20281905 1.9360001
0.69696003 0.20281905 1.9360001
0.70064765 0.20281905 1.9360001
0.70433527 0.20281905 1.9360001
0.70802289 0.20281905 1.9360001
0.71171051 0.20281905 1.9360001
0.71539813 0.20281905 1.9360001
0.71908575 0.20281905 1.9360001
0.71866667 0.20166667 1.9250001
0.72233337 0.20166667 1.9250001
0.73014861 0.20281905 1.9360001
0.73383623 0.20281905 1.9360001
0.73752385 0.20281905 1.9360001
0.74121147 0.20281905 1.9360001
0.74913144 0.20397143 1.9470001
0.75284004 0.20397143 1.9470001
0.75654858 0.20397143 1.9470001
0.75596195 0.20281905 1.9360001
0.75964957 0.20281905 1.9360001
0.76767433 0.20397143 1.9470001
0.77138287 0.20397143 1.9470001
0.77509147 0.20397143 1.9470001
0.77880001 0.20397143 1.9470001
0.78250861 0.20397143 1.9470001
0.79065907 0.20512381 1.9580001
0.79438859 0.20512381 1.9580001
0.80260193 0.20627619 1.9690001
0.80184764 0.20512381 1.9580001
0.81010288 0.20627619 1.9690001
0.81385338 0.20627619 1.9690001
0.81760383 0.20627619 1.9690001
0.82135433 0.20627619 1.9690001
0.82049525 0.20512381 1.9580001
0.82422477 0.20512381 1.9580001
0.82330287 0.20397143 1.9470001
0.82233906 0.20281905 1.9360001
0.82133335 0.20166667 1.9250001
0.82071429 0.20061906 1.9150001
0.81962669 0.19946668 1.904
0.81892955 0.19841905 1.8940001
0.8134172 0.19621906 1.8730001
0.8126229 0.19517143 1.863
0.81179053 0.19412382 1.853
0.80256003 0.19108573 1.8240001
0.80161524 0.1900381 1.8140001
0.79663813 0.18804763 1.7950001
0.80005717 0.18804763 1.7950001
0.79944766 0.18710476 1.7860001
0.79071242 0.18427619 1.7590001
0.79000002 0.18333334 1.7500001
0.78517336 0.18144763 1.7320001
0.78437525 0.18050477 1.723
0.77988577 0.17872381 1.7060001
0.77946287 0.17788573 1.6980001
0.7826972 0.17788573 1.6980001
0.78222859 0.17704763 1.6900001
0.78126478 0.17610477 1.6810001
0.77700001 0.17442858 1.6650001
0.77642286 0.17359048 1.6570001
0.77581525 0.17275238 1.649
0.77187049 0.17118096 1.6340001
0.7673943 0.16950476 1.618
0.76714289 0.16877143 1.6110001
0.76304001 0.1672 1.5960001
0.76272005 0.16646667 1.5890001
0.76189148 0.16562858 1.5810001
0.75812954 0.16416191 1.567
0.75771433 0.16342857 1.5600001
0.75727242 0.16269524 1.5530001
0.75680381 0.16196191 1.5460001
0.75630862 0.16122858 1.539
0.75233334 0.15976191 1.5250001
0.75226671 0.15913334 1.5190001
0.74869716 0.15777144 1.506
0.74807239 0.15703811 1.4990001
-0.34765714 0.18026668 1.6900001
-0.34769905 0.18197334 1.7060001
-0.34626669 0.18293335 1.715
-0.34300002 0.18293335 1.715
-0.3413181 0.18378668 1.723
-0.33980191 0.18474667 1.7320001
-0.33825144 0.18570668 1.7410001
-0.33493525 0.18570668 1.7410001
-0.33504763 0.18762667 1.7590001
-0.33339429 0.18858667 1.7680001
-0.33170667 0.18954667 1.7770001
-0.3283219 0.18954667 1.7770001
-0.33517715 0.19552001 1.8330001
-0.33349526 0.19658667 1.8430001
-0.33177525 0.19765334 1.853
-0.32824573 0.19765334 1.853
-0.32471621 0.19765334 1.853
-0.32292002 0.19872001 1.863
-0.31937143 0.19872001 1.863
-0.31751812 0.19978668 1.8730001
-0.31562668 0.20085335 1.8830001
-0.31386286 0.20202668 1.8940001
-0.31189334 0.20309334 1.904
-0.31004763 0.20426667 1.9150001
-0.308 0.20533334 1.9250001
-0.30433336 0.20533334 1.9250001
-0.30238476 0.20650667 1.9360001
-0.30378857 0.21002668 1.9690001
-0.3017143 0.21120001 1.9800001
-0.29794288 0.21120001 1.9800001
-0.29758859 0.21365334 2.003
-0.29553336 0.21493334 2.0150001
-0.29169524 0.21493334 2.0150001
-0.28785715 0.21493334 2.0150001
-0.28232762 0.21365334 2.003
-0.27851239 0.21365334 2.003
-0.21405715 0.19978668 1.8730001
-0.20936573 0.19872001 1.863
-0.20692191 0.19978668 1.8730001
-0.20226859 0.19872001 1.863
-0.19872001 0.19872001 1.863
-0.19517143 0.19872001 1.863
-0.19265144 0.19978668 1.8730001
-0.19009334 0.20085335 1.8830001
-0.1875962 0.20202668 1.8940001
-0.18194857 0.19978668 1.8730001
-0.17838097 0.19978668 1.8730001
-0.17574668 0.20085335 1.8830001
-0.17124572 0.19978668 1.8730001
-0.16857333 0.20085335 1.8830001
-0.16411048 0.19978668 1.8730001
-0.16054286 0.19978668 1.8730001
-0.15697524 0.19978668 1.8730001
-0.15340762 0.19978668 1.8730001
-0.14984001 0.19978668 1.8730001
-0.14705335 0.20085335 1.8830001
-0.14346667 0.20085335 1.8830001
-0.13988 0.20085335 1.8830001
-0.13708954 0.20202668 1.8940001
-0.1334819 0.20202668 1.8940001
-0.12843429 0.19978668 1.8730001
-0.12693334 0.20309334 1.904
-0.12265905 0.20202668 1.8940001
-0.11836001 0.20085335 1.8830001
-0.11477334 0.20085335 1.8830001
-0.11059619 0.19978668 1.8730001
-0.10702857 0.19978668 1.8730001
-0.10290857 0.19872001 1.863
-0.099893339 0.19978668 1.8730001
-0.096325718 0.19978668 1.8730001
-0.092758097 0.19978668 1.8730001
-0.089190483 0.19978668 1.8730001
-0.084708571 0.19765334 1.853
-0.081179053 0.19765334 1.853
-0.077649526 0.19765334 1.853
-0.07412 0.19765334 1.853
-0.070209526 0.19658667 1.8430001
-0.06669905 0.19658667 1.8430001
-0.063188575 0.19658667 1.8430001
-0.059678096 0.19658667 1.8430001
-0.056167621 0.19658667 1.8430001
-0.052657146 0.19658667 1.8430001
-0.048880003 0.19552001 1.8330001
-0.045636192 0.19658667 1.8430001
-0.042125717 0.19658667 1.8430001
-0.038824763 0.19765334 1.853
-0.035295241 0.19765334 1.853
-0.032108571 0.19978668 1.8730001
-0.028388573 0.19872001 1.863
-0.024840001 0.19872001 1.863
-0.021291429 0.19872001 1.863
-0.017552381 0.19658667 1.8430001
-0.014041905 0.19658667 1.8430001
-0.010474286 0.19552001 1.8330001
-0.0069828574 0.19552001 1.8330001
-0.0034914287 0.19552001 1.8330001
0 0.19552001 1.8330001
0.0034742858 0.19456001 1.8240001
0.0069485717 0.19456001 1.8240001
0.010531429 0.19658667 1.8430001
0.013897143 0.19456001 1.8240001
0.018542858 0.20768 1.9470001
0.022251429 0.20768 1.9470001
0.02596 0.20768 1.9470001
0.041462857 0.19349334 1.8140001
0.044918098 0.19349334 1.8140001
0.048373334 0.19349334 1.8140001
0.051828574 0.19349334 1.8140001
0.055283811 0.19349334 1.8140001
0.059354287 0.19552001 1.8330001
0.062537149 0.19456001 1.8240001
0.067060955 0.19765334 1.853
0.070590481 0.19765334 1.853
0.07412 0.19765334 1.853
0.07848762 0.19978668 1.8730001
0.082055241 0.19978668 1.8730001
0.085622862 0.19978668 1.8730001
0.088714287 0.19872001 1.863
0.092262864 0.19872001 1.863
0.095811434 0.19872001 1.863
0.10154667 0.20309334 1.904
0.10517333 0.20309334 1.904
0.10531429 0.19658667 1.8430001
0.11242667 0.20309334 1.904
0.11605334 0.20309334 1.904
0.11905143 0.20202668 1.8940001
0.12129905 0.19978668 1.8730001
0.12486667 0.19978668 1.8730001
0.12637715 0.19658667 1.8430001
0.13418667 0.20309334 1.904
0.13708954 0.20202668 1.8940001
0.14069715 0.20202668 1.8940001
0.14506668 0.20309334 1.904
0.14869334 0.20309334 1.904
0.15232001 0.20309334 1.904
0.15594667 0.20309334 1.904
0.15957335 0.20309334 1.904
0.16234286 0.20202668 1.8940001
0.16779049 0.20426667 1.9150001
0.1714381 0.20426667 1.9150001
0.17408 0.20309334 1.904
0.17770667 0.20309334 1.904
0.17933334 0.20085335 1.8830001
0.18292001 0.20085335 1.8830001
0.18551619 0.19978668 1.8730001
0.18908381 0.19978668 1.8730001
0.20252572 0.21002668 1.9690001
0.20627619 0.21002668 1.9690001
0.21002668 0.21002668 1.9690001
0.21377715 0.21002668 1.9690001
0.22393525 0.21621335 2.0270002
0.2277962 0.21621335 2.0270002
0.23165715 0.21621335 2.0270002
0.2355181 0.21621335 2.0270002
0.23937906 0.21621335 2.0270002
0.24468 0.21749334 2.039
0.24856383 0.21749334 2.039
0.25244763 0.21749334 2.039
0.25784001 0.21877334 2.0510001
0.26174667 0.21877334 2.0510001
0.26565334 0.21877334 2.0510001
0.26956001 0.21877334 2.0510001
0.27346668 0.21877334 2.0510001
0.27737334 0.21877334 2.0510001
0.28128001 0.21877334 2.0510001
0.28351811 0.21749334 2.039
0.28571048 0.21621335 2.0270002
0.28785715 0.21493334 2.0150001
0.28995812 0.21365334 2.003
0.29553336 0.21493334 2.0150001
0.29758859 0.21365334 2.003
0.30140382 0.21365334 2.003
0.28236192 0.19765334 1.853
0.28589144 0.19765334 1.853
0.28942096 0.19765334 1.853
0.29295048 0.19765334 1.853
0.29648 0.19765334 1.853
0.29839048 0.19658667 1.8430001
0.30190095 0.19658667 1.8430001
0.30541143 0.19658667 1.8430001
0.34177524 0.21749334 2.039
0.34362477 0.21621335 2.0270002
0.34748572 0.21621335 2.0270002
0.35134667 0.21621335 2.0270002
0.35100192 0.21365334 2.003
0.35481715 0.21365334 2.003
0.35863239 0.21365334 2.003
0.32318097 0.19050667 1.7860001
0.32658288 0.19050667 1.7860001
0.38838097 0.21749334 2.039
0.39226478 0.21749334 2.039
0.36660001 0.19552001 1.8330001
0.37009144 0.19552001 1.8330001
0.37562096 0.19658667 1.8430001
0.37913144 0.19658667 1.8430001
0.38056573 0.19552001 1.8330001
0.38405716 0.19552001 1.8330001
0.3875486 0.19552001 1.8330001
0.37333333 0.18666667 1.7500001
0.37860382 0.18762667 1.7590001
0.38586286 0.18954667 1.7770001
0.38924763 0.18954667 1.7770001
0.3926324 0.18954667 1.7770001
0.39601716 0.18954667 1.7770001
0.44502857 0.21120001 1.9800001
0.44880003 0.21120001 1.9800001
0.45257145 0.21120001 1.9800001
0.41370478 0.19146667 1.7950001
0.41921526 0.19242667 1.8040001
0.42054287 0.19146667 1.7950001
0.42396191 0.19146667 1.7950001
0.42738098 0.19146667 1.7950001
0.47808 0.21248001 1.9920001
0.48187432 0.21248001 1.9920001
0.48274288 0.21120001 1.9800001
0.4366343 0.18954667 1.7770001
0.44001907 0.18954667 1.7770001
0.44340384 0.18954667 1.7770001
0.44678858 0.18954667 1.7770001
0.45245335 0.19050667 1.7860001
0.45585525 0.19050667 1.7860001
0.45925716 0.19050667 1.7860001
0.46265906 0.19050667 1.7860001
0.46371239 0.18954667 1.7770001
0.46709716 0.18954667 1.7770001
0.47048193 0.18954667 1.7770001
0.47386667 0.18954667 1.7770001
0.47241715 0.18762667 1.7590001
0.47576764 0.18762667 1.7590001
0.48156953 0.18858667 1.7680001
0.48493716 0.18858667 1.7680001
0.48830479 0.18858667 1.7680001
0.49417526 0.18954667 1.7770001
0.49756002 0.18954667 1.7770001
0.50348192 0.19050667 1.7860001
0.5068838 0.19050667 1.7860001
0.51028574 0.19050667 1.7860001
0.51368761 0.19050667 1.7860001
0.51708955 0.19050667 1.7860001
0.52049142 0.19050667 1.7860001
0.51861334 0.18858667 1.7680001
0.521981 0.18858667 1.7680001
0.52802289 0.18954667 1.7770001
0.53140765 0.18954667 1.7770001
0.53479242 0.18954667 1.7770001
0.53817719 0.18954667 1.7770001
0.53607619 0.18762667 1.7590001
0.59033334 0.20533334 1.9250001
0.59400004 0.20533334 1.9250001
0.59766668 0.20533334 1.9250001
0.59820956 0.20426667 1.9150001
0.60185719 0.20426667 1.9150001
0.60866672 0.20533334 1.9250001
0.61583239 0.20650667 1.9360001
0.616 0.20533334 1.9250001
0.6196667 0.20533334 1.9250001
0.62333333 0.20533334 1.9250001
0.63058287 0.20650667 1.9360001
0.63427049 0.20650667 1.9360001
0.64158291 0.20768 1.9470001
0.64529145 0.20768 1.9470001
0.64166671 0.20533334 1.9250001
0.64533335 0.20533334 1.9250001
0.64900005 0.20533334 1.9250001
0.64215624 0.20202668 1.8940001
0.64576381 0.20202668 1.8940001
0.65280002 0.20309334 1.904
0.65642667 0.20309334 1.904
0.671 0.20533334 1.9250001
0.6746667 0.20533334 1.9250001
0.68220955 0.20650667 1.9360001
0.68589717 0.20650667 1.9360001
0.6935029 0.20768 1.9470001
0.69721144 0.20768 1.9470001
0.70092005 0.20768 1.9470001
0.70462859 0.20768 1.9470001
0.70433527 0.20650667 1.9360001
0.70802289 0.20650667 1.9360001
0.71171051 0.20650667 1.9360001
0.71539813 0.20650667 1.9360001
0.71908575 0.20650667 1.9360001
0.71866667 0.20533334 1.9250001
0.72233337 0.20533334 1.9250001
0.72600001 0.20533334 1.9250001
0.73383623 0.20650667 1.9360001
0.73333335 0.20533334 1.9250001
0.74121147 0.20650667 1.9360001
0.74489909 0.20650667 1.9360001
0.75284004 0.20768 1.9470001
0.75654858 0.20768 1.9470001
0.75596195 0.20650667 1.9360001
0.75964957 0.20650667 1.9360001
0.76767433 0.20768 1.9470001
0.77574098 0.20885333 1.9580001
0.7794705 0.20885333 1.9580001
0.78320003 0.20885333 1.9580001
0.78692955 0.20885333 1.9580001
0.79065907 0.20885333 1.9580001
0.79438859 0.20885333 1.9580001
0.80260193 0.21002668 1.9690001
0.80635244 0.21002668 1.9690001
0.81010288 0.21002668 1.9690001
0.81385338 0.21002668 1.9690001
0.81760383 0.21002668 1.9690001
0.82135433 0.21002668 1.9690001
0.82049525 0.20885333 1.9580001
0.82422477 0.20885333 1.9580001
0.82330287 0.20768 1.9470001
0.82233906 0.20650667 1.9360001
0.82133335 0.20533334 1.9250001
0.82071429 0.20426667 1.9150001
0.81962669 0.20309334 1.904
0.81417334 0.20085335 1.8830001
0.80907434 0.19872001 1.863
0.8126229 0.19872001 1.863
0.81179053 0.19765334 1.853
0.80256003 0.19456001 1.8240001
0.80161524 0.19349334 1.8140001
0.80063242 0.19242667 1.8040001
0.80005717 0.19146667 1.7950001
0.79944766 0.19050667 1.7860001
0.79071242 0.18762667 1.7590001
0.79000002 0.18666667 1.7500001
0.78517336 0.18474667 1.7320001
0.78073335 0.18293335 1.715
0.78400004 0.18293335 1.715
0.77946287 0.18112001 1.6980001
0.7826972 0.18112001 1.6980001
0.77806288 0.17930667 1.6810001
0.78126478 0.17930667 1.6810001
0.77700001 0.17760001 1.6650001
0.77642286 0.17674667 1.6570001
0.77581525 0.17589334 1.649
0.77187049 0.17429334 1.6340001
0.76407433 0.17184001 1.6110001
0.76333338 0.17098667 1.603
0.76304001 0.17024 1.5960001
0.76272005 0.16949333 1.5890001
0.76189148 0.16864 1.5810001
0.75812954 0.16714667 1.567
0.75771433 0.1664 1.5600001
0.75727242 0.16565333 1.5530001
0.75680381 0.16490667 1.5460001
0.75630862 0.16416001 1.539
0.75233334 0.16266668 1.5250001
0.75226671 0.16202667 1.5190001
0.74869716 0.16064 1.506
0.74807239 0.15989333 1.4990001
-0.34765714 0.18348572 1.6900001
-0.34769905 0.18522286 1.7060001
-0.34444955 0.18522286 1.7060001
-0.34120002 0.18522286 1.7060001
-0.33973333 0.18620001 1.715
-0.33980191 0.18804573 1.7320001
-0.33825144 0.18902287 1.7410001
-0.33493525 0.18902287 1.7410001
-0.33504763 0.19097716 1.7590001
-0.33339429 0.1919543 1.7680001
-0.33170667 0.19293143 1.7770001
-0.3283219 0.19293143 1.7770001
-0.33353144 0.19803429 1.8240001
-0.33349526 0.20009714 1.8430001
-0.33177525 0.20118286 1.853
-0.32824573 0.20118286 1.853
-0.32471621 0.20118286 1.853
-0.32292002 0.20226859 1.863
-0.31937143 0.20226859 1.863
-0.31921333 0.20444001 1.8830001
-0.31562668 0.20444001 1.8830001
-0.31552002 0.20672001 1.904
-0.31189334 0.20672001 1.904
-0.31004763 0.20791429 1.9150001
-0.3064 0.20791429 1.9150001
-0.30433336 0.20900001 1.9250001
-0.30066669 0.20900001 1.9250001
-0.3003943 0.21138857 1.9470001
-0.3000381 0.21377715 1.9690001
-0.29628763 0.21377715 1.9690001
-0.29937145 0.21877144 2.0150001
-0.29729334 0.2200743 2.0270002
-0.29516953 0.22137715 2.039
-0.28614286 0.21746857 2.003
-0.28232762 0.21746857 2.003
-0.27851239 0.21746857 2.003
-0.21520001 0.20444001 1.8830001
-0.20824191 0.20118286 1.853
-0.20471239 0.20118286 1.853
-0.20118286 0.20118286 1.853
-0.19765334 0.20118286 1.853
-0.19307619 0.20009714 1.8430001
-0.19059429 0.20118286 1.853
-0.18908381 0.2033543 1.8730001
-0.18551619 0.2033543 1.8730001
-0.18194857 0.2033543 1.8730001
-0.17838097 0.2033543 1.8730001
-0.17388001 0.20226859 1.863
-0.17033143 0.20226859 1.863
-0.1676781 0.2033543 1.8730001
-0.16323429 0.20226859 1.863
-0.15968572 0.20226859 1.863
-0.15613715 0.20226859 1.863
-0.15258858 0.20226859 1.863
-0.14904 0.20226859 1.863
-0.14627239 0.2033543 1.8730001
-0.14270477 0.2033543 1.8730001
-0.13988 0.20444001 1.8830001
-0.13629334 0.20444001 1.8830001
-0.13270667 0.20444001 1.8830001
-0.12843429 0.2033543 1.8730001
-0.12553334 0.20444001 1.8830001
-0.12065143 0.20226859 1.863
-0.11647429 0.20118286 1.853
-0.11294477 0.20118286 1.853
-0.10941524 0.20118286 1.853
-0.10588572 0.20118286 1.853
-0.10180382 0.20009714 1.8430001
-0.098826669 0.20118286 1.853
-0.095297143 0.20118286 1.853
-0.092262864 0.20226859 1.863
-0.088714287 0.20226859 1.863
-0.084708571 0.20118286 1.853
-0.081617147 0.20226859 1.863
-0.077649526 0.20118286 1.853
-0.07412 0.20118286 1.853
-0.070209526 0.20009714 1.8430001
-0.06669905 0.20009714 1.8430001
-0.063188575 0.20009714 1.8430001
-0.059354287 0.19901143 1.8330001
-0.055862859 0.19901143 1.8330001
-0.052371431 0.19901143 1.8330001
-0.048373334 0.19694857 1.8140001
-0.045165718 0.19803429 1.8240001
-0.04169143 0.19803429 1.8240001
-0.038217146 0.19803429 1.8240001
-0.034914289 0.19901143 1.8330001
-0.031422857 0.19901143 1.8330001
-0.028236192 0.20118286 1.853
-0.024573334 0.20009714 1.8430001
-0.021062858 0.20009714 1.8430001
-0.017457144 0.19901143 1.8330001
-0.013965715 0.19901143 1.8330001
-0.010474286 0.19901143 1.8330001
-0.0069828574 0.19901143 1.8330001
-0.0034742858 0.19803429 1.8240001
0 0.19803429 1.8240001
0.0034742858 0.19803429 1.8240001
0.0069828574 0.19901143 1.8330001
0.010474286 0.19901143 1.8330001
0.013820953 0.19694857 1.8140001
0.017095238 0.19488572 1.7950001
0.020617144 0.19586286 1.8040001
0.024053333 0.19586286 1.8040001
0.027489524 0.19586286 1.8040001
0.041462857 0.19694857 1.8140001
0.044918098 0.19694857 1.8140001
0.048373334 0.19694857 1.8140001
0.051285718 0.19488572 1.7950001
0.054704763 0.19488572 1.7950001
0.057249527 0.1919543 1.7680001
0.061234288 0.19390857 1.7860001
0.066337146 0.19901143 1.8330001
0.069828577 0.19901143 1.8330001
0.073320001 0.19901143 1.8330001
0.076811433 0.19901143 1.8330001
0.082055241 0.2033543 1.8730001
0.085165717 0.20226859 1.863
0.088238098 0.20118286 1.853
0.091767624 0.20118286 1.853
0.094268575 0.19901143 1.8330001
0.10154667 0.20672001 1.904
0.10517333 0.20672001 1.904
0.10702857 0.2033543 1.8730001
0.11242667 0.20672001 1.904
0.11605334 0.20672001 1.904
0.11968 0.20672001 1.904
0.12330667 0.20672001 1.904
0.12626667 0.2056343 1.8940001
0.12774858 0.20226859 1.863
0.1334819 0.2056343 1.8940001
0.13629334 0.20444001 1.8830001
0.13988 0.20444001 1.8830001
0.14430477 0.2056343 1.8940001
0.14869334 0.20672001 1.904
0.15232001 0.20672001 1.904
0.15594667 0.20672001 1.904
0.15957335 0.20672001 1.904
0.16234286 0.2056343 1.8940001
0.16682667 0.20672001 1.904
0.17045334 0.20672001 1.904
0.17316572 0.2056343 1.8940001
0.17574668 0.20444001 1.8830001
0.17933334 0.20444001 1.8830001
0.18292001 0.20444001 1.8830001
0.18551619 0.2033543 1.8730001
0.18908381 0.2033543 1.8730001
0.19368 0.20444001 1.8830001
0.20512381 0.21258287 1.9580001
0.20885333 0.21258287 1.9580001
0.21138857 0.21138857 1.9470001
0.21509714 0.21138857 1.9470001
0.22004192 0.21258287 1.9580001
0.22377144 0.21258287 1.9580001
0.22750096 0.21258287 1.9580001
0.23252954 0.21377715 1.9690001
0.23628001 0.21377715 1.9690001
0.24710096 0.2200743 2.0270002
0.25244763 0.22137715 2.039
0.25633144 0.22137715 2.039
0.26021525 0.22137715 2.039
0.26409906 0.22137715 2.039
0.26798287 0.22137715 2.039
0.27186668 0.22137715 2.039
0.27575049 0.22137715 2.039
0.2796343 0.22137715 2.039
0.28351811 0.22137715 2.039
0.28571048 0.2200743 2.0270002
0.28614286 0.21746857 2.003
0.28836572 0.21627429 1.9920001
0.29216 0.21627429 1.9920001
0.29595429 0.21627429 1.9920001
0.27732763 0.20009714 1.8430001
0.28236192 0.20118286 1.853
0.28589144 0.20118286 1.853
0.28942096 0.20118286 1.853
0.29295048 0.20118286 1.853
0.29648 0.20118286 1.853
0.29839048 0.20009714 1.8430001
0.30190095 0.20009714 1.8430001
0.30541143 0.20009714 1.8430001
0.3089219 0.20009714 1.8430001
0.30582097 0.19586286 1.8040001
0.30925715 0.19586286 1.8040001
0.31442669 0.19694857 1.8140001
0.31612954 0.19586286 1.8040001
0.31797144 0.19488572 1.7950001
0.32139048 0.19488572 1.7950001
0.32318097 0.19390857 1.7860001
0.32658288 0.19390857 1.7860001
0.32998478 0.19390857 1.7860001
0.36480001 0.19803429 1.8240001
0.3682743 0.19803429 1.8240001
0.3717486 0.19803429 1.8240001
0.37522286 0.19803429 1.8240001
0.37869716 0.19803429 1.8240001
0.38217145 0.19803429 1.8240001
0.37 0.19000001 1.7500001
0.37333333 0.19000001 1.7500001
0.37860382 0.19097716 1.7590001
0.38195431 0.19097716 1.7590001
0.38530478 0.19097716 1.7590001
0.3926324 0.19293143 1.7770001
0.39802286 0.19390857 1.7860001
0.40142477 0.19390857 1.7860001
0.40482667 0.19390857 1.7860001
0.40822858 0.19390857 1.7860001
0.41370478 0.19488572 1.7950001
0.41921526 0.19586286 1.8040001
0.42054287 0.19488572 1.7950001
0.41545907 0.19097716 1.7590001
0.41880953 0.19097716 1.7590001
0.41784 0.18902287 1.7410001
0.41897905 0.18804573 1.7320001
0.42227811 0.18804573 1.7320001
0.42557716 0.18804573 1.7320001
0.44001907 0.19293143 1.7770001
0.44340384 0.19293143 1.7770001
0.44678858 0.19293143 1.7770001
0.45245335 0.19390857 1.7860001
0.45585525 0.19390857 1.7860001
0.45925716 0.19390857 1.7860001
0.46032763 0.19293143 1.7770001
0.46371239 0.19293143 1.7770001
0.46236572 0.19097716 1.7590001
0.46571621 0.19097716 1.7590001
0.46906668 0.19097716 1.7590001
0.47000003 0.19000001 1.7500001
0.47820193 0.1919543 1.7680001
0.48156953 0.1919543 1.7680001
0.48740572 0.19293143 1.7770001
0.49079049 0.19293143 1.7770001
0.49667811 0.19390857 1.7860001
0.50007999 0.19390857 1.7860001
0.50348192 0.19390857 1.7860001
0.5068838 0.19390857 1.7860001
0.51028574 0.19390857 1.7860001
0.50851047 0.1919543 1.7680001
