# .PCD v0.7 - Point Cloud Data file format
VERSION 0.7
FIELDS x y z
SIZE 4 4 4
TYPE F F F
COUNT 1 1 1
WIDTH 1501
HEIGHT 1
VIEWPOINT 0 0 0 1 0 0 0
POINTS 1501
DATA ascii
-1.0503943 0.33040571 2.5890002
-1.0454628 0.33040571 2.5890002
-1.0405315 0.33040571 2.5890002
-1.0356001 0.33040571 2.5890002
-1.0306686 0.33040571 2.5890002
-1.0257372 0.33040571 2.5890002
-1.0208057 0.33040571 2.5890002
-1.0158743 0.33040571 2.5890002
-1.0109429 0.33040571 2.5890002
-1.0060115 0.33040571 2.5890002
-1.00108 0.33040571 2.5890002
-0.99614859 0.33040571 2.5890002
-0.9912172 0.33040571 2.5890002
-0.98628575 0.33040571 2.5890002
-0.9813543 0.33040571 2.5890002
-0.97642291 0.33040571 2.5890002
-0.97149146 0.33040571 2.5890002
-0.96656001 0.33040571 2.5890002
-0.96162862 0.33040571 2.5890002
-0.95669717 0.33040571 2.5890002
-0.95911813 0.3329581 2.6090002
-0.95414859 0.3329581 2.6090002
-0.94917905 0.3329581 2.6090002
-0.95144767 0.33551049 2.6290002
-0.93924004 0.3329581 2.6090002
-0.9342705 0.3329581 2.6090002
-0.92930096 0.3329581 2.6090002
-0.92433149 0.3329581 2.6090002
-0.91936195 0.3329581 2.6090002
-0.92140192 0.33551049 2.6290002
-0.91639429 0.33551049 2.6290002
-0.91832006 0.33806288 2.6490002
-0.91327435 0.33806288 2.6490002
-0.90822858 0.33806288 2.6490002
-0.90318286 0.33806288 2.6490002
-0.89813715 0.33806288 2.6490002
-0.89309144 0.33806288 2.6490002
-0.88804573 0.33806288 2.6490002
-0.88300002 0.33806288 2.6490002
-0.8779543 0.33806288 2.6490002
-0.87290859 0.33806288 2.6490002
-0.86786288 0.33806288 2.6490002
-0.86933148 0.34061524 2.6690001
-0.86424768 0.34061524 2.6690001
-0.85916382 0.34061524 2.6690001
-0.84768003 0.33806288 2.6490002
-0.84899622 0.34061524 2.6690001
-0.84391242 0.34061524 2.6690001
-0.83882862 0.34061524 2.6690001
-0.83374476 0.34061524 2.6690001
-0.835181 0.34329525 2.6900001
-0.83005714 0.34329525 2.6900001
-0.82493335 0.34329525 2.6900001
-0.81980956 0.34329525 2.6900001
-0.81468576 0.34329525 2.6900001
-0.81588191 0.34597525 2.7110002
-0.81071812 0.34597525 2.7110002
-0.80555433 0.34597525 2.7110002
-0.80039048 0.34597525 2.7110002
-0.80168003 0.34878287 2.733
-0.79647434 0.34878287 2.733
-0.79126859 0.34878287 2.733
-0.7860629 0.34878287 2.733
-0.78685719 0.35146287 2.7540002
-0.78161144 0.35146287 2.7540002
-0.78284955 0.3543981 2.7770002
-0.77756006 0.3543981 2.7770002
-0.7722705 0.3543981 2.7770002
-0.76698101 0.3543981 2.7770002
-0.7553829 0.35146287 2.7540002
-0.75013715 0.35146287 2.7540002
-0.87390476 0.19169524 1.48
-0.87108576 0.19169524 1.48
-0.8682667 0.19169524 1.48
-0.86895621 0.19247238 1.4860001
-0.86612576 0.19247238 1.4860001
-0.866781 0.19324952 1.4920001
-0.87204576 0.19506286 1.506
-0.86917716 0.19506286 1.506
-0.86976004 0.19584 1.5120001
-0.87089336 0.19674668 1.5190001
-0.87142861 0.19752382 1.5250001
-0.87251049 0.19843048 1.5320001
-0.86959243 0.19843048 1.5320001
-0.87063432 0.19933715 1.539
-0.87164956 0.20024382 1.5460001
-0.8687048 0.20024382 1.5460001
-0.86576003 0.20024382 1.5460001
-0.8706286 0.20205715 1.5600001
-0.8715505 0.20296381 1.567
-0.86856574 0.20296381 1.567
-0.86944765 0.20387049 1.5740001
-1.4641372 0.34569907 2.6690001
-1.4590534 0.34569907 2.6690001
-1.4539696 0.34569907 2.6690001
-1.4380286 0.34310859 2.6490002
-1.4329829 0.34310859 2.6490002
-1.4279372 0.34310859 2.6490002
-1.4228915 0.34310859 2.6490002
-1.4178457 0.34310859 2.6490002
-1.4128001 0.34310859 2.6490002
-1.4077543 0.34310859 2.6490002
-1.4027086 0.34310859 2.6490002
-1.3976629 0.34310859 2.6490002
-1.382103 0.34051812 2.6290002
-1.3875715 0.34310859 2.6490002
-1.3825258 0.34310859 2.6490002
-1.37748 0.34310859 2.6490002
-1.3620725 0.34051812 2.6290002
-1.3570648 0.34051812 2.6290002
-1.3520572 0.34051812 2.6290002
-1.3470496 0.34051812 2.6290002
-1.342042 0.34051812 2.6290002
-1.3370343 0.34051812 2.6290002
-1.3320267 0.34051812 2.6290002
-1.3270191 0.34051812 2.6290002
-1.3220115 0.34051812 2.6290002
-1.3170038 0.34051812 2.6290002
-1.3119962 0.34051812 2.6290002
-1.3069886 0.34051812 2.6290002
-1.301981 0.34051812 2.6290002
-1.2969733 0.34051812 2.6290002
-1.2919657 0.34051812 2.6290002
-1.2869581 0.34051812 2.6290002
-1.2819505 0.34051812 2.6290002
-1.2769428 0.34051812 2.6290002
-1.2719353 0.34051812 2.6290002
-1.2669277 0.34051812 2.6290002
-1.2619201 0.34051812 2.6290002
-1.2569125 0.34051812 2.6290002
-1.242381 0.33792764 2.6090002
-1.2374115 0.33792764 2.6090002
-1.2324419 0.33792764 2.6090002
-1.2274724 0.33792764 2.6090002
-1.2225029 0.33792764 2.6090002
-1.2175333 0.33792764 2.6090002
-1.2125639 0.33792764 2.6090002
-1.2075943 0.33792764 2.6090002
-1.2026248 0.33792764 2.6090002
-1.1976553 0.33792764 2.6090002
-1.1926857 0.33792764 2.6090002
-1.1877162 0.33792764 2.6090002
-1.1736801 0.33533716 2.5890002
-1.1687486 0.33533716 2.5890002
-1.1638172 0.33533716 2.5890002
-1.1588857 0.33533716 2.5890002
-1.1539544 0.33533716 2.5890002
-1.1490229 0.33533716 2.5890002
-1.1440915 0.33533716 2.5890002
-1.13916 0.33533716 2.5890002
-1.1342286 0.33533716 2.5890002
-1.1210096 0.33287621 2.5700002
-1.1243658 0.33533716 2.5890002
-1.1194344 0.33533716 2.5890002
-1.1145029 0.33533716 2.5890002
-1.1014286 0.33287621 2.5700002
-1.0965334 0.33287621 2.5700002
-1.0916381 0.33287621 2.5700002
-1.0867429 0.33287621 2.5700002
-1.0818477 0.33287621 2.5700002
-1.0769525 0.33287621 2.5700002
-1.0720571 0.33287621 2.5700002
-1.0671619 0.33287621 2.5700002
-1.0701201 0.33533716 2.5890002
-1.0651886 0.33533716 2.5890002
-1.0602572 0.33533716 2.5890002
-1.0553257 0.33533716 2.5890002
-1.0503943 0.33533716 2.5890002
-1.0454628 0.33533716 2.5890002
-1.0405315 0.33533716 2.5890002
-1.0356001 0.33533716 2.5890002
-1.0306686 0.33533716 2.5890002
-1.0257372 0.33533716 2.5890002
-1.0208057 0.33533716 2.5890002
-1.0158743 0.33533716 2.5890002
-1.0109429 0.33533716 2.5890002
-1.0060115 0.33533716 2.5890002
-1.00108 0.33533716 2.5890002
-0.99614859 0.33533716 2.5890002
-0.9912172 0.33533716 2.5890002
-0.98628575 0.33533716 2.5890002
-0.9813543 0.33533716 2.5890002
-0.97642291 0.33533716 2.5890002
-0.97149146 0.33533716 2.5890002
-0.96656001 0.33533716 2.5890002
-0.96162862 0.33533716 2.5890002
-0.95669717 0.33533716 2.5890002
-0.95911813 0.33792764 2.6090002
-0.96146291 0.34051812 2.6290002
-0.94917905 0.33792764 2.6090002
-0.94420958 0.33792764 2.6090002
-0.93924004 0.33792764 2.6090002
-0.9342705 0.33792764 2.6090002
-0.93642479 0.34051812 2.6290002
-0.93141717 0.34051812 2.6290002
-0.91936195 0.33792764 2.6090002
-0.92140192 0.34051812 2.6290002
-0.91639429 0.34051812 2.6290002
-0.91832006 0.34310859 2.6490002
-0.91327435 0.34310859 2.6490002
-0.90822858 0.34310859 2.6490002
-0.90318286 0.34310859 2.6490002
-0.89813715 0.34310859 2.6490002
-0.89309144 0.34310859 2.6490002
-0.88804573 0.34310859 2.6490002
-0.88300002 0.34310859 2.6490002
-0.8779543 0.34310859 2.6490002
-0.87290859 0.34310859 2.6490002
-0.87441528 0.34569907 2.6690001
-0.86933148 0.34569907 2.6690001
-0.86424768 0.34569907 2.6690001
-0.85916382 0.34569907 2.6690001
-0.84768003 0.34310859 2.6490002
-0.84899622 0.34569907 2.6690001
-0.84391242 0.34569907 2.6690001
-0.83882862 0.34569907 2.6690001
-0.83374476 0.34569907 2.6690001
-0.835181 0.34841907 2.6900001
-0.83005714 0.34841907 2.6900001
-0.82493335 0.34841907 2.6900001
-0.81980956 0.34841907 2.6900001
-0.81468576 0.34841907 2.6900001
-0.81588191 0.35113907 2.7110002
-0.81071812 0.35113907 2.7110002
-0.80555433 0.35113907 2.7110002
-0.80039048 0.35113907 2.7110002
-0.80168003 0.35398859 2.733
-0.79647434 0.35398859 2.733
-0.79126859 0.35398859 2.733
-0.7860629 0.35398859 2.733
-0.78085715 0.35398859 2.733
-0.78161144 0.35670859 2.7540002
-0.77636576 0.35670859 2.7540002
-0.77112001 0.35670859 2.7540002
-0.76587433 0.35670859 2.7540002
-0.76062858 0.35670859 2.7540002
-0.7553829 0.35670859 2.7540002
-0.75013715 0.35670859 2.7540002
-0.87390476 0.19451429 1.48
-0.87108576 0.19451429 1.48
-0.8682667 0.19451429 1.48
-0.86895621 0.19530286 1.4860001
-0.86612576 0.19530286 1.4860001
-0.87084764 0.19701144 1.4990001
-0.87204576 0.19793144 1.506
-0.86917716 0.19793144 1.506
-0.86976004 0.19872001 1.5120001
-0.87089336 0.19964001 1.5190001
-0.87142861 0.20042858 1.5250001
-0.86852384 0.20042858 1.5250001
-0.86959243 0.20134857 1.5320001
-0.87063432 0.20226859 1.539
-0.87164956 0.20318858 1.5460001
-0.8687048 0.20318858 1.5460001
-0.87360001 0.20502858 1.5600001
-0.8706286 0.20502858 1.5600001
-0.8715505 0.20594858 1.567
-0.86856574 0.20594858 1.567
-1.4641372 0.35078287 2.6690001
-1.44812 0.34815431 2.6490002
-1.4430743 0.34815431 2.6490002
-1.4380286 0.34815431 2.6490002
-1.4329829 0.34815431 2.6490002
-1.4279372 0.34815431 2.6490002
-1.4228915 0.34815431 2.6490002
-1.4178457 0.34815431 2.6490002
-1.4128001 0.34815431 2.6490002
-1.3971257 0.34552574 2.6290002
-1.3921181 0.34552574 2.6290002
-1.3871105 0.34552574 2.6290002
-1.382103 0.34552574 2.6290002
-1.3875715 0.34815431 2.6490002
-1.3825258 0.34815431 2.6490002
-1.37748 0.34815431 2.6490002
-1.3724344 0.34815431 2.6490002
-1.3673886 0.34815431 2.6490002
-1.362343 0.34815431 2.6490002
-1.3572972 0.34815431 2.6490002
-1.342042 0.34552574 2.6290002
-1.3370343 0.34552574 2.6290002
-1.3320267 0.34552574 2.6290002
-1.3270191 0.34552574 2.6290002
-1.3220115 0.34552574 2.6290002
-1.3170038 0.34552574 2.6290002
-1.3020153 0.34289715 2.6090002
-1.3069886 0.34552574 2.6290002
-1.301981 0.34552574 2.6290002
-1.2969733 0.34552574 2.6290002
-1.2919657 0.34552574 2.6290002
-1.2869581 0.34552574 2.6290002
-1.2819505 0.34552574 2.6290002
-1.2769428 0.34552574 2.6290002
-1.2816114 0.34815431 2.6490002
-1.2669277 0.34552574 2.6290002
-1.2619201 0.34552574 2.6290002
-1.2569125 0.34552574 2.6290002
-1.242381 0.34289715 2.6090002
-1.2374115 0.34289715 2.6090002
-1.2324419 0.34289715 2.6090002
-1.2180629 0.34026858 2.5890002
-1.2225029 0.34289715 2.6090002
-1.2175333 0.34289715 2.6090002
-1.2032686 0.34026858 2.5890002
-1.2075943 0.34289715 2.6090002
-1.1934057 0.34026858 2.5890002
-1.1976553 0.34289715 2.6090002
-1.1926857 0.34289715 2.6090002
-1.1877162 0.34289715 2.6090002
-1.1736801 0.34026858 2.5890002
-1.1687486 0.34026858 2.5890002
-1.1638172 0.34026858 2.5890002
-1.1588857 0.34026858 2.5890002
-1.1539544 0.34026858 2.5890002
-1.1490229 0.34026858 2.5890002
-1.1440915 0.34026858 2.5890002
-1.13916 0.34026858 2.5890002
-1.1342286 0.34026858 2.5890002
-1.1292971 0.34026858 2.5890002
-1.1243658 0.34026858 2.5890002
-1.1194344 0.34026858 2.5890002
-1.1145029 0.34026858 2.5890002
-1.1014286 0.33777145 2.5700002
-1.0965334 0.33777145 2.5700002
-1.0916381 0.33777145 2.5700002
-1.0867429 0.33777145 2.5700002
-1.0818477 0.33777145 2.5700002
-1.0769525 0.33777145 2.5700002
-1.0799829 0.34026858 2.5890002
-1.0750514 0.34026858 2.5890002
-1.0701201 0.34026858 2.5890002
-1.0651886 0.34026858 2.5890002
-1.0602572 0.34026858 2.5890002
-1.0553257 0.34026858 2.5890002
-1.0503943 0.34026858 2.5890002
-1.0454628 0.34026858 2.5890002
-1.0405315 0.34026858 2.5890002
-1.0356001 0.34026858 2.5890002
-1.0306686 0.34026858 2.5890002
-1.0257372 0.34026858 2.5890002
-1.0208057 0.34026858 2.5890002
-1.0158743 0.34026858 2.5890002
-1.0109429 0.34026858 2.5890002
-1.0060115 0.34026858 2.5890002
-1.00108 0.34026858 2.5890002
-0.99614859 0.34026858 2.5890002
-0.9912172 0.34026858 2.5890002
-0.98628575 0.34026858 2.5890002
-0.9813543 0.34026858 2.5890002
-0.97642291 0.34026858 2.5890002
-0.97149146 0.34026858 2.5890002
-0.96656001 0.34026858 2.5890002
-0.96162862 0.34026858 2.5890002
-0.95669717 0.34026858 2.5890002
-0.95911813 0.34289715 2.6090002
-0.95414859 0.34289715 2.6090002
-0.94917905 0.34289715 2.6090002
-0.94420958 0.34289715 2.6090002
-0.93924004 0.34289715 2.6090002
-0.9342705 0.34289715 2.6090002
-0.92930096 0.34289715 2.6090002
-0.93141717 0.34552574 2.6290002
-0.91936195 0.34289715 2.6090002
-0.92140192 0.34552574 2.6290002
-0.91639429 0.34552574 2.6290002
-0.91832006 0.34815431 2.6490002
-0.91327435 0.34815431 2.6490002
-0.90822858 0.34815431 2.6490002
-0.90318286 0.34815431 2.6490002
-0.89813715 0.34815431 2.6490002
-0.89309144 0.34815431 2.6490002
-0.88804573 0.34815431 2.6490002
-0.88300002 0.34815431 2.6490002
-0.8779543 0.34815431 2.6490002
-0.87290859 0.34815431 2.6490002
-0.87441528 0.35078287 2.6690001
-0.86933148 0.35078287 2.6690001
-0.86424768 0.35078287 2.6690001
-0.85916382 0.35078287 2.6690001
-0.84768003 0.34815431 2.6490002
-0.84899622 0.35078287 2.6690001
-0.84391242 0.35078287 2.6690001
-0.84542859 0.35354286 2.6900001
-0.84030479 0.35354286 2.6900001
-0.835181 0.35354286 2.6900001
-0.83005714 0.35354286 2.6900001
-0.82493335 0.35354286 2.6900001
-0.81980956 0.35354286 2.6900001
-0.81468576 0.35354286 2.6900001
-0.81588191 0.35630286 2.7110002
-0.81071812 0.35630286 2.7110002
-0.80555433 0.35630286 2.7110002
-0.80039048 0.35630286 2.7110002
-0.79522669 0.35630286 2.7110002
-0.79647434 0.35919431 2.733
-0.79126859 0.35919431 2.733
-0.7860629 0.35919431 2.733
-0.78085715 0.35919431 2.733
-0.77565145 0.35919431 2.733
-0.77636576 0.3619543 2.7540002
-0.77112001 0.3619543 2.7540002
-0.76587433 0.3619543 2.7540002
-0.76062858 0.3619543 2.7540002
-0.74962288 0.35919431 2.733
-0.74441719 0.35919431 2.733
-0.87390476 0.19733334 1.48
-0.87108576 0.19733334 1.48
-0.87178671 0.19813333 1.4860001
-0.86895621 0.19813333 1.4860001
-0.86962289 0.19893335 1.4920001
-0.87084764 0.19986667 1.4990001
-0.87204576 0.2008 1.506
-0.86917716 0.2008 1.506
-0.86630863 0.2008 1.506
-0.86688006 0.2016 1.5120001
-0.86800003 0.20253333 1.5190001
-0.86852384 0.20333335 1.5250001
-0.86959243 0.20426667 1.5320001
-0.87063432 0.2052 1.539
-0.87559623 0.20706667 1.5530001
-0.87263811 0.20706667 1.5530001
-0.87360001 0.208 1.5600001
-0.8706286 0.208 1.5600001
-0.8715505 0.20893334 1.567
-0.86856574 0.20893334 1.567
-1.4531658 0.35320002 2.6490002
-1.44812 0.35320002 2.6490002
-1.4430743 0.35320002 2.6490002
-1.4380286 0.35320002 2.6490002
-1.4329829 0.35320002 2.6490002
-1.4279372 0.35320002 2.6490002
-1.4228915 0.35320002 2.6490002
-1.4178457 0.35320002 2.6490002
-1.4128001 0.35320002 2.6490002
-1.4077543 0.35320002 2.6490002
-1.3921181 0.35053334 2.6290002
-1.3871105 0.35053334 2.6290002
-1.382103 0.35053334 2.6290002
-1.3770953 0.35053334 2.6290002
-1.3720877 0.35053334 2.6290002
-1.37748 0.35320002 2.6490002
-1.3620725 0.35053334 2.6290002
-1.3570648 0.35053334 2.6290002
-1.3520572 0.35053334 2.6290002
-1.3470496 0.35053334 2.6290002
-1.342042 0.35053334 2.6290002
-1.3370343 0.35053334 2.6290002
-1.3218933 0.34786668 2.6090002
-1.3169239 0.34786668 2.6090002
-1.3119544 0.34786668 2.6090002
-1.3069848 0.34786668 2.6090002
-1.3020153 0.34786668 2.6090002
-1.2970457 0.34786668 2.6090002
-1.2920762 0.34786668 2.6090002
-1.2871068 0.34786668 2.6090002
-1.2919657 0.35053334 2.6290002
-1.2869581 0.35053334 2.6290002
-1.2819505 0.35053334 2.6290002
-1.2769428 0.35053334 2.6290002
-1.2816114 0.35320002 2.6490002
-1.2669277 0.35053334 2.6290002
-1.2619201 0.35053334 2.6290002
-1.2473506 0.34786668 2.6090002
-1.242381 0.34786668 2.6090002
-1.2374115 0.34786668 2.6090002
-1.2324419 0.34786668 2.6090002
-1.2180629 0.3452 2.5890002
-1.2225029 0.34786668 2.6090002
-1.2175333 0.34786668 2.6090002
-1.2032686 0.3452 2.5890002
-1.2075943 0.34786668 2.6090002
-1.2026248 0.34786668 2.6090002
-1.1976553 0.34786668 2.6090002
-1.1926857 0.34786668 2.6090002
-1.1877162 0.34786668 2.6090002
-1.1736801 0.3452 2.5890002
-1.1687486 0.3452 2.5890002
-1.1638172 0.3452 2.5890002
-1.1588857 0.3452 2.5890002
-1.1539544 0.3452 2.5890002
-1.1490229 0.3452 2.5890002
-1.1440915 0.3452 2.5890002
-1.13916 0.3452 2.5890002
-1.1342286 0.3452 2.5890002
-1.1292971 0.3452 2.5890002
-1.1243658 0.3452 2.5890002
-1.111219 0.34266669 2.5700002
-1.1063238 0.34266669 2.5700002
-1.1014286 0.34266669 2.5700002
-1.0965334 0.34266669 2.5700002
-1.0916381 0.34266669 2.5700002
-1.0867429 0.34266669 2.5700002
-1.0818477 0.34266669 2.5700002
-1.0769525 0.34266669 2.5700002
-1.0799829 0.3452 2.5890002
-1.0750514 0.3452 2.5890002
-1.0701201 0.3452 2.5890002
-1.0651886 0.3452 2.5890002
-1.0602572 0.3452 2.5890002
-1.0553257 0.3452 2.5890002
-1.0503943 0.3452 2.5890002
-1.0454628 0.3452 2.5890002
-1.0405315 0.3452 2.5890002
-1.0356001 0.3452 2.5890002
-1.0306686 0.3452 2.5890002
-1.0257372 0.3452 2.5890002
-1.0208057 0.3452 2.5890002
-1.0158743 0.3452 2.5890002
-1.0109429 0.3452 2.5890002
-1.0060115 0.3452 2.5890002
-1.00108 0.3452 2.5890002
-0.99614859 0.3452 2.5890002
-0.99887431 0.34786668 2.6090002
-0.98628575 0.3452 2.5890002
-0.9813543 0.3452 2.5890002
-0.97642291 0.3452 2.5890002
-0.97149146 0.3452 2.5890002
-0.96656001 0.3452 2.5890002
-0.96162862 0.3452 2.5890002
-0.95669717 0.3452 2.5890002
-0.95911813 0.34786668 2.6090002
-0.95414859 0.34786668 2.6090002
-0.94917905 0.34786668 2.6090002
-0.94420958 0.34786668 2.6090002
-0.93924004 0.34786668 2.6090002
-0.9342705 0.34786668 2.6090002
-0.92930096 0.34786668 2.6090002
-0.93141717 0.35053334 2.6290002
-0.92640954 0.35053334 2.6290002
-0.92140192 0.35053334 2.6290002
-0.91639429 0.35053334 2.6290002
-0.91832006 0.35320002 2.6490002
-0.91327435 0.35320002 2.6490002
-0.90822858 0.35320002 2.6490002
-0.90318286 0.35320002 2.6490002
-0.89813715 0.35320002 2.6490002
-0.89309144 0.35320002 2.6490002
-0.88804573 0.35320002 2.6490002
-0.88300002 0.35320002 2.6490002
-0.8779543 0.35320002 2.6490002
-0.87290859 0.35320002 2.6490002
-0.87441528 0.35586667 2.6690001
-0.86933148 0.35586667 2.6690001
-0.86424768 0.35586667 2.6690001
-0.85916382 0.35586667 2.6690001
-0.84768003 0.35320002 2.6490002
-0.84263432 0.35320002 2.6490002
-0.84391242 0.35586667 2.6690001
-0.83882862 0.35586667 2.6690001
-0.83374476 0.35586667 2.6690001
-0.835181 0.35866669 2.6900001
-0.83005714 0.35866669 2.6900001
-0.82493335 0.35866669 2.6900001
-0.81980956 0.35866669 2.6900001
-0.82104576 0.36146668 2.7110002
-0.81588191 0.36146668 2.7110002
-0.81071812 0.36146668 2.7110002
-0.80555433 0.36146668 2.7110002
-0.80688572 0.3644 2.733
-0.80168003 0.3644 2.733
-0.79647434 0.3644 2.733
-0.79126859 0.3644 2.733
-0.7860629 0.3644 2.733
-0.78085715 0.3644 2.733
-0.77565145 0.3644 2.733
-0.77636576 0.36720002 2.7540002
-0.77112001 0.36720002 2.7540002
-0.76587433 0.36720002 2.7540002
-0.76062858 0.36720002 2.7540002
-0.74962288 0.3644 2.733
-0.74441719 0.3644 2.733
-0.87390476 0.20015238 1.48
-0.87108576 0.20015238 1.48
-0.87178671 0.20096381 1.4860001
-0.86895621 0.20096381 1.4860001
-0.86962289 0.20177525 1.4920001
-0.87084764 0.20272191 1.4990001
-0.8679924 0.20272191 1.4990001
-0.86917716 0.20366858 1.506
-0.86630863 0.20366858 1.506
-0.86688006 0.20448001 1.5120001
-0.86800003 0.20542668 1.5190001
-0.86852384 0.20623811 1.5250001
-0.86959243 0.20718478 1.5320001
-0.87459433 0.2090781 1.5460001
-0.87559623 0.21002477 1.5530001
-0.87263811 0.21002477 1.5530001
-0.87360001 0.21097143 1.5600001
-0.8706286 0.21097143 1.5600001
-0.8715505 0.2119181 1.567
-0.86856574 0.2119181 1.567
-1.4421943 0.35554096 2.6290002
-1.4262534 0.35283619 2.6090002
-1.4321791 0.35554096 2.6290002
-1.4163144 0.35283619 2.6090002
-1.4113448 0.35283619 2.6090002
-1.4171562 0.35554096 2.6290002
-1.4121486 0.35554096 2.6290002
-1.4178457 0.35824573 2.6490002
-1.4128001 0.35824573 2.6490002
-1.4077543 0.35824573 2.6490002
-1.4027086 0.35824573 2.6490002
-1.3871105 0.35554096 2.6290002
-1.382103 0.35554096 2.6290002
-1.3770953 0.35554096 2.6290002
-1.3720877 0.35554096 2.6290002
-1.3670801 0.35554096 2.6290002
-1.3620725 0.35554096 2.6290002
-1.3570648 0.35554096 2.6290002
-1.3520572 0.35554096 2.6290002
-1.3470496 0.35554096 2.6290002
-1.342042 0.35554096 2.6290002
-1.3370343 0.35554096 2.6290002
-1.3218933 0.35283619 2.6090002
-1.3169239 0.35283619 2.6090002
-1.3119544 0.35283619 2.6090002
-1.3069848 0.35283619 2.6090002
-1.3020153 0.35283619 2.6090002
-1.2970457 0.35283619 2.6090002
-1.2920762 0.35283619 2.6090002
-1.2871068 0.35283619 2.6090002
-1.2919657 0.35554096 2.6290002
-1.2869581 0.35554096 2.6290002
-1.2819505 0.35554096 2.6290002
-1.2769428 0.35554096 2.6290002
-1.2816114 0.35824573 2.6490002
-1.2765658 0.35824573 2.6490002
-1.2619201 0.35554096 2.6290002
-1.2569125 0.35554096 2.6290002
-1.242381 0.35283619 2.6090002
-1.2374115 0.35283619 2.6090002
-1.2324419 0.35283619 2.6090002
-1.2274724 0.35283619 2.6090002
-1.2225029 0.35283619 2.6090002
-1.2175333 0.35283619 2.6090002
-1.2032686 0.35013145 2.5890002
-1.2075943 0.35283619 2.6090002
-1.2026248 0.35283619 2.6090002
-1.1976553 0.35283619 2.6090002
-1.1926857 0.35283619 2.6090002
-1.1786115 0.35013145 2.5890002
-1.1736801 0.35013145 2.5890002
-1.1687486 0.35013145 2.5890002
-1.1638172 0.35013145 2.5890002
-1.1588857 0.35013145 2.5890002
-1.1539544 0.35013145 2.5890002
-1.1490229 0.35013145 2.5890002
-1.1440915 0.35013145 2.5890002
-1.13916 0.35013145 2.5890002
-1.1342286 0.35013145 2.5890002
-1.1292971 0.35013145 2.5890002
-1.1243658 0.35013145 2.5890002
-1.111219 0.34756193 2.5700002
-1.1145029 0.35013145 2.5890002
-1.1095715 0.35013145 2.5890002
-1.0965334 0.34756193 2.5700002
-1.0916381 0.34756193 2.5700002
-1.0867429 0.34756193 2.5700002
-1.0818477 0.34756193 2.5700002
-1.0769525 0.34756193 2.5700002
-1.0799829 0.35013145 2.5890002
-1.0750514 0.35013145 2.5890002
-1.0701201 0.35013145 2.5890002
-1.0651886 0.35013145 2.5890002
-1.0602572 0.35013145 2.5890002
-1.0553257 0.35013145 2.5890002
-1.0503943 0.35013145 2.5890002
-1.0454628 0.35013145 2.5890002
-1.0405315 0.35013145 2.5890002
-1.0356001 0.35013145 2.5890002
-1.0306686 0.35013145 2.5890002
-1.0257372 0.35013145 2.5890002
-1.0208057 0.35013145 2.5890002
-1.0158743 0.35013145 2.5890002
-1.0109429 0.35013145 2.5890002
-1.0137829 0.35283619 2.6090002
-1.00108 0.35013145 2.5890002
-1.0038439 0.35283619 2.6090002
-0.99887431 0.35283619 2.6090002
-0.98628575 0.35013145 2.5890002
-0.9813543 0.35013145 2.5890002
-0.97642291 0.35013145 2.5890002
-0.97149146 0.35013145 2.5890002
-0.96656001 0.35013145 2.5890002
-0.96162862 0.35013145 2.5890002
-0.95669717 0.35013145 2.5890002
-0.95911813 0.35283619 2.6090002
-0.94683433 0.35013145 2.5890002
-0.94917905 0.35283619 2.6090002
-0.94420958 0.35283619 2.6090002
-0.93924004 0.35283619 2.6090002
-0.9342705 0.35283619 2.6090002
-0.93642479 0.35554096 2.6290002
-0.93141717 0.35554096 2.6290002
-0.92640954 0.35554096 2.6290002
-0.92140192 0.35554096 2.6290002
-0.92336577 0.35824573 2.6490002
-0.91832006 0.35824573 2.6490002
-0.91327435 0.35824573 2.6490002
-0.90822858 0.35824573 2.6490002
-0.90318286 0.35824573 2.6490002
-0.89813715 0.35824573 2.6490002
-0.89309144 0.35824573 2.6490002
-0.88804573 0.35824573 2.6490002
-0.88300002 0.35824573 2.6490002
-0.8779543 0.35824573 2.6490002
-0.87290859 0.35824573 2.6490002
-0.86786288 0.35824573 2.6490002
-0.86933148 0.3609505 2.6690001
-0.86424768 0.3609505 2.6690001
-0.85916382 0.3609505 2.6690001
-0.84768003 0.35824573 2.6490002
-0.84263432 0.35824573 2.6490002
-0.84391242 0.3609505 2.6690001
-0.83882862 0.3609505 2.6690001
-0.84030479 0.36379048 2.6900001
-0.835181 0.36379048 2.6900001
-0.83005714 0.36379048 2.6900001
-0.82493335 0.36379048 2.6900001
-0.81980956 0.36379048 2.6900001
-0.82104576 0.36663049 2.7110002
-0.81588191 0.36663049 2.7110002
-0.81071812 0.36663049 2.7110002
-0.80555433 0.36663049 2.7110002
-0.80039048 0.36663049 2.7110002
-0.80168003 0.36960572 2.733
-0.79647434 0.36960572 2.733
-0.79126859 0.36960572 2.733
-0.7860629 0.36960572 2.733
-0.78085715 0.36960572 2.733
-0.77565145 0.36960572 2.733
-0.77636576 0.37244573 2.7540002
-0.77112001 0.37244573 2.7540002
-0.76587433 0.37244573 2.7540002
-0.76062858 0.37244573 2.7540002
-0.74962288 0.36960572 2.733
-0.74441719 0.36960572 2.733
-0.86977148 0.20201144 1.473
-0.87108576 0.20297143 1.48
-0.87178671 0.2037943 1.4860001
-0.86895621 0.2037943 1.4860001
-0.86612576 0.2037943 1.4860001
-0.866781 0.20461716 1.4920001
-0.8679924 0.20557715 1.4990001
-0.86917716 0.20653716 1.506
-0.86630863 0.20653716 1.506
-0.86688006 0.20736001 1.5120001
-0.86800003 0.20832001 1.5190001
-0.86852384 0.20914286 1.5250001
-0.86959243 0.21010287 1.5320001
-0.87459433 0.21202287 1.5460001
-0.87559623 0.21298286 1.5530001
-0.87263811 0.21298286 1.5530001
-0.87360001 0.21394287 1.5600001
-0.87453526 0.21490286 1.567
-0.8715505 0.21490286 1.567
-0.87244576 0.21586287 1.5740001
-1.4312229 0.35780573 2.6090002
-1.4262534 0.35780573 2.6090002
-1.4212838 0.35780573 2.6090002
-1.4271715 0.36054859 2.6290002
-1.4221638 0.36054859 2.6290002
-1.4279372 0.36329144 2.6490002
-1.4228915 0.36329144 2.6490002
-1.4178457 0.36329144 2.6490002
-1.4128001 0.36329144 2.6490002
-1.4077543 0.36329144 2.6490002
-1.3921181 0.36054859 2.6290002
-1.3871105 0.36054859 2.6290002
-1.382103 0.36054859 2.6290002
-1.3770953 0.36054859 2.6290002
-1.3720877 0.36054859 2.6290002
-1.3670801 0.36054859 2.6290002
-1.3620725 0.36054859 2.6290002
-1.3570648 0.36054859 2.6290002
-1.3520572 0.36054859 2.6290002
-1.3470496 0.36054859 2.6290002
-1.342042 0.36054859 2.6290002
-1.3370343 0.36054859 2.6290002
-1.3218933 0.35780573 2.6090002
-1.3169239 0.35780573 2.6090002
-1.3119544 0.35780573 2.6090002
-1.3069848 0.35780573 2.6090002
-1.3020153 0.35780573 2.6090002
-1.2970457 0.35780573 2.6090002
-1.2920762 0.35780573 2.6090002
-1.2871068 0.35780573 2.6090002
-1.2919657 0.36054859 2.6290002
-1.2869581 0.36054859 2.6290002
-1.2819505 0.36054859 2.6290002
-1.2769428 0.36054859 2.6290002
-1.2912877 0.3660343 2.6690001
-1.2765658 0.36329144 2.6490002
-1.27152 0.36329144 2.6490002
-1.2569125 0.36054859 2.6290002
-1.2519048 0.36054859 2.6290002
-1.2468972 0.36054859 2.6290002
-1.2324419 0.35780573 2.6090002
-1.2274724 0.35780573 2.6090002
-1.2225029 0.35780573 2.6090002
-1.2175333 0.35780573 2.6090002
-1.2032686 0.35506287 2.5890002
-1.1983372 0.35506287 2.5890002
-1.1934057 0.35506287 2.5890002
-1.1884743 0.35506287 2.5890002
-1.1835428 0.35506287 2.5890002
-1.1786115 0.35506287 2.5890002
-1.1736801 0.35506287 2.5890002
-1.1687486 0.35506287 2.5890002
-1.1638172 0.35506287 2.5890002
-1.1588857 0.35506287 2.5890002
-1.1539544 0.35506287 2.5890002
-1.1490229 0.35506287 2.5890002
-1.1440915 0.35506287 2.5890002
-1.13916 0.35506287 2.5890002
-1.1342286 0.35506287 2.5890002
-1.1292971 0.35506287 2.5890002
-1.1243658 0.35506287 2.5890002
-1.1194344 0.35506287 2.5890002
-1.1145029 0.35506287 2.5890002
-1.1095715 0.35506287 2.5890002
-1.0965334 0.35245717 2.5700002
-1.0916381 0.35245717 2.5700002
-1.0867429 0.35245717 2.5700002
-1.0818477 0.35245717 2.5700002
-1.0769525 0.35245717 2.5700002
-1.0799829 0.35506287 2.5890002
-1.0750514 0.35506287 2.5890002
-1.0701201 0.35506287 2.5890002
-1.0651886 0.35506287 2.5890002
-1.0602572 0.35506287 2.5890002
-1.0634781 0.35780573 2.6090002
-1.0503943 0.35506287 2.5890002
-1.0454628 0.35506287 2.5890002
-1.0405315 0.35506287 2.5890002
-1.0356001 0.35506287 2.5890002
-1.0306686 0.35506287 2.5890002
-1.0257372 0.35506287 2.5890002
-1.0208057 0.35506287 2.5890002
-1.0158743 0.35506287 2.5890002
-1.0109429 0.35506287 2.5890002
-1.0137829 0.35780573 2.6090002
-1.0088134 0.35780573 2.6090002
-1.0038439 0.35780573 2.6090002
-0.99887431 0.35780573 2.6090002
-0.98628575 0.35506287 2.5890002
-0.9813543 0.35506287 2.5890002
-0.97642291 0.35506287 2.5890002
-0.97149146 0.35506287 2.5890002
-0.96656001 0.35506287 2.5890002
-0.96162862 0.35506287 2.5890002
-0.95669717 0.35506287 2.5890002
-0.95911813 0.35780573 2.6090002
-0.94683433 0.35506287 2.5890002
-0.94917905 0.35780573 2.6090002
-0.94420958 0.35780573 2.6090002
-0.93924004 0.35780573 2.6090002
-0.9342705 0.35780573 2.6090002
-0.92930096 0.35780573 2.6090002
-0.92433149 0.35780573 2.6090002
-0.92640954 0.36054859 2.6290002
-0.92140192 0.36054859 2.6290002
-0.92336577 0.36329144 2.6490002
-0.91832006 0.36329144 2.6490002
-0.91327435 0.36329144 2.6490002
-0.90822858 0.36329144 2.6490002
-0.90318286 0.36329144 2.6490002
-0.89813715 0.36329144 2.6490002
-0.89309144 0.36329144 2.6490002
-0.88804573 0.36329144 2.6490002
-0.88300002 0.36329144 2.6490002
-0.8779543 0.36329144 2.6490002
-0.87949908 0.3660343 2.6690001
-0.87441528 0.3660343 2.6690001
-0.86933148 0.3660343 2.6690001
-0.86424768 0.3660343 2.6690001
-0.85916382 0.3660343 2.6690001
-0.84768003 0.36329144 2.6490002
-0.84263432 0.36329144 2.6490002
-0.84391242 0.3660343 2.6690001
-0.84542859 0.36891431 2.6900001
-0.84030479 0.36891431 2.6900001
-0.835181 0.36891431 2.6900001
-0.83005714 0.36891431 2.6900001
-0.82493335 0.36891431 2.6900001
-0.81980956 0.36891431 2.6900001
-0.82104576 0.37179431 2.7110002
-0.81588191 0.37179431 2.7110002
-0.81071812 0.37179431 2.7110002
-0.79931432 0.36891431 2.6900001
-0.80039048 0.37179431 2.7110002
-0.79522669 0.37179431 2.7110002
-0.79647434 0.37481144 2.733
-0.79126859 0.37481144 2.733
-0.7860629 0.37481144 2.733
-0.78085715 0.37481144 2.733
-0.77565145 0.37481144 2.733
-0.77636576 0.37769145 2.7540002
-0.77112001 0.37769145 2.7540002
-0.76587433 0.37769145 2.7540002
-0.76062858 0.37769145 2.7540002
-0.7553829 0.37769145 2.7540002
-0.75013715 0.37769145 2.7540002
-0.86977148 0.20481715 1.473
-0.87108576 0.20579049 1.48
-0.87178671 0.20662478 1.4860001
-0.86895621 0.20662478 1.4860001
-0.86612576 0.20662478 1.4860001
-0.87084764 0.20843239 1.4990001
-0.8679924 0.20843239 1.4990001
-0.86917716 0.20940572 1.506
-0.86630863 0.20940572 1.506
-0.86344004 0.20940572 1.506
-0.86400002 0.21024001 1.5120001
-0.8651067 0.21121334 1.5190001
-0.86959243 0.21302097 1.5320001
-0.87459433 0.21496762 1.5460001
-0.87164956 0.21496762 1.5460001
-0.87657148 0.2169143 1.5600001
-0.87752002 0.21788763 1.567
-0.87844193 0.21886095 1.5740001
-0.87933719 0.2198343 1.5810001
-0.87632573 0.2198343 1.5810001
-1.4421943 0.36555621 2.6290002
-1.4262534 0.36277527 2.6090002
-1.4212838 0.36277527 2.6090002
-1.4163144 0.36277527 2.6090002
-1.4221638 0.36555621 2.6290002
-1.4171562 0.36555621 2.6290002
-1.4121486 0.36555621 2.6290002
-1.407141 0.36555621 2.6290002
-1.4021333 0.36555621 2.6290002
-1.3971257 0.36555621 2.6290002
-1.3921181 0.36555621 2.6290002
-1.3765582 0.36277527 2.6090002
-1.382103 0.36555621 2.6290002
-1.3666191 0.36277527 2.6090002
-1.3720877 0.36555621 2.6290002
-1.3670801 0.36555621 2.6290002
-1.3620725 0.36555621 2.6290002
-1.3570648 0.36555621 2.6290002
-1.3520572 0.36555621 2.6290002
-1.3470496 0.36555621 2.6290002
-1.342042 0.36555621 2.6290002
-1.3370343 0.36555621 2.6290002
-1.3218933 0.36277527 2.6090002
-1.3169239 0.36277527 2.6090002
-1.3119544 0.36277527 2.6090002
-1.3069848 0.36277527 2.6090002
-1.3020153 0.36277527 2.6090002
-1.2970457 0.36277527 2.6090002
-1.2920762 0.36277527 2.6090002
-1.2871068 0.36277527 2.6090002
-1.2919657 0.36555621 2.6290002
-1.2869581 0.36555621 2.6290002
-1.2917029 0.36833715 2.6490002
-1.2866572 0.36833715 2.6490002
-1.2912877 0.3711181 2.6690001
-1.2765658 0.36833715 2.6490002
-1.2619201 0.36555621 2.6290002
-1.2569125 0.36555621 2.6290002
-1.2519048 0.36555621 2.6290002
-1.2374115 0.36277527 2.6090002
-1.2324419 0.36277527 2.6090002
-1.2274724 0.36277527 2.6090002
-1.2225029 0.36277527 2.6090002
-1.2175333 0.36277527 2.6090002
-1.2032686 0.35999429 2.5890002
-1.1983372 0.35999429 2.5890002
-1.1934057 0.35999429 2.5890002
-1.1884743 0.35999429 2.5890002
-1.1835428 0.35999429 2.5890002
-1.1786115 0.35999429 2.5890002
-1.1736801 0.35999429 2.5890002
-1.1687486 0.35999429 2.5890002
-1.1638172 0.35999429 2.5890002
-1.1588857 0.35999429 2.5890002
-1.1539544 0.35999429 2.5890002
-1.1490229 0.35999429 2.5890002
-1.1440915 0.35999429 2.5890002
-1.13916 0.35999429 2.5890002
-1.1342286 0.35999429 2.5890002
-1.1292971 0.35999429 2.5890002
-1.1243658 0.35999429 2.5890002
-1.1194344 0.35999429 2.5890002
-1.1145029 0.35999429 2.5890002
-1.1095715 0.35999429 2.5890002
-1.10464 0.35999429 2.5890002
-1.0997086 0.35999429 2.5890002
-1.0867429 0.35735241 2.5700002
-1.0818477 0.35735241 2.5700002
-1.0849143 0.35999429 2.5890002
-1.0799829 0.35999429 2.5890002
-1.0750514 0.35999429 2.5890002
-1.0701201 0.35999429 2.5890002
-1.0651886 0.35999429 2.5890002
-1.0602572 0.35999429 2.5890002
-1.0634781 0.36277527 2.6090002
-1.0503943 0.35999429 2.5890002
-1.0454628 0.35999429 2.5890002
-1.0405315 0.35999429 2.5890002
-1.0356001 0.35999429 2.5890002
-1.0306686 0.35999429 2.5890002
-1.0257372 0.35999429 2.5890002
-1.0208057 0.35999429 2.5890002
-1.0158743 0.35999429 2.5890002
-1.0109429 0.35999429 2.5890002
-1.0137829 0.36277527 2.6090002
-1.0088134 0.36277527 2.6090002
-1.0038439 0.36277527 2.6090002
-0.99887431 0.36277527 2.6090002
-0.99390477 0.36277527 2.6090002
-0.9813543 0.35999429 2.5890002
-0.97642291 0.35999429 2.5890002
-0.97149146 0.35999429 2.5890002
-0.96656001 0.35999429 2.5890002
-0.96162862 0.35999429 2.5890002
-0.95669717 0.35999429 2.5890002
-0.95176578 0.35999429 2.5890002
-0.94683433 0.35999429 2.5890002
-0.94190288 0.35999429 2.5890002
-0.94420958 0.36277527 2.6090002
-0.93924004 0.36277527 2.6090002
-0.9342705 0.36277527 2.6090002
-0.93642479 0.36555621 2.6290002
-0.93141717 0.36555621 2.6290002
-0.9334572 0.36833715 2.6490002
-0.92841148 0.36833715 2.6490002
-0.92336577 0.36833715 2.6490002
-0.91832006 0.36833715 2.6490002
-0.91327435 0.36833715 2.6490002
-0.90822858 0.36833715 2.6490002
-0.90318286 0.36833715 2.6490002
-0.89813715 0.36833715 2.6490002
-0.89309144 0.36833715 2.6490002
-0.88804573 0.36833715 2.6490002
-0.88300002 0.36833715 2.6490002
-0.8779543 0.36833715 2.6490002
-0.87949908 0.3711181 2.6690001
-0.87441528 0.3711181 2.6690001
-0.86933148 0.3711181 2.6690001
-0.86424768 0.3711181 2.6690001
-0.85916382 0.3711181 2.6690001
-0.84768003 0.36833715 2.6490002
-0.84899622 0.3711181 2.6690001
-0.84391242 0.3711181 2.6690001
-0.84542859 0.3740381 2.6900001
-0.84030479 0.3740381 2.6900001
-0.835181 0.3740381 2.6900001
-0.83005714 0.3740381 2.6900001
-0.82493335 0.3740381 2.6900001
-0.81980956 0.3740381 2.6900001
-0.82104576 0.3769581 2.7110002
-0.80956191 0.3740381 2.6900001
-0.80443811 0.3740381 2.6900001
-0.79931432 0.3740381 2.6900001
-0.80039048 0.3769581 2.7110002
-0.79522669 0.3769581 2.7110002
-0.79647434 0.38001716 2.733
-0.79126859 0.38001716 2.733
-0.7860629 0.38001716 2.733
-0.78085715 0.38001716 2.733
-0.77565145 0.38001716 2.733
-0.77636576 0.38293716 2.7540002
-0.77112001 0.38293716 2.7540002
-0.76587433 0.38293716 2.7540002
-0.76062858 0.38293716 2.7540002
-0.7553829 0.38293716 2.7540002
-0.75013715 0.38293716 2.7540002
-0.86977148 0.20762287 1.473
-0.87108576 0.20860954 1.48
-0.8682667 0.20860954 1.48
-0.86895621 0.20945525 1.4860001
-0.86612576 0.20945525 1.4860001
-0.86329526 0.20945525 1.4860001
-0.8679924 0.21128763 1.4990001
-0.86513716 0.21128763 1.4990001
-0.86630863 0.2122743 1.506
-0.86344004 0.2122743 1.506
-0.86400002 0.21312001 1.5120001
-0.86852384 0.21495239 1.5250001
-0.87356573 0.21692573 1.539
-0.87459433 0.21791239 1.5460001
-0.87559623 0.21889906 1.5530001
-0.87657148 0.21988572 1.5600001
-0.87752002 0.22087239 1.567
-0.87844193 0.22185905 1.5740001
-0.87933719 0.22284572 1.5810001
-0.87632573 0.22284572 1.5810001
-0.88160002 0.22496001 1.5960001
-0.87856001 0.22496001 1.5960001
-1.4421943 0.37056383 2.6290002
-1.4262534 0.36774477 2.6090002
-1.4212838 0.36774477 2.6090002
-1.4163144 0.36774477 2.6090002
-1.4221638 0.37056383 2.6290002
-1.4171562 0.37056383 2.6290002
-1.4121486 0.37056383 2.6290002
-1.407141 0.37056383 2.6290002
-1.4021333 0.37056383 2.6290002
-1.3971257 0.37056383 2.6290002
-1.3921181 0.37056383 2.6290002
-1.3871105 0.37056383 2.6290002
-1.382103 0.37056383 2.6290002
-1.3770953 0.37056383 2.6290002
-1.3720877 0.37056383 2.6290002
-1.3670801 0.37056383 2.6290002
-1.3620725 0.37056383 2.6290002
-1.3570648 0.37056383 2.6290002
-1.362343 0.37338287 2.6490002
-1.3572972 0.37338287 2.6490002
-1.342042 0.37056383 2.6290002
-1.3472058 0.37338287 2.6490002
-1.3320267 0.37056383 2.6290002
-1.3270191 0.37056383 2.6290002
-1.3220115 0.37056383 2.6290002
-1.3170038 0.37056383 2.6290002
-1.3020153 0.36774477 2.6090002
-1.3069886 0.37056383 2.6290002
-1.301981 0.37056383 2.6290002
-1.2871068 0.36774477 2.6090002
-1.2919657 0.37056383 2.6290002
-1.2869581 0.37056383 2.6290002
-1.2819505 0.37056383 2.6290002
-1.2769428 0.37056383 2.6290002
-1.2816114 0.37338287 2.6490002
-1.2669277 0.37056383 2.6290002
-1.2619201 0.37056383 2.6290002
-1.2473506 0.36774477 2.6090002
-1.242381 0.36774477 2.6090002
-1.2374115 0.36774477 2.6090002
-1.2324419 0.36774477 2.6090002
-1.2274724 0.36774477 2.6090002
-1.2225029 0.36774477 2.6090002
-1.2175333 0.36774477 2.6090002
-1.2032686 0.36492574 2.5890002
-1.1983372 0.36492574 2.5890002
-1.1934057 0.36492574 2.5890002
-1.1884743 0.36492574 2.5890002
-1.1835428 0.36492574 2.5890002
-1.1786115 0.36492574 2.5890002
-1.1736801 0.36492574 2.5890002
-1.1687486 0.36492574 2.5890002
-1.1638172 0.36492574 2.5890002
-1.1588857 0.36492574 2.5890002
-1.1539544 0.36492574 2.5890002
-1.1490229 0.36492574 2.5890002
-1.1440915 0.36492574 2.5890002
-1.13916 0.36492574 2.5890002
-1.1342286 0.36492574 2.5890002
-1.1292971 0.36492574 2.5890002
-1.1243658 0.36492574 2.5890002
-1.1194344 0.36492574 2.5890002
-1.1145029 0.36492574 2.5890002
-1.1095715 0.36492574 2.5890002
-1.10464 0.36492574 2.5890002
-1.0997086 0.36492574 2.5890002
-1.0947772 0.36492574 2.5890002
-1.0818477 0.36224765 2.5700002
-1.0849143 0.36492574 2.5890002
-1.0799829 0.36492574 2.5890002
-1.0750514 0.36492574 2.5890002
-1.0701201 0.36492574 2.5890002
-1.0651886 0.36492574 2.5890002
-1.0602572 0.36492574 2.5890002
-1.0634781 0.36774477 2.6090002
-1.0503943 0.36492574 2.5890002
-1.0454628 0.36492574 2.5890002
-1.0405315 0.36492574 2.5890002
-1.0356001 0.36492574 2.5890002
-1.0306686 0.36492574 2.5890002
-1.0257372 0.36492574 2.5890002
-1.0208057 0.36492574 2.5890002
-1.0158743 0.36492574 2.5890002
-1.0109429 0.36492574 2.5890002
-1.0060115 0.36492574 2.5890002
-1.0088134 0.36774477 2.6090002
-1.0038439 0.36774477 2.6090002
-0.99887431 0.36774477 2.6090002
-0.99390477 0.36774477 2.6090002
-0.98893529 0.36774477 2.6090002
-0.98396575 0.36774477 2.6090002
-0.97149146 0.36492574 2.5890002
-0.96656001 0.36492574 2.5890002
-0.96162862 0.36492574 2.5890002
-0.96408767 0.36774477 2.6090002
-0.95911813 0.36774477 2.6090002
-0.95414859 0.36774477 2.6090002
-0.94917905 0.36774477 2.6090002
-0.94420958 0.36774477 2.6090002
-0.94644004 0.37056383 2.6290002
-0.94143242 0.37056383 2.6290002
-0.93642479 0.37056383 2.6290002
-0.93141717 0.37056383 2.6290002
-0.9334572 0.37338287 2.6490002
-0.92841148 0.37338287 2.6490002
-0.92336577 0.37338287 2.6490002
-0.91832006 0.37338287 2.6490002
-0.91327435 0.37338287 2.6490002
-0.90822858 0.37338287 2.6490002
-0.90318286 0.37338287 2.6490002
-0.89813715 0.37338287 2.6490002
-0.89309144 0.37338287 2.6490002
-0.88804573 0.37338287 2.6490002
-0.88966668 0.37620193 2.6690001
-0.88458288 0.37620193 2.6690001
-0.87949908 0.37620193 2.6690001
-0.87441528 0.37620193 2.6690001
-0.86933148 0.37620193 2.6690001
-0.86424768 0.37620193 2.6690001
-0.85916382 0.37620193 2.6690001
-0.84768003 0.37338287 2.6490002
-0.84899622 0.37620193 2.6690001
-0.84391242 0.37620193 2.6690001
-0.84542859 0.37916192 2.6900001
-0.84030479 0.37916192 2.6900001
-0.835181 0.37916192 2.6900001
-0.83005714 0.37916192 2.6900001
-0.82493335 0.37916192 2.6900001
-0.81980956 0.37916192 2.6900001
-0.82104576 0.38212192 2.7110002
-0.81588191 0.38212192 2.7110002
-0.81071812 0.38212192 2.7110002
-0.79931432 0.37916192 2.6900001
-0.80039048 0.38212192 2.7110002
-0.79522669 0.38212192 2.7110002
-0.79647434 0.38522288 2.733
-0.79126859 0.38522288 2.733
-0.7860629 0.38522288 2.733
-0.78085715 0.38522288 2.733
-0.77565145 0.38522288 2.733
-0.77636576 0.38818288 2.7540002
-0.77112001 0.38818288 2.7540002
-0.76587433 0.38818288 2.7540002
-0.76062858 0.38818288 2.7540002
-0.7553829 0.38818288 2.7540002
-0.75013715 0.38818288 2.7540002
-0.86622858 0.20957144 1.4670001
-0.86696577 0.21042858 1.473
-0.8682667 0.21142858 1.48
-0.86895621 0.21228573 1.4860001
-0.86612576 0.21228573 1.4860001
-0.866781 0.21314287 1.4920001
-0.86393911 0.21314287 1.4920001
-0.86513716 0.21414286 1.4990001
-0.86630863 0.21514286 1.506
-0.86344004 0.21514286 1.506
-0.86400002 0.21600001 1.5120001
-0.8651067 0.21700001 1.5190001
-0.86959243 0.21885715 1.5320001
-0.87459433 0.22085716 1.5460001
-0.87559623 0.22185715 1.5530001
-0.87657148 0.22285715 1.5600001
-0.87752002 0.22385715 1.567
-0.87844193 0.22485715 1.5740001
-0.87933719 0.22585715 1.5810001
-0.88076001 0.22700001 1.5890001
-0.88160002 0.22800002 1.5960001
-0.87856001 0.22800002 1.5960001
-1.4212838 0.37271431 2.6090002
-1.4163144 0.37271431 2.6090002
-1.4221638 0.37557143 2.6290002
-1.4171562 0.37557143 2.6290002
-1.4121486 0.37557143 2.6290002
-1.4178457 0.37842858 2.6490002
-1.4128001 0.37842858 2.6490002
-1.4077543 0.37842858 2.6490002
-1.3921181 0.37557143 2.6290002
-1.3871105 0.37557143 2.6290002
-1.382103 0.37557143 2.6290002
-1.3770953 0.37557143 2.6290002
-1.3720877 0.37557143 2.6290002
-1.37748 0.37842858 2.6490002
-1.3620725 0.37557143 2.6290002
-1.3673886 0.37842858 2.6490002
-1.362343 0.37842858 2.6490002
-1.3572972 0.37842858 2.6490002
-1.342042 0.37557143 2.6290002
-1.3370343 0.37557143 2.6290002
-1.3320267 0.37557143 2.6290002
-1.3169239 0.37271431 2.6090002
-1.3220115 0.37557143 2.6290002
-1.3170038 0.37557143 2.6290002
-1.3119962 0.37557143 2.6290002
-1.3069886 0.37557143 2.6290002
-1.301981 0.37557143 2.6290002
-1.2969733 0.37557143 2.6290002
-1.3017943 0.37842858 2.6490002
-1.2967486 0.37842858 2.6490002
-1.2917029 0.37842858 2.6490002
-1.2769428 0.37557143 2.6290002
-1.2816114 0.37842858 2.6490002
-1.2765658 0.37842858 2.6490002
-1.27152 0.37842858 2.6490002
-1.2473506 0.37271431 2.6090002
-1.242381 0.37271431 2.6090002
-1.2374115 0.37271431 2.6090002
-1.2324419 0.37271431 2.6090002
-1.2274724 0.37271431 2.6090002
-1.2225029 0.37271431 2.6090002
-1.2175333 0.37271431 2.6090002
-1.2032686 0.36985716 2.5890002
-1.1983372 0.36985716 2.5890002
-1.1934057 0.36985716 2.5890002
-1.1884743 0.36985716 2.5890002
-1.1835428 0.36985716 2.5890002
-1.1786115 0.36985716 2.5890002
-1.1736801 0.36985716 2.5890002
-1.1687486 0.36985716 2.5890002
-1.1638172 0.36985716 2.5890002
-1.1588857 0.36985716 2.5890002
-1.1539544 0.36985716 2.5890002
-1.1490229 0.36985716 2.5890002
-1.1440915 0.36985716 2.5890002
-1.13916 0.36985716 2.5890002
-1.1342286 0.36985716 2.5890002
-1.1292971 0.36985716 2.5890002
-1.1243658 0.36985716 2.5890002
-1.1194344 0.36985716 2.5890002
-1.1145029 0.36985716 2.5890002
-1.1095715 0.36985716 2.5890002
-1.10464 0.36985716 2.5890002
-1.0997086 0.36985716 2.5890002
-1.0947772 0.36985716 2.5890002
-1.0818477 0.36714286 2.5700002
-1.0849143 0.36985716 2.5890002
-1.0799829 0.36985716 2.5890002
-1.0750514 0.36985716 2.5890002
-1.0701201 0.36985716 2.5890002
-1.0651886 0.36985716 2.5890002
-1.0602572 0.36985716 2.5890002
-1.0553257 0.36985716 2.5890002
-1.0503943 0.36985716 2.5890002
-1.0454628 0.36985716 2.5890002
-1.0405315 0.36985716 2.5890002
-1.0356001 0.36985716 2.5890002
-1.0306686 0.36985716 2.5890002
-1.0257372 0.36985716 2.5890002
-1.0208057 0.36985716 2.5890002
-1.0237219 0.37271431 2.6090002
-1.0187525 0.37271431 2.6090002
-1.0137829 0.37271431 2.6090002
-1.0088134 0.37271431 2.6090002
-1.0038439 0.37271431 2.6090002
-0.99887431 0.37271431 2.6090002
-0.99390477 0.37271431 2.6090002
-0.98893529 0.37271431 2.6090002
-0.98396575 0.37271431 2.6090002
-0.97149146 0.36985716 2.5890002
-0.96656001 0.36985716 2.5890002
-0.9690572 0.37271431 2.6090002
-0.96408767 0.37271431 2.6090002
-0.95911813 0.37271431 2.6090002
-0.95414859 0.37271431 2.6090002
-0.94917905 0.37271431 2.6090002
-0.94420958 0.37271431 2.6090002
-0.94644004 0.37557143 2.6290002
-0.94143242 0.37557143 2.6290002
-0.93642479 0.37557143 2.6290002
-0.93850291 0.37842858 2.6490002
-0.9334572 0.37842858 2.6490002
-0.92841148 0.37842858 2.6490002
-0.92336577 0.37842858 2.6490002
-0.91832006 0.37842858 2.6490002
-0.9063791 0.37557143 2.6290002
-0.90822858 0.37842858 2.6490002
-0.90318286 0.37842858 2.6490002
-0.89135623 0.37557143 2.6290002
-0.89309144 0.37842858 2.6490002
-0.89475054 0.38128573 2.6690001
-0.88966668 0.38128573 2.6690001
-0.88458288 0.38128573 2.6690001
-0.87949908 0.38128573 2.6690001
-0.87441528 0.38128573 2.6690001
-0.86933148 0.38128573 2.6690001
-0.86424768 0.38128573 2.6690001
-0.85916382 0.38128573 2.6690001
-0.84768003 0.37842858 2.6490002
-0.84263432 0.37842858 2.6490002
-0.84391242 0.38128573 2.6690001
-0.83882862 0.38128573 2.6690001
-0.84030479 0.38428572 2.6900001
-0.835181 0.38428572 2.6900001
-0.83005714 0.38428572 2.6900001
-0.82493335 0.38428572 2.6900001
-0.81980956 0.38428572 2.6900001
-0.81468576 0.38428572 2.6900001
-0.80956191 0.38428572 2.6900001
-0.80443811 0.38428572 2.6900001
-0.79931432 0.38428572 2.6900001
-0.80039048 0.38728574 2.7110002
-0.79522669 0.38728574 2.7110002
-0.79647434 0.39042857 2.733
-0.79126859 0.39042857 2.733
-0.7860629 0.39042857 2.733
-0.78085715 0.39042857 2.733
-0.77565145 0.39042857 2.733
-0.77636576 0.39342859 2.7540002
-0.77112001 0.39342859 2.7540002
-0.76587433 0.39342859 2.7540002
-0.76062858 0.39342859 2.7540002
-0.7553829 0.39342859 2.7540002
-0.75013715 0.39342859 2.7540002
-0.86622858 0.21236572 1.4670001
-0.86696577 0.21323429 1.473
-0.8682667 0.21424763 1.48
-0.86895621 0.2151162 1.4860001
-0.86612576 0.2151162 1.4860001
-0.866781 0.21598478 1.4920001
-0.86393911 0.21598478 1.4920001
-0.86513716 0.2169981 1.4990001
-0.86630863 0.21801144 1.506
-0.86344004 0.21801144 1.506
-0.86400002 0.21888001 1.5120001
-0.86852384 0.22076191 1.5250001
-0.87356573 0.22278857 1.539
-0.87459433 0.22380191 1.5460001
-0.87559623 0.22481525 1.5530001
-0.87657148 0.22582857 1.5600001
-0.87752002 0.22684191 1.567
-0.87844193 0.22785525 1.5740001
-0.87933719 0.22886857 1.5810001
-0.88076001 0.23002668 1.5890001
-0.88546669 0.23205334 1.603
-0.88241339 0.23205334 1.603
-1.4103886 0.37478858 2.5890002
-1.4271715 0.38057905 2.6290002
-1.4221638 0.38057905 2.6290002
-1.4171562 0.38057905 2.6290002
-1.4228915 0.38347429 2.6490002
-1.4178457 0.38347429 2.6490002
-1.4128001 0.38347429 2.6490002
-1.4077543 0.38347429 2.6490002
-1.4027086 0.38347429 2.6490002
-1.3871105 0.38057905 2.6290002
-1.382103 0.38057905 2.6290002
-1.3875715 0.38347429 2.6490002
-1.3825258 0.38347429 2.6490002
-1.37748 0.38347429 2.6490002
-1.3620725 0.38057905 2.6290002
-1.3570648 0.38057905 2.6290002
-1.362343 0.38347429 2.6490002
-1.3572972 0.38347429 2.6490002
-1.342042 0.38057905 2.6290002
-1.3472058 0.38347429 2.6490002
-1.3320267 0.38057905 2.6290002
-1.3270191 0.38057905 2.6290002
-1.3220115 0.38057905 2.6290002
-1.3170038 0.38057905 2.6290002
-1.3119962 0.38057905 2.6290002
-1.3069886 0.38057905 2.6290002
-1.301981 0.38057905 2.6290002
-1.2969733 0.38057905 2.6290002
-1.2919657 0.38057905 2.6290002
-1.2869581 0.38057905 2.6290002
-1.2819505 0.38057905 2.6290002
-1.2769428 0.38057905 2.6290002
-1.2719353 0.38057905 2.6290002
-1.2669277 0.38057905 2.6290002
-1.2523201 0.37768382 2.6090002
-1.2473506 0.37768382 2.6090002
-1.242381 0.37768382 2.6090002
-1.2374115 0.37768382 2.6090002
-1.2324419 0.37768382 2.6090002
-1.2274724 0.37768382 2.6090002
-1.2225029 0.37768382 2.6090002
-1.2175333 0.37768382 2.6090002
-1.2032686 0.37478858 2.5890002
-1.1983372 0.37478858 2.5890002
-1.1934057 0.37478858 2.5890002
-1.1884743 0.37478858 2.5890002
-1.1835428 0.37478858 2.5890002
-1.1786115 0.37478858 2.5890002
-1.1736801 0.37478858 2.5890002
-1.1687486 0.37478858 2.5890002
-1.1638172 0.37478858 2.5890002
-1.1588857 0.37478858 2.5890002
-1.1539544 0.37478858 2.5890002
-1.1490229 0.37478858 2.5890002
-1.1440915 0.37478858 2.5890002
-1.13916 0.37478858 2.5890002
-1.1342286 0.37478858 2.5890002
-1.1292971 0.37478858 2.5890002
-1.1243658 0.37478858 2.5890002
-1.1194344 0.37478858 2.5890002
-1.1145029 0.37478858 2.5890002
-1.1095715 0.37478858 2.5890002
-1.10464 0.37478858 2.5890002
-1.0997086 0.37478858 2.5890002
-1.0947772 0.37478858 2.5890002
-1.0898458 0.37478858 2.5890002
-1.0849143 0.37478858 2.5890002
-1.0799829 0.37478858 2.5890002
-1.0750514 0.37478858 2.5890002
-1.0701201 0.37478858 2.5890002
-1.0651886 0.37478858 2.5890002
-1.0602572 0.37478858 2.5890002
-1.0553257 0.37478858 2.5890002
-1.0503943 0.37478858 2.5890002
-1.0454628 0.37478858 2.5890002
-1.0405315 0.37478858 2.5890002
-1.0356001 0.37478858 2.5890002
