# .PCD v0.7 - Point Cloud Data file format
VERSION 0.7
FIELDS x y z
SIZE 4 4 4
TYPE F F F
COUNT 1 1 1
WIDTH 1542
HEIGHT 1
VIEWPOINT 0 0 0 1 0 0 0
POINTS 1542
DATA ascii
0.01736 0.32694668 1.5190001
0.020333335 0.3282381 1.5250001
0.023238096 0.3282381 1.5250001
0.026142858 0.3282381 1.5250001
0.02904762 0.3282381 1.5250001
0.031952381 0.3282381 1.5250001
0.034857143 0.3282381 1.5250001
0.037761904 0.3282381 1.5250001
0.04066667 0.3282381 1.5250001
0.043571431 0.3282381 1.5250001
0.046476193 0.3282381 1.5250001
0.049380954 0.3282381 1.5250001
0.052525718 0.32974479 1.5320001
0.055697143 0.33125144 1.539
0.058628574 0.33125144 1.539
0.061560001 0.33125144 1.539
0.064491428 0.33125144 1.539
0.067422859 0.33125144 1.539
0.07035429 0.33125144 1.539
0.073285714 0.33125144 1.539
0.076217145 0.33125144 1.539
0.079508573 0.3327581 1.5460001
0.082453333 0.3327581 1.5460001
0.0853981 0.3327581 1.5460001
0.08834286 0.3327581 1.5460001
0.09128762 0.3327581 1.5460001
0.094232388 0.3327581 1.5460001
0.097177148 0.3327581 1.5460001
0.10012191 0.3327581 1.5460001
0.10353334 0.33426479 1.5530001
0.10697144 0.33577144 1.5600001
0.10994286 0.33577144 1.5600001
0.11291429 0.33577144 1.5600001
0.11588572 0.33577144 1.5600001
0.11885715 0.33577144 1.5600001
0.12182858 0.33577144 1.5600001
0.1248 0.33577144 1.5600001
0.12834476 0.3372781 1.567
0.13132952 0.3372781 1.567
0.13431428 0.3372781 1.567
0.13668571 0.33577144 1.5600001
0.13965715 0.33577144 1.5600001
0.14326857 0.3372781 1.567
0.14625333 0.3372781 1.567
0.14923809 0.3372781 1.567
0.15290286 0.33878478 1.5740001
0.15590096 0.33878478 1.5740001
0.15889905 0.33878478 1.5740001
0.16189715 0.33878478 1.5740001
0.16489525 0.33878478 1.5740001
0.16864 0.34029144 1.5810001
0.17165144 0.34029144 1.5810001
0.17554668 0.34201336 1.5890001
0.17857334 0.34201336 1.5890001
0.1816 0.34201336 1.5890001
0.18462667 0.34201336 1.5890001
0.18765333 0.34201336 1.5890001
0.19068001 0.34201336 1.5890001
0.19370668 0.34201336 1.5890001
0.19673334 0.34201336 1.5890001
0.19976 0.34201336 1.5890001
0.20278667 0.34201336 1.5890001
0.20581335 0.34201336 1.5890001
0.20884001 0.34201336 1.5890001
0.21280001 0.34352002 1.5960001
0.21489334 0.34201336 1.5890001
0.21792001 0.34201336 1.5890001
0.22094667 0.34201336 1.5890001
0.22397335 0.34201336 1.5890001
0.22700001 0.34201336 1.5890001
0.23104002 0.34352002 1.5960001
0.23408 0.34352002 1.5960001
0.23712 0.34352002 1.5960001
0.24016 0.34352002 1.5960001
0.24426667 0.34502667 1.603
0.24732001 0.34502667 1.603
0.25037333 0.34502667 1.603
0.25469145 0.34674859 1.6110001
0.25776002 0.34674859 1.6110001
0.26082858 0.34674859 1.6110001
0.26504382 0.34825525 1.618
0.26812571 0.34825525 1.618
0.27003428 0.34674859 1.6110001
0.27428955 0.34825525 1.618
0.27737144 0.34825525 1.618
0.28045335 0.34825525 1.618
0.28353524 0.34825525 1.618
0.28661716 0.34825525 1.618
0.28969905 0.34825525 1.618
0.29278097 0.34825525 1.618
0.29732573 0.34997717 1.626
0.30190095 0.35169905 1.6340001
0.30352002 0.34997717 1.626
0.30661714 0.34997717 1.626
0.31123811 0.35169905 1.6340001
0.31569716 0.35320574 1.641
0.31746286 0.35169905 1.6340001
0.32057524 0.35169905 1.6340001
0.32507429 0.35320574 1.641
0.32820001 0.35320574 1.641
0.33455619 0.35664955 1.6570001
0.33771241 0.35664955 1.6570001
0.33922288 0.35492763 1.649
0.34402478 0.35664955 1.6570001
0.34550476 0.35492763 1.649
0.34864572 0.35492763 1.649
0.35178667 0.35492763 1.649
0.35492763 0.35492763 1.649
0.35806859 0.35492763 1.649
0.36296192 0.35664955 1.6570001
0.3661181 0.35664955 1.6570001
0.36927429 0.35664955 1.6570001
0.3742286 0.35837144 1.6650001
0.37740001 0.35837144 1.6650001
0.38240001 0.36009336 1.6730001
0.38558668 0.36009336 1.6730001
0.38877335 0.36009336 1.6730001
0.39196002 0.36009336 1.6730001
0.39514667 0.36009336 1.6730001
0.4002381 0.36181524 1.6810001
0.40344003 0.36181524 1.6810001
0.40664193 0.36181524 1.6810001
0.41203812 0.36375239 1.6900001
0.41525716 0.36375239 1.6900001
0.42045715 0.36547431 1.6980001
0.42369145 0.36547431 1.6980001
0.42893717 0.3671962 1.7060001
0.43218669 0.3671962 1.7060001
0.43543622 0.3671962 1.7060001
0.43868575 0.3671962 1.7060001
0.43986288 0.36547431 1.6980001
0.44518477 0.3671962 1.7060001
0.44843429 0.3671962 1.7060001
0.45168382 0.3671962 1.7060001
0.45733336 0.36913335 1.715
0.46060002 0.36913335 1.715
0.46386668 0.36913335 1.715
0.46713334 0.36913335 1.715
0.47040001 0.36913335 1.715
0.4736667 0.36913335 1.715
0.47693336 0.36913335 1.715
0.48020002 0.36913335 1.715
0.48572192 0.37085524 1.723
0.48900384 0.37085524 1.723
0.49485716 0.37279239 1.7320001
0.49815622 0.37279239 1.7320001
0.50145525 0.37279239 1.7320001
0.5047543 0.37279239 1.7320001
0.50805336 0.37279239 1.7320001
0.51135242 0.37279239 1.7320001
0.51465142 0.37279239 1.7320001
0.51795048 0.37279239 1.7320001
0.52395809 0.37472954 1.7410001
0.52727431 0.37472954 1.7410001
0.53059047 0.37472954 1.7410001
0.5339067 0.37472954 1.7410001
0.53722286 0.37472954 1.7410001
0.54053909 0.37472954 1.7410001
0.54104382 0.37279239 1.7320001
0.54434288 0.37279239 1.7320001
0.55048764 0.37472954 1.7410001
0.5538038 0.37472954 1.7410001
0.55712003 0.37472954 1.7410001
0.56333333 0.37666669 1.7500001
0.56958097 0.37860382 1.7590001
0.57293147 0.37860382 1.7590001
0.57923049 0.38054097 1.7680001
0.58259809 0.38054097 1.7680001
0.58596575 0.38054097 1.7680001
0.58933336 0.38054097 1.7680001
0.59270096 0.38054097 1.7680001
0.59606862 0.38054097 1.7680001
0.59943622 0.38054097 1.7680001
0.60280383 0.38054097 1.7680001
0.60617143 0.38054097 1.7680001
0.60953909 0.38054097 1.7680001
0.6160267 0.38247812 1.7770001
0.61941147 0.38247812 1.7770001
0.62279624 0.38247812 1.7770001
0.62618095 0.38247812 1.7770001
0.62956572 0.38247812 1.7770001
0.63295048 0.38247812 1.7770001
0.63633525 0.38247812 1.7770001
0.64296001 0.38441524 1.7860001
0.64636195 0.38441524 1.7860001
0.64976382 0.38441524 1.7860001
0.65645719 0.38635239 1.7950001
0.65987623 0.38635239 1.7950001
0.66329527 0.38635239 1.7950001
0.66671431 0.38635239 1.7950001
0.67349339 0.38828954 1.8040001
0.67692953 0.38828954 1.8040001
0.68036574 0.38828954 1.8040001
0.68380195 0.38828954 1.8040001
0.69104767 0.39044192 1.8140001
0.69450289 0.39044192 1.8140001
0.69795811 0.39044192 1.8140001
0.70141333 0.39044192 1.8140001
0.70486861 0.39044192 1.8140001
0.70832384 0.39044192 1.8140001
0.71570289 0.39259431 1.8240001
0.71917719 0.39259431 1.8240001
0.72265148 0.39259431 1.8240001
0.72612572 0.39259431 1.8240001
0.73320001 0.39453143 1.8330001
0.73669147 0.39453143 1.8330001
0.74018288 0.39453143 1.8330001
0.74367434 0.39453143 1.8330001
0.74716574 0.39453143 1.8330001
0.74697143 0.39259431 1.8240001
0.7541486 0.39453143 1.8330001
0.75764 0.39453143 1.8330001
0.76528382 0.39668381 1.8430001
0.7687943 0.39668381 1.8430001
0.77230477 0.39668381 1.8430001
0.77581525 0.39668381 1.8430001
0.77932572 0.39668381 1.8430001
0.7828362 0.39668381 1.8430001
0.79061335 0.3988362 1.853
0.7941429 0.3988362 1.853
0.79767239 0.3988362 1.853
0.80120194 0.3988362 1.853
0.80473143 0.3988362 1.853
0.80826098 0.3988362 1.853
0.81179053 0.3988362 1.853
0.81532001 0.3988362 1.853
0.82326859 0.40098858 1.863
0.82681715 0.40098858 1.863
0.83036572 0.40098858 1.863
0.83391434 0.40098858 1.863
0.8374629 0.40098858 1.863
0.84101146 0.40098858 1.863
0.84456003 0.40098858 1.863
0.84810859 0.40098858 1.863
0.85165715 0.40098858 1.863
0.85520577 0.40098858 1.863
0.85875434 0.40098858 1.863
0.8623029 0.40098858 1.863
0.86585146 0.40098858 1.863
0.86940002 0.40098858 1.863
0.87294859 0.40098858 1.863
0.88120192 0.40314096 1.8730001
0.88476956 0.40314096 1.8730001
0.88833719 0.40314096 1.8730001
0.89666671 0.40529335 1.8830001
0.90025336 0.40529335 1.8830001
0.90384001 0.40529335 1.8830001
0.90742671 0.40529335 1.8830001
0.91633528 0.40766096 1.8940001
0.91994292 0.40766096 1.8940001
0.92842668 0.40981334 1.904
0.93205339 0.40981334 1.904
0.93568003 0.40981334 1.904
0.93930668 0.40981334 1.904
0.94838101 0.41218096 1.9150001
0.95202863 0.41218096 1.9150001
0.9556762 0.41218096 1.9150001
0.95932382 0.41218096 1.9150001
0.96297145 0.41218096 1.9150001
0.96661907 0.41218096 1.9150001
0.9702667 0.41218096 1.9150001
0.97391433 0.41218096 1.9150001
0.97756195 0.41218096 1.9150001
0.98120958 0.41218096 1.9150001
0.99000001 0.41433334 1.9250001
0.99366671 0.41433334 1.9250001
0.99733335 0.41433334 1.9250001
1.001 0.41433334 1.9250001
1.0046667 0.41433334 1.9250001
1.0083333 0.41433334 1.9250001
1.0120001 0.41433334 1.9250001
1.0156667 0.41433334 1.9250001
1.0193334 0.41433334 1.9250001
1.023 0.41433334 1.9250001
1.0266668 0.41433334 1.9250001
1.0303334 0.41433334 1.9250001
1.0399086 0.41670096 1.9360001
1.0435963 0.41670096 1.9360001
-0.33649716 0.47358859 2.181
-0.33020952 0.4705486 2.1670001
-0.32608193 0.4705486 2.1670001
-0.32195431 0.4705486 2.1670001
-0.31577334 0.46750858 2.1530001
-0.30979049 0.46468574 2.1400001
-0.30385715 0.46186286 2.1270001
-0.29797333 0.45904002 2.1140001
-0.29213905 0.45621717 2.1010001
-0.2863543 0.45339429 2.0880001
-0.2789962 0.44796574 2.0630002
-0.27026668 0.44014859 2.0270002
-0.26640573 0.44014859 2.0270002
-0.2609905 0.43754289 2.0150001
-0.25562096 0.43493715 2.003
-0.25042287 0.43254858 1.9920001
-0.24378096 0.42755431 1.9690001
-0.23734859 0.42277715 1.9470001
-0.23100001 0.41800001 1.9250001
-0.22615239 0.41582859 1.9150001
-0.22006477 0.41126859 1.8940001
-0.21520001 0.40888003 1.8830001
-0.21048953 0.4067086 1.8730001
-0.20471239 0.40236571 1.853
-0.20118286 0.40236571 1.853
-0.19552001 0.39802286 1.8330001
-0.19202858 0.39802286 1.8330001
-0.18658286 0.39389715 1.8140001
-0.1821181 0.39172572 1.8040001
-0.17779048 0.38977143 1.7950001
-0.17349716 0.38781714 1.7860001
-0.16923811 0.38586286 1.7770001
-0.16333334 0.38000003 1.7500001
-0.15917715 0.37804574 1.7410001
-0.15505524 0.37609145 1.7320001
-0.15096763 0.37413716 1.723
-0.147 0.37240002 1.715
-0.14297906 0.37044573 1.7060001
-0.1390743 0.36870858 1.6980001
-0.13520001 0.36697143 1.6900001
-0.13002858 0.36154288 1.6650001
-0.1256381 0.35806859 1.649
-0.12190286 0.35633144 1.641
-0.11827048 0.35481143 1.6340001
-0.11459429 0.35307431 1.626
-0.11149715 0.35307431 1.626
-0.10786667 0.35133716 1.618
-0.10381334 0.34808001 1.603
-0.099880002 0.34504002 1.5890001
-0.09636572 0.34330288 1.5810001
-0.092940956 0.34178287 1.5740001
-0.089542858 0.34026286 1.567
-0.086171433 0.33874288 1.5600001
-0.082826667 0.33722287 1.5530001
-0.079148576 0.33418286 1.539
-0.076217145 0.33418286 1.539
-0.072952382 0.33266288 1.5320001
-0.069714285 0.33114287 1.5250001
-0.066809528 0.33114287 1.5250001
-0.063904762 0.33114287 1.5250001
-0.060760003 0.32984 1.5190001
-0.05786667 0.32984 1.5190001
-0.054973334 0.32984 1.5190001
-0.052285716 0.33114287 1.5250001
-0.049380954 0.33114287 1.5250001
-0.046293337 0.32984 1.5190001
-0.043400001 0.32984 1.5190001
-0.04066667 0.33114287 1.5250001
-0.037761904 0.33114287 1.5250001
-0.034857143 0.33114287 1.5250001
-0.03209905 0.33266288 1.5320001
-0.029180953 0.33266288 1.5320001
-0.026142858 0.33114287 1.5250001
-0.023344763 0.33266288 1.5320001
-0.020426668 0.33266288 1.5320001
-0.017508572 0.33266288 1.5320001
-0.014590477 0.33266288 1.5320001
-0.011725714 0.33418286 1.539
-0.0087942863 0.33418286 1.539
-0.0058628572 0.33418286 1.539
-0.0029314286 0.33418286 1.539
0 0.33418286 1.539
0.0029314286 0.33418286 1.539
0.0058628572 0.33418286 1.539
0.0087942863 0.33418286 1.539
0.011672381 0.33266288 1.5320001
0.01452381 0.33114287 1.5250001
0.017428571 0.33114287 1.5250001
0.020333335 0.33114287 1.5250001
0.023344763 0.33266288 1.5320001
0.026142858 0.33114287 1.5250001
0.02904762 0.33114287 1.5250001
0.031952381 0.33114287 1.5250001
0.034857143 0.33114287 1.5250001
0.037761904 0.33114287 1.5250001
0.04066667 0.33114287 1.5250001
0.043571431 0.33114287 1.5250001
0.046476193 0.33114287 1.5250001
0.049380954 0.33114287 1.5250001
0.052525718 0.33266288 1.5320001
0.055697143 0.33418286 1.539
0.058628574 0.33418286 1.539
0.061560001 0.33418286 1.539
0.064491428 0.33418286 1.539
0.067422859 0.33418286 1.539
0.07035429 0.33418286 1.539
0.073285714 0.33418286 1.539
0.076217145 0.33418286 1.539
0.079508573 0.33570287 1.5460001
0.082453333 0.33570287 1.5460001
0.0853981 0.33570287 1.5460001
0.08834286 0.33570287 1.5460001
0.09128762 0.33570287 1.5460001
0.094232388 0.33570287 1.5460001
0.097617149 0.33722287 1.5530001
0.10057524 0.33722287 1.5530001
0.10353334 0.33722287 1.5530001
0.10697144 0.33874288 1.5600001
0.10994286 0.33874288 1.5600001
0.11291429 0.33874288 1.5600001
0.11588572 0.33874288 1.5600001
0.11885715 0.33874288 1.5600001
0.12182858 0.33874288 1.5600001
0.12536001 0.34026286 1.567
0.12834476 0.34026286 1.567
0.13132952 0.34026286 1.567
0.13431428 0.34026286 1.567
0.13729905 0.34026286 1.567
0.14028381 0.34026286 1.567
0.14326857 0.34026286 1.567
0.14625333 0.34026286 1.567
0.14990477 0.34178287 1.5740001
0.15290286 0.34178287 1.5740001
0.15590096 0.34178287 1.5740001
0.15889905 0.34178287 1.5740001
0.16189715 0.34178287 1.5740001
0.16489525 0.34178287 1.5740001
0.16864 0.34330288 1.5810001
0.17165144 0.34330288 1.5810001
0.17554668 0.34504002 1.5890001
0.17857334 0.34504002 1.5890001
0.1816 0.34504002 1.5890001
0.18462667 0.34504002 1.5890001
0.18765333 0.34504002 1.5890001
0.19068001 0.34504002 1.5890001
0.19370668 0.34504002 1.5890001
0.19673334 0.34504002 1.5890001
0.19976 0.34504002 1.5890001
0.20278667 0.34504002 1.5890001
0.20581335 0.34504002 1.5890001
0.20976001 0.34656 1.5960001
0.21280001 0.34656 1.5960001
0.21489334 0.34504002 1.5890001
0.21792001 0.34504002 1.5890001
0.22094667 0.34504002 1.5890001
0.22397335 0.34504002 1.5890001
0.22800002 0.34656 1.5960001
0.23104002 0.34656 1.5960001
0.23408 0.34656 1.5960001
0.23712 0.34656 1.5960001
0.24121334 0.34808001 1.603
0.24548572 0.34981716 1.6110001
0.24855429 0.34981716 1.6110001
0.25162286 0.34981716 1.6110001
0.25469145 0.34981716 1.6110001
0.25776002 0.34981716 1.6110001
0.26082858 0.34981716 1.6110001
0.26504382 0.35133716 1.618
0.26812571 0.35133716 1.618
0.27120763 0.35133716 1.618
0.27428955 0.35133716 1.618
0.27737144 0.35133716 1.618
0.28045335 0.35133716 1.618
0.28353524 0.35133716 1.618
0.28661716 0.35133716 1.618
0.28969905 0.35133716 1.618
0.29278097 0.35133716 1.618
0.29878858 0.35481143 1.6340001
0.30319428 0.35633144 1.641
0.30632001 0.35633144 1.641
0.30812573 0.35481143 1.6340001
0.31257144 0.35633144 1.641
0.31723621 0.35806859 1.649
0.31882286 0.35633144 1.641
0.3235181 0.35806859 1.649
0.32665905 0.35806859 1.649
0.32980001 0.35806859 1.649
0.33455619 0.35980573 1.6570001
0.33771241 0.35980573 1.6570001
0.34086859 0.35980573 1.6570001
0.34568572 0.36154288 1.6650001
0.34718096 0.35980573 1.6570001
0.35033715 0.35980573 1.6570001
0.35349333 0.35980573 1.6570001
0.35492763 0.35806859 1.649
0.35980573 0.35980573 1.6570001
0.36471429 0.36154288 1.6650001
0.36788574 0.36154288 1.6650001
0.37284002 0.36328003 1.6730001
0.37602669 0.36328003 1.6730001
0.37921333 0.36328003 1.6730001
0.38240001 0.36328003 1.6730001
0.38558668 0.36328003 1.6730001
0.38877335 0.36328003 1.6730001
0.39196002 0.36328003 1.6730001
0.39514667 0.36328003 1.6730001
0.4002381 0.36501715 1.6810001
0.40344003 0.36501715 1.6810001
0.40664193 0.36501715 1.6810001
0.41203812 0.36697143 1.6900001
0.41722289 0.36870858 1.6980001
0.42045715 0.36870858 1.6980001
0.42568764 0.37044573 1.7060001
0.42893717 0.37044573 1.7060001
0.43218669 0.37044573 1.7060001
0.43543622 0.37044573 1.7060001
0.43868575 0.37044573 1.7060001
0.44193524 0.37044573 1.7060001
0.44518477 0.37044573 1.7060001
0.44843429 0.37044573 1.7060001
0.45168382 0.37044573 1.7060001
0.45733336 0.37240002 1.715
0.46060002 0.37240002 1.715
0.46603048 0.37413716 1.723
0.4693124 0.37413716 1.723
0.47259429 0.37413716 1.723
0.47587621 0.37413716 1.723
0.4791581 0.37413716 1.723
0.48244002 0.37413716 1.723
0.48825908 0.37609145 1.7320001
0.4915581 0.37609145 1.7320001
0.49485716 0.37609145 1.7320001
0.50074476 0.37804574 1.7410001
0.50406098 0.37804574 1.7410001
0.50737715 0.37804574 1.7410001
0.50805336 0.37609145 1.7320001
0.51400954 0.37804574 1.7410001
0.51465142 0.37609145 1.7320001
0.52064192 0.37804574 1.7410001
0.52395809 0.37804574 1.7410001
0.52727431 0.37804574 1.7410001
0.53059047 0.37804574 1.7410001
0.5339067 0.37804574 1.7410001
0.53722286 0.37804574 1.7410001
0.54053909 0.37804574 1.7410001
0.54385525 0.37804574 1.7410001
0.54717147 0.37804574 1.7410001
0.55048764 0.37804574 1.7410001
0.5538038 0.37804574 1.7410001
0.55712003 0.37804574 1.7410001
0.56333333 0.38000003 1.7500001
0.56666666 0.38000003 1.7500001
0.57293147 0.38195431 1.7590001
0.57628191 0.38195431 1.7590001
0.58259809 0.3839086 1.7680001
0.58596575 0.3839086 1.7680001
0.58933336 0.3839086 1.7680001
0.59270096 0.3839086 1.7680001
0.59606862 0.3839086 1.7680001
0.59943622 0.3839086 1.7680001
0.60280383 0.3839086 1.7680001
0.60925716 0.38586286 1.7770001
0.61264193 0.38586286 1.7770001
0.6160267 0.38586286 1.7770001
0.61941147 0.38586286 1.7770001
0.62279624 0.38586286 1.7770001
0.62935239 0.38781714 1.7860001
0.63275433 0.38781714 1.7860001
0.6361562 0.38781714 1.7860001
0.63955814 0.38781714 1.7860001
0.64296001 0.38781714 1.7860001
0.64636195 0.38781714 1.7860001
0.64976382 0.38781714 1.7860001
0.65645719 0.38977143 1.7950001
0.65987623 0.38977143 1.7950001
0.66329527 0.38977143 1.7950001
0.67005718 0.39172572 1.8040001
0.67349339 0.39172572 1.8040001
0.67692953 0.39172572 1.8040001
0.68036574 0.39172572 1.8040001
0.68380195 0.39172572 1.8040001
0.69104767 0.39389715 1.8140001
0.69450289 0.39389715 1.8140001
0.69795811 0.39389715 1.8140001
0.70141333 0.39389715 1.8140001
0.70486861 0.39389715 1.8140001
0.70832384 0.39389715 1.8140001
0.71570289 0.39606857 1.8240001
0.71917719 0.39606857 1.8240001
0.72265148 0.39606857 1.8240001
0.72612572 0.39606857 1.8240001
0.73320001 0.39802286 1.8330001
0.73669147 0.39802286 1.8330001
0.74018288 0.39802286 1.8330001
0.74367434 0.39802286 1.8330001
0.75124192 0.40019429 1.8430001
0.7547524 0.40019429 1.8430001
0.75826287 0.40019429 1.8430001
0.76177335 0.40019429 1.8430001
0.76528382 0.40019429 1.8430001
0.7687943 0.40019429 1.8430001
0.77230477 0.40019429 1.8430001
0.78002477 0.40236571 1.853
0.78355432 0.40236571 1.853
0.78708386 0.40236571 1.853
0.79061335 0.40236571 1.853
0.7941429 0.40236571 1.853
0.79767239 0.40236571 1.853
0.80120194 0.40236571 1.853
0.80473143 0.40236571 1.853
0.80826098 0.40236571 1.853
0.81179053 0.40236571 1.853
0.81532001 0.40236571 1.853
0.81884956 0.40236571 1.853
0.82681715 0.40453717 1.863
0.83036572 0.40453717 1.863
0.83391434 0.40453717 1.863
0.8374629 0.40453717 1.863
0.84101146 0.40453717 1.863
0.84456003 0.40453717 1.863
0.85266095 0.4067086 1.8730001
0.85622859 0.4067086 1.8730001
0.85979623 0.4067086 1.8730001
0.86336386 0.4067086 1.8730001
0.86693144 0.4067086 1.8730001
0.87049907 0.4067086 1.8730001
0.87406671 0.4067086 1.8730001
0.87763435 0.4067086 1.8730001
0.88120192 0.4067086 1.8730001
0.88476956 0.4067086 1.8730001
0.88833719 0.4067086 1.8730001
0.89666671 0.40888003 1.8830001
0.90025336 0.40888003 1.8830001
0.90384001 0.40888003 1.8830001
0.90742671 0.40888003 1.8830001
0.91633528 0.41126859 1.8940001
0.91994292 0.41126859 1.8940001
0.92842668 0.41344002 1.904
0.93205339 0.41344002 1.904
0.93568003 0.41344002 1.904
0.94473338 0.41582859 1.9150001
0.94838101 0.41582859 1.9150001
0.95202863 0.41582859 1.9150001
0.9556762 0.41582859 1.9150001
0.95932382 0.41582859 1.9150001
0.96297145 0.41582859 1.9150001
0.96661907 0.41582859 1.9150001
0.9702667 0.41582859 1.9150001
0.97391433 0.41582859 1.9150001
0.97756195 0.41582859 1.9150001
0.98120958 0.41582859 1.9150001
0.99000001 0.41800001 1.9250001
0.99366671 0.41800001 1.9250001
0.99733335 0.41800001 1.9250001
1.001 0.41800001 1.9250001
1.0046667 0.41800001 1.9250001
1.0083333 0.41800001 1.9250001
1.0120001 0.41800001 1.9250001
1.0156667 0.41800001 1.9250001
1.0193334 0.41800001 1.9250001
1.023 0.41800001 1.9250001
1.0266668 0.41800001 1.9250001
1.0303334 0.41800001 1.9250001
1.034 0.41800001 1.9250001
1.0435963 0.42038858 1.9360001
-0.34066287 0.48365715 2.2080002
-0.33020952 0.47467622 2.1670001
-0.32608193 0.47467622 2.1670001
-0.31987429 0.47160953 2.1530001
-0.31386667 0.46876192 2.1400001
-0.30790859 0.46591431 2.1270001
-0.30200002 0.4630667 2.1140001
-0.29797333 0.4630667 2.1140001
-0.29213905 0.46021906 2.1010001
-0.2863543 0.45737144 2.0880001
-0.2789962 0.45189527 2.0630002
-0.27026668 0.44400954 2.0270002
-0.26482859 0.44138098 2.0150001
-0.2609905 0.44138098 2.0150001
-0.25562096 0.43875238 2.003
-0.2489143 0.4337143 1.9800001
-0.24378096 0.43130478 1.9690001
-0.23734859 0.42648572 1.9470001
-0.23100001 0.42166668 1.9250001
-0.22615239 0.41947621 1.9150001
-0.22122668 0.41706669 1.904
-0.21520001 0.41246668 1.8830001
-0.21048953 0.4102762 1.8730001
-0.20471239 0.40589526 1.853
-0.20118286 0.40589526 1.853
-0.19552001 0.40151429 1.8330001
-0.19108573 0.39954287 1.8240001
-0.18658286 0.3973524 1.8140001
-0.1821181 0.39516193 1.8040001
-0.17779048 0.3931905 1.7950001
-0.17262286 0.38924763 1.7770001
-0.16838096 0.3872762 1.7680001
-0.16333334 0.38333336 1.7500001
-0.15917715 0.38136193 1.7410001
-0.15505524 0.37939048 1.7320001
-0.15096763 0.37741905 1.723
-0.147 0.37566668 1.715
-0.14297906 0.37369525 1.7060001
-0.1390743 0.37194288 1.6980001
-0.13520001 0.3701905 1.6900001
-0.13002858 0.36471429 1.6650001
-0.1256381 0.36120954 1.649
-0.12190286 0.35945717 1.641
-0.11827048 0.35792384 1.6340001
-0.11459429 0.35617143 1.626
-0.11094858 0.35441905 1.618
-0.10740001 0.35288572 1.6110001
-0.10381334 0.35113335 1.603
-0.10032 0.34960002 1.5960001
-0.096853338 0.34806669 1.5890001
-0.092940956 0.34478095 1.5740001
-0.089542858 0.34324762 1.567
-0.086171433 0.34171429 1.5600001
-0.082826667 0.34018096 1.5530001
-0.079508573 0.33864763 1.5460001
-0.075870477 0.33558097 1.5320001
-0.072619051 0.33404765 1.5250001
-0.069714285 0.33404765 1.5250001
-0.066809528 0.33404765 1.5250001
-0.063904762 0.33404765 1.5250001
-0.060760003 0.33273333 1.5190001
-0.05786667 0.33273333 1.5190001
-0.054973334 0.33273333 1.5190001
-0.052285716 0.33404765 1.5250001
-0.049380954 0.33404765 1.5250001
-0.046293337 0.33273333 1.5190001
-0.043400001 0.33273333 1.5190001
-0.04066667 0.33404765 1.5250001
-0.037761904 0.33404765 1.5250001
-0.034857143 0.33404765 1.5250001
-0.031952381 0.33404765 1.5250001
-0.029180953 0.33558097 1.5320001
-0.026142858 0.33404765 1.5250001
-0.023344763 0.33558097 1.5320001
-0.020426668 0.33558097 1.5320001
-0.017508572 0.33558097 1.5320001
-0.014590477 0.33558097 1.5320001
-0.011725714 0.3371143 1.539
-0.0087942863 0.3371143 1.539
-0.0058628572 0.3371143 1.539
-0.0029314286 0.3371143 1.539
0 0.3371143 1.539
0.0029314286 0.3371143 1.539
0.0058628572 0.3371143 1.539
0.008754286 0.33558097 1.5320001
0.011672381 0.33558097 1.5320001
0.01452381 0.33404765 1.5250001
0.01736 0.33273333 1.5190001
0.020253334 0.33273333 1.5190001
0.023238096 0.33404765 1.5250001
0.026142858 0.33404765 1.5250001
0.02904762 0.33404765 1.5250001
0.031952381 0.33404765 1.5250001
0.034857143 0.33404765 1.5250001
0.037761904 0.33404765 1.5250001
0.040853336 0.33558097 1.5320001
0.043571431 0.33404765 1.5250001
0.046476193 0.33404765 1.5250001
0.04960762 0.33558097 1.5320001
0.052525718 0.33558097 1.5320001
0.055697143 0.3371143 1.539
0.058628574 0.3371143 1.539
0.061560001 0.3371143 1.539
0.064491428 0.3371143 1.539
0.067422859 0.3371143 1.539
0.07035429 0.3371143 1.539
0.073285714 0.3371143 1.539
0.076563813 0.33864763 1.5460001
0.079508573 0.33864763 1.5460001
0.082453333 0.33864763 1.5460001
0.0853981 0.33864763 1.5460001
0.08834286 0.33864763 1.5460001
0.09128762 0.33864763 1.5460001
0.094232388 0.33864763 1.5460001
0.097617149 0.34018096 1.5530001
0.10057524 0.34018096 1.5530001
0.104 0.34171429 1.5600001
0.10697144 0.34171429 1.5600001
0.10994286 0.34171429 1.5600001
0.11291429 0.34171429 1.5600001
0.11588572 0.34171429 1.5600001
0.11885715 0.34171429 1.5600001
0.12182858 0.34171429 1.5600001
0.12536001 0.34324762 1.567
0.12834476 0.34324762 1.567
0.13132952 0.34324762 1.567
0.13431428 0.34324762 1.567
0.13729905 0.34324762 1.567
0.14028381 0.34324762 1.567
0.14326857 0.34324762 1.567
0.14690667 0.34478095 1.5740001
0.14990477 0.34478095 1.5740001
0.15290286 0.34478095 1.5740001
0.15590096 0.34478095 1.5740001
0.15889905 0.34478095 1.5740001
0.16261715 0.34631431 1.5810001
0.16562858 0.34631431 1.5810001
0.16949333 0.34806669 1.5890001
0.17165144 0.34631431 1.5810001
0.17554668 0.34806669 1.5890001
0.17857334 0.34806669 1.5890001
0.1816 0.34806669 1.5890001
0.18462667 0.34806669 1.5890001
0.18765333 0.34806669 1.5890001
0.19068001 0.34806669 1.5890001
0.19370668 0.34806669 1.5890001
0.19673334 0.34806669 1.5890001
0.19976 0.34806669 1.5890001
0.20278667 0.34806669 1.5890001
0.20581335 0.34806669 1.5890001
0.20976001 0.34960002 1.5960001
0.21280001 0.34960002 1.5960001
0.21489334 0.34806669 1.5890001
0.21792001 0.34806669 1.5890001
0.22192001 0.34960002 1.5960001
0.22496001 0.34960002 1.5960001
0.22800002 0.34960002 1.5960001
0.23104002 0.34960002 1.5960001
0.23510668 0.35113335 1.603
0.23816001 0.35113335 1.603
0.24121334 0.35113335 1.603
0.24426667 0.35113335 1.603
0.24855429 0.35288572 1.6110001
0.25162286 0.35288572 1.6110001
0.2557981 0.35441905 1.618
0.25888002 0.35441905 1.618
0.26196191 0.35441905 1.618
0.26504382 0.35441905 1.618
0.26812571 0.35441905 1.618
0.27254859 0.35617143 1.626
0.27564573 0.35617143 1.626
0.27737144 0.35441905 1.618
0.28045335 0.35441905 1.618
0.28353524 0.35441905 1.618
0.28945145 0.35792384 1.6340001
0.29381716 0.35945717 1.641
0.29694286 0.35945717 1.641
0.30006859 0.35945717 1.641
0.30319428 0.35945717 1.641
0.30632001 0.35945717 1.641
0.30944574 0.35945717 1.641
0.31409526 0.36120954 1.649
0.31723621 0.36120954 1.649
0.32193145 0.36296192 1.6570001
0.32508764 0.36296192 1.6570001
0.32824382 0.36296192 1.6570001
0.333 0.36471429 1.6650001
0.33617145 0.36471429 1.6650001
0.33934286 0.36471429 1.6650001
0.34251431 0.36471429 1.6650001
0.34568572 0.36471429 1.6650001
0.34885716 0.36471429 1.6650001
0.35202858 0.36471429 1.6650001
0.35520002 0.36471429 1.6650001
0.35664955 0.36296192 1.6570001
0.36154288 0.36471429 1.6650001
0.36646667 0.36646667 1.6730001
0.36965334 0.36646667 1.6730001
0.37284002 0.36646667 1.6730001
0.37602669 0.36646667 1.6730001
0.37921333 0.36646667 1.6730001
0.38422859 0.36821905 1.6810001
0.38743049 0.36821905 1.6810001
0.39063239 0.36821905 1.6810001
0.39383429 0.36821905 1.6810001
0.39703619 0.36821905 1.6810001
0.40238097 0.3701905 1.6900001
0.40560001 0.3701905 1.6900001
0.41075429 0.37194288 1.6980001
0.41398859 0.37194288 1.6980001
0.41918859 0.37369525 1.7060001
0.42243811 0.37369525 1.7060001
0.42568764 0.37369525 1.7060001
0.42893717 0.37369525 1.7060001
0.43218669 0.37369525 1.7060001
0.43543622 0.37369525 1.7060001
0.43868575 0.37369525 1.7060001
0.44193524 0.37369525 1.7060001
0.44518477 0.37369525 1.7060001
0.45080003 0.37566668 1.715
0.45406669 0.37566668 1.715
0.4594667 0.37741905 1.723
0.46274859 0.37741905 1.723
0.46603048 0.37741905 1.723
0.4693124 0.37741905 1.723
0.47259429 0.37741905 1.723
0.47587621 0.37741905 1.723
0.4791581 0.37741905 1.723
0.48244002 0.37741905 1.723
0.48572192 0.37741905 1.723
0.4915581 0.37939048 1.7320001
0.49485716 0.37939048 1.7320001
0.50074476 0.38136193 1.7410001
0.50406098 0.38136193 1.7410001
0.50737715 0.38136193 1.7410001
0.50805336 0.37939048 1.7320001
0.51400954 0.38136193 1.7410001
0.51732576 0.38136193 1.7410001
0.52064192 0.38136193 1.7410001
0.52395809 0.38136193 1.7410001
0.52727431 0.38136193 1.7410001
0.53059047 0.38136193 1.7410001
0.5339067 0.38136193 1.7410001
0.53722286 0.38136193 1.7410001
0.54053909 0.38136193 1.7410001
0.54385525 0.38136193 1.7410001
0.54717147 0.38136193 1.7410001
0.55048764 0.38136193 1.7410001
0.5538038 0.38136193 1.7410001
0.55712003 0.38136193 1.7410001
0.56333333 0.38333336 1.7500001
0.56666666 0.38333336 1.7500001
0.57293147 0.38530478 1.7590001
0.57628191 0.38530478 1.7590001
0.58259809 0.3872762 1.7680001
0.58596575 0.3872762 1.7680001
0.58933336 0.3872762 1.7680001
0.59270096 0.3872762 1.7680001
0.59606862 0.3872762 1.7680001
0.59943622 0.3872762 1.7680001
0.60280383 0.3872762 1.7680001
0.60617143 0.3872762 1.7680001
0.61264193 0.38924763 1.7770001
0.6160267 0.38924763 1.7770001
0.61941147 0.38924763 1.7770001
0.62595052 0.39121905 1.7860001
0.62618095 0.38924763 1.7770001
0.62956572 0.38924763 1.7770001
0.6361562 0.39121905 1.7860001
0.63955814 0.39121905 1.7860001
0.64296001 0.39121905 1.7860001
0.64636195 0.39121905 1.7860001
0.65303814 0.3931905 1.7950001
0.65645719 0.3931905 1.7950001
0.65987623 0.3931905 1.7950001
0.66662097 0.39516193 1.8040001
0.67005718 0.39516193 1.8040001
0.67349339 0.39516193 1.8040001
0.67692953 0.39516193 1.8040001
0.68036574 0.39516193 1.8040001
0.68380195 0.39516193 1.8040001
0.69104767 0.3973524 1.8140001
0.69450289 0.3973524 1.8140001
0.69795811 0.3973524 1.8140001
0.70141333 0.3973524 1.8140001
0.70486861 0.3973524 1.8140001
0.70832384 0.3973524 1.8140001
0.71570289 0.39954287 1.8240001
0.71917719 0.39954287 1.8240001
0.72621715 0.40151429 1.8330001
0.72970861 0.40151429 1.8330001
0.73320001 0.40151429 1.8330001
0.73669147 0.40151429 1.8330001
0.74018288 0.40151429 1.8330001
0.74367434 0.40151429 1.8330001
0.74716574 0.40151429 1.8330001
0.75065714 0.40151429 1.8330001
0.7541486 0.40151429 1.8330001
0.76177335 0.40370476 1.8430001
0.76528382 0.40370476 1.8430001
0.77296573 0.40589526 1.853
0.77649528 0.40589526 1.853
0.78002477 0.40589526 1.853
0.78355432 0.40589526 1.853
0.78708386 0.40589526 1.853
0.79061335 0.40589526 1.853
0.7941429 0.40589526 1.853
0.79767239 0.40589526 1.853
0.80120194 0.40589526 1.853
0.80907434 0.40808573 1.863
0.80826098 0.40589526 1.853
0.81179053 0.40589526 1.853
0.81532001 0.40589526 1.853
0.82326859 0.40808573 1.863
0.82681715 0.40808573 1.863
0.83036572 0.40808573 1.863
0.83391434 0.40808573 1.863
0.84195811 0.4102762 1.8730001
0.84101146 0.40808573 1.863
0.84456003 0.40808573 1.863
0.85266095 0.4102762 1.8730001
0.85622859 0.4102762 1.8730001
0.85979623 0.4102762 1.8730001
0.86336386 0.4102762 1.8730001
0.86693144 0.4102762 1.8730001
0.87514669 0.41246668 1.8830001
0.87406671 0.4102762 1.8730001
0.87763435 0.4102762 1.8730001
0.8859067 0.41246668 1.8830001
0.88949335 0.41246668 1.8830001
0.89308006 0.41246668 1.8830001
0.89666671 0.41246668 1.8830001
0.90025336 0.41246668 1.8830001
0.90384001 0.41246668 1.8830001
0.90742671 0.41246668 1.8830001
0.91633528 0.41487619 1.8940001
0.92480004 0.41706669 1.904
0.92842668 0.41706669 1.904
0.93205339 0.41706669 1.904
0.93568003 0.41706669 1.904
0.94473338 0.41947621 1.9150001
0.94838101 0.41947621 1.9150001
0.95202863 0.41947621 1.9150001
0.9556762 0.41947621 1.9150001
0.95932382 0.41947621 1.9150001
0.96297145 0.41947621 1.9150001
0.96661907 0.41947621 1.9150001
0.9702667 0.41947621 1.9150001
0.97391433 0.41947621 1.9150001
0.97756195 0.41947621 1.9150001
0.98633337 0.42166668 1.9250001
0.99000001 0.42166668 1.9250001
0.99366671 0.42166668 1.9250001
0.99733335 0.42166668 1.9250001
1.001 0.42166668 1.9250001
1.0046667 0.42166668 1.9250001
1.0083333 0.42166668 1.9250001
1.0120001 0.42166668 1.9250001
1.0156667 0.42166668 1.9250001
1.0193334 0.42166668 1.9250001
1.023 0.42166668 1.9250001
1.0266668 0.42166668 1.9250001
1.0303334 0.42166668 1.9250001
1.034 0.42166668 1.9250001
1.0376667 0.42166668 1.9250001
-0.33020952 0.47880381 2.1670001
-0.32608193 0.47880381 2.1670001
-0.31987429 0.47571048 2.1530001
-0.31577334 0.47571048 2.1530001
-0.30979049 0.4728381 2.1400001
-0.30200002 0.46709335 2.1140001
-0.29797333 0.46709335 2.1140001
-0.29213905 0.46422097 2.1010001
-0.28470859 0.45869717 2.0760002
-0.27737334 0.45317334 2.0510001
-0.27026668 0.44787049 2.0270002
-0.26482859 0.44521907 2.0150001
-0.2609905 0.44521907 2.0150001
-0.25562096 0.44256765 2.003
-0.2489143 0.43748572 1.9800001
-0.24378096 0.43505526 1.9690001
-0.23734859 0.43019429 1.9470001
-0.23100001 0.42533335 1.9250001
-0.22615239 0.42312384 1.9150001
-0.22122668 0.42069334 1.904
-0.21645714 0.41848382 1.8940001
-0.21048953 0.41384381 1.8730001
-0.20471239 0.40942478 1.853
-0.20118286 0.40942478 1.853
-0.19552001 0.40500572 1.8330001
-0.19108573 0.40301716 1.8240001
-0.18658286 0.40080762 1.8140001
-0.1821181 0.3985981 1.8040001
-0.17779048 0.39660954 1.7950001
-0.17262286 0.3926324 1.7770001
-0.16838096 0.39064384 1.7680001
-0.16417333 0.38865525 1.7590001
-0.15917715 0.3846781 1.7410001
-0.15505524 0.38268954 1.7320001
-0.15096763 0.38070098 1.723
-0.147 0.37893334 1.715
-0.14297906 0.37694478 1.7060001
-0.1390743 0.37517715 1.6980001
-0.13520001 0.37340954 1.6900001
-0.13002858 0.36788574 1.6650001
-0.12624763 0.3661181 1.6570001
-0.12190286 0.36258286 1.641
-0.11827048 0.36103621 1.6340001
-0.11459429 0.35926858 1.626
-0.11094858 0.35750097 1.618
-0.10740001 0.35595429 1.6110001
-0.10381334 0.35418668 1.603
-0.10032 0.35264 1.5960001
-0.096853338 0.35109335 1.5890001
-0.093354292 0.34932572 1.5810001
-0.089542858 0.34623238 1.567
-0.086171433 0.34468573 1.5600001
-0.082826667 0.34313905 1.5530001
-0.079508573 0.3415924 1.5460001
-0.076217145 0.34004572 1.539
-0.072952382 0.33849907 1.5320001
-0.069714285 0.33695239 1.5250001
-0.066809528 0.33695239 1.5250001
-0.063904762 0.33695239 1.5250001
-0.060760003 0.33562669 1.5190001
-0.05786667 0.33562669 1.5190001
-0.054973334 0.33562669 1.5190001
-0.052285716 0.33695239 1.5250001
-0.049186669 0.33562669 1.5190001
-0.046293337 0.33562669 1.5190001
-0.043571431 0.33695239 1.5250001
-0.04066667 0.33695239 1.5250001
-0.037761904 0.33695239 1.5250001
-0.035017144 0.33849907 1.5320001
-0.031952381 0.33695239 1.5250001
-0.029180953 0.33849907 1.5320001
-0.026262859 0.33849907 1.5320001
-0.023344763 0.33849907 1.5320001
-0.020426668 0.33849907 1.5320001
-0.017508572 0.33849907 1.5320001
-0.014590477 0.33849907 1.5320001
-0.011725714 0.34004572 1.539
-0.0087942863 0.34004572 1.539
-0.0058628572 0.34004572 1.539
-0.0029314286 0.34004572 1.539
0 0.34004572 1.539
0.0029314286 0.34004572 1.539
0.0058628572 0.34004572 1.539
0.0087942863 0.34004572 1.539
0.011672381 0.33849907 1.5320001
0.01452381 0.33695239 1.5250001
0.017428571 0.33695239 1.5250001
0.020333335 0.33695239 1.5250001
0.023238096 0.33695239 1.5250001
0.026142858 0.33695239 1.5250001
0.02904762 0.33695239 1.5250001
0.031952381 0.33695239 1.5250001
0.034857143 0.33695239 1.5250001
0.037935238 0.33849907 1.5320001
0.040853336 0.33849907 1.5320001
0.043771431 0.33849907 1.5320001
0.046689525 0.33849907 1.5320001
0.04960762 0.33849907 1.5320001
0.052525718 0.33849907 1.5320001
0.055697143 0.34004572 1.539
0.058628574 0.34004572 1.539
0.061560001 0.34004572 1.539
0.064491428 0.34004572 1.539
0.067422859 0.34004572 1.539
0.07035429 0.34004572 1.539
0.073285714 0.34004572 1.539
0.076217145 0.34004572 1.539
0.079508573 0.3415924 1.5460001
0.082453333 0.3415924 1.5460001
0.0853981 0.3415924 1.5460001
0.08834286 0.3415924 1.5460001
0.09128762 0.3415924 1.5460001
0.094232388 0.3415924 1.5460001
0.097617149 0.34313905 1.5530001
0.10057524 0.34313905 1.5530001
0.104 0.34468573 1.5600001
0.10697144 0.34468573 1.5600001
0.10994286 0.34468573 1.5600001
0.11291429 0.34468573 1.5600001
0.11588572 0.34468573 1.5600001
0.11885715 0.34468573 1.5600001
0.12237524 0.34623238 1.567
0.12536001 0.34623238 1.567
0.12834476 0.34623238 1.567
0.13132952 0.34623238 1.567
0.13431428 0.34623238 1.567
0.13729905 0.34623238 1.567
0.14028381 0.34623238 1.567
0.14326857 0.34623238 1.567
0.14690667 0.34777907 1.5740001
0.14990477 0.34777907 1.5740001
0.15290286 0.34777907 1.5740001
0.15590096 0.34777907 1.5740001
0.15960573 0.34932572 1.5810001
0.16261715 0.34932572 1.5810001
0.16562858 0.34932572 1.5810001
0.16949333 0.35109335 1.5890001
0.17252001 0.35109335 1.5890001
0.17554668 0.35109335 1.5890001
0.17857334 0.35109335 1.5890001
0.1816 0.35109335 1.5890001
0.18462667 0.35109335 1.5890001
0.18765333 0.35109335 1.5890001
0.19068001 0.35109335 1.5890001
0.19370668 0.35109335 1.5890001
0.19673334 0.35109335 1.5890001
0.19976 0.35109335 1.5890001
0.20278667 0.35109335 1.5890001
0.20672001 0.35264 1.5960001
0.20976001 0.35264 1.5960001
0.21280001 0.35264 1.5960001
0.21584001 0.35264 1.5960001
0.21888001 0.35264 1.5960001
0.22192001 0.35264 1.5960001
0.22496001 0.35264 1.5960001
0.22800002 0.35264 1.5960001
0.23104002 0.35264 1.5960001
0.23510668 0.35418668 1.603
0.23816001 0.35418668 1.603
0.24121334 0.35418668 1.603
0.24548572 0.35595429 1.6110001
0.2496343 0.35750097 1.618
0.25271621 0.35750097 1.618
0.2557981 0.35750097 1.618
0.25888002 0.35750097 1.618
0.26196191 0.35750097 1.618
0.26504382 0.35750097 1.618
0.26945144 0.35926858 1.626
0.27254859 0.35926858 1.626
0.27564573 0.35926858 1.626
0.28011429 0.36103621 1.6340001
0.28444001 0.36258286 1.641
0.28756574 0.36258286 1.641
0.29069144 0.36258286 1.641
0.29381716 0.36258286 1.641
0.29694286 0.36258286 1.641
0.30153143 0.3643505 1.649
0.30467239 0.3643505 1.649
0.30781335 0.3643505 1.649
0.31246287 0.3661181 1.6570001
0.31561905 0.3661181 1.6570001
0.31877524 0.3661181 1.6570001
0.32348573 0.36788574 1.6650001
0.32822669 0.36965334 1.6730001
0.33141336 0.36965334 1.6730001
0.3346 0.36965334 1.6730001
0.33778667 0.36965334 1.6730001
0.34097335 0.36965334 1.6730001
0.34416002 0.36965334 1.6730001
0.34734669 0.36965334 1.6730001
0.35053334 0.36965334 1.6730001
0.35372001 0.36965334 1.6730001
0.35690668 0.36965334 1.6730001
0.36009336 0.36965334 1.6730001
0.36328003 0.36965334 1.6730001
0.36646667 0.36965334 1.6730001
0.36965334 0.36965334 1.6730001
0.37462288 0.37142098 1.6810001
0.37782478 0.37142098 1.6810001
0.38102669 0.37142098 1.6810001
0.38422859 0.37142098 1.6810001
0.38743049 0.37142098 1.6810001
0.39272383 0.37340954 1.6900001
0.39383429 0.37142098 1.6810001
0.39916191 0.37340954 1.6900001
0.40238097 0.37340954 1.6900001
0.40560001 0.37340954 1.6900001
0.41075429 0.37517715 1.6980001
0.41398859 0.37517715 1.6980001
0.41918859 0.37694478 1.7060001
0.42243811 0.37694478 1.7060001
0.42568764 0.37694478 1.7060001
0.42893717 0.37694478 1.7060001
0.43218669 0.37694478 1.7060001
0.43543622 0.37694478 1.7060001
0.44100001 0.37893334 1.715
0.44426668 0.37893334 1.715
0.44753334 0.37893334 1.715
0.45080003 0.37893334 1.715
0.45618477 0.38070098 1.723
0.4594667 0.38070098 1.723
0.46060002 0.37893334 1.715
0.46386668 0.37893334 1.715
0.4693124 0.38070098 1.723
0.47259429 0.38070098 1.723
0.47587621 0.38070098 1.723
0.4791581 0.38070098 1.723
0.48244002 0.38070098 1.723
0.48572192 0.38070098 1.723
0.4915581 0.38268954 1.7320001
0.49485716 0.38268954 1.7320001
0.49815622 0.38268954 1.7320001
0.50406098 0.3846781 1.7410001
0.50737715 0.3846781 1.7410001
0.50805336 0.38268954 1.7320001
0.51135242 0.38268954 1.7320001
0.51465142 0.38268954 1.7320001
0.52064192 0.3846781 1.7410001
0.52395809 0.3846781 1.7410001
0.52727431 0.3846781 1.7410001
0.53059047 0.3846781 1.7410001
0.5339067 0.3846781 1.7410001
0.53722286 0.3846781 1.7410001
0.54053909 0.3846781 1.7410001
0.54385525 0.3846781 1.7410001
0.54717147 0.3846781 1.7410001
0.55048764 0.3846781 1.7410001
0.5538038 0.3846781 1.7410001
0.55712003 0.3846781 1.7410001
0.56333333 0.38666669 1.7500001
0.56666666 0.38666669 1.7500001
0.56999999 0.38666669 1.7500001
0.57628191 0.38865525 1.7590001
0.58259809 0.39064384 1.7680001
0.58596575 0.39064384 1.7680001
0.58933336 0.39064384 1.7680001
0.59270096 0.39064384 1.7680001
0.59606862 0.39064384 1.7680001
0.59943622 0.39064384 1.7680001
0.60280383 0.39064384 1.7680001
0.60925716 0.3926324 1.7770001
0.61264193 0.3926324 1.7770001
0.6160267 0.3926324 1.7770001
0.61941147 0.3926324 1.7770001
0.62279624 0.3926324 1.7770001
0.62618095 0.3926324 1.7770001
0.62956572 0.3926324 1.7770001
0.6361562 0.39462095 1.7860001
0.63955814 0.39462095 1.7860001
0.64296001 0.39462095 1.7860001
0.64636195 0.39462095 1.7860001
0.64976382 0.39462095 1.7860001
0.65645719 0.39660954 1.7950001
0.65987623 0.39660954 1.7950001
0.66662097 0.3985981 1.8040001
0.67005718 0.3985981 1.8040001
0.67349339 0.3985981 1.8040001
0.67692953 0.3985981 1.8040001
0.68413717 0.40080762 1.8140001
0.68380195 0.3985981 1.8040001
0.6872381 0.3985981 1.8040001
0.69450289 0.40080762 1.8140001
0.69411051 0.3985981 1.8040001
0.70141333 0.40080762 1.8140001
0.70486861 0.40080762 1.8140001
0.70832384 0.40080762 1.8140001
0.71570289 0.40301716 1.8240001
0.71917719 0.40301716 1.8240001
0.72621715 0.40500572 1.8330001
0.72970861 0.40500572 1.8330001
0.73320001 0.40500572 1.8330001
0.73669147 0.40500572 1.8330001
0.74018288 0.40500572 1.8330001
0.74367434 0.40500572 1.8330001
0.75124192 0.40721527 1.8430001
0.7547524 0.40721527 1.8430001
0.75826287 0.40721527 1.8430001
0.76177335 0.40721527 1.8430001
0.76528382 0.40721527 1.8430001
0.77296573 0.40942478 1.853
0.77230477 0.40721527 1.8430001
0.78002477 0.40942478 1.853
0.78355432 0.40942478 1.853
0.78708386 0.40942478 1.853
0.79061335 0.40942478 1.853
0.7941429 0.40942478 1.853
0.79767239 0.40942478 1.853
0.80120194 0.40942478 1.853
0.80907434 0.4116343 1.863
0.80826098 0.40942478 1.853
0.81179053 0.40942478 1.853
0.81972003 0.4116343 1.863
0.82326859 0.4116343 1.863
0.82681715 0.4116343 1.863
0.83482289 0.41384381 1.8730001
0.83839053 0.41384381 1.8730001
0.84195811 0.41384381 1.8730001
0.84101146 0.4116343 1.863
0.84909338 0.41384381 1.8730001
0.85266095 0.41384381 1.8730001
0.85622859 0.41384381 1.8730001
0.85979623 0.41384381 1.8730001
0.86797339 0.41605335 1.8830001
0.87156004 0.41605335 1.8830001
0.87514669 0.41605335 1.8830001
0.87873334 0.41605335 1.8830001
0.88232005 0.41605335 1.8830001
0.8859067 0.41605335 1.8830001
0.88949335 0.41605335 1.8830001
0.89308006 0.41605335 1.8830001
0.89666671 0.41605335 1.8830001
0.90025336 0.41605335 1.8830001
0.90384001 0.41605335 1.8830001
0.90742671 0.41605335 1.8830001
0.91633528 0.41848382 1.8940001
0.92480004 0.42069334 1.904
0.92842668 0.42069334 1.904
0.93205339 0.42069334 1.904
0.93568003 0.42069334 1.904
0.93930668 0.42069334 1.904
0.94838101 0.42312384 1.9150001
0.95202863 0.42312384 1.9150001
0.95018673 0.42069334 1.904
0.95932382 0.42312384 1.9150001
0.96297145 0.42312384 1.9150001
0.96661907 0.42312384 1.9150001
0.9702667 0.42312384 1.9150001
0.97391433 0.42312384 1.9150001
0.97756195 0.42312384 1.9150001
0.98120958 0.42312384 1.9150001
0.99000001 0.42533335 1.9250001
0.99366671 0.42533335 1.9250001
0.99733335 0.42533335 1.9250001
1.001 0.42533335 1.9250001
1.0046667 0.42533335 1.9250001
1.0083333 0.42533335 1.9250001
1.0120001 0.42533335 1.9250001
1.0156667 0.42533335 1.9250001
1.0193334 0.42533335 1.9250001
1.023 0.42533335 1.9250001
1.0266668 0.42533335 1.9250001
1.0303334 0.42533335 1.9250001
1.034 0.42533335 1.9250001
1.0376667 0.42533335 1.9250001
-0.33433715 0.48293144 2.1670001
-0.33020952 0.48293144 2.1670001
-0.32608193 0.48293144 2.1670001
-0.31987429 0.47981146 2.1530001
-0.31577334 0.47981146 2.1530001
-0.31167239 0.47981146 2.1530001
-0.30200002 0.47112003 2.1140001
-0.29614097 0.46822289 2.1010001
-0.29033145 0.46532574 2.0880001
-0.2863543 0.46532574 2.0880001
-0.2789962 0.45975429 2.0630002
-0.27026668 0.45173144 2.0270002
-0.26325142 0.44638288 2.003
-0.2609905 0.44905716 2.0150001
-0.25562096 0.44638288 2.003
-0.2489143 0.44125715 1.9800001
-0.24378096 0.43880573 1.9690001
-0.23868953 0.43635431 1.9580001
-0.23100001 0.42900002 1.9250001
-0.22615239 0.42677143 1.9150001
-0.22006477 0.42209145 1.8940001
-0.21520001 0.41964 1.8830001
-0.21048953 0.41741145 1.8730001
-0.20581715 0.41518286 1.863
-0.20118286 0.4129543 1.853
-0.19552001 0.40849715 1.8330001
-0.19202858 0.40849715 1.8330001
-0.18658286 0.40426287 1.8140001
-0.1821181 0.40203431 1.8040001
-0.17779048 0.40002859 1.7950001
-0.17349716 0.39802286 1.7860001
-0.16923811 0.39601716 1.7770001
-0.16501334 0.39401144 1.7680001
-0.15917715 0.38799429 1.7410001
-0.15505524 0.38598859 1.7320001
-0.15096763 0.38398287 1.723
-0.147 0.3822 1.715
-0.14297906 0.38019431 1.7060001
-0.1390743 0.37841144 1.6980001
-0.13520001 0.37662858 1.6900001
-0.13002858 0.37105715 1.6650001
-0.12624763 0.36927429 1.6570001
-0.12249715 0.36749145 1.649
-0.11827048 0.36414859 1.6340001
-0.11403048 0.36058286 1.618
-0.11094858 0.36058286 1.618
-0.10740001 0.35902286 1.6110001
-0.10381334 0.35724002 1.603
-0.10032 0.35568002 1.5960001
-0.096853338 0.35412002 1.5890001
-0.093354292 0.35233715 1.5810001
-0.089942858 0.35077715 1.5740001
-0.086558096 0.34921715 1.567
-0.0832 0.34765714 1.5600001
-0.079868577 0.34609714 1.5530001
-0.076217145 0.34297717 1.539
-0.072952382 0.34141716 1.5320001
-0.069714285 0.33985716 1.5250001
-0.066809528 0.33985716 1.5250001
-0.063904762 0.33985716 1.5250001
-0.060760003 0.33852002 1.5190001
-0.05786667 0.33852002 1.5190001
-0.054973334 0.33852002 1.5190001
-0.052285716 0.33985716 1.5250001
-0.049186669 0.33852002 1.5190001
-0.046476193 0.33985716 1.5250001
-0.043571431 0.33985716 1.5250001
-0.04066667 0.33985716 1.5250001
-0.037935238 0.34141716 1.5320001
-0.035017144 0.34141716 1.5320001
-0.03209905 0.34141716 1.5320001
-0.029180953 0.34141716 1.5320001
-0.026262859 0.34141716 1.5320001
-0.023344763 0.34141716 1.5320001
-0.020426668 0.34141716 1.5320001
-0.017508572 0.34141716 1.5320001
-0.014590477 0.34141716 1.5320001
-0.011725714 0.34297717 1.539
-0.0087942863 0.34297717 1.539
-0.0058628572 0.34297717 1.539
-0.0029314286 0.34297717 1.539
0 0.34297717 1.539
0.0029180953 0.34141716 1.5320001
0.0058361907 0.34141716 1.5320001
0.008754286 0.34141716 1.5320001
0.011672381 0.34141716 1.5320001
0.01452381 0.33985716 1.5250001
0.01736 0.33852002 1.5190001
0.020253334 0.33852002 1.5190001
0.023238096 0.33985716 1.5250001
0.026142858 0.33985716 1.5250001
0.02904762 0.33985716 1.5250001
0.031952381 0.33985716 1.5250001
0.034857143 0.33985716 1.5250001
0.037935238 0.34141716 1.5320001
0.040853336 0.34141716 1.5320001
0.043771431 0.34141716 1.5320001
0.046689525 0.34141716 1.5320001
0.04960762 0.34141716 1.5320001
0.052525718 0.34141716 1.5320001
0.055697143 0.34297717 1.539
0.058628574 0.34297717 1.539
0.061560001 0.34297717 1.539
0.064491428 0.34297717 1.539
0.067422859 0.34297717 1.539
0.07035429 0.34297717 1.539
0.073285714 0.34297717 1.539
0.076217145 0.34297717 1.539
0.079508573 0.34453717 1.5460001
0.082453333 0.34453717 1.5460001
0.0853981 0.34453717 1.5460001
0.08834286 0.34453717 1.5460001
0.09128762 0.34453717 1.5460001
0.094232388 0.34453717 1.5460001
0.097617149 0.34609714 1.5530001
0.10057524 0.34609714 1.5530001
0.104 0.34765714 1.5600001
0.10697144 0.34765714 1.5600001
0.10994286 0.34765714 1.5600001
0.11291429 0.34765714 1.5600001
0.11588572 0.34765714 1.5600001
0.11885715 0.34765714 1.5600001
0.12237524 0.34921715 1.567
0.12536001 0.34921715 1.567
0.12834476 0.34921715 1.567
0.13132952 0.34921715 1.567
0.13431428 0.34921715 1.567
0.13791239 0.35077715 1.5740001
0.14091048 0.35077715 1.5740001
0.14326857 0.34921715 1.567
0.14690667 0.35077715 1.5740001
0.14990477 0.35077715 1.5740001
0.15290286 0.35077715 1.5740001
0.15590096 0.35077715 1.5740001
0.15960573 0.35233715 1.5810001
0.16261715 0.35233715 1.5810001
0.16562858 0.35233715 1.5810001
0.16949333 0.35412002 1.5890001
0.17252001 0.35412002 1.5890001
0.17554668 0.35412002 1.5890001
0.17857334 0.35412002 1.5890001
0.1816 0.35412002 1.5890001
0.18462667 0.35412002 1.5890001
0.18765333 0.35412002 1.5890001
0.19068001 0.35412002 1.5890001
0.19456001 0.35568002 1.5960001
0.19673334 0.35412002 1.5890001
0.19976 0.35412002 1.5890001
0.20368001 0.35568002 1.5960001
0.20672001 0.35568002 1.5960001
0.20976001 0.35568002 1.5960001
0.21280001 0.35568002 1.5960001
0.21584001 0.35568002 1.5960001
0.21888001 0.35568002 1.5960001
0.22289334 0.35724002 1.603
0.22496001 0.35568002 1.5960001
0.22800002 0.35568002 1.5960001
0.23205334 0.35724002 1.603
0.23510668 0.35724002 1.603
0.23934858 0.35902286 1.6110001
0.24241716 0.35902286 1.6110001
0.24548572 0.35902286 1.6110001
0.2496343 0.36058286 1.618
0.25271621 0.36058286 1.618
0.2557981 0.36058286 1.618
0.25888002 0.36058286 1.618
0.26325715 0.36236572 1.626
0.26766476 0.36414859 1.6340001
0.27077717 0.36414859 1.6340001
0.27506286 0.36570859 1.641
