# .PCD v0.7 - Point Cloud Data file format
VERSION 0.7
FIELDS x y z
SIZE 4 4 4
TYPE F F F
COUNT 1 1 1
WIDTH 1532
HEIGHT 1
VIEWPOINT 0 0 0 1 0 0 0
POINTS 1532
DATA ascii
0.20394668 0.31866667 1.6730001
0.20713334 0.31866667 1.6730001
0.21132572 0.32019049 1.6810001
0.21452762 0.32019049 1.6810001
0.21772954 0.32019049 1.6810001
0.22211429 0.32190478 1.6900001
0.22533335 0.32190478 1.6900001
0.22855239 0.32190478 1.6900001
0.23286858 0.32342857 1.6980001
0.23610286 0.32342857 1.6980001
0.24046478 0.32495239 1.7060001
0.24371429 0.32495239 1.7060001
0.24826668 0.32666668 1.715
0.25153333 0.32666668 1.715
0.25732571 0.32990476 1.7320001
0.26062477 0.32990476 1.7320001
0.26529524 0.33161905 1.7410001
0.26861143 0.33161905 1.7410001
0.27192762 0.33161905 1.7410001
0.27524382 0.33161905 1.7410001
0.28 0.33333334 1.7500001
0.28187621 0.33161905 1.7410001
0.2851924 0.33161905 1.7410001
0.29000002 0.33333334 1.7500001
0.29484192 0.33504763 1.7590001
0.29819238 0.33504763 1.7590001
0.30462858 0.33847621 1.7770001
0.30801335 0.33847621 1.7770001
0.31139812 0.33847621 1.7770001
0.31478286 0.33847621 1.7770001
0.31977907 0.3401905 1.7860001
0.32318097 0.3401905 1.7860001
0.32658288 0.3401905 1.7860001
0.33164763 0.34190479 1.7950001
0.33506668 0.34190479 1.7950001
0.34018287 0.34361905 1.8040001
0.34361905 0.34361905 1.8040001
0.34897906 0.34552383 1.8140001
0.35243431 0.34552383 1.8140001
0.35588953 0.34552383 1.8140001
0.36132574 0.34742859 1.8240001
0.36480001 0.34742859 1.8240001
0.3682743 0.34742859 1.8240001
0.3717486 0.34742859 1.8240001
0.3770743 0.34914288 1.8330001
0.38264191 0.35104764 1.8430001
0.38615239 0.35104764 1.8430001
0.39177716 0.35295239 1.853
0.39530668 0.35295239 1.853
0.40098858 0.35485715 1.863
0.40453717 0.35485715 1.863
0.40808573 0.35485715 1.863
0.4116343 0.35485715 1.863
0.41741145 0.35676193 1.8730001
0.42097905 0.35676193 1.8730001
0.42681333 0.35866669 1.8830001
0.43040001 0.35866669 1.8830001
0.43652192 0.36076191 1.8940001
0.44012955 0.36076191 1.8940001
0.44373715 0.36076191 1.8940001
0.44970667 0.36266667 1.904
0.45333335 0.36266667 1.904
0.45696002 0.36266667 1.904
0.46324763 0.36476192 1.9150001
0.46689525 0.36476192 1.9150001
0.47300002 0.36666667 1.9250001
0.4793905 0.36876193 1.9360001
0.48307812 0.36876193 1.9360001
0.48676574 0.36876193 1.9360001
0.49045336 0.36876193 1.9360001
0.49414098 0.36876193 1.9360001
0.50065714 0.37085715 1.9470001
0.50436574 0.37085715 1.9470001
0.50807428 0.37085715 1.9470001
0.51467431 0.3729524 1.9580001
0.51840383 0.3729524 1.9580001
0.52506667 0.37504762 1.9690001
0.52881718 0.37504762 1.9690001
0.53256762 0.37504762 1.9690001
0.53931433 0.37714288 1.9800001
0.54308575 0.37714288 1.9800001
0.54685718 0.37714288 1.9800001
0.5506286 0.37714288 1.9800001
0.55440003 0.37714288 1.9800001
0.56155431 0.3794286 1.9920001
0.56534857 0.3794286 1.9920001
0.57228571 0.38152382 2.003
0.57955241 0.38380954 2.0150001
0.58339047 0.38380954 2.0150001
0.59072572 0.38609526 2.0270002
0.59458667 0.38609526 2.0270002
0.60199052 0.38838097 2.039
0.6058743 0.38838097 2.039
0.6133467 0.39066669 2.0510001
0.61725336 0.39066669 2.0510001
0.6247943 0.39295238 2.0630002
0.62872386 0.39295238 2.0630002
0.63664001 0.3954286 2.0760002
0.6405943 0.3954286 2.0760002
0.64454859 0.3954286 2.0760002
0.64850289 0.3954286 2.0760002
0.6562286 0.39771429 2.0880001
0.66020572 0.39771429 2.0880001
0.66831809 0.4001905 2.1010001
0.67232001 0.4001905 2.1010001
0.68050671 0.40266669 2.1140001
0.68453336 0.40266669 2.1140001
0.69279432 0.40514287 2.1270001
0.69684571 0.40514287 2.1270001
0.70089716 0.40514287 2.1270001
0.70925719 0.40761906 2.1400001
0.71333337 0.40761906 2.1400001
0.72176766 0.41009524 2.1530001
0.73058861 0.41276193 2.1670001
0.73471624 0.41276193 2.1670001
0.73884386 0.41276193 2.1670001
0.74777144 0.41542858 2.181
0.75192577 0.41542858 2.181
0.76058668 0.41790476 2.194
0.76964575 0.42057145 2.2080002
0.77910858 0.4234286 2.223
0.7833429 0.4234286 2.223
0.78757715 0.4234286 2.223
0.79181147 0.4234286 2.223
0.80105907 0.42609525 2.237
0.80532002 0.42609525 2.237
0.80958098 0.42609525 2.237
0.8192991 0.4289524 2.2520001
0.82870859 0.43161908 2.266
0.8330248 0.43161908 2.266
0.84288383 0.4344762 2.2810001
0.84722859 0.4344762 2.2810001
0.85754669 0.43752381 2.2970002
0.86192197 0.43752381 2.2970002
0.86629719 0.43752381 2.2970002
0.87635815 0.44038096 2.312
0.88647622 0.44323811 2.3270001
0.89703435 0.44628572 2.3430002
0.90765339 0.44933334 2.3590002
0.91214669 0.44933334 2.3590002
0.91664004 0.44933334 2.3590002
0.92777145 0.45257145 2.3760002
0.93229717 0.45257145 2.3760002
0.93682289 0.45257145 2.3760002
0.94134861 0.45257145 2.3760002
0.94587433 0.45257145 2.3760002
0.94360006 0.44933334 2.3590002
0.94809335 0.44933334 2.3590002
0.95945144 0.45257145 2.3760002
0.96397716 0.45257145 2.3760002
-0.4468343 0.39938286 2.0760002
-0.44288 0.39938286 2.0760002
-0.43892574 0.39938286 2.0760002
-0.43497145 0.39938286 2.0760002
-0.43101716 0.39938286 2.0760002
-0.42706287 0.39938286 2.0760002
-0.42310858 0.39938286 2.0760002
-0.41652954 0.39688191 2.0630002
-0.41260001 0.39688191 2.0630002
-0.40629336 0.39457336 2.0510001
-0.4000324 0.39226478 2.039
-0.39614859 0.39226478 2.039
-0.39226478 0.39226478 2.039
-0.38609526 0.38995621 2.0270002
-0.38223431 0.38995621 2.0270002
-0.37837335 0.38995621 2.0270002
-0.37229526 0.38764763 2.0150001
-0.36845717 0.38764763 2.0150001
-0.36244762 0.38533905 2.003
-0.35863239 0.38533905 2.003
-0.35481715 0.38533905 2.003
-0.3490743 0.38322288 1.9920001
-0.34528002 0.38322288 1.9920001
-0.33942857 0.3809143 1.9800001
-0.33565715 0.3809143 1.9800001
-0.33004192 0.3787981 1.9690001
-0.32629144 0.3787981 1.9690001
-0.32254097 0.3787981 1.9690001
-0.3187905 0.3787981 1.9690001
-0.31328002 0.37668192 1.9580001
-0.30955049 0.37668192 1.9580001
-0.30582097 0.37668192 1.9580001
-0.30209145 0.37668192 1.9580001
-0.29500952 0.37244955 1.9360001
-0.28966668 0.37033334 1.9250001
-0.28600001 0.37033334 1.9250001
-0.28086668 0.36840954 1.9150001
-0.27721906 0.36840954 1.9150001
-0.27200001 0.36629334 1.904
-0.26837334 0.36629334 1.904
-0.26335621 0.36436954 1.8940001
-0.25824001 0.36225334 1.8830001
-0.25465333 0.36225334 1.8830001
-0.25106668 0.36225334 1.8830001
-0.24616572 0.36032954 1.8730001
-0.2425981 0.36032954 1.8730001
-0.23903048 0.36032954 1.8730001
-0.23546286 0.36032954 1.8730001
-0.23065715 0.35840574 1.863
-0.22710858 0.35840574 1.863
-0.22236001 0.35648191 1.853
-0.21883048 0.35648191 1.853
-0.21413906 0.35455811 1.8430001
-0.21062858 0.35455811 1.8430001
-0.20599429 0.35263431 1.8330001
-0.20250286 0.35263431 1.8330001
-0.19803429 0.35090286 1.8240001
-0.19456001 0.35090286 1.8240001
-0.1900381 0.34897906 1.8140001
-0.18658286 0.34897906 1.8140001
-0.18312763 0.34897906 1.8140001
-0.17967239 0.34897906 1.8140001
-0.17524572 0.34705526 1.8040001
-0.17180952 0.34705526 1.8040001
-0.16837335 0.34705526 1.8040001
-0.16493715 0.34705526 1.8040001
-0.16069524 0.34532383 1.7950001
-0.1572762 0.34532383 1.7950001
-0.15385714 0.34532383 1.7950001
-0.14968382 0.34359241 1.7860001
-0.14628191 0.34359241 1.7860001
-0.14216 0.34186098 1.7770001
-0.13877524 0.34186098 1.7770001
-0.13539048 0.34186098 1.7770001
-0.13133715 0.34012952 1.7680001
-0.12796953 0.34012952 1.7680001
-0.12396763 0.3383981 1.7590001
-0.12061714 0.3383981 1.7590001
-0.11726667 0.3383981 1.7590001
-0.11333334 0.33666667 1.7500001
-0.11000001 0.33666667 1.7500001
-0.1061181 0.33493525 1.7410001
-0.10227048 0.33320382 1.7320001
-0.098971434 0.33320382 1.7320001
-0.095175244 0.3314724 1.723
-0.091893338 0.3314724 1.723
-0.088611431 0.3314724 1.723
-0.084933333 0.32993335 1.715
-0.081666671 0.32993335 1.715
-0.078400001 0.32993335 1.715
-0.074739054 0.32820192 1.7060001
-0.071489528 0.32820192 1.7060001
-0.068240002 0.32820192 1.7060001
-0.064685717 0.32666287 1.6980001
-0.061451431 0.32666287 1.6980001
-0.05794286 0.32512382 1.6900001
-0.05472381 0.32512382 1.6900001
-0.051504765 0.32512382 1.6900001
-0.048285715 0.32512382 1.6900001
-0.04506667 0.32512382 1.6900001
-0.04184762 0.32512382 1.6900001
-0.03842286 0.32339239 1.6810001
-0.035220955 0.32339239 1.6810001
-0.03186667 0.32185334 1.6730001
-0.028405715 0.31877524 1.6570001
-0.02512762 0.31723621 1.649
-0.021986667 0.31723621 1.649
-0.018845715 0.31723621 1.649
-0.015704762 0.31723621 1.649
-0.012502857 0.31569716 1.641
-0.0093771433 0.31569716 1.641
-0.0062247622 0.31435049 1.6340001
-0.0031123811 0.31435049 1.6340001
0 0.31281143 1.626
0.003097143 0.31281143 1.626
0.0061638099 0.31127238 1.618
0.0092457142 0.31127238 1.618
0.01232762 0.31127238 1.618
0.015342858 0.30992573 1.6110001
0.01841143 0.30992573 1.6110001
0.021480002 0.30992573 1.6110001
0.024426667 0.30838668 1.603
0.027360002 0.30704001 1.5960001
0.030266669 0.30569336 1.5890001
0.033293333 0.30569336 1.5890001
0.036320001 0.30569336 1.5890001
0.039148573 0.30415431 1.5810001
0.042160001 0.30415431 1.5810001
0.045171428 0.30415431 1.5810001
0.047969524 0.30280763 1.5740001
0.050967623 0.30280763 1.5740001
0.053965718 0.30280763 1.5740001
0.056710478 0.30146095 1.567
0.05969524 0.30146095 1.567
0.062400002 0.3001143 1.5600001
0.065664761 0.30146095 1.567
0.068649523 0.30146095 1.567
0.071634285 0.30146095 1.567
0.074619047 0.30146095 1.567
0.07760381 0.30146095 1.567
0.080588572 0.30146095 1.567
0.083573334 0.30146095 1.567
0.086558096 0.30146095 1.567
0.089542858 0.30146095 1.567
0.09252762 0.30146095 1.567
0.095512383 0.30146095 1.567
0.098937146 0.30280763 1.5740001
0.10193525 0.30280763 1.5740001
0.1054 0.30415431 1.5810001
0.10841143 0.30415431 1.5810001
0.11198667 0.30569336 1.5890001
0.11501334 0.30569336 1.5890001
0.11856 0.30704001 1.5960001
0.12213334 0.30838668 1.603
0.12581143 0.30992573 1.6110001
0.12944001 0.31127238 1.618
0.13252191 0.31127238 1.618
0.13560382 0.31127238 1.618
0.13937144 0.31281143 1.626
0.14246857 0.31281143 1.626
0.14556572 0.31281143 1.626
0.14939429 0.31435049 1.6340001
0.15316001 0.31569716 1.641
0.15628572 0.31569716 1.641
0.16018857 0.31723621 1.649
0.16332953 0.31723621 1.649
0.16647048 0.31723621 1.649
0.16961144 0.31723621 1.649
0.17275238 0.31723621 1.649
0.17674667 0.31877524 1.6570001
0.17990287 0.31877524 1.6570001
0.18394287 0.32031429 1.6650001
0.18801335 0.32185334 1.6730001
0.1912 0.32185334 1.6730001
0.1953162 0.32339239 1.6810001
0.1985181 0.32339239 1.6810001
0.20280001 0.32512382 1.6900001
0.20492192 0.32339239 1.6810001
0.20812382 0.32339239 1.6810001
0.21132572 0.32339239 1.6810001
0.21452762 0.32339239 1.6810001
0.21772954 0.32339239 1.6810001
0.22211429 0.32512382 1.6900001
0.22533335 0.32512382 1.6900001
0.2296343 0.32666287 1.6980001
0.23286858 0.32666287 1.6980001
0.23610286 0.32666287 1.6980001
0.24046478 0.32820192 1.7060001
0.24371429 0.32820192 1.7060001
0.24826668 0.32993335 1.715
0.25153333 0.32993335 1.715
0.25598857 0.3314724 1.723
0.26062477 0.33320382 1.7320001
0.26529524 0.33493525 1.7410001
0.26861143 0.33493525 1.7410001
0.27192762 0.33493525 1.7410001
0.27524382 0.33493525 1.7410001
0.27856001 0.33493525 1.7410001
0.28187621 0.33493525 1.7410001
0.28666669 0.33666667 1.7500001
0.29000002 0.33666667 1.7500001
0.29484192 0.3383981 1.7590001
0.29819238 0.3383981 1.7590001
0.30308571 0.34012952 1.7680001
0.30801335 0.34186098 1.7770001
0.31139812 0.34186098 1.7770001
0.31637716 0.34359241 1.7860001
0.31977907 0.34359241 1.7860001
0.32318097 0.34359241 1.7860001
0.32658288 0.34359241 1.7860001
0.32998478 0.34359241 1.7860001
0.33506668 0.34532383 1.7950001
0.33848572 0.34532383 1.7950001
0.34361905 0.34705526 1.8040001
0.34897906 0.34897906 1.8140001
0.35243431 0.34897906 1.8140001
0.35588953 0.34897906 1.8140001
0.36132574 0.35090286 1.8240001
0.36480001 0.35090286 1.8240001
0.3682743 0.35090286 1.8240001
0.3717486 0.35090286 1.8240001
0.3770743 0.35263431 1.8330001
0.38056573 0.35263431 1.8330001
0.38615239 0.35455811 1.8430001
0.39177716 0.35648191 1.853
0.39530668 0.35648191 1.853
0.40098858 0.35840574 1.863
0.40453717 0.35840574 1.863
0.40808573 0.35840574 1.863
0.4116343 0.35840574 1.863
0.41741145 0.36032954 1.8730001
0.42097905 0.36032954 1.8730001
0.42681333 0.36225334 1.8830001
0.43040001 0.36225334 1.8830001
0.43652192 0.36436954 1.8940001
0.44012955 0.36436954 1.8940001
0.44373715 0.36436954 1.8940001
0.44970667 0.36629334 1.904
0.45333335 0.36629334 1.904
0.45696002 0.36629334 1.904
0.4605867 0.36629334 1.904
0.46689525 0.36840954 1.9150001
0.47300002 0.37033334 1.9250001
0.4793905 0.37244955 1.9360001
0.48307812 0.37244955 1.9360001
0.48676574 0.37244955 1.9360001
0.49045336 0.37244955 1.9360001
0.4969486 0.37456572 1.9470001
0.50065714 0.37456572 1.9470001
0.50436574 0.37456572 1.9470001
0.50807428 0.37456572 1.9470001
0.51467431 0.37668192 1.9580001
0.51840383 0.37668192 1.9580001
0.52506667 0.3787981 1.9690001
0.52881718 0.3787981 1.9690001
0.53256762 0.3787981 1.9690001
0.53631812 0.3787981 1.9690001
0.54308575 0.3809143 1.9800001
0.54685718 0.3809143 1.9800001
0.5506286 0.3809143 1.9800001
0.55440003 0.3809143 1.9800001
0.56155431 0.38322288 1.9920001
0.56847048 0.38533905 2.003
0.57228571 0.38533905 2.003
0.57955241 0.38764763 2.0150001
0.58339047 0.38764763 2.0150001
0.59072572 0.38995621 2.0270002
0.59458667 0.38995621 2.0270002
0.60199052 0.39226478 2.039
0.6058743 0.39226478 2.039
0.6133467 0.39457336 2.0510001
0.61725336 0.39457336 2.0510001
0.6247943 0.39688191 2.0630002
0.62872386 0.39688191 2.0630002
0.63664001 0.39938286 2.0760002
0.6405943 0.39938286 2.0760002
0.64454859 0.39938286 2.0760002
0.64850289 0.39938286 2.0760002
0.6562286 0.40169144 2.0880001
0.66020572 0.40169144 2.0880001
0.66831809 0.40419239 2.1010001
0.67648 0.40669334 2.1140001
0.68050671 0.40669334 2.1140001
0.68874288 0.40919429 2.1270001
0.69279432 0.40919429 2.1270001
0.69684571 0.40919429 2.1270001
0.705181 0.41169524 2.1400001
0.71356577 0.41419619 2.1530001
0.71766669 0.41419619 2.1530001
0.72646099 0.41688955 2.1670001
0.73058861 0.41688955 2.1670001
0.73471624 0.41688955 2.1670001
0.74361718 0.41958287 2.181
0.74777144 0.41958287 2.181
0.75640762 0.42208382 2.194
0.76058668 0.42208382 2.194
0.76964575 0.42477715 2.2080002
0.77910858 0.42766288 2.223
0.7833429 0.42766288 2.223
0.78757715 0.42766288 2.223
0.79181147 0.42766288 2.223
0.80105907 0.4303562 2.237
0.80532002 0.4303562 2.237
0.81500953 0.43324193 2.2520001
0.8192991 0.43324193 2.2520001
0.82870859 0.43593526 2.266
0.8330248 0.43593526 2.266
0.84288383 0.43882096 2.2810001
0.84722859 0.43882096 2.2810001
0.85754669 0.44189906 2.2970002
0.86192197 0.44189906 2.2970002
0.87195432 0.44478479 2.312
0.87635815 0.44478479 2.312
0.88647622 0.44767049 2.3270001
0.89703435 0.45074859 2.3430002
0.90149719 0.45074859 2.3430002
0.91214669 0.4538267 2.3590002
0.91664004 0.4538267 2.3590002
0.92113334 0.4538267 2.3590002
0.9256267 0.4538267 2.3590002
0.93012005 0.4538267 2.3590002
0.94768763 0.46017525 2.3920002
0.94587433 0.45709717 2.3760002
0.95040005 0.45709717 2.3760002
0.95492578 0.45709717 2.3760002
0.95945144 0.45709717 2.3760002
0.96397716 0.45709717 2.3760002
-0.4468343 0.40333715 2.0760002
-0.44288 0.40333715 2.0760002
-0.43892574 0.40333715 2.0760002
-0.43497145 0.40333715 2.0760002
-0.43101716 0.40333715 2.0760002
-0.42706287 0.40333715 2.0760002
-0.42045906 0.40081143 2.0630002
-0.41652954 0.40081143 2.0630002
-0.41260001 0.40081143 2.0630002
-0.40867049 0.40081143 2.0630002
-0.4023867 0.39848003 2.0510001
-0.39614859 0.39614859 2.039
-0.39226478 0.39614859 2.039
-0.38609526 0.39381716 2.0270002
-0.38223431 0.39381716 2.0270002
-0.37837335 0.39381716 2.0270002
-0.37229526 0.39148572 2.0150001
-0.36845717 0.39148572 2.0150001
-0.36461905 0.39148572 2.0150001
-0.35863239 0.38915429 2.003
-0.35481715 0.38915429 2.003
-0.35100192 0.38915429 2.003
-0.34528002 0.38701716 1.9920001
-0.34148574 0.38701716 1.9920001
-0.33565715 0.38468572 1.9800001
-0.33188573 0.38468572 1.9800001
-0.32629144 0.38254857 1.9690001
-0.32254097 0.38254857 1.9690001
-0.3187905 0.38254857 1.9690001
-0.31504002 0.38254857 1.9690001
-0.30955049 0.38041145 1.9580001
-0.30582097 0.38041145 1.9580001
-0.3003943 0.37827429 1.9470001
-0.29500952 0.37613717 1.9360001
-0.28966668 0.37400001 1.9250001
-0.28600001 0.37400001 1.9250001
-0.28086668 0.37205717 1.9150001
-0.27721906 0.37205717 1.9150001
-0.27200001 0.36992002 1.904
-0.26837334 0.36992002 1.904
-0.26335621 0.36797714 1.8940001
-0.25824001 0.36584002 1.8830001
-0.25465333 0.36584002 1.8830001
-0.25106668 0.36584002 1.8830001
-0.24616572 0.36389714 1.8730001
-0.2425981 0.36389714 1.8730001
-0.23903048 0.36389714 1.8730001
-0.23546286 0.36389714 1.8730001
-0.23065715 0.3619543 1.863
-0.22710858 0.3619543 1.863
-0.22236001 0.36001143 1.853
-0.21883048 0.36001143 1.853
-0.21530096 0.36001143 1.853
-0.21062858 0.35806859 1.8430001
-0.20711811 0.35806859 1.8430001
-0.20250286 0.35612574 1.8330001
-0.19803429 0.35437715 1.8240001
-0.19456001 0.35437715 1.8240001
-0.1900381 0.35243431 1.8140001
-0.18658286 0.35243431 1.8140001
-0.18312763 0.35243431 1.8140001
-0.17967239 0.35243431 1.8140001
-0.17621715 0.35243431 1.8140001
-0.17180952 0.35049143 1.8040001
-0.16837335 0.35049143 1.8040001
-0.16493715 0.35049143 1.8040001
-0.16150096 0.35049143 1.8040001
-0.1572762 0.34874287 1.7950001
-0.15385714 0.34874287 1.7950001
-0.14968382 0.34699431 1.7860001
-0.14628191 0.34699431 1.7860001
-0.14288001 0.34699431 1.7860001
-0.1394781 0.34699431 1.7860001
-0.13539048 0.34524572 1.7770001
-0.13133715 0.34349716 1.7680001
-0.12796953 0.34349716 1.7680001
-0.12396763 0.3417486 1.7590001
-0.12061714 0.3417486 1.7590001
-0.11726667 0.3417486 1.7590001
-0.11333334 0.34 1.7500001
-0.11000001 0.34 1.7500001
-0.1061181 0.33825144 1.7410001
-0.10227048 0.33650288 1.7320001
-0.098971434 0.33650288 1.7320001
-0.095175244 0.33475429 1.723
-0.091893338 0.33475429 1.723
-0.088611431 0.33475429 1.723
-0.084933333 0.33320001 1.715
-0.081666671 0.33320001 1.715
-0.078400001 0.33320001 1.715
-0.074739054 0.33145145 1.7060001
-0.071489528 0.33145145 1.7060001
-0.067919999 0.32989717 1.6980001
-0.064685717 0.32989717 1.6980001
-0.061451431 0.32989717 1.6980001
-0.05794286 0.32834285 1.6900001
-0.05472381 0.32834285 1.6900001
-0.051504765 0.32834285 1.6900001
-0.048285715 0.32834285 1.6900001
-0.04506667 0.32834285 1.6900001
-0.041624762 0.32659429 1.6810001
-0.03842286 0.32659429 1.6810001
-0.035220955 0.32659429 1.6810001
-0.03186667 0.32504001 1.6730001
-0.028405715 0.32193145 1.6570001
-0.025249524 0.32193145 1.6570001
-0.021986667 0.32037714 1.649
-0.018845715 0.32037714 1.649
-0.015704762 0.32037714 1.649
-0.012502857 0.31882286 1.641
-0.0093771433 0.31882286 1.641
-0.0062514287 0.31882286 1.641
-0.0031123811 0.31746286 1.6340001
0 0.31590858 1.626
0.003097143 0.31590858 1.626
0.0061638099 0.3143543 1.618
0.0092457142 0.3143543 1.618
0.01232762 0.3143543 1.618
0.015342858 0.3129943 1.6110001
0.01841143 0.3129943 1.6110001
0.021480002 0.3129943 1.6110001
0.024426667 0.31144002 1.603
0.027480001 0.31144002 1.603
0.030400001 0.31008002 1.5960001
0.033293333 0.30872002 1.5890001
0.036320001 0.30872002 1.5890001
0.039148573 0.30716571 1.5810001
0.042160001 0.30716571 1.5810001
0.044971429 0.30580571 1.5740001
0.047969524 0.30580571 1.5740001
0.050967623 0.30580571 1.5740001
0.053965718 0.30580571 1.5740001
0.056710478 0.30444571 1.567
0.05969524 0.30444571 1.567
0.062400002 0.30308571 1.5600001
0.065664761 0.30444571 1.567
0.068649523 0.30444571 1.567
0.071634285 0.30444571 1.567
0.074619047 0.30444571 1.567
0.07760381 0.30444571 1.567
0.080588572 0.30444571 1.567
0.083573334 0.30444571 1.567
0.086558096 0.30444571 1.567
0.089542858 0.30444571 1.567
0.09252762 0.30444571 1.567
0.095512383 0.30444571 1.567
0.098937146 0.30580571 1.5740001
0.10193525 0.30580571 1.5740001
0.1054 0.30716571 1.5810001
0.10841143 0.30716571 1.5810001
0.11198667 0.30872002 1.5890001
0.11501334 0.30872002 1.5890001
0.11856 0.31008002 1.5960001
0.12213334 0.31144002 1.603
0.12581143 0.3129943 1.6110001
0.12888001 0.3129943 1.6110001
0.13252191 0.3143543 1.618
0.13560382 0.3143543 1.618
0.13937144 0.31590858 1.626
0.14246857 0.31590858 1.626
0.14556572 0.31590858 1.626
0.14939429 0.31746286 1.6340001
0.15316001 0.31882286 1.641
0.15628572 0.31882286 1.641
0.16018857 0.32037714 1.649
0.16332953 0.32037714 1.649
0.16647048 0.32037714 1.649
0.16961144 0.32037714 1.649
0.17275238 0.32037714 1.649
0.17674667 0.32193145 1.6570001
0.17990287 0.32193145 1.6570001
0.18394287 0.32348573 1.6650001
0.18801335 0.32504001 1.6730001
0.1912 0.32504001 1.6730001
0.1953162 0.32659429 1.6810001
0.1985181 0.32659429 1.6810001
0.20280001 0.32834285 1.6900001
0.20492192 0.32659429 1.6810001
0.20812382 0.32659429 1.6810001
0.21132572 0.32659429 1.6810001
0.21452762 0.32659429 1.6810001
0.21772954 0.32659429 1.6810001
0.22211429 0.32834285 1.6900001
0.2264 0.32989717 1.6980001
0.2296343 0.32989717 1.6980001
0.23286858 0.32989717 1.6980001
0.23721525 0.33145145 1.7060001
0.24046478 0.33145145 1.7060001
0.24371429 0.33145145 1.7060001
0.24696381 0.33145145 1.7060001
0.25153333 0.33320001 1.715
0.25598857 0.33475429 1.723
0.26062477 0.33650288 1.7320001
0.26529524 0.33825144 1.7410001
0.26861143 0.33825144 1.7410001
0.27192762 0.33825144 1.7410001
0.27524382 0.33825144 1.7410001
0.27856001 0.33825144 1.7410001
0.28187621 0.33825144 1.7410001
0.28666669 0.34 1.7500001
0.29000002 0.34 1.7500001
0.29484192 0.3417486 1.7590001
0.29819238 0.3417486 1.7590001
0.30462858 0.34524572 1.7770001
0.30801335 0.34524572 1.7770001
0.31139812 0.34524572 1.7770001
0.31637716 0.34699431 1.7860001
0.31977907 0.34699431 1.7860001
0.32318097 0.34699431 1.7860001
0.32658288 0.34699431 1.7860001
0.32998478 0.34699431 1.7860001
0.33506668 0.34874287 1.7950001
0.33848572 0.34874287 1.7950001
0.34361905 0.35049143 1.8040001
0.34897906 0.35243431 1.8140001
0.35243431 0.35243431 1.8140001
0.35588953 0.35243431 1.8140001
0.36132574 0.35437715 1.8240001
0.36480001 0.35437715 1.8240001
0.3682743 0.35437715 1.8240001
0.37358287 0.35612574 1.8330001
0.3770743 0.35612574 1.8330001
0.38264191 0.35806859 1.8430001
0.38615239 0.35806859 1.8430001
0.39177716 0.36001143 1.853
0.39530668 0.36001143 1.853
0.40098858 0.3619543 1.863
0.40453717 0.3619543 1.863
0.40808573 0.3619543 1.863
0.41384381 0.36389714 1.8730001
0.41741145 0.36389714 1.8730001
0.42322668 0.36584002 1.8830001
0.42681333 0.36584002 1.8830001
0.43291429 0.36797714 1.8940001
0.43652192 0.36797714 1.8940001
0.44012955 0.36797714 1.8940001
0.44608003 0.36992002 1.904
0.44970667 0.36992002 1.904
0.45333335 0.36992002 1.904
0.45696002 0.36992002 1.904
0.4605867 0.36992002 1.904
0.46689525 0.37205717 1.9150001
0.47300002 0.37400001 1.9250001
0.47666669 0.37400001 1.9250001
0.48307812 0.37613717 1.9360001
0.48676574 0.37613717 1.9360001
0.49045336 0.37613717 1.9360001
0.49414098 0.37613717 1.9360001
0.50065714 0.37827429 1.9470001
0.50436574 0.37827429 1.9470001
0.51094478 0.38041145 1.9580001
0.51467431 0.38041145 1.9580001
0.51840383 0.38041145 1.9580001
0.52506667 0.38254857 1.9690001
0.52881718 0.38254857 1.9690001
0.53256762 0.38254857 1.9690001
0.53931433 0.38468572 1.9800001
0.54308575 0.38468572 1.9800001
0.54685718 0.38468572 1.9800001
0.55396575 0.38701716 1.9920001
0.55776 0.38701716 1.9920001
0.56155431 0.38701716 1.9920001
0.56847048 0.38915429 2.003
0.57571429 0.39148572 2.0150001
0.57955241 0.39148572 2.0150001
0.58686477 0.39381716 2.0270002
0.5942229 0.39614859 2.039
0.59810668 0.39614859 2.039
0.60553336 0.39848003 2.0510001
0.60944003 0.39848003 2.0510001
0.61693525 0.40081143 2.0630002
0.62086481 0.40081143 2.0630002
0.6247943 0.40081143 2.0630002
0.63268572 0.40333715 2.0760002
0.63664001 0.40333715 2.0760002
0.6405943 0.40333715 2.0760002
0.64454859 0.40333715 2.0760002
0.65225148 0.40566859 2.0880001
0.66031432 0.4081943 2.1010001
0.66431624 0.4081943 2.1010001
0.66831809 0.4081943 2.1010001
0.67648 0.41072002 2.1140001
0.68050671 0.41072002 2.1140001
0.68874288 0.41324574 2.1270001
0.69279432 0.41324574 2.1270001
0.69684571 0.41324574 2.1270001
0.705181 0.41577145 2.1400001
0.71356577 0.41829717 2.1530001
0.71766669 0.41829717 2.1530001
0.72646099 0.42101717 2.1670001
0.73058861 0.42101717 2.1670001
0.73471624 0.42101717 2.1670001
0.74361718 0.42373717 2.181
0.74777144 0.42373717 2.181
0.75640762 0.42626289 2.194
0.76058668 0.42626289 2.194
0.76964575 0.42898288 2.2080002
0.77910858 0.43189716 2.223
0.7833429 0.43189716 2.223
0.78757715 0.43189716 2.223
0.79181147 0.43189716 2.223
0.80105907 0.43461716 2.237
0.80532002 0.43461716 2.237
0.81500953 0.43753144 2.2520001
0.8192991 0.43753144 2.2520001
0.82870859 0.44025144 2.266
0.8330248 0.44025144 2.266
0.84288383 0.44316572 2.2810001
0.84722859 0.44316572 2.2810001
0.85754669 0.44627431 2.2970002
0.86192197 0.44627431 2.2970002
0.87195432 0.44918859 2.312
0.87635815 0.44918859 2.312
0.88647622 0.45210287 2.3270001
0.89703435 0.45521143 2.3430002
0.90149719 0.45521143 2.3430002
0.91214669 0.45832002 2.3590002
0.91664004 0.45832002 2.3590002
0.92113334 0.45832002 2.3590002
0.9256267 0.45832002 2.3590002
0.93012005 0.45832002 2.3590002
0.94768763 0.46473145 2.3920002
0.95224386 0.46473145 2.3920002
0.95680004 0.46473145 2.3920002
0.95492578 0.46162286 2.3760002
0.95945144 0.46162286 2.3760002
0.96397716 0.46162286 2.3760002
-0.4468343 0.40729144 2.0760002
-0.44288 0.40729144 2.0760002
-0.43892574 0.40729144 2.0760002
-0.43497145 0.40729144 2.0760002
-0.43101716 0.40729144 2.0760002
-0.42706287 0.40729144 2.0760002
-0.42045906 0.40474096 2.0630002
-0.41652954 0.40474096 2.0630002
-0.41260001 0.40474096 2.0630002
-0.40867049 0.40474096 2.0630002
-0.4023867 0.4023867 2.0510001
-0.39614859 0.4000324 2.039
-0.39226478 0.4000324 2.039
-0.38609526 0.39767811 2.0270002
-0.38223431 0.39767811 2.0270002
-0.37837335 0.39767811 2.0270002
-0.37229526 0.39532381 2.0150001
-0.36845717 0.39532381 2.0150001
-0.36461905 0.39532381 2.0150001
-0.36078095 0.39532381 2.0150001
-0.35694286 0.39532381 2.0150001
-0.35100192 0.39296955 2.003
-0.34718668 0.39296955 2.003
-0.34148574 0.39081144 1.9920001
-0.33769143 0.39081144 1.9920001
-0.33188573 0.38845715 1.9800001
-0.3281143 0.38845715 1.9800001
-0.32254097 0.38629907 1.9690001
-0.3187905 0.38629907 1.9690001
-0.31504002 0.38629907 1.9690001
-0.30955049 0.38414097 1.9580001
-0.30582097 0.38414097 1.9580001
-0.3003943 0.38198286 1.9470001
-0.29500952 0.37982479 1.9360001
-0.28966668 0.37766668 1.9250001
-0.28600001 0.37766668 1.9250001
-0.28233334 0.37766668 1.9250001
-0.27721906 0.37570477 1.9150001
-0.27357143 0.37570477 1.9150001
-0.26837334 0.37354669 1.904
-0.26335621 0.37158477 1.8940001
-0.25824001 0.36942667 1.8830001
-0.25465333 0.36942667 1.8830001
-0.25106668 0.36942667 1.8830001
-0.24616572 0.36746478 1.8730001
-0.2425981 0.36746478 1.8730001
-0.23903048 0.36746478 1.8730001
-0.23546286 0.36746478 1.8730001
-0.23065715 0.36550286 1.863
-0.22710858 0.36550286 1.863
-0.22236001 0.36354098 1.853
-0.21883048 0.36354098 1.853
-0.21530096 0.36354098 1.853
-0.21062858 0.36157906 1.8430001
-0.20711811 0.36157906 1.8430001
-0.20250286 0.35961714 1.8330001
-0.19901143 0.35961714 1.8330001
-0.19456001 0.35785145 1.8240001
-0.1900381 0.35588953 1.8140001
-0.18658286 0.35588953 1.8140001
-0.18312763 0.35588953 1.8140001
-0.17967239 0.35588953 1.8140001
-0.17621715 0.35588953 1.8140001
-0.17180952 0.35392764 1.8040001
-0.16837335 0.35392764 1.8040001
-0.16493715 0.35392764 1.8040001
-0.16150096 0.35392764 1.8040001
-0.1572762 0.35216191 1.7950001
-0.15385714 0.35216191 1.7950001
-0.1504381 0.35216191 1.7950001
-0.14628191 0.35039622 1.7860001
-0.14288001 0.35039622 1.7860001
-0.1394781 0.35039622 1.7860001
-0.1360762 0.35039622 1.7860001
-0.13200572 0.34863049 1.7770001
-0.12796953 0.34686476 1.7680001
-0.12333333 0.34333333 1.7500001
-0.12 0.34333333 1.7500001
-0.11666667 0.34333333 1.7500001
-0.11275048 0.34156764 1.7410001
-0.10943429 0.34156764 1.7410001
-0.1061181 0.34156764 1.7410001
-0.10280191 0.34156764 1.7410001
-0.098971434 0.33980191 1.7320001
-0.095672384 0.33980191 1.7320001
-0.091893338 0.33803621 1.723
-0.088611431 0.33803621 1.723
-0.084933333 0.33646667 1.715
-0.081666671 0.33646667 1.715
-0.078400001 0.33646667 1.715
-0.075133339 0.33646667 1.715
-0.071489528 0.33470097 1.7060001
-0.067919999 0.33313143 1.6980001
-0.064685717 0.33313143 1.6980001
-0.061451431 0.33313143 1.6980001
-0.058217146 0.33313143 1.6980001
-0.05498286 0.33313143 1.6980001
-0.051504765 0.33156192 1.6900001
-0.048285715 0.33156192 1.6900001
-0.04506667 0.33156192 1.6900001
-0.04184762 0.33156192 1.6900001
-0.03842286 0.3297962 1.6810001
-0.035220955 0.3297962 1.6810001
-0.03186667 0.32822669 1.6730001
-0.028405715 0.32508764 1.6570001
-0.025249524 0.32508764 1.6570001
-0.021986667 0.3235181 1.649
-0.018845715 0.3235181 1.649
-0.015704762 0.3235181 1.649
-0.01256381 0.3235181 1.649
-0.0093771433 0.32194859 1.641
-0.0062514287 0.32194859 1.641
-0.0031123811 0.32057524 1.6340001
0 0.32057524 1.6340001
0.003097143 0.31900573 1.626
0.0061638099 0.31743619 1.618
0.0092457142 0.31743619 1.618
0.01232762 0.31743619 1.618
0.015342858 0.31606287 1.6110001
0.01841143 0.31606287 1.6110001
0.021480002 0.31606287 1.6110001
0.024426667 0.31449336 1.603
0.027480001 0.31449336 1.603
0.030400001 0.31312001 1.5960001
0.033293333 0.31174669 1.5890001
0.036320001 0.31174669 1.5890001
0.039148573 0.31017715 1.5810001
0.042160001 0.31017715 1.5810001
0.044971429 0.30880383 1.5740001
0.047969524 0.30880383 1.5740001
0.050740954 0.30743048 1.567
0.053725716 0.30743048 1.567
0.056710478 0.30743048 1.567
0.059428573 0.30605716 1.5600001
0.062400002 0.30605716 1.5600001
0.065664761 0.30743048 1.567
0.068649523 0.30743048 1.567
0.071634285 0.30743048 1.567
0.074619047 0.30743048 1.567
0.07760381 0.30743048 1.567
0.080588572 0.30743048 1.567
0.083573334 0.30743048 1.567
0.086558096 0.30743048 1.567
0.089542858 0.30743048 1.567
0.09252762 0.30743048 1.567
0.095512383 0.30743048 1.567
0.098937146 0.30880383 1.5740001
0.10193525 0.30880383 1.5740001
0.1054 0.31017715 1.5810001
0.10841143 0.31017715 1.5810001
0.11198667 0.31174669 1.5890001
0.11501334 0.31174669 1.5890001
0.11856 0.31312001 1.5960001
0.12213334 0.31449336 1.603
0.12581143 0.31606287 1.6110001
0.12888001 0.31606287 1.6110001
0.13252191 0.31743619 1.618
0.13560382 0.31743619 1.618
0.13937144 0.31900573 1.626
0.14246857 0.31900573 1.626
0.14556572 0.31900573 1.626
0.14939429 0.32057524 1.6340001
0.15316001 0.32194859 1.641
0.15628572 0.32194859 1.641
0.16018857 0.3235181 1.649
0.16332953 0.3235181 1.649
0.16647048 0.3235181 1.649
0.16961144 0.3235181 1.649
0.17275238 0.3235181 1.649
0.17674667 0.32508764 1.6570001
0.17990287 0.32508764 1.6570001
0.18394287 0.32665715 1.6650001
0.18801335 0.32822669 1.6730001
0.1912 0.32822669 1.6730001
0.1953162 0.3297962 1.6810001
0.1985181 0.3297962 1.6810001
0.20280001 0.33156192 1.6900001
0.20492192 0.3297962 1.6810001
0.20812382 0.3297962 1.6810001
0.21132572 0.3297962 1.6810001
0.21452762 0.3297962 1.6810001
0.21772954 0.3297962 1.6810001
0.22211429 0.33156192 1.6900001
0.22533335 0.33156192 1.6900001
0.22855239 0.33156192 1.6900001
0.23286858 0.33313143 1.6980001
0.23721525 0.33470097 1.7060001
0.24046478 0.33470097 1.7060001
0.24371429 0.33470097 1.7060001
0.24696381 0.33470097 1.7060001
0.25153333 0.33646667 1.715
0.25598857 0.33803621 1.723
0.26062477 0.33980191 1.7320001
0.26529524 0.34156764 1.7410001
0.26861143 0.34156764 1.7410001
0.27192762 0.34156764 1.7410001
0.27524382 0.34156764 1.7410001
0.27856001 0.34156764 1.7410001
0.28187621 0.34156764 1.7410001
0.28666669 0.34333333 1.7500001
0.29000002 0.34333333 1.7500001
0.29484192 0.34509906 1.7590001
0.29819238 0.34509906 1.7590001
0.30462858 0.34863049 1.7770001
0.30801335 0.34863049 1.7770001
0.31139812 0.34863049 1.7770001
0.31637716 0.35039622 1.7860001
0.31977907 0.35039622 1.7860001
0.32318097 0.35039622 1.7860001
0.32658288 0.35039622 1.7860001
0.33164763 0.35216191 1.7950001
0.33506668 0.35216191 1.7950001
0.33848572 0.35216191 1.7950001
0.34361905 0.35392764 1.8040001
0.34705526 0.35392764 1.8040001
0.35243431 0.35588953 1.8140001
0.35588953 0.35588953 1.8140001
0.36132574 0.35785145 1.8240001
0.36480001 0.35785145 1.8240001
0.3682743 0.35785145 1.8240001
0.3717486 0.35785145 1.8240001
0.3770743 0.35961714 1.8330001
0.38264191 0.36157906 1.8430001
0.38615239 0.36157906 1.8430001
0.39177716 0.36354098 1.853
0.39530668 0.36354098 1.853
0.3988362 0.36354098 1.853
0.40453717 0.36550286 1.863
0.40808573 0.36550286 1.863
0.4116343 0.36550286 1.863
0.41518286 0.36550286 1.863
0.42097905 0.36746478 1.8730001
0.42454669 0.36746478 1.8730001
0.43040001 0.36942667 1.8830001
0.43398669 0.36942667 1.8830001
0.44012955 0.37158477 1.8940001
0.44373715 0.37158477 1.8940001
0.44970667 0.37354669 1.904
0.45595241 0.37570477 1.9150001
0.45960003 0.37570477 1.9150001
0.46324763 0.37570477 1.9150001
0.46933335 0.37766668 1.9250001
0.47300002 0.37766668 1.9250001
0.4793905 0.37982479 1.9360001
0.48307812 0.37982479 1.9360001
0.48953146 0.38198286 1.9470001
0.49324003 0.38198286 1.9470001
0.4969486 0.38198286 1.9470001
0.50348574 0.38414097 1.9580001
0.50721526 0.38414097 1.9580001
0.51381528 0.38629907 1.9690001
0.51756573 0.38629907 1.9690001
0.52131623 0.38629907 1.9690001
0.52506667 0.38629907 1.9690001
0.53177142 0.38845715 1.9800001
0.53554291 0.38845715 1.9800001
0.53931433 0.38845715 1.9800001
0.54308575 0.38845715 1.9800001
0.55017143 0.39081144 1.9920001
0.55396575 0.39081144 1.9920001
0.55776 0.39081144 1.9920001
0.56465524 0.39296955 2.003
0.56847048 0.39296955 2.003
0.57571429 0.39532381 2.0150001
0.57955241 0.39532381 2.0150001
0.58686477 0.39767811 2.0270002
0.5942229 0.4000324 2.039
0.59810668 0.4000324 2.039
0.60553336 0.4023867 2.0510001
0.60944003 0.4023867 2.0510001
0.6133467 0.4023867 2.0510001
0.62086481 0.40474096 2.0630002
0.6247943 0.40474096 2.0630002
0.63268572 0.40729144 2.0760002
0.63664001 0.40729144 2.0760002
0.6405943 0.40729144 2.0760002
0.64454859 0.40729144 2.0760002
0.65225148 0.40964574 2.0880001
0.66031432 0.41219622 2.1010001
0.66431624 0.41219622 2.1010001
0.66831809 0.41219622 2.1010001
0.67648 0.41474667 2.1140001
0.68050671 0.41474667 2.1140001
0.68874288 0.41729715 2.1270001
0.69279432 0.41729715 2.1270001
0.70110476 0.41984764 2.1400001
0.705181 0.41984764 2.1400001
0.71356577 0.42239812 2.1530001
0.71766669 0.42239812 2.1530001
0.72646099 0.42514479 2.1670001
0.73058861 0.42514479 2.1670001
0.73471624 0.42514479 2.1670001
0.74361718 0.42789143 2.181
0.74777144 0.42789143 2.181
0.75640762 0.43044192 2.194
0.76058668 0.43044192 2.194
0.76964575 0.43318859 2.2080002
0.77910858 0.43613145 2.223
0.7833429 0.43613145 2.223
0.78757715 0.43613145 2.223
0.79181147 0.43613145 2.223
0.80105907 0.43887812 2.237
0.80532002 0.43887812 2.237
0.81500953 0.44182098 2.2520001
0.8192991 0.44182098 2.2520001
0.82870859 0.44456762 2.266
0.8330248 0.44456762 2.266
0.84288383 0.44751048 2.2810001
0.84722859 0.44751048 2.2810001
0.85754669 0.45064953 2.2970002
0.86192197 0.45064953 2.2970002
0.87195432 0.45359239 2.312
0.87635815 0.45359239 2.312
0.88647622 0.45653525 2.3270001
0.89703435 0.4596743 2.3430002
0.90149719 0.4596743 2.3430002
0.91214669 0.46281335 2.3590002
0.91664004 0.46281335 2.3590002
0.92113334 0.46281335 2.3590002
0.9256267 0.46281335 2.3590002
0.93012005 0.46281335 2.3590002
0.94768763 0.46928763 2.3920002
0.95901144 0.47262287 2.4090002
0.96360004 0.47262287 2.4090002
0.96818858 0.47262287 2.4090002
0.97277719 0.47262287 2.4090002
-0.44941717 0.41362289 2.0880001
-0.44288 0.41124573 2.0760002
-0.44146287 0.41362289 2.0880001
-0.43748572 0.41362289 2.0880001
-0.43350857 0.41362289 2.0880001
-0.42706287 0.41124573 2.0760002
-0.42310858 0.41124573 2.0760002
-0.41652954 0.40867049 2.0630002
-0.41260001 0.40867049 2.0630002
-0.40867049 0.40867049 2.0630002
-0.4023867 0.40629336 2.0510001
-0.39614859 0.40391621 2.039
-0.39226478 0.40391621 2.039
-0.38838097 0.40391621 2.039
-0.38223431 0.40153906 2.0270002
-0.37837335 0.40153906 2.0270002
-0.37229526 0.39916191 2.0150001
-0.36845717 0.39916191 2.0150001
-0.36461905 0.39916191 2.0150001
-0.36078095 0.39916191 2.0150001
-0.35694286 0.39916191 2.0150001
-0.35100192 0.39678478 2.003
-0.34528002 0.39460573 1.9920001
-0.34148574 0.39460573 1.9920001
-0.33565715 0.39222857 1.9800001
-0.33188573 0.39222857 1.9800001
-0.3281143 0.39222857 1.9800001
-0.32254097 0.39004955 1.9690001
-0.3187905 0.39004955 1.9690001
-0.31504002 0.39004955 1.9690001
-0.30955049 0.38787049 1.9580001
-0.30410287 0.38569143 1.9470001
-0.3003943 0.38569143 1.9470001
-0.29500952 0.38351241 1.9360001
-0.28966668 0.38133335 1.9250001
-0.28600001 0.38133335 1.9250001
-0.28233334 0.38133335 1.9250001
-0.27721906 0.37935239 1.9150001
-0.27357143 0.37935239 1.9150001
-0.26992381 0.37935239 1.9150001
-0.26474667 0.37717333 1.904
-0.25974858 0.3751924 1.8940001
-0.25465333 0.37301335 1.8830001
-0.25106668 0.37301335 1.8830001
-0.24748001 0.37301335 1.8830001
-0.2425981 0.37103239 1.8730001
-0.23903048 0.37103239 1.8730001
-0.23546286 0.37103239 1.8730001
-0.23065715 0.36905146 1.863
-0.22710858 0.36905146 1.863
-0.22236001 0.3670705 1.853
-0.21883048 0.3670705 1.853
-0.21530096 0.3670705 1.853
-0.21177144 0.3670705 1.853
-0.20711811 0.36508954 1.8430001
-0.20360763 0.36508954 1.8430001
-0.19901143 0.36310858 1.8330001
-0.19456001 0.36132574 1.8240001
-0.19108573 0.36132574 1.8240001
-0.18658286 0.35934478 1.8140001
-0.18312763 0.35934478 1.8140001
-0.17967239 0.35934478 1.8140001
-0.17621715 0.35934478 1.8140001
-0.17180952 0.35736382 1.8040001
-0.16837335 0.35736382 1.8040001
-0.16493715 0.35736382 1.8040001
-0.16150096 0.35736382 1.8040001
-0.1572762 0.35558096 1.7950001
-0.15385714 0.35558096 1.7950001
-0.1504381 0.35558096 1.7950001
-0.14628191 0.35379812 1.7860001
-0.14288001 0.35379812 1.7860001
-0.1394781 0.35379812 1.7860001
-0.13539048 0.35201526 1.7770001
-0.13133715 0.35023239 1.7680001
-0.1273181 0.34844953 1.7590001
-0.12396763 0.34844953 1.7590001
-0.12 0.34666669 1.7500001
-0.11666667 0.34666669 1.7500001
-0.11333334 0.34666669 1.7500001
-0.10943429 0.34488383 1.7410001
-0.1061181 0.34488383 1.7410001
-0.10227048 0.34310097 1.7320001
-0.098971434 0.34310097 1.7320001
-0.095672384 0.34310097 1.7320001
-0.091893338 0.3413181 1.723
-0.088611431 0.3413181 1.723
-0.085329525 0.3413181 1.723
-0.082047619 0.3413181 1.723
-0.078400001 0.33973333 1.715
-0.075133339 0.33973333 1.715
-0.071489528 0.3379505 1.7060001
-0.068240002 0.3379505 1.7060001
-0.064685717 0.33636573 1.6980001
-0.061451431 0.33636573 1.6980001
-0.058217146 0.33636573 1.6980001
-0.05498286 0.33636573 1.6980001
-0.051748574 0.33636573 1.6980001
-0.048285715 0.33478096 1.6900001
-0.04506667 0.33478096 1.6900001
-0.04184762 0.33478096 1.6900001
-0.038628574 0.33478096 1.6900001
-0.035220955 0.3329981 1.6810001
-0.03186667 0.33141336 1.6730001
-0.028405715 0.32824382 1.6570001
-0.025249524 0.32824382 1.6570001
-0.021986667 0.32665905 1.649
-0.018845715 0.32665905 1.649
-0.015704762 0.32665905 1.649
-0.01256381 0.32665905 1.649
-0.0093771433 0.32507429 1.641
-0.0062514287 0.32507429 1.641
-0.0031123811 0.32368764 1.6340001
0 0.32210287 1.626
0.003097143 0.32210287 1.626
0.0061638099 0.32051811 1.618
0.0092457142 0.32051811 1.618
0.012274286 0.31913143 1.6110001
0.015342858 0.31913143 1.6110001
0.01841143 0.31913143 1.6110001
0.021373333 0.31754667 1.603
0.024426667 0.31754667 1.603
0.027480001 0.31754667 1.603
0.030400001 0.31616002 1.5960001
0.033293333 0.31477335 1.5890001
0.036320001 0.31477335 1.5890001
0.039148573 0.31318858 1.5810001
0.042160001 0.31318858 1.5810001
0.044971429 0.31180191 1.5740001
0.047969524 0.31180191 1.5740001
0.050740954 0.31041524 1.567
0.053725716 0.31041524 1.567
0.056710478 0.31041524 1.567
0.059428573 0.3090286 1.5600001
0.062400002 0.3090286 1.5600001
0.065371431 0.3090286 1.5600001
0.068649523 0.31041524 1.567
0.071634285 0.31041524 1.567
0.074285716 0.3090286 1.5600001
0.07760381 0.31041524 1.567
0.080588572 0.31041524 1.567
0.083573334 0.31041524 1.567
0.086558096 0.31041524 1.567
0.089542858 0.31041524 1.567
0.09252762 0.31041524 1.567
0.095512383 0.31041524 1.567
0.098937146 0.31180191 1.5740001
0.10193525 0.31180191 1.5740001
0.1054 0.31318858 1.5810001
0.10841143 0.31318858 1.5810001
0.11198667 0.31477335 1.5890001
0.11501334 0.31477335 1.5890001
0.11856 0.31616002 1.5960001
0.12213334 0.31754667 1.603
0.12581143 0.31913143 1.6110001
0.12888001 0.31913143 1.6110001
0.13252191 0.32051811 1.618
0.13560382 0.32051811 1.618
0.13937144 0.32210287 1.626
0.14246857 0.32210287 1.626
0.14556572 0.32210287 1.626
0.14939429 0.32368764 1.6340001
0.15316001 0.32507429 1.641
0.15628572 0.32507429 1.641
0.16018857 0.32665905 1.649
0.16332953 0.32665905 1.649
0.16647048 0.32665905 1.649
0.16961144 0.32665905 1.649
0.17359048 0.32824382 1.6570001
0.17674667 0.32824382 1.6570001
0.17990287 0.32824382 1.6570001
0.18394287 0.32982859 1.6650001
0.18801335 0.33141336 1.6730001
0.1912 0.33141336 1.6730001
0.1953162 0.3329981 1.6810001
0.1985181 0.3329981 1.6810001
0.20280001 0.33478096 1.6900001
0.20492192 0.3329981 1.6810001
0.20812382 0.3329981 1.6810001
0.21132572 0.3329981 1.6810001
0.21452762 0.3329981 1.6810001
0.21772954 0.3329981 1.6810001
0.22211429 0.33478096 1.6900001
0.2264 0.33636573 1.6980001
0.2296343 0.33636573 1.6980001
0.23286858 0.33636573 1.6980001
0.23610286 0.33636573 1.6980001
0.24046478 0.3379505 1.7060001
0.24371429 0.3379505 1.7060001
0.24696381 0.3379505 1.7060001
0.25153333 0.33973333 1.715
0.25598857 0.3413181 1.723
0.25927049 0.3413181 1.723
0.26392382 0.34310097 1.7320001
0.26861143 0.34488383 1.7410001
0.27192762 0.34488383 1.7410001
0.27524382 0.34488383 1.7410001
0.28 0.34666669 1.7500001
0.28333333 0.34666669 1.7500001
0.28666669 0.34666669 1.7500001
0.29000002 0.34666669 1.7500001
0.29484192 0.34844953 1.7590001
0.29819238 0.34844953 1.7590001
0.30462858 0.35201526 1.7770001
0.30801335 0.35201526 1.7770001
0.31139812 0.35201526 1.7770001
0.31478286 0.35201526 1.7770001
0.31977907 0.35379812 1.7860001
0.32318097 0.35379812 1.7860001
0.32658288 0.35379812 1.7860001
0.32998478 0.35379812 1.7860001
0.33338669 0.35379812 1.7860001
0.33848572 0.35558096 1.7950001
0.34190479 0.35558096 1.7950001
0.34705526 0.35736382 1.8040001
0.35049143 0.35736382 1.8040001
0.35588953 0.35934478 1.8140001
0.35934478 0.35934478 1.8140001
0.36480001 0.36132574 1.8240001
0.3682743 0.36132574 1.8240001
0.3717486 0.36132574 1.8240001
0.3770743 0.36310858 1.8330001
0.38264191 0.36508954 1.8430001
0.38824764 0.3670705 1.853
0.39177716 0.3670705 1.853
0.39530668 0.3670705 1.853
0.40098858 0.36905146 1.863
0.40453717 0.36905146 1.863
0.40808573 0.36905146 1.863
0.4116343 0.36905146 1.863
0.41518286 0.36905146 1.863
0.42097905 0.37103239 1.8730001
0.42681333 0.37301335 1.8830001
0.43040001 0.37301335 1.8830001
0.43398669 0.37301335 1.8830001
0.44012955 0.3751924 1.8940001
0.44373715 0.3751924 1.8940001
0.44970667 0.37717333 1.904
0.45595241 0.37935239 1.9150001
0.45960003 0.37935239 1.9150001
0.46324763 0.37935239 1.9150001
0.46933335 0.38133335 1.9250001
0.47570288 0.38351241 1.9360001
0.4793905 0.38351241 1.9360001
0.48582289 0.38569143 1.9470001
0.48953146 0.38569143 1.9470001
0.49324003 0.38569143 1.9470001
0.4969486 0.38569143 1.9470001
0.50348574 0.38787049 1.9580001
0.50721526 0.38787049 1.9580001
0.51381528 0.39004955 1.9690001
0.51756573 0.39004955 1.9690001
0.52131623 0.39004955 1.9690001
0.52506667 0.39004955 1.9690001
0.53177142 0.39222857 1.9800001
0.53554291 0.39222857 1.9800001
0.53931433 0.39222857 1.9800001
0.54308575 0.39222857 1.9800001
0.54685718 0.39222857 1.9800001
0.55396575 0.39460573 1.9920001
0.55776 0.39460573 1.9920001
0.56465524 0.39678478 2.003
0.56847048 0.39678478 2.003
0.57571429 0.39916191 2.0150001
0.57955241 0.39916191 2.0150001
0.58686477 0.40153906 2.0270002
0.5942229 0.40391621 2.039
0.59810668 0.40391621 2.039
0.60553336 0.40629336 2.0510001
0.60944003 0.40629336 2.0510001
0.61693525 0.40867049 2.0630002
0.62086481 0.40867049 2.0630002
0.62873143 0.41124573 2.0760002
0.63268572 0.41124573 2.0760002
0.63664001 0.41124573 2.0760002
0.6405943 0.41124573 2.0760002
0.64454859 0.41124573 2.0760002
0.65225148 0.41362289 2.0880001
0.6562286 0.41362289 2.0880001
0.66431624 0.4161981 2.1010001
0.66831809 0.4161981 2.1010001
0.67648 0.41877335 2.1140001
0.68050671 0.41877335 2.1140001
0.68874288 0.4213486 2.1270001
0.69279432 0.4213486 2.1270001
0.69684571 0.4213486 2.1270001
0.705181 0.42392382 2.1400001
0.71356577 0.42649907 2.1530001
0.71766669 0.42649907 2.1530001
0.72646099 0.42927238 2.1670001
0.73058861 0.42927238 2.1670001
0.73946291 0.43204573 2.181
0.74361718 0.43204573 2.181
0.74777144 0.43204573 2.181
0.75192577 0.43204573 2.181
0.76058668 0.43462098 2.194
0.76964575 0.43739429 2.2080002
0.77385145 0.43739429 2.2080002
0.7833429 0.44036573 2.223
0.78757715 0.44036573 2.223
0.79181147 0.44036573 2.223
0.80105907 0.44313908 2.237
0.80532002 0.44313908 2.237
0.81500953 0.44611049 2.2520001
0.8192991 0.44611049 2.2520001
0.82870859 0.44888383 2.266
0.8330248 0.44888383 2.266
0.83734101 0.44888383 2.266
0.84722859 0.45185524 2.2810001
0.85754669 0.45502478 2.2970002
0.86192197 0.45502478 2.2970002
0.87195432 0.45799622 2.312
0.87635815 0.45799622 2.312
0.88647622 0.46096763 2.3270001
0.89703435 0.46413717 2.3430002
0.90149719 0.46413717 2.3430002
0.91214669 0.46730667 2.3590002
0.91664004 0.46730667 2.3590002
0.92113334 0.46730667 2.3590002
0.93229717 0.47067431 2.3760002
0.94313145 0.47384381 2.3920002
0.94768763 0.47384381 2.3920002
0.95901144 0.47721145 2.4090002
0.96360004 0.47721145 2.4090002
0.96818858 0.47721145 2.4090002
-0.45501336 0.4228 2.1140001
-0.44821334 0.42020002 2.1010001
-0.44146287 0.41760001 2.0880001
-0.43748572 0.41760001 2.0880001
-0.43350857 0.41760001 2.0880001
-0.42706287 0.41520002 2.0760002
-0.42310858 0.41520002 2.0760002
-0.41652954 0.41260001 2.0630002
-0.41260001 0.41260001 2.0630002
-0.40867049 0.41260001 2.0630002
-0.4023867 0.41020003 2.0510001
-0.39614859 0.40780002 2.039
-0.39226478 0.40780002 2.039
-0.38609526 0.40540001 2.0270002
-0.38223431 0.40540001 2.0270002
-0.37837335 0.40540001 2.0270002
-0.37229526 0.40300003 2.0150001
-0.36845717 0.40300003 2.0150001
-0.36461905 0.40300003 2.0150001
-0.36078095 0.40300003 2.0150001
-0.35694286 0.40300003 2.0150001
-0.35100192 0.40060002 2.003
-0.34528002 0.39840001 1.9920001
-0.34148574 0.39840001 1.9920001
-0.33769143 0.39840001 1.9920001
-0.33188573 0.39600003 1.9800001
-0.3281143 0.39600003 1.9800001
-0.32254097 0.39380002 1.9690001
-0.3187905 0.39380002 1.9690001
-0.31504002 0.39380002 1.9690001
-0.30955049 0.39160001 1.9580001
-0.30582097 0.39160001 1.9580001
-0.3003943 0.38940001 1.9470001
-0.29500952 0.38720003 1.9360001
-0.28966668 0.38500002 1.9250001
-0.28600001 0.38500002 1.9250001
-0.28233334 0.38500002 1.9250001
-0.27721906 0.38300002 1.9150001
-0.27357143 0.38300002 1.9150001
-0.26992381 0.38300002 1.9150001
-0.26474667 0.38080001 1.904
-0.25974858 0.3788 1.8940001
-0.25465333 0.37660003 1.8830001
-0.25106668 0.37660003 1.8830001
-0.24748001 0.37660003 1.8830001
-0.2425981 0.37460002 1.8730001
-0.23903048 0.37460002 1.8730001
-0.23546286 0.37460002 1.8730001
-0.23065715 0.37260002 1.863
-0.22710858 0.37260002 1.863
-0.22236001 0.37060001 1.853
-0.21883048 0.37060001 1.853
-0.21530096 0.37060001 1.853
-0.21177144 0.37060001 1.853
-0.20711811 0.36860001 1.8430001
-0.20360763 0.36860001 1.8430001
-0.19901143 0.36660001 1.8330001
-0.19552001 0.36660001 1.8330001
-0.19108573 0.36480001 1.8240001
-0.18761143 0.36480001 1.8240001
-0.18312763 0.3628 1.8140001
-0.17967239 0.3628 1.8140001
-0.17621715 0.3628 1.8140001
-0.17180952 0.36080003 1.8040001
-0.16837335 0.36080003 1.8040001
-0.16493715 0.36080003 1.8040001
-0.16150096 0.36080003 1.8040001
-0.1572762 0.35900003 1.7950001
-0.15385714 0.35900003 1.7950001
-0.1504381 0.35900003 1.7950001
-0.14701906 0.35900003 1.7950001
-0.14288001 0.35720003 1.7860001
-0.1394781 0.35720003 1.7860001
-0.13539048 0.35540003 1.7770001
-0.13133715 0.35360003 1.7680001
-0.1273181 0.35180002 1.7590001
-0.12396763 0.35180002 1.7590001
